# .PCD v0.7 - Point Cloud Data file format
VERSION 0.7
FIELDS x y z
SIZE 4 4 4
TYPE F F F
COUNT 1 1 1
WIDTH 1557
HEIGHT 1
VIEWPOINT 0 0 0 1 0 0 0
POINTS 1557
DATA ascii
160.70128 39.27663 10.209016
162.22995 39.82214 10.151884
143.63286 40.213665 11.861506
144.8685 40.35688 11.967466
147.02144 40.411678 11.868993
148.89299 40.479443 11.717178
151.00104 40.841942 11.625898
152.90567 40.816422 11.543725
154.91478 40.993813 11.320133
156.92545 41.003345 11.161947
158.91415 41.052216 10.901278
160.90363 41.054279 10.633189
162.83044 41.19759 10.473799
164.91531 41.315807 10.317869
166.72775 41.636509 10.258071
168.53093 41.855282 10.127855
171.36761 41.93779 10.006603
153.74283 42.303074 11.905958
154.93785 42.486118 11.79654
157.15337 42.584332 11.731947
158.95793 42.940567 11.578117
160.95204 42.979996 11.342023
162.95064 43.012081 11.125375
164.93797 43.063461 10.858102
166.87065 43.046562 10.547688
168.78412 43.249943 10.348824
170.81776 43.29607 10.255271
172.23727 43.372715 10.125854
174.57654 43.934639 10.189554
157.75638 44.104378 11.982145
158.82887 44.109608 11.898038
160.88251 44.385445 11.790035
162.96378 44.901398 11.747451
164.96518 44.97979 11.461411
167.02258 45.013779 11.236163
168.97813 44.999229 11.014952
170.94803 45.053345 10.741163
172.97235 45.100956 10.568081
174.89862 45.117702 10.383013
176.94373 45.232655 10.275504
178.87349 45.523621 10.245452
180.6179 45.665844 10.133552
162.50195 47.011288 11.913097
165.17636 46.700405 11.809544
166.97345 46.775551 11.727528
168.95641 46.945446 11.472333
170.96919 46.955353 11.315454
172.96936 47.05397 11.120636
175.04198 46.95483 10.997511
177.01207 47.050743 10.867907
179.01703 47.075695 10.670755
180.9437 47.163956 10.458375
182.99654 47.325558 10.285947
185.06781 47.504875 10.199354
186.81815 47.613724 10.100675
188.2948 47.898365 10.162762
167.28004 48.288887 11.617775
169.06238 48.278927 11.820932
171.22606 48.837818 11.712037
172.98401 48.769718 11.71823
174.95938 48.941532 11.573828
177.04652 48.96413 11.431172
179.02242 49.023472 11.191095
181.04816 49.017357 11.077668
183.03975 49.062817 10.825828
185.04359 49.090511 10.621682
187.05566 49.106544 10.448719
189.01373 49.262981 10.264874
190.93861 49.487118 10.222342
192.94194 49.688473 10.11763
173.27553 50.336418 11.473787
175.67625 50.42445 11.859998
176.98001 50.37849 11.772671
179.20932 50.600594 11.72239
181.08498 50.856079 11.627618
183.08356 50.952904 11.501067
185.08609 50.982544 11.292034
187.09908 50.997726 11.122226
189.09335 51.039894 10.87923
191.08342 51.088078 10.619839
193.02681 51.178654 10.400254
195.05728 51.282967 10.287965
197.1086 51.65937 10.176513
198.72375 51.815853 10.091411
181.88513 52.103271 11.938938
183.32336 52.437256 11.809808
185.15717 52.624741 11.785319
187.18713 52.804802 11.631513
189.12749 52.944111 11.517207
191.1273 52.978695 11.295008
193.13068 53.008533 11.085716
195.06822 53.015484 10.801991
197.05832 53.014446 10.567627
199.02908 53.279045 10.39919
200.8456 53.348995 10.30018
203.53574 53.964966 10.145091
205.20386 53.905621 10.205047
187.92368 54.100449 11.93844
189.40121 54.359932 11.801869
191.11182 54.518047 11.763422
193.22636 54.893723 11.664817
195.08223 54.980919 11.465265
197.03268 55.007404 11.26291
199.1053 55.004608 10.874219
201.12814 55.00584 10.611792
203.1225 55.107407 10.508378
205.05307 55.255138 10.380029
207.06523 55.435768 10.265945
209.16734 55.384338 10.270908
211.11168 55.780392 10.163306
193.8743 56.999245 11.80678
195.26872 56.412086 11.83018
197.20993 56.731373 11.658684
199.14902 56.936806 11.498047
201.06035 57.023197 11.29263
203.03754 57.010334 11.113576
205.04962 57.068638 10.916757
207.05013 57.125507 10.724522
209.01389 57.061485 10.533728
211.01869 57.195606 10.388202
212.84486 57.246574 10.264598
214.61198 57.467403 10.200133
216.62627 57.641388 10.186091
218.50415 57.922829 10.077883
197.88643 58.997498 11.928495
198.90677 58.233391 11.858922
201.26361 58.758171 11.795117
203.1597 58.867607 11.669724
205.03053 58.954632 11.504445
206.87408 59.032795 11.379273
208.99481 58.978893 11.213213
211.06685 59.067875 10.968722
213.04681 59.057915 10.822474
214.95715 59.044243 10.480783
216.88527 59.232723 10.419572
218.81122 59.278862 10.310458
220.63608 59.305088 10.190643
222.83542 59.524437 10.104824
202.7527 60.16111 11.951246
205.45863 60.417191 11.864139
207.15553 60.635834 11.8448
208.95372 60.759342 11.721829
210.9487 60.803436 11.640774
212.85701 60.987358 11.403897
214.90427 60.959965 11.21679
216.8752 61.039173 11.009956
218.86009 61.09433 10.730984
220.89154 61.06823 10.541052
222.85458 61.199463 10.462951
224.81091 61.364929 10.27844
226.40012 61.772079 10.158587
228.10602 61.992077 10.034161
206.72807 62.206375 11.941305
213.06734 62.404606 11.801204
214.92166 62.765095 11.707129
216.99481 62.862633 11.598764
218.90172 62.98922 11.397143
220.93413 62.988903 11.27482
222.90208 63.063499 10.940454
224.93683 63.034603 10.759115
226.79698 63.203079 10.525284
228.82185 63.331093 10.300887
230.89343 63.60672 10.239573
232.9525 63.845032 10.123033
234.84061 63.33065 10.060516
214.82265 64.175446 11.901218
217.00397 64.54599 11.927399
218.79857 64.644951 11.806085
220.9684 64.833313 11.725816
222.94115 64.890404 11.701835
224.93501 65.006096 11.348784
226.94785 65.029671 11.159662
228.94305 65.072922 10.914016
230.92737 65.147919 10.576655
232.82558 65.239426 10.521928
234.86084 65.414055 10.327427
236.86205 65.543686 10.151227
239.24361 65.647232 10.171349
240.28571 65.913651 10.261936
219.17047 66.257019 11.761471
223.32166 66.156532 11.807212
224.87865 66.469215 11.815893
227.00716 66.914703 11.667702
228.95288 66.970848 11.470264
230.94891 67.000824 11.224003
233.00592 66.979561 11.058706
234.96298 67.020561 10.794518
236.97789 67.034279 10.661832
238.95055 67.129669 10.464167
240.91452 67.178322 10.254388
242.61725 67.095482 10.24032
244.80186 67.638618 10.127018
246.72499 67.553513 10.054928
250.45097 67.887482 10.101421
227.35194 68.138657 11.979742
228.98178 68.452286 11.834312
231.02017 68.660507 11.642019
232.99536 68.872345 11.530349
235.00279 68.989693 11.416588
237.0197 69.013031 11.188706
239.02925 69.053253 11.095985
241.03526 69.015602 10.810417
243.0334 69.04113 10.617235
245.06767 69.065254 10.431977
246.95978 69.236153 10.327131
248.79225 69.379128 10.329793
250.68918 69.996429 10.130707
252.31912 69.99881 10.02799
233.13867 70.68663 11.942659
235.06015 70.562508 11.704386
237.07458 70.792397 11.713214
239.04529 70.790016 11.705037
241.09663 70.930519 11.478827
243.07986 71.018044 11.322175
245.13487 70.93084 11.18173
247.04645 71.064072 10.848331
249.06329 71.029999 10.791683
251.01416 71.222481 10.452275
253.10059 71.302582 10.310737
254.87434 71.578453 10.228019
256.92981 71.694466 10.184106
258.05978 71.526131 10.198677
239.61584 72.180702 11.848972
241.2079 72.355904 11.775716
243.23645 72.758545 11.811928
245.21672 72.901924 11.712173
247.07208 72.928596 11.534081
249.0963 72.965408 11.390245
251.13179 72.996483 11.171407
253.02464 73.054787 10.845959
255.04604 73.100075 10.536374
256.92792 73.201263 10.454664
258.88889 73.407082 10.344513
261.08499 73.049271 10.118905
262.01678 73.199135 10.039631
243.68143 74.334236 11.503393
245.28912 74.152313 11.960344
247.31825 74.420685 11.885635
249.28438 74.523407 11.782489
251.15663 74.924164 11.683259
253.06288 74.963165 11.390409
255.00008 74.994591 11.220264
257.0574 75.07814 11.001018
259.04666 75.061653 10.715687
261.05704 74.951668 10.468223
263.12955 75.168617 10.264918
264.68317 75.414955 10.2317
251.39729 76.167229 11.918012
253.54991 76.529648 11.81933
255.24472 76.785904 11.747892
257.05029 76.812325 11.526852
259.04855 76.994499 11.442167
261.02267 76.954826 11.103728
263.04526 77.011673 10.918319
264.86996 77.008324 10.608005
255.52411 78.190445 11.962795
257.27618 78.542183 11.822308
259.21045 78.528671 11.755269
261.07568 78.877785 11.657879
262.92569 79.002098 11.537655
264.87985 79.017738 11.336972
261.95581 80.221909 11.852108
263.40146 80.465965 11.887763
264.94415 80.489326 11.80904
105.58061 25.669027 12.025625
105.54327 27.091955 12.295575
107.08791 27.562243 12.312352
108.74018 27.363651 12.194244
105.5034 28.831493 12.753201
106.91568 28.963129 12.715592
108.96462 29.070759 12.507667
110.95354 29.248768 12.412996
113.03086 29.380613 12.209057
114.91664 29.448236 12.181415
116.06248 29.544113 12.406425
105.43389 30.75709 13.579223
106.86985 31.000538 13.297535
108.90159 31.061852 13.199462
110.84806 31.102455 12.897838
112.87623 30.886169 12.539758
114.87652 31.033691 12.513306
116.7849 31.156364 12.389994
118.76096 31.287077 12.300588
120.70755 31.435814 12.208302
122.77031 31.686527 12.252522
124.0649 31.613892 12.074624
105.45367 32.875587 13.966502
107.04111 32.748524 13.878089
109.00497 32.740055 13.766832
110.91261 33.032055 13.618986
112.87966 32.964943 13.328292
114.82039 33.065121 13.175382
116.87127 32.990307 12.999361
118.86961 33.086308 12.821864
120.88103 33.071571 12.61342
122.69026 33.040619 12.39678
124.80151 33.154396 12.268774
126.66924 33.538902 12.260037
128.61829 33.208797 12.091496
112.97569 34.765335 13.848438
114.98456 34.840534 13.708668
116.92905 34.931606 13.661613
118.87801 35.051582 13.497742
120.88483 35.110538 13.256201
122.92483 35.009647 13.022212
124.83089 35.048206 12.793915
126.89864 34.977779 12.638107
128.81007 35.015762 12.435252
130.845 35.125328 12.198507
132.20708 35.652786 12.20238
134.67191 35.442955 12.134541
116.67085 36.299171 13.798971
119.40171 36.745689 13.850526
120.93035 36.708981 13.713373
123.02003 36.9016 13.629086
124.92461 37.045227 13.539796
126.89928 36.96682 13.267384
128.89372 36.997715 13.037877
130.89847 36.970303 12.775089
132.86778 37.068752 12.601903
134.7897 37.050644 12.406541
136.80182 37.354206 12.288643
138.35478 37.541332 12.093361
140.54044 37.990128 12.271587
143.77029 37.974953 12.095827
120.89612 38.261715 13.994774
122.44114 38.401394 13.525414
124.91086 38.629242 13.794758
127.02479 38.686489 13.730263
128.98289 38.953995 13.584372
130.935 39.069462 13.458721
132.96487 39.048843 13.24786
134.87149 38.993732 12.936652
136.94902 39.098251 12.757717
138.93311 39.067791 12.471704
140.87848 39.176334 12.362882
142.70659 39.269417 12.15023
144.2504 39.204109 12.219481
151.01077 39.974197 12.004562
129.23363 40.340084 13.896584
131.02731 40.468681 13.834653
133.01736 40.743313 13.697021
135.0002 40.891151 13.526792
136.91454 41.048649 13.36847
138.91995 41.062065 13.200566
140.96259 41.051003 12.973639
142.85846 40.959038 12.671346
144.94153 41.061302 12.530314
146.93275 41.12085 12.388556
148.93629 41.247513 12.368454
150.86894 41.312042 12.221426
153.01753 41.632366 12.216615
135.19908 42.417088 13.771889
137.15849 42.748398 13.806403
139.03287 42.899849 13.736786
140.96799 43.019791 13.540826
143.00569 43.022308 13.295757
144.96332 43.130913 13.131477
146.96143 43.045052 12.97563
149.01219 43.060898 12.798846
150.96411 42.994579 12.636147
152.91815 43.067509 12.39795
154.99889 43.321217 12.309006
156.76904 43.419613 12.159157
159.44366 43.977039 12.213083
162.27933 43.960106 12.073196
138.54558 44.269943 13.94038
141.31311 44.366795 13.882832
143.10342 44.68993 13.828757
144.96103 44.878067 13.643214
147.06764 44.978111 13.520844
149.02673 45.032902 13.411579
151.02313 45.051918 13.193876
153.02989 45.024612 13.013611
155.01231 45.145264 12.816062
156.97684 45.061039 12.560383
159.06265 45.053707 12.347876
161.10318 45.264477 12.220128
163.06506 45.48896 12.289338
164.48352 45.951206 12.33695
144.37341 46.255013 13.975676
146.78937 46.845459 13.957155
149.08621 46.407227 13.901524
151.12465 46.657288 13.761909
153.08049 46.988239 13.646726
155.05835 47.026031 13.41655
157.03029 47.06176 13.155178
159.01091 46.969128 13.03947
161.01523 47.043861 12.723304
163.05292 46.996075 12.521381
164.96024 47.216179 12.358272
166.97575 47.118313 12.176805
169.21941 47.722168 12.258714
170.92477 47.752846 12.259345
150.9478 48.742767 13.758831
153.57088 48.485935 13.902596
155.18314 48.53043 13.807184
157.10593 48.692562 13.656164
159.07803 48.964149 13.640461
161.05959 49.00695 13.421128
163.12302 48.990044 13.210328
165.06955 48.961899 12.946074
166.978 48.995396 12.515894
169.02531 49.15118 12.505074
170.80251 49.075901 12.158449
172.99051 49.621227 12.280904
175.71985 49.211002 12.058627
176.75067 49.180611 12.075653
178.76024 49.982876 12.092718
159.34717 50.507271 13.902749
161.11771 50.732307 13.799931
163.2626 50.876919 13.690073
165.16751 50.815914 13.606345
167.10854 51.009811 13.275517
169.02748 51.078968 12.989497
171.04626 50.990788 12.751035
173.06557 51.121838 12.506618
174.99225 50.970596 12.45732
177.10371 51.277027 12.351163
178.95874 51.343105 12.257798
180.94745 51.60408 12.19734
163.26991 52.425941 13.996055
165.21521 52.56551 13.880417
167.14546 52.799595 13.779601
169.16142 52.905895 13.535185
171.14163 53.020676 13.487974
173.10762 53.037628 13.190199
175.08757 52.981461 13.001952
177.10512 53.085232 12.88689
179.11275 52.973827 12.598014
181.0961 53.099667 12.396457
183.05753 53.198189 12.320815
185.14354 53.297718 12.295481
186.74182 53.693493 12.296971
188.40306 53.995461 12.200665
169.88176 54.657658 13.896053
171.16417 54.65234 13.830487
173.13559 54.795216 13.704731
175.17755 54.854866 13.637185
177.11426 55.055283 13.569144
179.03532 55.043728 13.236485
181.05365 55.125542 13.217772
183.04385 54.962692 12.906398
185.00377 55.043842 12.678015
187.03416 55.069527 12.528486
188.9538 55.265675 12.410737
190.92903 55.304577 12.359337
192.38899 55.410934 12.23556
175.36806 56.274494 13.798721
177.16611 56.656105 13.811579
179.12737 56.669613 13.743929
181.3019 56.930645 13.714669
182.97504 56.941254 13.54744
184.97923 57.026039 13.398694
187.02216 57.055367 13.130832
189.01382 57.06905 12.97436
190.9449 57.061104 12.784359
192.92169 57.006401 12.421826
194.77686 57.193737 12.346153
196.74791 57.367527 12.337627
198.47722 57.584148 12.275368
200.46948 57.630505 12.020988
181.78235 58.209301 13.950056
183.24258 58.886131 13.871778
185.02574 58.492386 13.752013
186.93639 58.840534 13.72038
188.93532 59.005848 13.560007
190.96332 58.974918 13.365359
192.97061 58.990772 13.200529
194.98497 59.083675 12.885583
196.93028 58.989071 12.572669
198.97845 59.206039 12.313155
200.79643 59.17263 12.241143
202.94714 59.315132 12.166074
189.61928 60.627735 13.852883
190.85162 60.636501 13.853722
192.96037 60.900433 13.738017
194.91205 61.001904 13.517659
196.90189 61.061714 13.293516
198.95108 60.952129 12.985875
200.87988 61.055367 12.696883
202.83687 60.978302 12.498744
204.77988 61.104549 12.356309
206.73154 61.139439 12.279836
208.87715 61.41074 12.263076
210.69911 61.655853 12.262927
193.60278 62.470795 13.812009
194.78955 62.419415 13.888148
197.10321 62.819714 13.819296
198.94586 62.893944 13.605329
200.86014 63.103584 13.386162
202.93364 63.026749 13.144138
204.85748 63.037231 12.894152
206.89197 63.009056 12.786552
208.89684 62.987835 12.620562
210.8909 63.011135 12.432434
212.88676 63.207794 12.306709
214.85538 63.237988 12.151418
216.50958 63.59269 12.255844
219.47108 63.965309 12.230083
199.47293 64.230881 13.896605
200.959 64.522644 13.857019
203.0152 64.725258 13.789798
204.93681 64.960136 13.522902
206.9496 65.102303 13.435486
208.92236 65.050079 13.2749
210.96143 65.053047 13.012196
212.90703 65.132164 12.83683
214.95865 65.055374 12.643028
216.91188 64.95993 12.414036
219.03075 65.047119 12.325535
220.87885 65.18499 12.170681
222.94415 65.839767 12.341197
202.0273 66.278999 13.960438
205.11395 66.223297 13.939503
207.34375 66.381607 13.840281
209.02216 66.564644 13.758944
211.02283 66.886536 13.696548
212.98027 66.98391 13.481485
214.97099 67.109436 13.244027
217.00253 66.981415 12.983635
218.98097 66.995079 12.826197
220.99838 67.044769 12.560414
223.06514 67.108528 12.426092
225.09111 67.355888 12.286179
226.81429 67.080933 12.125647
229.05226 67.670235 12.008377
209.23238 68.728409 13.811724
211.35614 68.227356 13.914114
213.26463 68.688919 13.84729
214.88219 68.711235 13.818472
216.9901 69.01503 13.656459
219.01215 69.078697 13.453662
221.03928 69.085182 13.315235
223.00163 68.991707 13.073189
225.02878 69.069695 12.847667
227.02307 69.040947 12.574941
228.99706 69.255692 12.342626
230.9158 69.393677 12.1981
232.79659 69.457832 12.274504
234.73563 69.630501 12.152122
216.98633 70.430847 13.963259
219.19711 70.373886 13.877472
221.04176 70.791428 13.788512
223.13982 70.909477 13.651088
225.06146 71.077682 13.459057
227.05084 71.12735 13.194838
229.05821 70.994911 12.840926
231.03047 70.939896 12.538891
232.97899 71.065269 12.402304
235.09457 71.139145 12.311531
236.95239 71.236588 12.151459
239.20912 71.392891 12.116044
240.7796 71.6436 12.12026
223.0782 72.58667 13.875061
225.45819 72.770622 13.863217
227.00458 72.892723 13.698534
229.05013 72.974564 13.520251
231.01106 72.979248 13.245716
233.10286 73.047676 13.028852
234.94986 73.075935 12.805745
237.02748 72.927849 12.64945
239.04692 73.000076 12.473925
241.05067 73.144783 12.352288
242.76846 73.325966 12.17071
244.81242 73.086243 12.136721
247.03014 73.655632 12.080917
248.50449 73.222466 12.024132
227.84529 74.252266 13.938099
229.49704 74.766037 13.888741
231.24055 74.706177 13.730359
233.11905 74.955048 13.621904
235.07697 75.094971 13.534913
236.99619 75.012459 13.295507
239.06781 75.017548 13.114141
241.08202 75.093781 12.86287
243.1235 74.943993 12.708217
245.04372 75.059647 12.484791
246.83089 75.147491 12.39901
248.87459 75.286049 12.310284
250.25635 75.82592 12.377811
252.68185 75.656189 12.112086
256.20413 75.996513 12.164604
233.10645 76.524452 13.800411
235.01556 76.544762 13.845368
237.10919 76.881172 13.694375
239.21826 76.860336 13.638869
241.10355 76.967712 13.500186
243.02968 76.975533 13.236287
244.91693 77.081657 13.313819
246.87306 76.983887 13.028916
248.90135 77.01181 12.73315
250.88591 77.116508 12.473545
252.86163 77.100304 12.368577
254.88655 77.418213 12.205924
257.2233 77.432289 12.117208
258.99493 77.613266 12.240711
237.88319 78.277115 13.985891
239.09917 78.542053 13.968765
241.14679 78.403473 13.84724
243.29706 78.79483 13.789042
245.04124 78.764969 13.626945
247.00298 78.969986 13.618159
248.96446 79.014832 13.381186
250.98663 78.96402 13.111938
252.98563 79.02037 12.848921
254.93399 79.002396 12.663839
256.82956 79.023582 12.435417
258.88483 79.167091 12.182489
260.62204 79.683388 12.285759
262.9411 79.681633 12.161743
244.75439 80.272697 13.959133
247.16565 80.566368 13.787185
248.84271 80.652893 13.753296
251.07339 80.84021 13.571135
253.02406 80.894432 13.53664
254.96387 81.004173 13.291907
256.98322 81.024765 13.099801
258.93024 80.913177 12.835554
261.03024 80.959084 12.576382
262.81195 81.227119 12.409572
264.8205 81.437111 12.227948
253.26617 82.265739 13.853427
254.97672 82.84745 13.766826
256.88333 82.880524 13.638031
258.89212 82.983856 13.400295
260.87717 83.057045 13.175899
263.04453 82.959518 12.923176
265.02805 82.958855 12.689671
257.03113 84.694534 13.965179
259.33606 84.544067 13.816593
261.08151 84.81916 13.707507
262.87515 84.819267 13.476791
264.86505 85.042526 13.345382
266.03207 85.258766 13.026535
261.64694 86.317627 13.912304
263.49628 86.309525 13.838934
265.11777 86.517776 13.855104
266.06851 86.965691 13.622895
265.54428 88.418472 13.714012
105.46633 31.794241 14.349347
105.32373 33.212994 14.565539
106.80226 33.129009 14.259995
108.65028 33.522621 14.159285
105.38428 35.045952 15.188349
106.89689 35.060223 14.789676
108.91201 34.941605 14.500538
110.91103 34.959156 14.320294
112.81252 35.265923 14.167851
114.75723 35.402653 14.184581
116.95853 35.692081 14.241734
119.37528 35.279247 14.035152
105.55605 36.963333 15.672043
106.94651 37.073956 15.461425
108.93617 36.96664 15.175107
110.92673 36.913475 14.820416
112.9264 36.929554 14.64467
114.95358 36.962955 14.551039
116.95882 36.996281 14.395484
118.8455 37.022148 14.312568
120.93127 37.412609 14.305614
122.64869 37.353062 14.19663
105.76979 38.563583 15.898156
106.93118 38.53339 15.837646
108.97212 38.917389 15.713043
110.97114 38.902378 15.528846
112.95364 38.98436 15.344535
115.00638 38.939194 15.207204
116.95741 38.930573 15.003798
119.01025 38.926525 14.853147
120.94617 38.9916 14.674813
122.98518 38.942486 14.415065
124.97574 39.310886 14.348571
126.83393 39.481827 14.151507
128.57837 39.741089 14.106327
108.15892 40.00312 15.898622
111.12984 40.472786 15.819437
113.092 40.717739 15.854093
115.06485 40.714596 15.693481
117.01862 40.899864 15.602125
118.99848 40.986847 15.511721
121.03132 41.033566 15.261018
123.01447 40.987778 15.146344
124.99733 40.894669 14.825324
127.01768 40.939331 14.573661
128.90065 41.084255 14.450562
130.92442 41.32592 14.220378
132.8396 41.596718 14.162355
134.91043 41.627808 14.08586
116.72202 42.511005 15.875716
118.70925 42.446304 15.82287
121.16209 42.572735 15.838865
123.09914 42.936192 15.71335
125.00542 42.947712 15.50058
126.96855 42.986828 15.267394
129.06279 43.023758 15.130316
131.0164 42.854137 14.784759
132.9982 42.914833 14.492624
134.89978 43.174225 14.277342
136.83444 43.191551 14.294307
138.78879 43.47617 14.215991
141.03592 43.530487 14.038345
125.58535 44.630798 15.922794
127.17705 44.837223 15.762751
129.16588 44.946289 15.699352
131.09509 44.862801 15.4307
133.0526 44.976498 15.274611
135.04541 44.944485 15.02565
137.04916 44.990059 14.772699
139.07623 45.059216 14.54507
140.92293 45.191051 14.357912
142.88815 45.369457 14.25801
145.11011 45.541126 14.122928
146.53448 45.580231 14.117317
148.70377 45.675331 14.105207
129.80463 46.42408 15.61771
131.36943 46.506424 15.679429
133.21173 46.934917 15.750615
135.08377 46.995071 15.611676
136.99709 47.020138 15.391273
139.07033 47.024399 15.237316
141.04855 47.018375 14.911145
143.05174 46.951973 14.623203
145.11186 46.957573 14.542949
147.0519 47.009933 14.398716
149.04001 47.252045 14.231362
150.96426 47.435459 14.175387
152.29361 47.712986 14.14933
154.72826 47.687206 14.062737
135.47804 48.441284 15.962971
137.2672 48.648106 15.769421
139.20255 48.872677 15.688161
141.10229 48.992481 15.574667
143.04459 49.002724 15.3056
145.12825 48.93634 15.145249
147.09225 49.056206 15.008311
149.06557 48.998932 14.721741
151.10054 49.080189 14.638393
153.01781 49.002563 14.438742
155.03468 49.17342 14.28997
157.03113 49.440918 14.146589
159.18268 49.233112 14.226886
138.64409 50.384331 15.894981
141.11006 50.5298 15.777954
143.30219 50.6912 15.747535
145.13503 50.786476 15.735004
147.22678 50.944622 15.652704
149.17667 51.020576 15.461761
151.13368 51.130222 15.299293
153.12729 50.980701 15.094496
155.10544 50.977356 14.767907
157.1469 51.009121 14.550459
158.98383 51.135773 14.449658
161.10545 51.121937 14.198055
162.67313 51.337372 14.093163
164.95683 51.720997 14.068236
145.07559 52.368198 15.896984
147.28061 52.470947 15.945569
149.2135 52.443531 15.933439
151.1432 52.774162 15.739598
153.20799 52.776485 15.631014
155.11508 53.006371 15.480803
157.02254 53.071449 15.304938
159.16359 52.982639 14.968341
161.07375 52.987858 14.833464
163.14645 52.984089 14.526563
165.06621 53.164528 14.34178
167.07942 53.278107 14.232409
169.03282 53.337097 14.063891
153.74142 54.523914 15.876595
155.15109 54.722893 15.827535
157.41539 54.735149 15.750996
159.04448 54.895706 15.665448
161.03459 54.904427 15.481808
163.03043 55.020775 15.232297
165.06223 55.092468 14.953516
166.97647 54.98756 14.717451
169.07616 54.941525 14.487696
170.93915 55.312439 14.291199
172.93169 55.347271 14.161005
174.80241 55.564888 14.151135
156.93079 56.546993 15.97613
158.70712 56.022934 15.543379
161.09187 56.419659 15.716479
162.89761 56.782902 15.740646
164.87373 57.043148 15.62397
167.01877 56.999046 15.342562
169.02699 56.967289 15.095907
171.05882 56.946415 14.795464
173.10245 56.913628 14.586709
175.02846 57.032471 14.484469
176.85295 57.201939 14.436955
178.71776 57.261795 14.317606
180.56128 57.232849 14.243844
183.29834 57.285439 14.059418
164.99109 58.325741 15.862854
167.1487 58.862309 15.81706
168.98541 58.975662 15.612358
170.9615 58.961941 15.454481
172.91255 59.001255 15.290244
174.87184 58.943943 14.998729
176.93845 59.032284 14.890459
178.98068 58.996372 14.650754
180.91142 59.084606 14.564505
182.90977 59.063339 14.367794
184.83011 59.23772 14.209674
186.62086 59.340054 14.241261
188.53491 59.147995 14.093188
190.58084 59.251057 14.078247
169.19194 60.342926 15.916231
171.13655 60.624435 15.751888
172.96007 60.614235 15.683777
175.04688 60.776798 15.597692
176.92842 61.016331 15.474236
178.93387 61.094902 15.422961
180.92502 60.994576 15.184614
182.85529 61.005955 15.010179
184.91243 60.983006 14.828517
186.90424 60.922905 14.537827
188.75897 61.025463 14.441742
190.89552 61.264622 14.200246
192.68565 61.626995 14.216057
194.35689 61.497398 14.120007
174.87019 62.384666 15.808072
176.70293 62.865376 15.943801
178.95212 62.718666 15.822805
181.0311 62.899284 15.65273
183.00002 62.95644 15.556302
184.97568 63.060101 15.558537
186.93469 63.010536 15.216827
188.99045 63.034092 15.032393
190.89198 63.014427 14.641123
192.82753 63.010624 14.498612
194.97313 63.15654 14.271236
196.50772 63.311604 14.139908
198.6308 63.556705 14.054117
183.40948 64.606079 15.827626
184.8062 64.474075 15.833902
187.02022 64.808525 15.79731
188.9917 64.932465 15.629291
190.94072 65.076202 15.381151
192.93372 64.955711 15.154558
194.93979 64.986458 14.952786
196.89746 64.961426 14.671433
198.88239 65.014252 14.484509
200.88109 65.339279 14.294324
202.79218 65.46273 14.232856
204.75537 65.775902 14.027744
188.92386 66.515526 15.911625
191.12282 66.688751 15.781727
193.05357 66.704056 15.666249
195.02251 67.041618 15.561723
197.00444 67.062523 15.29349
198.9778 67.04351 15.01002
200.95319 66.903831 14.823693
203.0174 66.992561 14.546025
204.94394 67.00666 14.357669
206.87126 67.116936 14.201075
208.94511 67.435417 14.202447
210.88521 67.488754 14.117918
213.90025 67.712532 14.030514
195.20888 68.548851 15.92016
197.26755 68.677124 15.795949
199.02998 68.828354 15.634181
201.02943 68.977654 15.43786
202.93979 69.034279 15.157896
204.98659 69.047859 14.997533
207.01646 68.995567 14.808891
208.99994 68.904991 14.609105
211.01888 68.93531 14.452991
212.89525 69.096458 14.277802
215.19334 69.275108 14.143199
217.47865 69.749519 14.069695
199.23769 70.759026 15.913987
201.22403 70.812675 15.890851
203.08595 70.688332 15.732334
205.06656 71.10302 15.647122
207.04486 71.066032 15.467035
209.04234 70.996719 15.265711
211.0528 71.020889 15.076798
213.06015 70.923462 14.899231
215.09267 70.935043 14.611282
217.09752 71.083344 14.489689
219.05957 71.076057 14.319342
221.13301 71.271225 14.248637
222.74242 71.621567 14.184925
224.8757 71.998634 14.518967
203.78247 72.336662 15.995628
205.82104 72.325241 15.912159
207.09016 72.539101 15.831998
209.1024 72.854256 15.76805
211.16162 72.835152 15.767553
213.12595 73.003677 15.477527
215.02414 72.96447 15.250201
216.97353 72.981079 15.09003
218.9785 72.919029 14.876002
221.08366 72.925812 14.687024
223.08488 73.048874 14.39451
224.99994 73.091217 14.199081
227.15814 73.29052 14.165363
228.6407 73.4795 14.095448
209.40247 74.35363 15.967407
211.43539 74.54493 15.912047
213.07988 74.587349 15.90311
215.37039 74.836159 15.720141
217.23112 74.725151 15.604679
219.09685 74.889687 15.514359
221.03757 75.036324 15.327398
223.11137 74.96933 15.041975
225.13007 74.986343 14.717731
227.09669 75.000168 14.535094
228.89949 75.112686 14.286696
230.92366 75.466415 14.18533
232.76047 75.578537 14.125792
234.01414 75.351814 14.100632
217.44957 77.159744 15.972507
219.09398 76.557503 15.783573
221.34077 76.818199 15.763947
223.10698 76.783485 15.58359
225.01738 76.924545 15.489668
227.06667 77.009529 15.265729
229.02617 76.981735 14.906207
231.09711 76.92215 14.636141
233.07234 77.049095 14.394811
235.02863 77.171608 14.297466
236.8365 77.364182 14.252909
238.72798 77.320099 14.119478
240.88383 77.508804 14.100223
242.53848 77.718857 14.141183
221.06923 78.366966 15.951708
223.86713 78.808075 15.736467
225.23769 78.5504 15.710753
227.05685 78.846207 15.657632
229.13135 78.881462 15.555847
231.03438 79.015862 15.393065
232.94466 78.955559 15.111995
234.93304 78.884361 14.934706
236.92149 78.944 14.687809
239.01309 78.993668 14.435848
240.89908 79.211533 14.383003
242.66563 79.346611 14.234624
245.13417 79.304871 14.173947
246.78166 79.636375 14.073422
227.49655 80.393372 15.851475
229.38849 80.921188 15.744514
231.13809 80.906914 15.841389
233.13725 80.741386 15.637578
234.88841 80.917854 15.540719
236.86751 80.892685 15.326421
238.90324 80.96563 15.174734
240.91113 80.966103 14.943079
242.88567 80.926758 14.705841
244.88379 80.998123 14.58357
246.89609 81.015823 14.38286
248.94597 81.392624 14.291877
250.61139 81.427017 14.275776
252.79007 81.653221 14.145065
235.51994 82.841843 15.662427
236.91609 82.745819 15.804952
238.9982 82.729095 15.660914
241.00639 82.864128 15.504625
242.99326 82.957428 15.382035
244.91913 83.076454 15.17637
246.99693 82.948677 15.019818
248.98787 82.976295 14.769322
250.9422 82.968536 14.532289
252.87762 83.074394 14.345019
254.83003 83.236359 14.251624
256.97363 83.565079 14.111839
259.43768 83.776581 14.070778
239.35153 84.817154 15.865951
241.26306 84.484367 15.927311
242.96175 84.679878 15.77203
245.14098 84.714134 15.688828
246.92155 84.850868 15.604555
248.93822 85.019775 15.488807
251.00299 84.798615 15.295427
252.9734 84.951668 14.852582
254.95258 85.015289 14.704065
256.94818 84.987694 14.4917
258.83942 85.178932 14.335149
260.75378 85.580002 14.222329
263.03305 85.634377 14.135089
244.01112 86.007553 15.845045
247.09128 86.376236 15.846529
249.4917 86.617004 15.845413
251.05164 86.646225 15.692388
252.95441 86.942375 15.499822
255.03995 87.002434 15.439082
256.96671 86.973297 15.055517
258.94318 86.948723 14.729757
260.89771 87.031151 14.473882
262.91415 87.074585 14.349408
264.92114 87.243439 14.216304
250.89854 88.377724 15.971403
252.72522 88.388519 15.840106
255.21762 88.543404 15.717602
257.03156 88.760475 15.627021
259.03592 88.949348 15.491163
261.00339 88.86824 15.21314
262.97195 88.953239 14.991815
264.95767 88.991554 14.72037
266.11307 89.051926 14.351779
259.01804 90.634048 15.822531
261.08954 90.70047 15.694054
263.12079 90.954849 15.624666
265.05161 90.938637 15.407469
266.1535 90.948502 15.014401
262.55804 92.031662 15.777956
265.16107 92.547836 15.740933
266.194 92.845085 15.677023
264.42422 94.502838 15.834553
105.17176 37.24482 16.209051
107.43048 37.817196 16.058186
105.38363 39.053402 16.587814
107.09439 39.288544 16.324987
109.22477 39.376949 16.161283
111.03668 39.295189 16.06823
105.44489 41.039806 17.136421
107.03756 40.990223 16.761705
109.03291 41.016376 16.560688
110.99827 41.136871 16.436398
112.97762 41.327644 16.286638
114.82288 41.40588 16.179033
117.05873 41.500469 16.111706
105.5306 42.920902 17.705191
107.1322 42.914204 17.332441
109.06976 42.916973 17.19799
111.06392 42.947025 16.987425
113.0512 42.994083 16.731352
115.0657 42.976212 16.647253
117.11995 43.043259 16.593849
119.09427 43.170372 16.384964
120.9994 43.261341 16.21213
122.8456 43.721714 16.206051
125.90078 43.801537 16.022263
105.86739 45.294643 17.911259
107.1281 44.451729 17.797453
109.31156 44.600964 17.714233
111.11677 44.760136 17.584793
113.12993 44.886543 17.434055
115.09489 44.940701 17.247175
117.12495 44.96072 17.061516
119.08818 45.034016 16.95813
121.09854 44.943516 16.716652
123.10394 44.952358 16.562586
124.95323 45.19421 16.367279
126.96687 45.343533 16.095604
128.80322 45.475056 16.321632
130.51318 45.611076 16.036022
109.49615 46.041374 17.967382
111.10237 46.196636 17.905819
113.19313 46.505016 17.861273
115.36407 46.554646 17.711302
117.05669 46.797337 17.580547
119.15778 46.916271 17.590721
121.10895 47.005287 17.400721
123.16296 46.918015 17.158852
125.06049 47.070354 16.846235
127.11148 46.960209 16.655951
129.08562 46.999405 16.51865
131.01949 47.126358 16.358892
132.85327 47.36018 16.231279
135.00047 47.402477 16.107414
115.1124 48.03215 17.998001
117.31593 48.042183 17.829201
118.72162 48.50452 17.836584
121.14439 48.773182 17.82222
123.20152 48.733017 17.70327
125.26208 48.994446 17.488798
127.05022 48.911259 17.304159
129.02942 48.977898 17.258041
131.0956 48.949322 16.890806
133.13586 48.955025 16.654604
135.07272 49.085403 16.439619
137.05348 49.244423 16.313187
138.89484 49.343746 16.15736
141.16864 49.781265 16.218275
121.92417 50.046925 17.887758
123.79633 50.448395 17.837503
125.54783 50.42664 17.78611
127.19894 50.674881 17.81089
129.28761 50.929867 17.631306
131.15417 50.852364 17.479429
133.05289 51.022491 17.288969
135.1125 50.899216 16.953669
137.08069 51.008354 16.761753
139.11263 51.046333 16.580387
141.09036 51.245747 16.370247
142.94661 51.420795 16.202114
144.96283 51.517002 16.194021
146.93958 51.493542 16.074594
148.39098 51.807796 16.057993
129.15445 52.031734 17.835587
133.01797 52.539719 17.75926
135.04283 52.774811 17.625961
137.06149 52.89645 17.401762
139.00874 52.963634 17.147915
141.01273 52.873665 16.98559
143.07462 52.983376 16.682579
145.08441 53.06715 16.569899
147.0793 53.130348 16.416725
149.11977 53.230083 16.31337
151.04912 53.374043 16.280062
152.82259 53.444027 16.143337
154.0452 53.366646 16.112041
137.34238 54.63533 17.828693
139.17903 54.77449 17.623541
140.99997 54.858009 17.581276
142.92842 54.8009 17.375629
145.01607 54.919601 17.236197
147.00612 54.890812 17.010246
148.92999 54.953259 16.864283
150.85782 54.944138 16.719568
152.80888 55.07325 16.540035
154.82254 55.149792 16.337486
156.62823 55.191772 16.252348
158.70837 55.602112 16.127272
139.76718 56.461182 17.883469
141.42393 56.213318 17.759611
143.0174 56.491837 17.728567
144.91296 56.676693 17.651102
147.00517 56.981052 17.638456
148.84311 56.918354 17.498501
150.8647 56.972569 17.33947
152.88274 57.068623 17.157835
154.87752 56.962261 16.905216
156.96063 57.078602 16.708735
158.87787 57.005219 16.464281
160.76726 57.114677 16.281439
162.7626 57.31591 16.171043
164.72528 57.822311 16.099886
166.70969 57.772377 16.118839
149.08421 58.63924 17.885204
150.90134 58.594685 17.77914
152.93829 58.823547 17.675177
154.89989 58.965912 17.566532
156.82603 58.983829 17.397305
158.88731 58.862217 17.132393
160.87411 58.913742 16.863794
162.88751 58.922749 16.714388
164.89258 59.096512 16.399092
166.69096 59.325363 16.325554
168.50887 59.466686 16.335201
170.09573 59.6101 16.131977
155.00224 60.531872 17.790377
157.24693 60.747723 17.785465
158.86845 60.715847 17.581141
160.86789 60.877953 17.467522
162.87128 60.902714 17.274366
164.89894 60.89336 17.036894
166.91528 60.940918 16.683977
168.89894 61.050392 16.554985
170.85274 61.189465 16.338223
172.91736 61.397663 16.234285
174.67264 61.602688 16.149256
176.78882 61.699299 16.033859
159.28275 62.010334 17.831863
161.20807 62.834198 17.788528
163.21686 62.598122 17.688875
164.99493 62.87347 17.593815
166.8875 62.938961 17.415789
168.96924 62.932339 17.081774
170.91377 63.002926 16.816961
172.92247 63.007687 16.579515
174.95099 63.15443 16.462666
176.98299 63.076935 16.401291
178.8734 63.289066 16.225426
180.6356 63.24604 16.106937
182.60384 63.632092 16.238039
165.40239 65.120201 17.879744
167.11632 64.465157 17.626453
168.89256 64.761536 17.71594
170.94771 64.823601 17.588882
172.94109 64.973839 17.306597
174.91441 64.935493 17.025379
176.90314 65.036453 16.99275
178.95811 65.004395 16.725399
180.94412 64.989891 16.505896
182.86745 65.101555 16.442127
185.03119 65.236984 16.297443
186.84608 65.602097 16.224926
188.71774 65.702248 16.130848
171.22403 66.455894 17.760147
173.18268 66.592361 17.695747
175.07242 66.765587 17.697493
177.01642 66.92543 17.607576
178.93729 66.950363 17.478823
181.01199 66.953773 17.239485
183.02792 66.980522 17.01358
184.98201 66.978302 16.798704
186.99977 66.964363 16.576235
189.01022 67.096054 16.426218
190.87846 67.336166 16.322275
192.96637 67.615433 16.110008
194.67619 67.581268 16.179104
170.84544 68.099205 17.933064
172.90118 68.047241 17.965483
175.72798 68.05143 17.786552
177.75725 68.041298 17.696907
179.05466 68.629997 17.81595
180.97818 68.759933 17.731731
183.10095 68.879623 17.573036
185.05092 68.951828 17.467417
187.05342 69.021584 17.276354
189.01991 68.987259 17.02202
191.01776 68.982193 16.785587
193.03151 68.974396 16.545332
194.97629 69.138512 16.384474
196.85513 69.313553 16.236851
198.86276 69.740799 16.085207
200.2692 69.832642 16.089909
181.79515 70.00309 17.922714
182.54874 70.469162 17.751148
184.96162 70.225571 17.83217
187.26628 70.887238 17.783775
189.08321 70.813362 17.607092
191.06924 71.033051 17.468082
193.08589 70.995338 17.237509
195.0755 70.964775 16.952211
197.06172 70.952599 16.727081
198.98065 71.091064 16.442747
200.87306 71.263588 16.250834
202.94225 71.565224 16.165287
204.47501 71.651886 16.105112
206.31833 71.437943 16.004795
187.82549 72.009583 17.900328
189.43843 72.408867 17.878607
191.54198 72.725037 17.824148
193.27394 72.687477 17.745028
195.07776 72.838203 17.590155
197.09436 72.95858 17.386557
199.06131 72.933907 17.017103
201.07463 72.952751 16.844286
203.02068 73.045189 16.559973
205.02954 73.069969 16.369581
207.03508 73.177795 16.318922
208.94781 73.43483 16.213806
210.99434 73.447235 16.200788
212.17676 73.420677 16.070904
195.17557 74.256004 17.808659
197.20958 74.538689 17.769207
199.06982 74.739326 17.602421
201.09627 74.870773 17.437727
203.04834 74.90696 17.163235
205.0332 75.050858 17.109369
207.10951 74.962029 16.818026
209.04434 74.948723 16.689705
211.03339 75.065208 16.589369
213.06047 75.092308 16.275635
214.83641 75.142181 16.344606
216.86398 75.457291 16.203434
218.25266 75.585419 16.217499
199.46617 76.045853 17.81222
201.12344 76.308533 17.722414
203.19341 76.559753 17.690477
205.12018 76.83477 17.591581
207.08325 76.920876 17.504879
209.04202 76.994972 17.321455
211.0424 76.885406 17.174728
213.00946 76.988075 16.904703
215.08528 76.954803 16.782125
217.06586 77.082054 16.543201
219.0542 77.136871 16.429533
220.97272 77.157295 16.238512
222.90025 77.701866 16.162888
224.48343 77.612816 16.131187
201.75728 78.160492 17.669277
203.27257 78.046783 17.934792
205.26062 78.280884 17.882288
207.25278 78.491997 17.784632
209.38245 78.678703 17.704741
211.19565 78.669052 17.568233
213.03888 78.889297 17.538549
215.0237 79.071587 17.345806
216.95508 78.919678 17.138121
218.9252 78.92524 16.853786
220.88667 79.091011 16.786528
222.86217 79.02877 16.464928
224.77095 79.134323 16.34457
226.64755 79.361961 16.21789
228.69553 79.718597 16.242058
230.49092 79.855362 16.045528
211.0412 80.238266 17.899803
213.04724 80.423424 17.868889
215.25508 80.741554 17.675629
216.93187 80.65139 17.644917
218.87543 80.834618 17.522997
220.89079 80.972466 17.393282
222.89815 80.868446 17.143274
224.93513 80.972359 16.913979
226.86348 81.029716 16.586123
228.85329 81.098923 16.384928
230.83949 81.356262 16.233303
232.70226 81.586319 16.118193
234.89862 81.742393 16.059107
236.74994 81.855042 16.044979
217.18803 82.042557 17.850782
219.22693 82.269791 17.819538
221.04962 82.420883 17.673058
223.02235 82.821075 17.586679
225.04732 82.928108 17.507877
227.00789 82.948181 17.275993
228.89935 82.920105 16.991831
230.90233 82.986038 16.734657
232.90788 83.03643 16.573072
234.83456 83.095428 16.400148
236.93155 83.720322 16.301914
238.77174 83.47644 16.26092
240.58122 83.604317 16.17028
243.07697 83.404022 16.134321
223.2224 84.18396 17.853369
225.50456 84.597359 17.753931
226.92058 84.775139 17.753799
228.9971 84.784843 17.460863
230.86581 84.927444 17.308552
232.91406 84.91684 17.231804
234.88509 85.013428 16.9734
236.93358 85.006668 16.67911
238.97118 85.045464 16.6136
240.92783 85.150352 16.440928
242.9261 85.375053 16.384346
244.83916 85.467041 16.180487
246.99727 85.730103 16.299898
228.70198 86.209534 17.808964
231.08368 86.310501 17.807039
233.10269 86.628799 17.683836
234.97015 86.905769 17.548569
236.89584 86.962029 17.362946
238.9171 86.995293 17.149157
240.97871 86.945213 17.044344
242.97566 86.987473 16.802629
245.00125 87.002518 16.646687
246.99745 87.045959 16.457396
248.84781 87.227676 16.288452
250.9043 87.426033 16.201893
253.10426 87.454552 16.116314
233.44949 88.284279 17.870087
235.04219 88.448128 17.935083
237.09621 88.629051 17.695551
238.97977 88.712051 17.705225
241.04434 88.835014 17.609386
243.00128 88.927979 17.481144
245.01277 88.926788 17.222532
247.01965 88.959938 17.01
249.05196 88.969681 16.871655
251.02881 89.063408 16.578499
253.07265 89.062836 16.416119
254.95338 89.22467 16.238462
256.98969 89.620819 16.16317
258.69196 89.90094 16.074896
237.25879 90.087944 17.951
240.97954 90.118118 17.931616
243.30637 90.582436 17.803211
245.05919 90.551613 17.744066
247.05595 90.860657 17.660259
249.06831 90.888992 17.463451
251.03534 90.975067 17.23897
253.0639 90.973145 16.982044
255.06039 91.016388 16.737343
257.04898 91.066833 16.469908
259.03162 91.317047 16.31238
260.84976 91.6381 16.237095
262.30411 91.510094 16.122501
247.27367 92.489563 17.815041
249.10878 92.176323 17.764618
251.22864 92.711609 17.774599
253.15239 92.823387 17.544926
255.07399 92.937424 17.322697
257.05362 92.99543 17.030479
259.0506 93.038116 16.787827
261.02533 93.086662 16.584656
263.05215 93.061531 16.4531
265.01819 93.260796 16.363693
266.21826 93.98304 16.074596
253.31604 94.13739 17.883663
255.36115 94.631676 17.833023
257.12421 94.762589 17.682058
259.09662 94.930176 17.466181
261.06879 94.948792 17.246828
263.04803 94.997528 17.098444
265.05405 95.029137 16.836517
266.21719 95.213524 16.630562
257.69531 96.062317 17.954834
259.42084 96.363983 17.910744
261.0318 96.698387 17.763208
263.06119 96.754852 17.506565
264.99042 97.003578 17.48971
266.26685 96.258934 16.86974
263.51318 98.28746 17.930902
265.43661 98.63195 17.804115
105.54026 43.707649 18.17658
106.34418 43.30452 18.057606
108.35001 43.904964 18.03817
105.50178 45.014179 18.603056
107.06653 45.279274 18.394171
108.8812 45.358574 18.172646
111.15127 45.453579 18.101435
112.54783 45.739662 18.008263
105.57008 47.023544 19.033043
107.12619 47.028057 18.823584
109.05692 47.085793 18.594408
111.07336 47.205349 18.377565
113.16775 47.309784 18.243389
114.94008 47.351517 18.15711
117.17255 47.645756 18.143003
119.61504 47.573742 18.182499
105.52831 48.675514 19.705385
107.00459 48.95401 19.539404
109.10647 49.000256 19.236525
111.0978 49.0368 19.009117
112.9836 49.011738 18.762457
115.01099 49.122623 18.653847
117.06556 49.044971 18.507961
119.03437 49.154781 18.486834
120.89746 49.334553 18.268938
122.88169 49.257862 18.182228
124.72787 49.651814 18.208597
126.83955 49.849995 18.116329
107.14797 50.533058 19.837339
109.02445 50.709053 19.673515
110.94432 50.849354 19.6199
112.85581 50.86644 19.526951
114.90136 50.97324 19.307009
116.935 50.978436 19.16416
119.00159 50.9753 18.957541
120.97174 50.990467 18.772352
122.88047 51.077747 18.709034
125.01933 51.171268 18.401495
127.1002 51.397545 18.304539
128.64883 51.293015 18.195189
130.51549 51.484947 18.082474
111.2027 52.158394 19.799631
113.06895 52.348743 19.863024
114.89538 52.617245 19.697355
116.93394 52.680656 19.697115
118.86605 52.758503 19.543423
120.87527 52.89296 19.467745
122.87602 53.013039 19.320969
124.83761 52.996883 18.978731
126.83002 52.988987 18.738514
128.88277 53.044044 18.592934
130.88704 53.072186 18.285288
132.8541 53.381935 18.240065
134.63861 53.701023 18.182161
136.58952 53.625763 18.071543
116.43766 54.10313 19.984373
119.44934 54.30233 19.834064
121.00987 54.294411 19.758787
122.96529 54.767025 19.750895
124.89473 54.8027 19.610367
126.87608 54.91544 19.44195
128.92001 54.89761 19.226713
130.89732 55.012321 18.919308
132.89867 55.048374 18.739418
134.86937 55.122181 18.462732
136.65933 55.240417 18.317949
138.60103 55.40155 18.183041
140.31091 55.404133 18.029173
143.08937 55.685001 18.06465
144.4976 55.886261 18.010132
123.60803 57.00148 19.760654
125.17952 56.273296 19.918545
127.22472 56.453423 19.733616
128.86441 56.618961 19.715313
130.92229 56.844315 19.53397
132.91264 56.985332 19.331026
134.91957 56.957771 19.092232
136.9492 57.02092 18.880489
138.93239 57.108917 18.605017
140.9227 57.118244 18.411636
142.81076 57.318176 18.278564
144.90848 57.618946 18.228636
146.4133 57.336708 18.124022
148.90807 57.895885 18.074247
150.12048 57.891499 18.011961
129.485 58.282871 19.983139
131.00475 58.373432 19.891232
133.03406 58.676624 19.767624
134.94081 58.827 19.703625
136.92963 58.873661 19.558456
138.90114 58.953583 19.310667
140.87833 59.021103 18.997131
142.87935 59.044716 18.806818
144.88583 59.059204 18.642479
146.89182 59.075428 18.473225
148.84276 59.220387 18.3645
150.92206 59.373127 18.286715
152.81731 59.537155 18.275869
156.76759 59.873455 18.018627
135.71193 60.075165 19.943899
136.9361 60.542526 19.857592
139.07008 60.723389 19.774891
140.98134 60.843689 19.578272
142.96779 60.877224 19.426168
144.94644 60.961697 19.416445
146.9584 60.885296 19.160536
148.94662 60.962967 19.169781
150.95912 61.093391 19.037401
152.94035 61.092365 18.806866
154.82382 61.334717 18.320908
156.81433 61.232178 18.279215
158.97362 61.689793 18.249842
161.17871 61.883575 18.082558
141.51709 62.300278 19.908096
143.32104 62.414066 19.776764
144.14479 62.480301 19.842527
146.6987 62.987389 19.4468
148.37277 62.880539 19.657158
151.84779 62.409958 19.581156
153.46455 62.504597 19.517166
155.0941 62.794739 19.277922
156.98857 62.97897 18.853291
158.98183 63.020119 18.613916
160.8826 63.086304 18.30759
162.76837 63.295361 18.203291
164.59195 63.638939 18.205755
155.00139 65.280197 19.685776
157.29903 64.632133 19.494513
159.026 64.908249 19.293041
160.98463 65.004181 18.895853
162.98389 65.035812 18.683941
164.87866 65.133064 18.342955
166.93103 65.212418 18.227205
168.99976 65.691566 18.268373
170.80809 65.903404 18.161671
159.54626 66.450211 19.714813
161.05737 66.916389 19.553215
163.01953 66.936974 19.324499
165.01349 66.976936 19.088703
166.99419 67.036964 18.794872
168.99078 67.073166 18.570082
170.9574 67.19178 18.416552
172.7789 67.321114 18.161856
174.56477 67.562073 18.227522
176.7374 67.714737 18.095688
179.07886 67.889854 18.066599
159.78833 68.503075 19.894133
161.21884 68.280304 19.842829
163.11719 68.635773 19.748459
165.15804 68.66835 19.683699
167.01451 68.960815 19.36838
169.01984 68.983742 19.182749
171.01311 69.024742 18.944101
173.00905 69.062172 18.716253
175.00836 69.094856 18.501894
177.0311 69.094856 18.383509
179.06334 69.361664 18.258095
181.00783 69.339371 18.225044
182.77617 69.601021 18.221628
185.12448 69.88134 18.091196
165.62766 70.092407 19.861139
167.03513 70.375931 19.816992
169.01166 70.762924 19.683443
171.09578 70.865814 19.540874
173.03481 70.97699 19.315907
175.03983 71.001495 19.126358
