# .PCD v0.7 - Point Cloud Data file format
VERSION 0.7
FIELDS x y z rgb
SIZE 4 4 4 4
TYPE F F F U
COUNT 1 1 1 1
WIDTH 1120
HEIGHT 1
VIEWPOINT 0 0 0 1 0 0 0
POINTS 1120
DATA ascii
-22.7978 14.580181 -22.431683 4294967295
-22.786102 14.892599 -22.400635 4294967295
-22.785883 14.736694 -22.377907 4294967295
-22.783712 14.269013 -22.3002 4294967295
-22.780182 13.645356 -22.192543 4294967295
-22.77742 15.516722 -22.431276 4294967295
-22.773149 15.828788 -22.447033 4294967295
-22.771416 13.177743 -22.073219 4294967295
-22.76647 14.425777 -22.212854 4294967295
-22.763031 14.113999 -22.148478 4294967295
-22.757076 15.361985 -22.281719 4294967295
-22.754559 15.206181 -22.244509 4294967295
-22.727674 16.455473 -22.245855 4294967295
-22.723629 16.143824 -22.177677 4294967295
-22.721592 16.299927 -22.18618 4294967295
-22.719078 16.767984 -22.234377 4294967295
-22.717501 16.612137 -22.203093 4294967295
-22.71583 18.951117 -22.512663 4294967295
-22.713215 17.392216 -22.282814 4294967295
-22.712767 17.080355 -22.237309 4294967295
-22.701433 17.860996 -22.272633 4294967295
-22.701023 18.32884 -22.334066 4294967295
-22.700634 19.264351 -22.459639 4294967295
-22.693211 18.017633 -22.242184 4294967295
-22.692638 17.549797 -22.174547 4294967295
-22.689573 18.641727 -22.304642 4294967295
-22.685574 18.798031 -22.300789 4294967295
-22.681883 12.860147 -22.461746 4294967295
-22.680746 19.422211 -22.355743 4294967295
-22.665592 13.64026 -22.465824 4294967295
-22.663237 13.484443 -22.429661 4294967295
-22.66036 19.112307 -22.1847 4294967295
-22.660093 12.704902 -22.303236 4294967295
-22.651913 12.54919 -22.230389 4294967295
-22.627224 13.017889 -22.138968 4294967295
-22.624786 14.733545 -22.358284 4294967295
-22.62208 14.265852 -22.277262 4294967295
-22.620979 13.330083 -22.142324 4294967295
-22.620934 14.109948 -22.248714 4294967295
-22.613207 15.669738 -22.413372 4294967295
-22.610109 14.578338 -22.244579 4294967295
-22.60886 15.514074 -22.364704 4294967295
-22.604376 15.3584 -22.315165 4294967295
-22.601761 13.798817 -22.085365 4294967295
-22.594547 14.891068 -22.18932 4294967295
-22.58917 16.606829 -22.390108 4294967295
-22.586805 15.827294 -22.2686 4294967295
-22.583912 15.047616 -22.143728 4294967295
-22.582193 16.139492 -22.282242 4294967295
-22.575542 16.919662 -22.347034 4294967295
-22.568483 17.387989 -22.366619 4294967295
-22.567713 16.29641 -22.212469 4294967295
-22.563366 17.856174 -22.398405 4294967295
-22.560698 17.232655 -22.296324 4294967295
-22.558882 16.764921 -22.220911 4294967295
-22.547731 18.325279 -22.364061 4294967295
-22.546139 18.169485 -22.332722 4294967295
-22.544277 18.481512 -22.363657 4294967295
-22.54179 18.013912 -22.284042 4294967295
-22.540119 19.105581 -22.422812 4294967295
-22.533245 17.078762 -22.102316 4294967295
-22.531939 19.262285 -22.392702 4294967295
-22.52869 17.547085 -22.13768 4294967295
-22.520975 18.795511 -22.259794 4294967295
-22.505335 13.481075 -22.429995 4294967295
-22.498198 13.793202 -22.427761 4294967295
-22.49581 13.013607 -22.306179 4294967295
-22.494358 12.701735 -22.254425 4294967295
-22.493797 12.389809 -22.208261 4294967295
-22.476307 13.326218 -22.22625 4294967295
-22.476055 13.638162 -22.2673 4294967295
-22.474932 12.858319 -22.153633 4294967295
-22.462936 15.042312 -22.376707 4294967295
-22.462133 15.198288 -22.392965 4294967295
-22.454378 14.730869 -22.280304 4294967295
-22.453835 14.574935 -22.255573 4294967295
-22.443911 15.823095 -22.363747 4294967295
-22.443409 13.951482 -22.10478 4294967295
-22.442585 14.107518 -22.12093 4294967295
-22.441658 14.41955 -22.157742 4294967295
-22.441551 15.979179 -22.370237 4294967295
-22.440184 14.263626 -22.127157 4294967295
-22.436546 16.291374 -22.381426 4294967295
-22.431845 14.88801 -22.160042 4294967295
-22.427546 17.227558 -22.452755 4294967295
-22.419647 15.35665 -22.147373 4294967295
-22.416519 16.916525 -22.340885 4294967295
-22.413372 15.669003 -22.150602 4294967295
-22.404049 16.13756 -22.156 4294967295
-22.394941 16.60614 -22.162748 4294967295
-22.386179 16.45075 -22.086393 4294967295
-22.379126 16.763256 -22.084738 4294967295
-22.372305 18.167686 -22.233765 4294967295
-22.370895 18.791647 -22.310169 4294967295
-22.369217 17.700005 -22.150434 4294967295
-22.367125 18.324104 -22.222553 4294967295
-22.366571 19.259892 -22.346951 4294967295
-22.366222 17.856239 -22.152946 4294967295
-22.350485 18.637545 -22.160725 4294967295
-22.350344 19.417425 -22.266417 4294967295
-22.34561 18.949965 -22.17276 4294967295
-22.337278 12.386351 -22.217583 4294967295
-22.330193 13.322407 -22.300941 4294967295
-22.326729 12.698625 -22.193979 4294967295
-22.325979 12.542655 -22.167971 4294967295
-22.320009 13.1668 -22.215731 4294967295
-22.317896 13.790774 -22.287695 4294967295
-22.310993 13.947033 -22.265688 4294967295
-22.310305 15.350581 -22.453056 4294967295
-22.306816 14.415117 -22.303389 4294967295
-22.297628 13.635614 -22.139215 4294967295
-22.29734 12.855547 -22.030865 4294967295
-22.295166 14.727619 -22.272898 4294967295
-22.293825 13.479755 -22.094048 4294967295
-22.291052 14.883801 -22.268396 4294967295
-22.284386 14.104185 -22.120058 4294967295
-22.279608 16.288063 -22.388311 4294967295
-22.271315 17.380142 -22.48538 4294967295
-22.271059 15.820754 -22.270805 4294967295
-22.270498 15.19687 -22.182081 4294967295
-22.264891 17.068783 -22.402519 4294967295
-22.264311 15.977148 -22.249794 4294967295
-22.260633 15.50942 -22.162813 4294967295
-22.256851 17.537201 -22.415989 4294967295
-22.253622 16.133814 -22.204063 4294967295
-22.243916 18.941566 -22.526535 4294967295
-22.241425 15.666573 -22.063648 4294967295
-22.24058 18.006336 -22.377876 4294967295
-22.236818 17.226854 -22.247808 4294967295
-22.235739 16.758987 -22.177134 4294967295
-22.233242 16.447165 -22.118868 4294967295
-22.228521 16.915503 -22.153187 4294967295
-22.215412 18.476366 -22.28401 4294967295
-22.214529 12.381978 -22.43857 4294967295
-22.212332 19.412354 -22.392473 4294967295
-22.211515 18.32074 -22.238293 4294967295
-22.210876 18.164818 -22.212982 4294967295
-22.206934 17.853168 -22.145676 4294967295
-22.189596 13.006503 -22.367477 4294967295
-22.189186 12.538635 -22.301048 4294967295
-22.180347 19.103514 -22.149454 4294967295
-22.179344 19.259605 -22.164465 4294967295
-22.176205 18.791889 -22.080875 4294967295
-22.172947 13.94283 -22.39089 4294967295
-22.159008 12.851521 -22.154543 4294967295
-22.157358 12.695563 -22.122921 4294967295
-22.156618 14.567372 -22.373756 4294967295
-22.150415 13.319827 -22.164591 4294967295
-22.148897 14.411787 -22.304113 4294967295
-22.146809 14.255913 -22.269735 4294967295
-22.140484 15.347974 -22.379122 4294967295
-22.138683 13.788296 -22.154968 4294967295
-22.132929 15.660315 -22.374384 4294967295
-22.131004 15.816381 -22.383615 4294967295
-22.130354 13.632619 -22.081499 4294967295
-22.112173 15.50558 -22.223137 4294967295
-22.108902 14.725741 -22.096193 4294967295
-22.094812 17.222433 -22.348583 4294967295
-22.093363 15.97471 -22.16922 4294967295
-22.083458 17.067322 -22.256226 4294967295
-22.079885 16.131584 -22.106127 4294967295
-22.075132 17.379913 -22.246679 4294967295
-22.070093 16.28825 -22.066111 4294967295
-22.070002 17.692278 -22.257141 4294967295
-22.069969 18.783997 -22.405907 4294967295
-22.063936 16.444693 -22.048859 4294967295
-22.058884 18.161139 -22.251413 4294967295
-22.057743 16.757187 -22.052668 4294967295
-22.05645 19.253098 -22.385149 4294967295
-22.052259 18.005713 -22.188667 4294967295
-22.05146 18.473745 -22.247522 4294967295
-22.050901 19.097677 -22.329151 4294967295
-22.048918 12.534718 -22.412062 4294967295
-22.040409 18.318724 -22.15708 4294967295
-22.033504 18.943338 -22.199017 4294967295
-22.022379 12.847445 -22.288588 4294967295
-22.017433 18.632793 -22.055887 4294967295
-22.012774 13.159726 -22.271049 4294967295
-22.011906 19.41341 -22.127747 4294967295
-22.00794 12.379872 -22.134428 4294967295
-22.005035 13.783936 -22.307749 4294967295
-21.990732 15.188274 -22.409739 4294967295
-21.99004 14.564473 -22.320332 4294967295
-21.989092 13.472583 -22.16548 4294967295
-21.982971 14.09685 -22.212307 4294967295
-21.974794 14.721213 -22.246275 4294967295
-21.972977 13.005065 -22.000832 4294967295
-21.970589 13.317245 -22.02846 4294967295
-21.967405 15.501525 -22.306433 4294967295
-21.966793 16.281366 -22.408951 4294967295
-21.966133 15.033648 -22.234667 4294967295
-21.957705 13.941931 -22.033012 4294967295
-21.955414 14.254111 -22.061253 4294967295
-21.954969 15.814229 -22.271231 4294967295
-21.954912 14.878239 -22.143223 4294967295
-21.953903 15.658307 -22.243298 4294967295
-21.953642 15.346332 -22.19911 4294967295
-21.95009 14.410398 -22.049236 4294967295
-21.94272 15.970984 -22.215933 4294967295
-21.939663 16.595139 -22.28191 4294967295
-21.934818 16.439486 -22.230356 4294967295
-21.934582 17.063431 -22.313967 4294967295
-21.932968 17.531448 -22.367682 4294967295
-21.929901 16.907797 -22.263433 4294967295
-21.925507 16.752123 -22.214703 4294967295
-21.923105 16.128248 -22.11459 4294967295
-21.918238 17.688591 -22.296902 4294967295
-21.913986 18.624731 -22.397938 4294967295
-21.900459 17.378006 -22.143255 4294967295
-21.90004 18.002056 -22.225721 4294967295
-21.895916 17.222334 -22.093588 4294967295
-21.887449 19.09507 -22.295952 4294967295
-21.886036 18.939224 -22.26586 4294967295
-21.883581 19.407389 -22.314316 4294967295
-21.88253 18.15954 -22.137596 4294967295
-21.881567 18.471645 -22.174128 4294967295
-21.880772 12.531595 -22.348677 4294967295
-21.878948 18.783888 -22.2003 4294967295
-21.877886 12.375699 -22.309397 4294967295
-21.87715 17.84794 -22.06142 4294967295
-21.875031 19.252239 -22.239647 4294967295
-21.873901 12.68777 -22.327021 4294967295
-21.864038 13.00004 -22.307943 4294967295
-21.856501 13.156281 -22.282127 4294967295
-21.839546 13.46889 -22.218767 4294967295
-21.837893 13.312943 -22.187185 4294967295
-21.830173 14.249271 -22.266548 4294967295
-21.828289 12.845187 -22.063414 4294967295
-21.822895 14.5616 -22.263624 4294967295
-21.818323 14.093801 -22.171305 4294967295
-21.81628 14.405918 -22.201073 4294967295
-21.815016 14.873984 -22.25695 4294967295
-21.808554 13.626115 -22.046507 4294967295
-21.805775 13.938317 -22.071682 4294967295
-21.797243 15.03093 -22.167269 4294967295
-21.795654 16.590935 -22.369926 4294967295
-21.794468 15.655118 -22.234989 4294967295
-21.794245 16.123106 -22.297363 4294967295
-21.791559 16.279264 -22.301859 4294967295
-21.785847 15.96765 -22.223694 4294967295
-21.78581 16.435635 -22.287243 4294967295
-21.771786 17.684477 -22.369762 4294967295
-21.760107 18.465263 -22.403164 4294967295
-21.7596 17.841438 -22.314995 4294967295
-21.759066 16.749495 -22.162859 4294967295
-21.753807 19.245583 -22.470112 4294967295
-21.752487 16.905985 -22.143076 4294967295
-21.749512 17.218245 -22.16703 4294967295
-21.747375 17.374422 -22.174959 4294967295
-21.736958 17.063156 -22.067434 4294967295
-21.733334 18.935598 -22.299925 4294967295
-21.725861 18.624294 -22.210806 4294967295
-21.725586 19.404276 -22.315359 4294967295
-21.718796 12.840254 -22.366558 4294967295
-21.708441 18.00169 -22.01709 4294967295
-21.70635 12.68465 -22.267706 4294967295
-21.704079 13.152702 -22.317272 4294967295
-21.703472 12.372719 -22.207262 4294967295
-21.699337 18.158516 -21.981571 4294967295
-21.696972 19.095016 -22.094387 4294967295
-21.696037 14.400802 -22.43708 4294967295
-21.694902 14.088929 -22.38752 4294967295
-21.692877 13.465088 -22.289928 4294967295
-21.686268 13.777335 -22.291206 4294967295
-21.682796 12.529318 -22.099577 4294967295
-21.682114 12.99744 -22.159075 4294967295
-21.680292 15.181382 -22.445127 4294967295
-21.676735 14.869649 -22.380482 4294967295
-21.673487 13.309795 -22.147783 4294967295
-21.644056 15.80738 -22.304274 4294967295
-21.641052 15.495565 -22.243063 4294967295
-21.637175 15.339778 -22.19766 4294967295
-21.633291 14.715866 -22.088457 4294967295
-21.632048 15.964123 -22.25069 4294967295
-21.626776 14.560138 -22.026598 4294967295
-21.626732 15.028295 -22.090078 4294967295
-21.623369 16.432693 -22.260345 4294967295
-21.623144 17.056667 -22.343899 4294967295
-21.62023 16.120886 -22.198288 4294967295
-21.615509 15.653096 -22.105127 4294967295
-21.61315 16.277367 -22.175421 4294967295
-21.599897 17.370407 -22.241562 4294967295
-21.597267 16.902559 -22.161446 4294967295
-21.589661 18.463209 -22.326485 4294967295
-21.582621 18.931787 -22.346355 4294967295
-21.581367 17.215799 -22.104889 4294967295
-21.579947 16.747759 -22.032291 4294967295
-21.571226 17.996775 -22.147951 4294967295
-21.563194 18.621563 -22.182911 4294967295
-21.558132 17.529696 -22.002645 4294967295
-21.553467 12.993075 -22.342443 4294967295
-21.550041 19.090837 -22.164724 4294967295
-21.547731 12.681261 -22.26428 4294967295
-21.547472 19.247105 -22.169968 4294967295
-21.546829 13.30528 -22.343582 4294967295
-21.540501 14.085427 -22.410326 4294967295
-21.536856 12.525559 -22.175329 4294967295
-21.527515 13.149958 -22.20212 4294967295
-21.515965 15.022462 -22.384987 4294967295
-21.505335 14.399014 -22.233929 4294967295
-21.499289 14.867348 -22.259985 4294967295
-21.498575 13.931233 -22.128153 4294967295
-21.497944 14.243335 -22.166691 4294967295
-21.497021 15.179478 -22.288332 4294967295
-21.496298 15.803482 -22.368748 4294967295
-21.469589 15.649094 -22.181341 4294967295
-21.467909 15.337123 -22.128428 4294967295
-21.462053 14.557136 -21.985798 4294967295
-21.45792 15.493742 -22.087513 4294967295
-21.455202 17.522167 -22.346594 4294967295
-21.450819 17.678501 -22.340561 4294967295
-21.450539 16.274418 -22.147751 4294967295
-21.447123 17.834787 -22.338797 4294967295
-21.446234 18.458773 -22.418159 4294967295
-21.440733 17.211277 -22.214144 4294967295
-21.440615 16.119019 -22.064781 4294967295
-21.431608 17.367996 -22.178623 4294967295
-21.421936 16.432384 -21.991056 4294967295
-21.420958 16.588524 -22.00621 4294967295
-21.419851 19.085085 -22.339006 4294967295
-21.416185 17.993347 -22.167633 4294967295
-21.41338 18.305641 -22.19264 4294967295
-21.412859 17.057312 -22.019548 4294967295
-21.406719 12.833331 -22.391613 4294967295
-21.403 19.242683 -22.255465 4294967295
-21.381058 13.614182 -22.338181 4294967295
-21.37734 13.302314 -22.272652 4294967295
-21.375889 12.366181 -22.136316 4294967295
-21.373358 12.99041 -22.20546 4294967295
-21.370386 14.55058 -22.399147 4294967295
-21.368387 14.706657 -22.407938 4294967295
-21.362467 14.86294 -22.392363 4294967295
-21.357933 12.522733 -22.045912 4294967295
-21.354631 15.019337 -22.364904 4294967295
-21.353329 13.927338 -22.208302 4294967295
-21.349947 13.147244 -22.081171 4294967295
-21.343824 14.239817 -22.191671 4294967295
-21.337982 14.396121 -22.176586 4294967295
-21.327303 13.772367 -22.025345 4294967295
-21.323877 14.084657 -22.046497 4294967295
-21.322378 15.957195 -22.291821 4294967295
-21.319769 15.333271 -22.190748 4294967295
-21.315649 15.645572 -22.207588 4294967295
-21.315058 15.489574 -22.18269 4294967295
-21.314362 16.269728 -22.284451 4294967295
-21.303268 15.802355 -22.151903 4294967295
-21.300926 16.582661 -22.243439 4294967295
-21.29035 16.739424 -22.198969 4294967295
-21.285549 16.427675 -22.126715 4294967295
-21.275955 18.612686 -22.364128 4294967295
-21.273968 19.080814 -22.415421 4294967295
-21.269831 18.301228 -22.283693 4294967295
-21.26973 17.209042 -22.134558 4294967295
-21.26956 17.365099 -22.15472 4294967295
-21.268856 16.897001 -22.086697 4294967295
-21.261759 18.145899 -22.212368 4294967295
-21.254898 17.834394 -22.127335 4294967295
-21.244791 17.523079 -22.022146 4294967295
-21.243401 19.23971 -22.246887 4294967295
-21.240276 19.396029 -22.248709 4294967295
-21.238249 18.460005 -22.108843 4294967295
-21.232267 12.518403 -22.247534 4294967295
-21.227728 17.680515 -21.937418 4294967295
-21.226774 12.986638 -22.277052 4294967295
-21.219097 12.362724 -22.144579 4294967295
-21.218567 13.610991 -22.310928 4294967295
-21.215633 13.767118 -22.313925 4294967295
-21.210339 14.235361 -22.344683 4294967295
-21.207767 13.923456 -22.286322 4294967295
-21.201414 13.143526 -22.140886 4294967295
-21.20129 13.455626 -22.18252 4294967295
-21.192553 14.548217 -22.276747 4294967295
-21.184677 13.300179 -22.058226 4294967295
-21.184273 15.328709 -22.331377 4294967295
-21.183905 15.484732 -22.350292 4294967295
-21.182999 15.016756 -22.281076 4294967295
-21.1796 15.172957 -22.281202 4294967295
-21.169079 15.953635 -22.321943 4294967295
-21.166538 14.081276 -22.051737 4294967295
-21.164351 14.393518 -22.080576 4294967295
-21.164286 14.861702 -22.143801 4294967295
-21.161467 16.110128 -22.295938 4294967295
-21.154543 14.706136 -22.062151 4294967295
-21.131968 17.516338 -22.303816 4294967295
-21.126917 16.580523 -22.145296 4294967295
-21.122988 16.736849 -22.142126 4294967295
-21.113934 15.80099 -21.958736 4294967295
-21.111156 18.142099 -22.259598 4294967295
-21.110893 17.674028 -22.194357 4294967295
-21.109436 17.830183 -22.206526 4294967295
-21.102209 16.894392 -22.034506 4294967295
-21.09857 12.358304 -22.377642 4294967295
-21.091497 17.207344 -22.010498 4294967295
-21.091204 18.455881 -22.17831 4294967295
-21.084637 17.988274 -22.073996 4294967295
-21.082144 18.612728 -22.14336 4294967295
-21.079685 18.300827 -22.085716 4294967295
-21.079157 17.052164 -21.912785 4294967295
-21.068565 13.451303 -22.340042 4294967295
-21.060574 19.395012 -22.115683 4294967295
-21.056759 18.927164 -22.028433 4294967295
-21.056231 12.515491 -22.136478 4294967295
-21.046347 19.084219 -21.985113 4294967295
-21.043585 14.856463 -22.375971 4294967295
-21.040657 18.772541 -21.907436 4294967295
-21.038338 12.984238 -22.08919 4294967295
-21.035913 19.241302 -21.941658 4294967295
-21.028574 13.920994 -22.155865 4294967295
-21.026398 14.233194 -22.184771 4294967295
-21.025564 13.296833 -22.052441 4294967295
-21.024441 12.828595 -21.98189 4294967295
-21.021475 15.169662 -22.281403 4294967295
-21.019646 14.701655 -22.206518 4294967295
-21.017538 14.07753 -22.108696 4294967295
-21.017332 13.609308 -22.043835 4294967295
-21.002647 14.546432 -22.080046 4294967295
-20.992476 16.107571 -22.228956 4294967295
-20.991179 13.766452 -21.903015 4294967295
-20.987642 15.327586 -22.093075 4294967295
-20.981209 15.79617 -22.116821 4294967295
-20.972963 15.01621 -21.959782 4294967295
-20.968567 15.484757 -21.996147 4294967295
-20.966017 16.265341 -22.086323 4294967295
-20.964878 18.293943 -22.3547 4294967295
-20.962763 17.670046 -22.256882 4294967295
-20.959166 17.514294 -22.213432 4294967295
-20.956469 15.641569 -21.942429 4294967295
-20.954035 17.982819 -22.245224 4294967295
-20.951485 16.734558 -22.059935 4294967295
-20.949144 16.578636 -22.02426 4294967295
-20.947536 15.954336 -21.92951 4294967295
-20.945808 16.891045 -22.045986 4294967295
-20.944637 17.827545 -22.16588 4294967295
-20.942358 18.607948 -22.257698 4294967295
-20.941313 18.764071 -22.272423 4294967295
-20.930162 17.048273 -21.970331 4294967295
-20.922976 12.355345 -22.269365 4294967295
-20.917271 18.92231 -22.144838 4294967295
-20.916262 19.390558 -22.20215 4294967295
-20.911633 12.82378 -22.262716 4294967295
-20.908995 19.235203 -22.135996 4294967295
-20.90885 17.362099 -21.880785 4294967295
-20.903357 12.667985 -22.190336 4294967295
-20.897518 12.512091 -22.133036 4294967295
-20.895823 14.384622 -22.37665 4294967295
-20.892887 18.456242 -21.93037 4294967295
-20.885971 14.541103 -22.336895 4294967295
-20.876648 13.60526 -22.152193 4294967295
-20.874533 13.137114 -22.075567 4294967295
-20.872797 13.449337 -22.107191 4294967295
-20.858814 15.010571 -22.232492 4294967295
-20.856262 12.981624 -21.941359 4294967295
-20.852951 15.322979 -22.238581 4294967295
-20.85253 14.074482 -22.066561 4294967295
-20.849913 15.635234 -22.262146 4294967295
-20.846706 15.791463 -22.263502 4294967295
-20.832666 13.763103 -21.901342 4294967295
-20.830217 15.168173 -22.076851 4294967295
-20.830175 13.919333 -21.907125 4294967295
-20.823153 16.261089 -22.181408 4294967295
-20.81439 15.949511 -22.084885 4294967295
-20.802481 17.66703 -22.244198 4294967295
-20.800058 15.482068 -21.932743 4294967295
-20.799541 17.355162 -22.183689 4294967295
-20.789711 16.731583 -22.038229 4294967295
-20.781786 16.576029 -21.968065 4294967295
-20.77993 17.824896 -22.126017 4294967295
-20.77676 16.888601 -21.979364 4294967295
-20.7754 17.044806 -21.992138 4294967295
-20.772776 17.981556 -22.102982 4294967295
-20.770926 18.293858 -22.1339 4294967295
-20.763931 12.507987 -22.284906 4294967295
-20.76119 18.138605 -22.052568 4294967295
-20.758589 18.451 -22.078854 4294967295
-20.754261 17.20249 -21.882668 4294967295
-20.753559 12.66433 -22.242002 4294967295
-20.748753 19.38835 -22.145123 4294967295
-20.738796 18.608837 -21.977743 4294967295
-20.734915 18.9214 -21.996117 4294967295
-20.733555 12.820997 -22.139605 4294967295
-20.731028 19.077864 -21.993275 4294967295
-20.730768 19.233992 -22.012848 4294967295
-20.728909 18.765837 -21.93783 4294967295
-20.725876 13.757664 -22.219162 4294967295
-20.708536 13.290092 -22.048588 4294967295
-20.70365 13.134159 -21.997229 4294967295
-20.702585 13.44641 -22.032997 4294967295
-20.701881 14.382961 -22.155657 4294967295
-20.699627 14.851267 -22.205223 4294967295
-20.697008 13.602727 -22.019724 4294967295
-20.686258 15.788334 -22.249651 4294967295
-20.683468 15.476389 -22.190113 4294967295
-20.681665 15.320424 -22.157822 4294967295
-20.680422 14.071741 -21.980808 4294967295
-20.678703 15.008429 -22.097206 4294967295
-20.674755 13.91586 -21.924644 4294967295
-20.663305 14.228625 -21.896297 4294967295
-20.663063 15.165362 -22.021816 4294967295
-20.65299 15.634249 -22.023136 4294967295
-20.652849 16.258635 -22.106928 4294967295
-20.635241 16.571995 -22.040577 4294967295
-20.635078 17.040283 -22.103075 4294967295
-20.629923 17.196749 -22.092426 4294967295
-20.622326 17.353413 -22.06671 4294967295
-20.614033 19.07089 -22.248297 4294967295
-20.610676 17.822611 -22.058315 4294967295
-20.607807 18.603275 -22.146425 4294967295
-20.605202 18.759581 -22.151518 4294967295
-20.603062 17.979332 -22.032509 4294967295
-20.602814 17.667135 -21.98864 4294967295
-20.602724 16.886511 -21.882246 4294967295
-20.597597 12.348738 -22.213276 4294967295
-20.596888 12.504819 -22.230047 4294967295
-20.587873 13.441418 -22.30134 4294967295
-20.587269 19.385555 -22.125538 4294967295
-20.582285 18.917753 -22.031311 4294967295
-20.57761 13.129673 -22.195768 4294967295
-20.577126 18.293743 -21.914824 4294967295
-20.576933 13.285763 -22.21274 4294967295
-20.575859 18.449982 -21.928181 4294967295
-20.561174 12.661926 -22.030949 4294967295
-20.553232 14.847353 -22.27809 4294967295
-20.550411 13.598908 -22.091505 4294967295
-20.549503 12.974515 -22.001297 4294967295
-20.543144 15.00393 -22.237055 4294967295
-20.537691 12.81876 -21.907293 4294967295
-20.534731 16.096741 -22.333206 4294967295
-20.528917 14.692509 -22.107052 4294967295
-20.526918 15.160866 -22.158192 4294967295
-20.526718 14.22431 -22.030041 4294967295
-20.526527 14.53653 -22.071171 4294967295
-20.52611 15.316986 -22.174349 4294967295
-20.520502 15.629455 -22.182083 4294967295
-20.519058 14.068529 -21.961664 4294967295
-20.517918 13.75631 -21.912315 4294967295
-20.514824 13.912577 -21.914396 4294967295
-20.510603 16.566465 -22.247959 4294967295
-20.498049 14.381751 -21.874456 4294967295
-20.494938 16.255365 -22.109133 4294967295
-20.494234 15.943217 -22.062502 4294967295
-20.488735 16.880127 -22.155508 4294967295
-20.481054 17.036762 -22.12933 4294967295
-20.48031 16.724634 -22.082447 4294967295
-20.47522 16.412767 -22.008781 4294967295
-20.460493 17.350487 -22.04495 4294967295
-20.459824 18.755287 -22.231148 4294967295
-20.458744 18.443253 -22.182207 4294967295
-20.449778 18.912264 -22.190416 4294967295
-20.444597 12.501238 -22.266294 4294967295
-20.441109 17.664223 -21.96784 4294967295
-20.440863 17.820366 -21.98748 4294967295
-20.438833 18.288877 -22.038422 4294967295
-20.408136 14.219192 -22.27429 4294967295
-20.40811 12.346133 -22.020479 4294967295
-20.40624 19.228514 -21.964594 4294967295
-20.40617 19.072392 -21.943007 4294967295
-20.401676 18.60437 -21.851877 4294967295
-20.39978 14.063495 -22.201721 4294967295
-20.399128 14.99988 -22.324493 4294967295
-20.39208 12.814965 -21.985218 4294967295
-20.390598 13.751703 -22.102924 4294967295
-20.389454 12.971176 -21.990183 4294967295
-20.387751 13.595712 -22.064264 4294967295
-20.385971 13.907993 -22.095581 4294967295
-20.385252 13.127444 -21.98546 4294967295
-20.383232 14.532487 -22.163269 4294967295
-20.37874 14.376609 -22.114491 4294967295
-20.377861 12.659249 -21.876518 4294967295
-20.364637 14.845594 -22.091101 4294967295
-20.360533 13.440609 -21.875561 4294967295
-20.358789 15.158105 -22.097389 4294967295
-20.344883 16.251585 -22.159763 4294967295
-20.341038 15.315192 -22.009289 4294967295
-20.339771 15.471385 -22.022631 4294967295
-20.328857 16.564835 -22.103437 4294967295
-20.325706 15.784463 -21.978369 4294967295
-20.315781 17.658432 -22.170927 4294967295
-20.309742 17.346716 -22.091528 4294967295
-20.309347 15.629292 -21.856562 4294967295
-20.303461 17.815504 -22.116287 4294967295
-20.302618 17.503366 -22.068836 4294967295
-20.293182 17.035706 -21.94739 4294967295
-20.292576 16.411148 -21.859093 4294967295
-20.292002 12.497665 -22.300652 4294967295
-20.284246 18.129292 -22.040388 4294967295
-20.284241 16.724041 -21.850096 4294967295
-20.273647 18.598549 -22.038616 4294967295
-20.272097 12.342126 -22.157156 4294967295
-20.269804 18.911119 -22.057251 4294967295
-20.2654 19.223747 -22.072441 4294967295
-20.26062 13.122914 -22.192217 4294967295
-20.258686 18.443729 -21.925474 4294967295
-20.257875 18.287651 -21.899345 4294967295
-20.253651 18.756458 -21.936785 4294967295
-20.24991 13.279375 -22.147509 4294967295
-20.234091 12.655413 -21.965754 4294967295
-20.230921 19.383163 -21.881584 4294967295
-20.230911 12.967788 -21.988464 4294967295
-20.228918 13.90459 -22.102966 4294967295
-20.225805 14.529123 -22.168329 4294967295
-20.203932 13.437169 -21.886013 4294967295
-20.196297 13.593622 -21.860214 4294967295
-20.196264 14.842797 -22.029045 4294967295
-20.191973 15.779714 -22.129417 4294967295
-20.186573 15.467811 -22.054007 4294967295
-20.181772 16.560841 -22.172356 4294967295
-20.179029 14.219024 -21.838629 4294967295
-20.178797 14.375206 -21.85833 4294967295
-20.175125 15.312325 -21.962536 4294967295
-20.171349 15.000228 -21.897078 4294967295
-20.167444 14.688093 -21.830832 4294967295
-20.162453 16.718271 -22.074816 4294967295
-20.150349 17.187487 -22.063835 4294967295
-20.150003 17.031391 -22.040598 4294967295
-20.148462 15.626163 -21.840984 4294967295
-20.116846 16.877625 -21.815825 4294967295
-20.116018 12.962991 -22.254745 4294967295
-20.111126 17.971216 -21.928585 4294967295
-20.105518 18.752405 -21.999777 4294967295
-20.105394 18.127842 -21.914516 4294967295
-20.103205 17.34717 -21.795429 4294967295
-20.102919 18.440355 -21.941566 4294967295
-20.099533 18.596798 -21.941912 4294967295
-20.094593 17.660208 -21.784809 4294967295
-20.093729 18.284986 -21.864023 4294967295
-20.090117 18.909941 -21.926342 4294967295
-20.089939 13.432157 -22.158005 4294967295
-20.087414 13.588351 -22.163622 4294967295
-20.08526 12.495588 -22.002623 4294967295
-20.076872 12.339664 -21.930021 4294967295
-20.075138 14.837596 -22.257141 4294967295
-20.071335 12.65213 -21.938271 4294967295
-20.06954 13.120634 -21.990591 4294967295
-20.060776 13.277084 -21.95792 4294967295
-20.050858 14.214335 -22.023743 4294967295
-20.048672 15.931625 -22.242512 4294967295
-20.04554 14.370713 -22.012224 4294967295
-20.045033 15.307468 -22.135771 4294967295
-20.044355 13.902327 -21.94161 4294967295
-20.036673 14.995684 -22.042269 4294967295
-20.03311 16.713034 -22.252583 4294967295
-20.027554 16.557331 -22.197405 4294967295
-20.026539 15.620752 -22.064548 4294967295
-20.017952 15.15282 -21.948542 4294967295
-20.015924 16.089771 -22.062765 4294967295
-20.014347 16.245995 -22.074198 4294967295
-20.014132 16.402128 -22.093994 4294967295
-20.002331 15.778329 -21.937172 4294967295
-19.99909 17.183758 -22.107279 4294967295
-19.997723 17.02774 -22.077791 4294967295
-19.988218 17.496811 -22.08283 4294967295
-19.977358 12.490781 -22.311367 4294967295
-19.972075 18.590937 -22.131596 4294967295
-19.970833 18.278816 -22.081776 4294967295
-19.968592 17.966751 -22.025826 4294967295
-19.964931 16.873943 -21.855597 4294967295
-19.962866 19.372286 -22.18067 4294967295
-19.960443 18.435831 -22.039194 4294967295
-19.953615 17.343306 -21.84955 4294967295
-19.949354 12.335437 -22.118645 4294967295
-19.949055 17.812181 -21.884932 4294967295
-19.947193 19.061537 -22.0424 4294967295
-19.945103 18.905596 -22.008476 4294967295
-19.929811 18.126112 -21.809183 4294967295
-19.92564 18.751196 -21.868073 4294967295
-19.920429 12.804651 -22.004683 4294967295
-19.919315 13.897592 -22.145536 4294967295
-19.918524 13.58539 -22.098497 4294967295
-19.904795 15.303178 -22.246412 4294967295
-19.893406 15.928178 -22.261017 4294967295
-19.893131 15.147717 -22.153883 4294967295
-19.889688 14.835664 -22.090611 4294967295
-19.883093 14.67986 -22.029114 4294967295
-19.880827 16.553314 -22.268341 4294967295
-19.872725 13.430949 -21.79677 4294967295
-19.870457 16.397919 -22.183758 4294967295
-19.857193 17.33543 -22.229086 4294967295
-19.856983 16.242685 -22.080164 4294967295
-19.852608 15.774541 -21.990076 4294967295
-19.8524 14.212782 -21.777781 4294967295
-19.851473 14.056616 -21.750988 4294967295
-19.849268 16.087042 -22.011814 4294967295
-19.846506 17.180128 -22.142563 4294967295
-19.835165 17.805439 -22.157503 4294967295
-19.82774 16.869223 -21.985477 4294967295
-19.822037 17.962616 -22.098223 4294967295
-19.817726 19.055744 -22.219471 4294967295
-19.816357 18.587564 -22.147827 4294967295
-19.813282 16.714069 -21.875854 4294967295
-19.808748 18.275976 -22.059071 4294967295
-19.80452 19.213076 -22.159735 4294967295
-19.80369 17.6518 -21.943727 4294967295
-19.803083 18.120312 -22.003311 4294967295
-19.800035 12.487886 -22.194452 4294967295
-19.795496 18.901669 -22.06233 4294967295
-19.793575 18.745707 -22.02949 4294967295
-19.779375 12.800718 -22.110201 4294967295
-19.778755 13.112983 -22.148575 4294967295
-19.777905 13.269128 -22.164444 4294967295
-19.772133 12.3325 -22.002634 4294967295
-19.756088 14.206681 -22.157475 4294967295
-19.755833 13.426048 -22.050497 4294967295
-19.746721 12.645535 -21.889313 4294967295
-19.746435 13.582547 -22.014088 4294967295
-19.746237 13.738704 -22.033966 4294967295
-19.740427 12.958092 -21.892982 4294967295
-19.731361 14.520077 -22.048399 4294967295
-19.730677 15.300762 -22.149612 4294967295
-19.720182 14.989064 -22.043276 4294967295
-19.720045 14.052109 -21.915918 4294967295
-19.71814 15.613717 -22.115107 4294967295
-19.716799 15.457664 -22.085821 4294967295
-19.716784 14.833089 -22.001406 4294967295
-19.716618 16.394381 -22.211197 4294967295
-19.709717 15.145767 -22.000355 4294967295
-19.708818 15.770398 -22.079197 4294967295
-19.703405 16.707487 -22.172575 4294967295
-19.699736 13.89677 -21.770599 4294967295
-19.69599 15.927319 -22.021835 4294967295
-19.69451 16.239702 -22.054947 4294967295
-19.690838 14.678205 -21.821636 4294967295
-19.686234 14.366005 -21.751284 4294967295
-19.683632 17.021128 -22.093849 4294967295
-19.681381 12.327328 -22.415358 4294967295
-19.673891 17.177975 -22.055382 4294967295
-19.673237 17.646425 -22.11463 4294967295
-19.671568 16.085003 -21.8936 4294967295
-19.669912 12.483696 -22.366346 4294967295
-19.669891 17.490553 -22.073095 4294967295
-19.654524 16.86705 -21.894831 4294967295
-19.649775 18.272871 -22.055544 4294967295
-19.644836 16.55533 -21.793427 4294967295
-19.636263 18.742476 -22.036215 4294967295
-19.635504 12.796873 -22.198269 4294967295
-19.627089 13.265481 -22.210062 4294967295
-19.626898 17.96244 -21.873573 4294967295
-19.622192 18.587559 -21.929144 4294967295
-19.619354 13.734092 -22.226015 4294967295
-19.615355 17.807173 -21.781935 4294967295
-19.611664 12.641447 -22.031563 4294967295
-19.610193 18.900982 -21.897999 4294967295
-19.609934 19.057184 -21.917494 4294967295
-19.606672 12.953905 -22.043209 4294967295
-19.593596 19.371084 -21.859831 4294967295
-19.590174 14.359809 -22.132059 4294967295
-19.588713 19.215347 -21.808916 4294967295
-19.586256 14.672249 -22.150265 4294967295
-19.584631 13.423142 -21.971792 4294967295
-19.580641 14.984779 -22.158112 4294967295
-19.577303 13.111038 -21.884871 4294967295
-19.575102 14.204346 -22.018948 4294967295
-19.574858 14.516662 -22.059591 4294967295
-19.573963 15.609615 -22.201603 4294967295
-19.57394 14.828992 -22.096128 4294967295
-19.567619 13.579958 -21.88895 4294967295
-19.556068 15.454515 -22.071276 4294967295
-19.548279 13.893126 -21.812977 4294967295
-19.544352 14.0495 -21.810078 4294967295
-19.538088 15.299358 -21.940432 4294967295
-19.53158 15.924425 -21.984985 4294967295
-19.528904 17.017653 -22.116117 4294967295
-19.522549 15.768795 -21.908779 4294967295
-19.518625 17.330679 -22.09552 4294967295
-19.514473 16.394028 -21.94376 4294967295
-19.514246 16.706385 -21.984518 4294967295
-19.511955 17.487328 -22.075882 4294967295
-19.50724 16.238314 -21.878544 4294967295
-19.505556 18.424643 -22.163204 4294967295
-19.505213 12.324363 -22.305849 4294967295
-19.49954 16.863586 -21.915833 4294967295
-19.497116 18.737625 -22.153833 4294967295
-19.495035 16.082884 -21.782955 4294967295
-19.49152 17.645065 -21.972239 4294967295
-19.491089 18.269739 -22.053875 4294967295
-19.490255 18.582098 -22.090919 4294967295
-19.488049 17.957676 -21.993189 4294967295
-19.477774 17.80233 -21.909416 4294967295
-19.471903 12.793628 -22.16581 4294967295
-19.467888 19.364859 -22.059774 4294967295
-19.466169 18.11565 -21.880745 4294967295
-19.464334 13.574489 -22.224915 4294967295
-19.46254 12.481617 -22.066589 4294967295
-19.462519 19.053047 -21.984892 4294967295
-19.450195 13.106599 -22.07552 4294967295
-19.448191 19.210552 -21.91855 4294967295
-19.446911 14.199669 -22.202868 4294967295
-19.444366 14.043656 -22.166309 4294967295
-19.437557 13.73166 -22.082668 4294967295
-19.436451 14.668511 -22.202251 4294967295
-19.431082 13.263415 -21.980007 4294967295
-19.422365 12.638926 -21.842602 4294967295
-19.42148 18.900593 -21.713451 4294967295
-19.417797 15.137841 -22.15167 4294967295
-19.411287 15.294328 -22.133039 4294967295
-19.404139 14.357741 -21.963118 4294967295
-19.402853 14.982483 -22.039507 4294967295
-19.402742 13.420623 -21.828236 4294967295
-19.39608 14.514299 -21.935051 4294967295
-19.395395 13.88954 -21.846622 4294967295
-19.391184 14.826908 -21.947309 4294967295
-19.389812 16.07629 -22.107403 4294967295
-19.384987 16.545019 -22.141144 4294967295
-19.383757 17.013487 -22.196791 4294967295
-19.3771 16.233246 -22.050966 4294967295
-19.373762 15.921125 -21.988516 4294967295
-19.364706 15.453094 -21.870132 4294967295
-19.3631 12.32052 -22.404173 4294967295
-19.358665 15.765849 -21.875435 4294967295
-19.357351 16.859222 -22.01483 4294967295
-19.356043 16.390785 -21.943684 4294967295
-19.351101 17.484324 -22.060961 4294967295
-19.342821 17.797281 -22.052608 4294967295
-19.341642 15.610634 -21.750605 4294967295
-19.332155 18.110464 -22.029737 4294967295
-19.331501 17.642004 -21.962582 4294967295
-19.314137 18.892839 -22.025229 4294967295
-19.310295 19.205515 -22.043928 4294967295
-19.308498 19.361843 -22.054031 4294967295
-19.308094 17.175161 -21.756783 4294967295
-19.30616 12.634296 -22.09947 4294967295
-19.302351 18.425335 -21.890266 4294967295
-19.301357 17.956799 -21.821041 4294967295
-19.295689 18.738312 -21.891796 4294967295
-19.282734 19.051886 -21.854994 4294967295
-19.277508 13.103684 -21.988113 4294967295
-19.273895 14.196975 -22.113411 4294967295
-19.255247 13.416844 -21.894651 4294967295
-19.25025 13.573236 -21.885267 4294967295
-19.24823 15.291293 -22.104458 4294967295
-19.240526 16.072464 -22.162767 4294967295
-19.234774 14.979677 -21.980465 4294967295
-19.232336 15.604506 -22.049801 4294967295
-19.230104 13.730235 -21.783661 4294967295
-19.229788 15.760819 -22.05533 4294967295
-19.219002 15.136698 -21.905508 4294967295
-19.218468 17.166904 -22.175793 4294967295
-19.212786 14.824597 -21.825579 4294967295
-19.203016 17.011877 -22.060743 4294967295
-19.200428 16.387356 -21.960829 4294967295
-19.196903 17.949251 -22.149782 4294967295
-19.193718 17.324888 -22.046257 4294967295
-19.193468 16.700199 -21.960566 4294967295
-19.190384 16.23181 -21.878664 4294967295
-19.18791 16.544382 -21.905697 4294967295
-19.185522 17.481676 -22.017426 4294967295
-19.180578 16.857288 -21.903173 4294967295
-19.175293 18.575649 -22.102474 4294967295
-19.165215 18.264183 -21.999094 4294967295
-19.155043 17.796432 -21.874084 4294967295
-19.152304 13.099186 -22.18976 4294967295
-19.147514 12.63089 -22.097561 4294967295
-19.146311 17.640902 -21.799927 4294967295
-19.129015 12.943787 -22.027132 4294967295
-19.127146 18.423615 -21.788576 4294967295
-19.122746 13.568691 -22.073132 4294967295
-19.12269 18.892687 -21.824617 4294967295
-19.121536 13.881063 -22.10783 4294967295
-19.105305 19.050499 -21.739933 4294967295
-19.102888 13.725637 -21.973442 4294967295
-19.099768 13.257149 -21.891376 4294967295
-19.095976 12.788604 -21.80521 4294967295
-19.093929 13.41357 -21.876913 4294967295
-19.08622 14.194921 -21.935209 4294967295
-19.081936 14.038899 -21.888136 4294967295
-19.079712 15.132378 -22.021837 4294967295
-19.068415 15.913896 -22.058329 4294967295
-19.067726 14.82061 -21.906939 4294967295
-19.062122 14.508447 -21.830812 4294967295
-19.054562 14.352561 -21.763811 4294967295
-19.049383 14.665291 -21.774414 4294967295
-19.048635 16.071299 -21.959177 4294967295
-19.041548 16.227943 -21.937138 4294967295
-19.040794 16.384192 -21.953588 4294967295
-19.038061 17.32148 -22.063152 4294967295
-19.036505 16.696867 -21.969595 4294967295
-19.026237 14.978959 -21.675817 4294967295
-19.024147 15.447853 -21.726229 4294967295
-19.023556 15.291629 -21.701593 4294967295
-19.017458 12.626666 -22.269318 4294967295
-19.010302 15.604904 -21.663134 4294967295
-19.009302 12.47076 -22.198784 4294967295
-19.009264 17.636045 -21.930285 4294967295
-19.007442 18.573324 -22.045389 4294967295
-19.001986 16.542986 -21.73884 4294967295
-19.001331 17.480446 -21.861069 4294967295
-18.999474 16.855652 -21.76565 4294967295
-18.993517 18.262135 -21.918756 4294967295
-18.986568 17.012817 -21.708284 4294967295
-18.985058 18.106623 -21.846359 4294967295
-18.983044 12.783823 -22.081398 4294967295
-18.981861 17.950655 -21.805902 4294967295
-18.962261 18.421007 -21.749969 4294967295
-18.960983 13.096887 -21.989504 4294967295
-18.960733 18.889866 -21.803799 4294967295
-18.958626 19.20252 -21.833055 4294967295
-18.957462 17.796352 -21.636679 4294967295
-18.955242 19.359064 -21.833538 4294967295
-18.950407 13.253446 -21.94632 4294967295
-18.94948 13.409682 -21.961712 4294967295
-18.941957 13.878571 -21.979103 4294967295
-18.936111 13.7226 -21.922604 4294967295
-18.934065 19.048538 -21.662888 4294967295
-18.932283 15.128493 -22.088524 4294967295
-18.92857 14.035333 -21.918865 4294967295
-18.925098 12.941826 -21.750631 4294967295
-18.910622 14.19233 -21.830959 4294967295
-18.907845 16.37928 -22.108339 4294967295
-18.893406 14.349344 -21.747492 4294967295
-18.88987 15.443204 -21.87319 4294967295
-18.885338 15.287225 -21.824673 4294967295
-18.881941 14.818662 -21.74099 4294967295
-18.878843 16.224962 -21.911392 4294967295
-18.877062 17.006098 -22.005661 4294967295
-18.874506 14.506485 -21.65382 4294967295
-18.872684 14.975393 -21.705845 4294967295
-18.854841 17.320126 -21.912922 4294967295
-18.852215 17.476536 -21.918013 4294967295
-18.850004 18.101528 -21.988659 4294967295
-18.83736 18.727385 -21.99605 4294967295
-18.836689 17.165234 -21.781801 4294967295
-18.83041 18.415579 -21.911875 4294967295
-18.827475 16.697096 -21.662842 4294967295
-18.826181 16.853462 -21.676029 4294967295
-18.822588 16.541143 -21.612177 4294967295
-18.81938 18.260284 -21.823978 4294967295
-18.814907 17.791904 -21.733789 4294967295
-18.808275 17.636156 -21.672541 4294967295
-18.806162 12.937174 -21.990187 4294967295
-18.800951 18.886847 -21.79631 4294967295
-18.79224 14.499579 -22.115828 4294967295
-18.790415 17.950136 -21.606285 4294967295
-18.780445 19.04496 -21.693003 4294967295
-18.771992 19.202013 -21.662779 4294967295
-18.771852 14.656734 -22.013296 4294967295
-18.771751 12.782003 -21.76059 4294967295
-18.769424 19.358532 -21.66824 4294967295
-18.766083 13.250955 -21.789265 4294967295
-18.761116 15.282061 -22.032253 4294967295
-18.757866 13.407501 -21.760481 4294967295
-18.752821 14.032711 -21.813942 4294967295
-18.737392 15.595799 -21.930544 4294967295
-18.730892 15.908617 -21.933168 4294967295
-18.727446 14.190066 -21.681185 4294967295
-18.726446 13.721242 -21.612087 4294967295
-18.724194 14.971567 -21.76655 4294967295
-18.721294 13.877747 -21.601875 4294967295
-18.717001 15.753219 -21.828018 4294967295
-18.715324 16.534479 -21.922888 4294967295
-18.709829 15.441124 -21.742558 4294967295
-18.707247 14.34726 -21.579811 4294967295
-18.699989 17.160433 -21.914032 4294967295
-18.697897 14.816619 -21.586201 4294967295
-18.685577 18.723654 -22.036768 4294967295
-18.681168 17.942989 -21.905071 4294967295
-18.674837 16.69346 -21.698683 4294967295
-18.674414 18.255991 -21.906189 4294967295
-18.666296 16.85033 -21.667961 4294967295
-18.662565 18.100737 -21.81345 4294967295
-18.654966 19.195042 -21.914465 4294967295
-18.651077 19.039171 -21.869921 4294967295
-18.650082 17.789217 -21.695847 4294967295
-18.648109 12.777549 -21.971352 4294967295
-18.646202 13.246232 -22.022781 4294967295
-18.626968 13.403124 -21.927378 4294967295
-18.62076 14.49686 -22.036749 4294967295
-18.616571 18.417133 -21.576994 4294967295
-18.615721 14.653297 -22.027246 4294967295
-18.607939 14.185014 -21.917204 4294967295
-18.606998 12.935054 -21.743544 4294967295
-18.60409 19.356054 -21.627512 4294967295
-18.594477 13.091736 -21.688757 4294967295
-18.57929 16.529745 -22.058741 4294967295
-18.57803 14.030046 -21.715237 4294967295
-18.576658 14.81144 -21.81193 4294967295
-18.574203 15.749018 -21.923037 4294967295
-18.570372 13.874075 -21.647905 4294967295
-18.569906 14.342959 -21.708084 4294967295
-18.566763 13.717918 -21.605059 4294967295
-18.564739 15.593331 -21.844799 4294967295
-18.563957 15.437126 -21.81908 4294967295
-18.551655 15.12526 -21.702671 4294967295
-18.548719 14.969127 -21.66391 4294967295
-18.535624 15.282413 -21.62669 4294967295
-18.532322 16.220335 -21.732719 4294967295
-18.531895 18.251495 -22.003023 4294967295
-18.52273 15.908355 -21.632713 4294967295
-18.508717 17.003323 -21.694962 4294967295
-18.506927 16.37826 -21.600143 4294967295
-18.506165 17.78488 -21.784502 4294967295
-18.502527 18.410192 -21.846487 4294967295
-18.497795 18.879332 -21.880848 4294967295
-18.493567 18.723463 -21.834299 4294967295
-18.492138 19.19232 -21.888632 4294967295
-18.4855 17.317604 -21.596577 4294967295
-18.485373 17.473921 -21.61681 4294967295
-18.476881 18.568653 -21.712452 4294967295
-18.4764 12.930773 -21.912064 4294967295
-18.473372 19.350319 -21.796204 4294967295
-18.469385 17.631456 -21.541147 4294967295
-18.465252 13.399858 -21.907642 4294967295
-18.444199 19.040445 -21.5779 4294967295
-18.440428 13.713291 -21.799627 4294967295
-18.438383 14.3384 -21.871208 4294967295
-18.433226 14.182376 -21.819063 4294967295
-18.42535 15.588953 -21.960308 4294967295
-18.424507 13.088715 -21.61949 4294967295
-18.416674 14.495657 -21.761047 4294967295
-18.415739 14.026849 -21.692436 4294967295
-18.414576 13.557993 -21.62245 4294967295
-18.410923 14.652205 -21.747292 4294967295
-18.407034 15.746252 -21.870678 4294967295
-18.406307 15.433788 -21.824327 4294967295
-18.395634 16.059443 -21.84379 4294967295
-18.395512 15.278112 -21.738148 4294967295
-18.393761 14.809334 -21.664616 4294967295
-18.393677 13.871449 -21.538166 4294967295
-18.388319 15.122209 -21.673721 4294967295
-18.372828 16.373421 -21.748047 4294967295
-18.367243 14.966989 -21.525429 4294967295
-18.365467 16.530186 -21.724577 4294967295
-18.362284 15.905198 -21.621418 4294967295
-18.355404 17.624823 -21.810701 4294967295
-18.351009 18.406443 -21.889059 4294967295
-18.347795 16.218727 -21.575905 4294967295
-18.346647 17.156645 -21.694891 4294967295
-18.344368 16.687901 -21.618168 4294967295
-18.340818 17.313366 -21.680681 4294967295
-18.335838 19.188993 -21.902382 4294967295
-18.333696 17.001272 -21.595711 4294967295
-18.333128 17.782835 -21.697206 4294967295
-18.329357 12.927011 -21.980946 4294967295
-18.32732 17.47068 -21.620186 4294967295
-18.324203 18.564995 -21.748253 4294967295
-18.323887 18.877571 -21.7883 4294967295
-18.319525 17.940214 -21.636087 4294967295
-18.317694 19.034399 -21.771904 4294967295
-18.316677 13.552347 -21.988304 4294967295
-18.312761 19.347397 -21.7841 4294967295
-18.309294 18.097353 -21.595308 4294967295
-18.306393 18.722836 -21.661741 4294967295
-18.303188 13.865331 -21.948872 4294967295
-18.301359 18.254328 -21.568411 4294967295
-18.300446 14.177908 -21.974255 4294967295
-18.290188 14.647062 -21.975269 4294967295
-18.288616 13.397127 -21.798056 4294967295
-18.280294 14.491292 -21.894644 4294967295
-18.272823 15.429103 -21.975367 4294967295
-18.266989 14.960693 -21.877293 4294967295
-18.259014 14.023417 -21.703375 4294967295
-18.258709 15.273637 -21.869297 4294967295
-18.257603 13.241918 -21.589981 4294967295
-18.251526 15.7428 -21.888874 4294967295
-18.249992 15.899139 -21.900602 4294967295
-18.23843 15.118446 -21.726036 4294967295
-18.235355 16.368805 -21.875242 4294967295
-18.221216 16.682261 -21.831938 4294967295
-18.215733 17.307684 -21.88273 4294967295
-18.215408 17.151453 -21.859818 4294967295
-18.209702 16.839323 -21.783487 4294967295
-18.202333 16.996119 -21.760035 4294967295
-18.201611 14.807679 -21.462036 4294967295
-18.19565 18.715498 -21.950361 4294967295
-18.194027 16.527798 -21.647057 4294967295
-18.193102 18.871958 -21.955961 4294967295
-18.190838 17.465811 -21.753645 4294967295
-18.186306 17.622442 -21.747303 4294967295
-18.178408 13.07959 -22.047117 4294967295
-18.175545 18.248438 -21.766319 4294967295
-18.171982 18.561298 -21.786777 4294967295
-18.168011 19.342987 -21.867668 4294967295
-18.15316 17.937656 -21.589478 4294967295
-18.144688 18.094671 -21.559385 4294967295
-18.143665 19.032671 -21.679054 4294967295
-18.138659 14.330942 -21.975304 4294967295
-18.13349 19.189909 -21.638714 4294967295
-18.118917 13.394142 -21.730684 4294967295
-18.108582 14.01972 -21.752268 4294967295
-18.108227 13.550836 -21.687243 4294967295
-18.107857 15.269923 -21.915533 4294967295
-18.107534 14.48862 -21.808826 4294967295
-18.093437 14.176666 -21.682016 4294967295
-18.093279 14.801869 -21.764891 4294967295
-18.091911 13.864099 -21.630903 4294967295
-18.085617 15.896221 -21.865452 4294967295
-18.07799 14.646312 -21.651875 4294967295
-18.074762 15.42801 -21.737228 4294967295
-18.073418 16.678299 -21.896769 4294967295
-18.072495 15.115527 -21.681664 4294967295
-18.067228 16.366177 -21.817612 4294967295
-18.053926 16.210739 -21.716578 4294967295
-18.048561 16.523685 -21.726198 4294967295
-18.048193 18.086441 -21.933498 4294967295
-18.036945 16.055481 -21.593395 4294967295
-18.034815 17.149832 -21.727282 4294967295
-18.034458 15.742952 -21.536495 4294967295
-18.030434 15.586833 -21.49131 4294967295
-18.016092 17.463829 -21.656521 4294967295
-18.00754 13.232838 -21.993422 4294967295
-18.00592 17.620924 -21.616261 4294967295
-17.996641 17.777975 -21.581379 4294967295
-17.994991 18.872343 -21.718157 4294967295
-17.99312 17.934589 -21.581148 4294967295
-17.990641 16.840282 -21.419493 4294967295
-17.990446 18.403799 -21.627943 4294967295
-17.981998 13.077432 -21.818855 4294967295
-17.972742 19.186981 -21.626207 4294967295
-17.972639 19.343313 -21.646553 4294967295
-17.968771 18.561983 -21.518488 4294967295
-17.967752 19.031107 -21.575232 4294967295
-17.961515 14.172163 -21.842278 4294967295
-17.948309 14.485316 -21.804745 4294967295
-17.939165 14.016817 -21.686934 4294967295
-17.933567 15.11119 -21.799889 4294967295
-17.927126 13.860984 -21.59359 4294967295
-17.924469 13.392038 -21.514746 4294967295
-17.915817 15.268432 -21.714115 4294967295
-17.912878 13.548826 -21.465994 4294967295
-17.910563 16.362804 -21.829123 4294967295
-17.898026 14.80036 -21.544306 4294967295
-17.887989 14.331731 -21.421108 4294967295
