# .PCD v0.7 - Point Cloud Data file format
VERSION 0.7
FIELDS x y z rgb
SIZE 4 4 4 4
TYPE F F F U
COUNT 1 1 1 1
WIDTH 1120
HEIGHT 1
VIEWPOINT 0 0 0 1 0 0 0
POINTS 1120
DATA ascii
-19.25906 12.800091 -20.867584 4294967295
-19.25687 13.42595 -20.938616 4294967295
-19.247898 14.05204 -20.968279 4294967295
-19.247766 14.677725 -21.051844 4294967295
-19.244991 11.705049 -20.63405 4294967295
-19.244949 14.521446 -21.013569 4294967295
-19.237103 12.487768 -20.69145 4294967295
-19.221428 13.740217 -20.764669 4294967295
-19.146736 10.135852 -20.791239 4294967295
-19.14147 12.795433 -21.117548 4294967295
-19.136524 10.761841 -20.813362 4294967295
-19.134359 11.074811 -20.842352 4294967295
-19.134007 12.013537 -20.966702 4294967295
-19.133913 10.918345 -20.818548 4294967295
-19.126156 14.047113 -21.192888 4294967295
-19.125673 11.54435 -20.852695 4294967295
-19.125517 10.605458 -20.725208 4294967295
-19.118309 11.231517 -20.765661 4294967295
-19.115788 12.639769 -20.940069 4294967295
-19.114897 13.891191 -21.103268 4294967295
-19.107462 10.449088 -20.594114 4294967295
-19.104557 13.422334 -20.977076 4294967295
-19.09799 12.327326 -20.789499 4294967295
-19.094259 12.170931 -20.745697 4294967295
-19.093929 11.388403 -20.638226 4294967295
-19.093025 12.953371 -20.843613 4294967295
-19.092777 14.204964 -21.010748 4294967295
-19.088535 10.292662 -20.457691 4294967295
-19.088327 11.701543 -20.646288 4294967295
-19.085226 11.858124 -20.648491 4294967295
-19.073751 13.11048 -20.747328 4294967295
-19.071732 14.362349 -20.9037 4294967295
-19.068718 13.267146 -20.737761 4294967295
-19.06708 14.519019 -20.896461 4294967295
-19.063829 14.675631 -20.897755 4294967295
-19.059719 13.736965 -20.746233 4294967295
-19.030212 14.833773 -20.714205 4294967295
-18.983471 12.322759 -21.057936 4294967295
-18.981194 11.540624 -20.938749 4294967295
-18.978905 12.010007 -20.988029 4294967295
-18.967999 12.166707 -20.942776 4294967295
-18.96751 11.697339 -20.8766 4294967295
-18.962614 10.601978 -20.699299 4294967295
-18.95685 13.41855 -21.043518 4294967295
-18.956825 10.132442 -20.600838 4294967295
-18.953398 10.915101 -20.68539 4294967295
-18.952274 11.07163 -20.699635 4294967295
-18.944899 10.445591 -20.570444 4294967295
-18.940584 10.289068 -20.523115 4294967295
-18.939764 11.228324 -20.644611 4294967295
-18.938665 14.827082 -21.122534 4294967295
-18.938295 10.758738 -20.572433 4294967295
-18.934286 11.854502 -20.695608 4294967295
-18.926956 12.793708 -20.777487 4294967295
-18.923334 13.576243 -20.860815 4294967295
-18.920601 12.480884 -20.696686 4294967295
-18.917692 13.263485 -20.784378 4294967295
-18.916737 12.637506 -20.694265 4294967295
-18.916506 13.732982 -20.840378 4294967295
-18.91436 14.202484 -20.890541 4294967295
-18.906124 14.51579 -20.88262 4294967295
-18.900154 14.359592 -20.825254 4294967295
-18.896896 13.107683 -20.636862 4294967295
-18.895 12.951212 -20.604259 4294967295
-18.881811 14.0474 -20.671614 4294967295
-18.877861 14.673628 -20.731901 4294967295
-18.824514 10.285296 -20.782078 4294967295
-18.814423 12.945329 -21.078739 4294967295
-18.808823 11.380913 -20.8342 4294967295
-18.8036 10.128881 -20.633974 4294967295
-18.798029 12.163534 -20.873936 4294967295
-18.796053 10.59853 -20.651331 4294967295
-18.789515 12.007247 -20.801176 4294967295
-18.787792 12.320269 -20.832844 4294967295
-18.787699 11.850788 -20.769093 4294967295
-18.786512 13.728481 -21.014563 4294967295
-18.780079 12.789936 -20.849184 4294967295
-18.775196 10.911827 -20.56678 4294967295
-18.771437 13.572607 -20.902006 4294967295
-18.769548 13.885612 -20.93265 4294967295
-18.763845 11.538199 -20.582117 4294967295
-18.761932 11.225119 -20.52836 4294967295
-18.753109 13.260295 -20.748636 4294967295
-18.748081 11.695051 -20.50746 4294967295
-18.742922 14.825617 -20.897369 4294967295
-18.741871 12.634543 -20.596151 4294967295
-18.734322 12.478199 -20.529251 4294967295
-18.733208 14.513122 -20.79631 4294967295
-18.729582 14.66979 -20.795366 4294967295
-18.728857 14.043795 -20.70673 4294967295
-18.728355 14.356843 -20.7458 4294967295
-18.651455 13.254924 -21.094505 4294967295
-18.651009 11.220923 -20.818275 4294967295
-18.648029 10.751439 -20.737066 4294967295
-18.64473 10.594948 -20.696011 4294967295
-18.64337 13.411641 -21.066534 4294967295
-18.638699 10.43846 -20.638384 4294967295
-18.634878 10.125381 -20.573101 4294967295
-18.634779 10.281937 -20.593557 4294967295
-18.628345 10.908184 -20.638756 4294967295
-18.625212 11.064765 -20.640802 4294967295
-18.622757 13.56885 -20.962645 4294967295
-18.622078 12.630008 -20.832275 4294967295
-18.619728 12.943059 -20.860126 4294967295
-18.61661 12.004112 -20.714939 4294967295
-18.614935 12.473703 -20.767939 4294967295
-18.60944 11.691195 -20.629374 4294967295
-18.602686 11.378204 -20.546316 4294967295
-18.602409 11.847883 -20.607805 4294967295
-18.594702 14.039395 -20.855747 4294967295
-18.591467 11.534966 -20.499346 4294967295
-18.590536 13.100509 -20.704233 4294967295
-18.587374 14.196201 -20.832382 4294967295
-18.58655 12.161352 -20.553755 4294967295
-18.574255 12.787935 -20.56344 4294967295
-18.562159 13.884231 -20.637484 4294967295
-18.559847 13.727775 -20.602427 4294967295
-18.549765 14.354398 -20.62553 4294967295
-18.515228 10.591179 -20.872772 4294967295
-18.488525 10.747936 -20.732122 4294967295
-18.486105 11.061009 -20.759531 4294967295
-18.4764 10.434959 -20.616631 4294967295
-18.466749 12.156976 -20.789589 4294967295
-18.462135 11.374426 -20.656485 4294967295
-18.459724 10.904794 -20.578772 4294967295
-18.459669 13.722107 -20.957031 4294967295
-18.454618 12.000731 -20.695122 4294967295
-18.449564 13.409521 -20.853827 4294967295
-18.445004 13.096669 -20.784166 4294967295
-18.44455 11.53128 -20.571058 4294967295
-18.443129 10.278584 -20.3941 4294967295
-18.441711 14.348757 -20.932482 4294967295
-18.441553 14.505238 -20.952553 4294967295
-18.436872 10.121996 -20.335176 4294967295
-18.429876 12.627536 -20.629511 4294967295
-18.427416 14.036397 -20.803928 4294967295
-18.425388 11.218417 -20.41297 4294967295
-18.420969 14.193185 -20.785959 4294967295
-18.414879 12.784534 -20.559784 4294967295
-18.412939 13.567391 -20.653238 4294967295
-18.412409 12.47145 -20.502754 4294967295
-18.41098 13.254355 -20.5993 4294967295
-18.394182 14.663994 -20.686995 4294967295
-18.345537 10.744267 -20.827124 4294967295
-18.343693 10.58777 -20.794947 4294967295
-18.338903 10.118214 -20.702932 4294967295
-18.3281 12.466019 -20.9529 4294967295
-18.318357 10.274863 -20.59973 4294967295
-18.310427 11.996954 -20.783037 4294967295
-18.308569 11.840468 -20.750788 4294967295
-18.306875 11.057781 -20.635437 4294967295
-18.304407 14.187991 -21.040865 4294967295
-18.301947 10.901278 -20.584623 4294967295
-18.297308 14.657679 -21.06101 4294967295
-18.29319 11.371107 -20.594759 4294967295
-18.288115 13.719234 -20.879404 4294967295
-18.285461 13.875836 -20.884384 4294967295
-18.281481 13.406469 -20.797293 4294967295
-18.280367 11.527899 -20.538284 4294967295
-18.278469 12.936987 -20.71603 4294967295
-18.277922 10.43171 -20.376276 4294967295
-18.275284 12.154307 -20.591663 4294967295
-18.274242 13.093661 -20.711508 4294967295
-18.272976 13.563303 -20.766916 4294967295
-18.257694 14.033498 -20.737652 4294967295
-18.253828 13.250901 -20.609186 4294967295
-18.251886 14.346815 -20.7446 4294967295
-18.248821 14.816537 -20.789139 4294967295
-18.228556 14.504432 -20.624689 4294967295
-18.187508 10.740748 -20.831131 4294967295
-18.169367 10.114715 -20.637587 4294967295
-18.157042 10.427917 -20.605207 4294967295
-18.155144 12.462968 -20.866848 4294967295
-18.154932 10.271354 -20.571455 4294967295
-18.151676 11.367345 -20.698885 4294967295
-18.143015 12.776333 -20.835674 4294967295
-18.142956 11.524045 -20.667263 4294967295
-18.142679 11.680605 -20.686605 4294967295
-18.141291 10.897793 -20.573168 4294967295
-18.135363 13.715627 -20.915518 4294967295
-18.134569 11.054459 -20.553606 4294967295
-18.131239 12.15051 -20.680593 4294967295
-18.12809 12.620237 -20.724623 4294967295
-18.122782 12.933479 -20.734608 4294967295
-18.119593 14.811747 -20.96739 4294967295
-18.115572 13.559869 -20.775127 4294967295
-18.114191 13.090299 -20.703777 4294967295
-18.113691 13.403403 -20.742781 4294967295
-18.112291 11.837782 -20.524229 4294967295
-18.111685 13.873077 -20.793697 4294967295
-18.10354 12.307759 -20.534468 4294967295
-18.097921 14.656302 -20.815697 4294967295
-18.097652 13.247413 -20.625011 4294967295
-18.095724 14.186812 -20.739428 4294967295
-18.09306 14.34347 -20.744366 4294967295
-18.089481 14.030533 -20.680767 4294967295
-18.086681 14.500302 -20.726896 4294967295
-18.023884 10.26767 -20.73851 4294967295
-18.017563 10.580805 -20.742405 4294967295
-18.00482 11.050582 -20.728592 4294967295
-18.001127 10.42437 -20.622343 4294967295
-17.999605 10.894091 -20.676161 4294967295
-17.996368 10.737557 -20.635662 4294967295
-17.976553 11.520701 -20.621239 4294967295
-17.974411 13.555828 -20.881239 4294967295
-17.972258 11.990501 -20.658352 4294967295
-17.961246 14.65191 -20.94886 4294967295
-17.960932 13.71286 -20.821045 4294967295
-17.95788 11.67763 -20.52972 4294967295
-17.95435 14.33922 -20.865355 4294967295
-17.952768 11.364504 -20.456905 4294967295
-17.947821 11.834435 -20.490107 4294967295
-17.947517 12.617425 -20.593285 4294967295
-17.947279 11.207963 -20.402826 4294967295
-17.944717 13.400377 -20.681393 4294967295
-17.937393 12.774306 -20.553284 4294967295
-17.93235 12.461243 -20.480906 4294967295
-17.930449 13.087711 -20.553457 4294967295
-17.920485 14.497305 -20.682407 4294967295
-17.920401 13.87102 -20.597923 4294967295
-17.91955 14.184212 -20.634798 4294967295
-17.914307 14.027855 -20.58222 4294967295
-17.899191 14.811472 -20.596174 4294967295
-17.841911 12.142946 -20.850443 4294967295
-17.831247 12.612801 -20.84923 4294967295
-17.830219 10.890705 -20.612247 4294967295
-17.827503 11.986735 -20.742796 4294967295
-17.823818 12.769545 -20.825523 4294967295
-17.817869 10.107759 -20.432989 4294967295
-17.8169 11.360651 -20.595062 4294967295
-17.816242 10.734255 -20.507158 4294967295
-17.813942 13.082921 -20.808065 4294967295
-17.806675 14.648376 -20.974112 4294967295
-17.804886 11.517448 -20.543768 4294967295
-17.804337 10.57774 -20.41452 4294967295
-17.799616 10.264483 -20.344122 4294967295
-17.794687 11.830853 -20.524387 4294967295
-17.791531 12.457328 -20.589344 4294967295
-17.79011 11.047806 -20.39189 4294967295
-17.787609 11.204481 -20.397833 4294967295
-17.786009 11.674407 -20.451183 4294967295
-17.782618 13.397103 -20.661629 4294967295
-17.781363 13.866852 -20.717031 4294967295
-17.776625 12.927545 -20.562632 4294967295
-17.766899 12.301351 -20.420177 4294967295
-17.760075 13.711114 -20.568024 4294967295
-17.757032 14.181015 -20.612682 4294967295
-17.755575 13.241451 -20.478001 4294967295
-17.750635 14.807635 -20.658144 4294967295
-17.737459 14.495085 -20.536959 4294967295
-17.676819 11.983101 -20.791447 4294967295
-17.664145 10.730673 -20.547539 4294967295
-17.663048 12.296531 -20.750664 4294967295
-17.658785 10.41748 -20.473383 4294967295
-17.653227 12.609913 -20.733612 4294967295
-17.651369 11.200661 -20.533714 4294967295
-17.651361 14.018846 -20.911074 4294967295
-17.645252 12.453559 -20.664747 4294967295
-17.645035 14.801684 -20.977882 4294967295
-17.639828 10.574264 -20.380461 4294967295
-17.634256 11.044266 -20.409927 4294967295
-17.632349 11.514208 -20.461393 4294967295
-17.630066 12.767158 -20.61548 4294967295
-17.629015 14.332871 -20.818832 4294967295
-17.62784 13.236989 -20.665014 4294967295
-17.625767 14.176467 -20.778366 4294967295
-17.620735 13.080637 -20.601387 4294967295
-17.618816 13.393888 -20.631804 4294967295
-17.612446 12.924295 -20.530632 4294967295
-17.583143 14.648134 -20.585377 4294967295
-17.579243 14.491712 -20.540993 4294967295
-17.533424 11.509686 -20.82091 4294967295
-17.528494 12.135952 -20.875139 4294967295
-17.517597 10.100603 -20.537346 4294967295
-17.517126 10.883637 -20.639324 4294967295
-17.516497 10.727048 -20.614586 4294967295
-17.516006 12.449341 -20.84215 4294967295
-17.514923 10.257234 -20.542267 4294967295
-17.51272 11.823195 -20.73863 4294967295
-17.506401 11.666742 -20.679779 4294967295
-17.49662 12.919546 -20.788754 4294967295
-17.496101 11.980124 -20.659914 4294967295
-17.49325 12.606517 -20.726637 4294967295
-17.489555 10.41402 -20.411028 4294967295
-17.48868 12.293476 -20.657316 4294967295
-17.488562 14.641736 -20.970863 4294967295
-17.486292 14.015743 -20.873468 4294967295
-17.480303 11.0407 -20.439388 4294967295
-17.474249 12.763646 -20.633648 4294967295
-17.474169 14.798951 -20.905539 4294967295
-17.473919 11.197433 -20.42206 4294967295
-17.472406 14.329424 -20.832134 4294967295
-17.463591 13.233772 -20.632608 4294967295
-17.457399 11.354341 -20.343937 4294967295
-17.456827 13.547205 -20.633974 4294967295
-17.45537 13.860444 -20.667143 4294967295
-17.448433 14.173908 -20.667473 4294967295
-17.43372 13.704688 -20.516394 4294967295
-17.424049 14.488197 -20.563219 4294967295
-17.375753 10.723356 -20.722872 4294967295
-17.364513 10.566866 -20.634605 4294967295
-17.356009 11.036757 -20.646492 4294967295
-17.345442 11.819901 -20.687933 4294967295
-17.342943 10.880301 -20.547295 4294967295
-17.342859 11.506758 -20.630579 4294967295
-17.337374 13.072707 -20.807146 4294967295
-17.335741 11.193643 -20.546045 4294967295
-17.332676 14.325224 -20.946493 4294967295
-17.326967 13.229617 -20.765778 4294967295
-17.325428 12.916514 -20.714685 4294967295
-17.325165 11.976931 -20.58744 4294967295
-17.324299 14.169057 -20.875425 4294967295
-17.321405 10.410551 -20.355429 4294967295
-17.318653 10.25389 -20.31798 4294967295
-17.318527 12.446925 -20.610535 4294967295
-17.317093 13.699683 -20.769484 4294967295
-17.316687 11.350565 -20.452875 4294967295
-17.315981 12.133757 -20.553396 4294967295
-17.309034 13.856571 -20.742186 4294967295
-17.304136 12.290671 -20.503418 4294967295
-17.300461 13.543726 -20.648973 4294967295
-17.295435 14.483459 -20.744541 4294967295
-17.292795 13.387395 -20.582138 4294967295
-17.291527 11.664324 -20.344099 4294967295
-17.290392 14.013918 -20.651535 4294967295
-17.274858 14.797609 -20.663265 4294967295
-17.246122 14.642376 -20.470343 4294967295
-17.212788 10.71988 -20.698006 4294967295
-17.20183 10.093505 -20.54874 4294967295
-17.200689 10.250139 -20.562851 4294967295
-17.187506 10.563491 -20.525875 4294967295
-17.184484 11.503269 -20.633404 4294967295
-17.183002 11.816508 -20.666399 4294967295
-17.178125 13.225878 -20.825586 4294967295
-17.172552 14.478464 -20.959642 4294967295
-17.172112 12.44316 -20.685007 4294967295
-17.171314 11.346864 -20.533716 4294967295
-17.16247 10.407019 -20.355185 4294967295
-17.161539 10.877045 -20.412449 4294967295
-17.159426 12.600107 -20.630093 4294967295
-17.155182 12.130349 -20.541925 4294967295
-17.154497 13.853026 -20.768057 4294967295
-17.152332 13.383349 -20.692339 4294967295
-17.145214 13.070377 -20.607924 4294967295
-17.134979 14.793349 -20.776964 4294967295
-17.131781 11.974222 -20.381069 4294967295
-17.131603 11.660868 -20.338131 4294967295
-17.130632 14.010589 -20.646347 4294967295
-17.118671 12.757911 -20.407391 4294967295
-17.118576 14.637549 -20.658012 4294967295
-17.117554 14.324374 -20.610043 4294967295
-17.1047 13.541698 -20.428555 4294967295
-17.048941 10.716412 -20.668049 4294967295
-17.044296 10.403215 -20.598475 4294967295
-17.0408 10.246605 -20.556677 4294967295
-17.039412 11.812734 -20.757563 4294967295
-17.038967 10.873128 -20.629416 4294967295
-17.037945 12.595639 -20.853361 4294967295
-17.031063 11.656301 -20.686806 4294967295
-17.028725 12.752469 -20.819237 4294967295
-17.02441 12.282839 -20.730743 4294967295
-17.018278 13.065937 -20.798704 4294967295
-17.010918 13.692482 -20.838423 4294967295
-17.009113 11.030121 -20.472059 4294967295
-17.005739 10.560152 -20.389135 4294967295
-17.002142 13.536236 -20.765142 4294967295
-17.001747 11.970134 -20.553616 4294967295
-17.000206 12.126805 -20.565331 4294967295
-16.998676 11.500251 -20.472517 4294967295
-16.99221 11.343691 -20.412985 4294967295
-16.991611 13.849814 -20.74412 4294967295
-16.981518 11.187167 -20.328211 4294967295
-16.975273 13.380595 -20.583864 4294967295
-16.974707 12.910697 -20.517721 4294967295
-16.968811 14.16396 -20.649891 4294967295
-16.963528 14.007561 -20.597448 4294967295
-16.959118 14.321001 -20.612963 4294967295
-16.948225 14.634753 -20.589796 4294967295
-16.889046 10.399659 -20.620018 4294967295
-16.882238 10.086418 -20.537617 4294967295
-16.881561 10.243068 -20.554482 4294967295
-16.881544 11.809247 -20.763424 4294967295
-16.879993 10.712991 -20.607859 4294967295
-16.879881 11.965873 -20.77441 4294967295
-16.87944 11.496089 -20.70908 4294967295
-16.87862 11.026259 -20.641478 4294967295
-16.875957 11.652757 -20.709225 4294967295
-16.868481 12.122723 -20.727362 4294967295
-16.867393 12.592533 -20.783581 4294967295
-16.863916 10.869797 -20.532911 4294967295
-16.859674 13.06252 -20.800268 4294967295
-16.850889 14.315408 -20.915091 4294967295
-16.844772 14.628796 -20.920431 4294967295
-16.84374 13.219637 -20.726213 4294967295
-16.843573 10.556652 -20.369783 4294967295
-16.840889 13.689528 -20.771921 4294967295
-16.837555 14.002837 -20.793854 4294967295
-16.836117 12.906656 -20.638973 4294967295
-16.835213 13.376536 -20.696293 4294967295
-16.834806 13.533158 -20.714773 4294967295
-16.819103 11.183718 -20.307543 4294967295
-16.818335 12.280557 -20.449356 4294967295
-16.816418 14.473536 -20.73061 4294967295
-16.815578 14.786769 -20.767408 4294967295
-16.789476 14.161472 -20.52829 4294967295
-16.768129 14.945741 -20.505644 4294967295
-23.208403 16.791187 -21.32918 4294967295
-23.190224 17.573347 -21.321089 4294967295
-23.181589 18.510952 -21.394945 4294967295
-23.173573 18.823959 -21.38699 4294967295
-23.173126 19.136265 -21.427019 4294967295
-23.163467 19.917839 -21.472954 4294967295
-23.149723 19.763136 -21.364424 4294967295
-23.139803 21.169355 -21.494408 4294967295
-23.137354 21.637957 -21.543161 4294967295
-23.133886 20.857801 -21.414074 4294967295
-23.133392 21.482334 -21.496649 4294967295
-23.1196 15.22218 -21.554609 4294967295
-23.117739 15.066175 -21.521406 4294967295
-23.103872 15.84754 -21.540668 4294967295
-23.102125 15.535419 -21.486769 4294967295
-23.10121 15.691593 -21.50239 4294967295
-23.100275 16.472174 -21.603539 4294967295
-23.099394 16.316139 -21.576546 4294967295
-23.09516 15.379698 -21.421246 4294967295
-23.083807 16.004936 -21.43502 4294967295
-23.081381 16.161226 -21.441076 4294967295
-23.079605 16.629725 -21.494091 4294967295
-23.069351 17.567162 -21.557646 4294967295
-23.066999 17.255129 -21.499937 4294967295
-23.058109 18.816851 -21.657776 4294967295
-23.056934 18.660879 -21.628937 4294967295
-23.055197 18.192755 -21.553701 4294967295
-23.051361 19.597847 -21.722092 4294967295
-23.050694 19.285782 -21.675064 4294967295
-23.049093 16.788048 -21.322329 4294967295
-23.048252 18.349468 -21.531162 4294967295
-23.047726 19.754276 -21.720499 4294967295
-23.043961 19.910727 -21.718086 4294967295
-23.035809 17.726009 -21.366749 4294967295
-23.034494 18.506809 -21.465509 4294967295
-23.033747 16.945341 -21.246599 4294967295
-23.02371 18.976181 -21.461504 4294967295
-23.022385 19.444666 -21.517355 4294967295
-23.018665 19.13279 -21.451 4294967295
-23.018442 20.693825 -21.66367 4294967295
-23.015226 18.040051 -21.279312 4294967295
-23.014191 20.850378 -21.658186 4294967295
-23.005901 21.007408 -21.627151 4294967295
-23.00251 21.319965 -21.64851 4294967295
-23.000671 20.227488 -21.487028 4294967295
-22.997051 20.383997 -21.48554 4294967295
-22.988905 21.165476 -21.541063 4294967295
-22.985947 20.541342 -21.43671 4294967295
-22.979294 20.073627 -21.330385 4294967295
-22.955194 21.79401 -21.413494 4294967295
-22.954493 21.48181 -21.366238 4294967295
-22.950241 16.000099 -21.590755 4294967295
-22.948866 21.638641 -21.35206 4294967295
-22.931936 15.845141 -21.453636 4294967295
-22.931494 16.625788 -21.557835 4294967295
-22.929098 17.094275 -21.60689 4294967295
-22.918907 17.563358 -21.606659 4294967295
-22.914307 16.314714 -21.406391 4294967295
-22.908955 15.690404 -21.286942 4294967295
-22.908501 15.06567 -21.198427 4294967295
-22.904003 15.222121 -21.191397 4294967295
-22.903746 16.159258 -21.318228 4294967295
-22.901859 18.033073 -21.563122 4294967295
-22.901178 17.252518 -21.451818 4294967295
-22.898035 17.721159 -21.496155 4294967295
-22.894329 16.940739 -21.36573 4294967295
-22.890287 17.877928 -21.468592 4294967295
-22.888597 15.535432 -21.136826 4294967295
-22.888544 16.472637 -21.264944 4294967295
-22.885271 15.379405 -21.094379 4294967295
-22.881891 19.595896 -21.650894 4294967295
-22.879446 16.785652 -21.250254 4294967295
-22.873579 20.533226 -21.726727 4294967295
-22.872835 17.410877 -21.294096 4294967295
-22.871908 19.753 -21.609228 4294967295
-22.869099 20.377645 -21.67704 4294967295
-22.863356 18.817122 -21.426826 4294967295
-22.858503 18.349098 -21.331966 4294967295
-22.857864 19.910555 -21.54191 4294967295
-22.856565 19.442322 -21.469519 4294967295
-22.856302 18.505461 -21.339464 4294967295
-22.855251 18.974028 -21.397024 4294967295
-22.852001 21.784233 -21.76156 4294967295
-22.84724 20.692238 -21.581779 4294967295
-22.837893 21.005508 -21.565535 4294967295
-22.812626 21.164562 -21.42737 4294967295
-22.806791 20.852932 -21.347736 4294967295
-22.798342 21.634695 -21.401367 4294967295
-22.79656 15.684341 -21.576357 4294967295
-22.787958 21.32362 -21.293011 4294967295
-22.78574 15.060435 -21.422499 4294967295
-22.781334 17.090286 -21.672691 4294967295
-22.766531 17.55971 -21.643415 4294967295
-22.751528 15.218505 -21.227922 4294967295
-22.747286 16.624393 -21.393675 4294967295
-22.742897 18.18609 -21.57983 4294967295
-22.740784 15.531533 -21.20289 4294967295
-22.738934 18.498655 -21.597589 4294967295
-22.736408 16.781334 -21.346416 4294967295
-22.73403 16.000565 -21.224449 4294967295
-22.733707 16.469168 -21.286594 4294967295
-22.728741 15.376019 -21.105471 4294967295
-22.728678 15.844694 -21.16927 4294967295
-22.724545 18.968309 -21.570959 4294967295
-22.723257 18.656189 -21.520082 4294967295
-22.717783 20.37384 -21.720711 4294967295
-22.717384 16.157856 -21.140783 4294967295
-22.715708 19.905807 -21.643496 4294967295
-22.708523 18.813679 -21.448519 4294967295
-22.705664 17.408384 -21.237984 4294967295
-22.700804 16.940123 -21.143133 4294967295
-22.699711 17.25264 -21.179031 4294967295
-22.695078 21.000706 -21.66304 4294967295
-22.688374 20.220909 -21.513889 4294967295
-22.687662 18.347055 -21.252764 4294967295
-22.683304 20.845949 -21.567434 4294967295
-22.681601 19.128536 -21.321487 4294967295
-22.680428 19.440994 -21.356857 4294967295
-22.676867 20.065992 -21.419939 4294967295
-22.670588 19.598148 -21.316191 4294967295
-22.669744 21.471981 -21.567455 4294967295
-22.667051 19.754684 -21.315281 4294967295
-22.659756 20.536306 -21.3762 4294967295
-22.659723 20.692469 -21.397381 4294967295
-22.648607 21.942926 -21.498348 4294967295
-22.646254 21.787083 -21.462135 4294967295
-22.645191 21.162605 -21.369911 4294967295
-22.644072 21.631207 -21.426992 4294967295
-22.630764 21.320471 -21.300335 4294967295
-22.627279 15.05715 -21.42095 4294967295
-22.620401 16.462843 -21.569942 4294967295
-22.619631 15.213736 -21.394119 4294967295
-22.596685 15.995969 -21.356388 4294967295
-22.592878 16.620897 -21.417904 4294967295
-22.592842 15.84003 -21.310795 4294967295
-22.592257 16.308607 -21.371229 4294967295
-22.590319 17.557964 -21.530001 4294967295
-22.590193 15.371594 -21.229956 4294967295
-22.589376 17.401905 -21.502697 4294967295
-22.587809 15.684145 -21.257698 4294967295
-22.580074 15.528399 -21.187572 4294967295
-22.575882 16.153505 -21.246674 4294967295
-22.571297 17.871796 -21.452917 4294967295
-22.564445 18.653105 -21.516611 4294967295
-22.556477 16.779671 -21.209934 4294967295
-22.552858 19.747095 -21.593204 4294967295
-22.552769 19.278736 -21.528549 4294967295
-22.551363 18.966595 -21.476963 4294967295
-22.550179 18.810556 -21.448135 4294967295
-22.549927 18.3421 -21.382425 4294967295
-22.548164 17.717525 -21.285828 4294967295
-22.545593 17.249119 -21.205498 4294967295
-22.545216 19.903999 -21.566448 4294967295
-22.538998 21.153521 -21.698185 4294967295
-22.535378 19.592735 -21.461769 4294967295
-22.535288 18.030991 -21.247478 4294967295
-22.534416 18.499651 -21.306116 4294967295
-22.530863 20.998363 -21.625629 4294967295
-22.530748 20.530033 -21.560818 4294967295
-22.526026 18.187988 -21.210526 4294967295
-22.525791 20.842829 -21.572342 4294967295
-22.521553 20.062609 -21.438833 4294967295
-22.520836 20.374983 -21.477055 4294967295
-22.51804 20.687571 -21.502186 4294967295
-22.513487 19.438747 -21.302559 4294967295
-22.501486 21.470167 -21.504807 4294967295
-22.493973 21.314913 -21.436159 4294967295
-22.482744 21.628569 -21.408222 4294967295
-22.471863 15.678307 -21.524069 4294967295
-22.459488 21.78758 -21.28322 4294967295
-22.446774 15.367455 -21.323488 4294967295
-22.443707 15.836197 -21.368277 4294967295
-22.440054 16.304958 -21.409386 4294967295
-22.431084 15.212136 -21.203403 4294967295
-22.430767 16.774111 -21.415031 4294967295
-22.426882 16.462029 -21.347872 4294967295
-22.425505 17.711451 -21.510077 4294967295
-22.423477 16.61845 -21.347818 4294967295
-22.418142 17.243557 -21.399702 4294967295
-22.412056 16.150618 -21.211878 4294967295
-22.411428 17.868757 -21.442911 4294967295
-22.410265 17.400341 -21.371513 4294967295
-22.408049 19.742641 -21.677864 4294967295
-22.40782 17.556713 -21.377501 4294967295
-22.399672 16.932556 -21.240801 4294967295
-22.397938 18.650719 -21.464849 4294967295
-22.397341 19.587612 -21.589205 4294967295
-22.39443 19.119495 -21.506861 4294967295
-22.386452 17.089756 -21.179018 4294967295
-22.381203 20.526024 -21.615856 4294967295
-22.380972 18.964611 -21.400892 4294967295
-22.380623 18.027517 -21.270548 4294967295
-22.379038 18.808617 -21.367378 4294967295
-22.367037 21.464314 -21.6549 4294967295
-22.366798 21.932636 -21.717432 4294967295
-22.364168 19.434759 -21.359316 4294967295
-22.363291 18.49765 -21.225641 4294967295
-22.357298 20.684799 -21.486965 4294967295
-22.346663 21.310602 -21.505529 4294967295
-22.346405 21.779041 -21.567953 4294967295
-22.342297 20.217928 -21.328617 4294967295
-22.341034 20.061871 -21.299324 4294967295
-22.336933 20.374695 -21.316257 4294967295
-22.336746 20.999439 -21.400507 4294967295
-22.334087 20.843567 -21.362452 4294967295
-22.333399 21.155996 -21.400824 4294967295
-22.311729 15.050501 -21.426735 4294967295
-22.299944 15.832032 -21.459427 4294967295
-22.285452 16.145296 -21.411083 4294967295
-22.285271 15.989129 -21.388596 4294967295
-22.276049 18.019823 -21.608114 4294967295
-22.272379 15.677532 -21.264917 4294967295
-22.270525 16.614849 -21.381371 4294967295
-22.268173 15.521563 -21.217154 4294967295
-22.267223 16.771267 -21.381975 4294967295
-22.265846 15.209229 -21.159826 4294967295
-22.260738 17.396465 -21.426622 4294967295
-22.251976 18.958742 -21.585001 4294967295
-22.249422 18.178232 -21.462276 4294967295
-22.247015 18.334602 -21.468512 4294967295
-22.23794 19.428495 -21.560913 4294967295
-22.231773 17.711147 -21.287437 4294967295
-22.231071 16.305105 -21.090866 4294967295
-22.226151 18.648806 -21.380209 4294967295
-22.225008 17.243017 -21.180916 4294967295
-22.221525 17.08704 -21.137688 4294967295
-22.22073 18.493101 -21.324835 4294967295
-22.216646 19.27442 -21.405914 4294967295
-22.216393 19.118263 -21.382986 4294967295
-22.213896 19.743206 -21.452677 4294967295
-22.212866 17.55644 -21.147366 4294967295
-22.211786 20.680334 -21.567457 4294967295
-22.210455 20.368195 -21.516428 4294967295
-22.201437 19.900654 -21.395824 4294967295
-22.184208 21.151913 -21.458422 4294967295
-22.182974 21.308218 -21.472013 4294967295
-22.178638 20.215427 -21.295431 4294967295
-22.171312 21.778097 -21.462862 4294967295
-22.16757 21.622385 -21.418049 4294967295
-22.150925 21.468191 -21.292278 4294967295
-22.150553 15.515891 -21.472412 4294967295
-22.147766 21.937172 -21.336489 4294967295
-22.139349 15.047964 -21.338148 4294967295
-22.12999 15.360895 -21.322104 4294967295
-22.129818 16.298052 -21.449017 4294967295
-22.123821 17.547754 -21.582024 4294967295
-22.107571 16.143322 -21.288179 4294967295
-22.107092 17.39291 -21.455816 4294967295
-22.105278 18.017712 -21.529753 4294967295
-22.098181 18.174471 -21.506584 4294967295
-22.097908 15.675235 -21.163568 4294967295
-22.096638 16.45649 -21.262287 4294967295
-22.091602 15.988119 -21.166698 4294967295
-22.089365 17.238085 -21.323351 4294967295
-22.088274 17.081957 -21.295177 4294967295
-22.087784 15.207032 -21.036051 4294967295
-22.087025 16.61338 -21.223347 4294967295
-22.079235 18.332279 -21.409164 4294967295
-22.078854 17.707531 -21.321451 4294967295
-22.077284 20.518539 -21.695433 4294967295
-22.076962 16.926567 -21.202927 4294967295
-22.074789 19.269718 -21.509253 4294967295
-22.073662 18.801321 -21.438215 4294967295
-22.068386 18.645618 -21.383816 4294967295
-22.065657 19.426771 -21.473341 4294967295
-22.065048 19.895313 -21.533499 4294967295
-22.062046 20.207926 -21.557333 4294967295
-22.062025 19.5833 -21.471914 4294967295
-22.060686 18.490108 -21.31423 4294967295
-22.058186 17.865438 -21.213223 4294967295
-22.05102 20.677563 -21.552208 4294967295
-22.045862 19.741104 -21.391954 4294967295
-22.045536 20.990471 -21.560492 4294967295
-22.043741 20.053692 -21.421318 4294967295
-22.040064 21.459532 -21.590174 4294967295
-22.025995 20.367954 -21.352787 4294967295
-22.022331 21.149298 -21.436455 4294967295
-22.019566 21.774298 -21.504419 4294967295
-22.018671 21.305901 -21.434858 4294967295
-22.013971 21.931145 -21.490698 4294967295
-22.007936 20.838554 -21.303637 4294967295
-21.987047 21.622051 -21.279421 4294967295
-21.97538 16.763058 -21.537067 4294967295
-21.961048 15.514443 -21.276819 4294967295
-21.952873 17.3894 -21.481432 4294967295
-21.951597 17.545671 -21.494762 4294967295
-21.946817 18.326872 -21.571388 4294967295
-21.94281 15.046724 -21.098635 4294967295
-21.941351 15.828102 -21.196131 4294967295
-21.93627 16.140915 -21.206951 4294967295
-21.933079 17.078514 -21.314898 4294967295
-21.929708 18.015995 -21.4217 4294967295
-21.924486 16.610441 -21.197155 4294967295
-21.92346 15.98548 -21.105425 4294967295
-21.922119 18.172831 -21.395517 4294967295
-21.913725 19.735361 -21.556097 4294967295
-21.913054 19.891582 -21.573206 4294967295
-21.911209 17.705101 -21.263292 4294967295
-21.903084 18.955517 -21.382965 4294967295
-21.899305 18.487232 -21.29538 4294967295
-21.899181 19.580654 -21.4438 4294967295
-21.891998 18.64411 -21.270975 4294967295
-21.891621 21.143082 -21.609575 4294967295
-21.889952 20.362492 -21.492603 4294967295
-21.889624 20.831015 -21.554478 4294967295
-21.887289 20.206602 -21.454638 4294967295
-21.886093 20.675249 -21.511086 4294967295
-21.884058 19.269737 -21.306559 4294967295
-21.859558 20.053314 -21.259855 4294967295
-21.846758 21.460672 -21.371622 4294967295
-21.81761 15.354078 -21.348631 4294967295
-21.815035 15.041776 -21.289928 4294967295
-21.812984 15.510562 -21.341022 4294967295
-21.810877 16.447912 -21.45566 4294967295
-21.803394 17.073175 -21.494085 4294967295
-21.798668 16.136316 -21.336737 4294967295
-21.79821 16.917372 -21.440386 4294967295
-21.796511 16.292675 -21.344563 4294967295
-21.794121 16.605263 -21.372229 4294967295
-21.793388 15.199202 -21.17589 4294967295
-21.790031 15.980641 -21.26145 4294967295
-21.788422 15.824501 -21.230074 4294967295
-21.785894 17.855438 -21.491215 4294967295
-21.775606 18.949514 -21.575991 4294967295
-21.775375 16.762802 -21.276367 4294967295
-21.774582 19.105766 -21.590879 4294967295
-21.765652 17.544668 -21.322115 4294967295
-21.759968 18.638597 -21.435705 4294967295
-21.759579 18.013817 -21.34807 4294967295
-21.755444 19.576105 -21.535212 4294967295
-21.753218 18.483 -21.372227 4294967295
-21.752058 17.233246 -21.194553 4294967295
-21.751934 17.701994 -21.257694 4294967295
-21.747513 19.889242 -21.528259 4294967295
-21.746784 20.670099 -21.630165 4294967295
-21.745281 18.171249 -21.280046 4294967295
-21.743013 19.264957 -21.414982 4294967295
-21.742367 20.358276 -21.560001 4294967295
-21.736511 17.390701 -21.118704 4294967295
-21.734823 21.452162 -21.661903 4294967295
-21.733486 20.203053 -21.483246 4294967295
-21.72967 20.515818 -21.501989 4294967295
-21.726831 21.140802 -21.569435 4294967295
-21.721432 19.423265 -21.301466 4294967295
-21.72101 21.297638 -21.554379 4294967295
-21.720451 21.610016 -21.593466 4294967295
-21.688717 21.770021 -21.416632 4294967295
-21.678894 21.927425 -21.376595 4294967295
-21.678421 20.990143 -21.245857 4294967295
-21.652977 17.069382 -21.543415 4294967295
-21.648003 17.225929 -21.533667 4294967295
-21.647087 17.694506 -21.591785 4294967295
-21.639488 15.976888 -21.310246 4294967295
-21.639206 15.195674 -21.202023 4294967295
-21.639183 15.664431 -21.265759 4294967295
-21.63867 17.382824 -21.496712 4294967295
-21.636906 18.319988 -21.61339 4294967295
-21.636795 16.601961 -21.378586 4294967295
-21.634972 16.13341 -21.303339 4294967295
-21.633347 16.445978 -21.335783 4294967295
-21.624899 15.82155 -21.197889 4294967295
-21.623325 15.352834 -21.124178 4294967295
-21.622578 18.477406 -21.545294 4294967295
-21.610931 16.76001 -21.23848 4294967295
-21.607588 18.634922 -21.473072 4294967295
-21.604563 19.259933 -21.539324 4294967295
-21.603884 19.103821 -21.513802 4294967295
-21.596291 18.167288 -21.338745 4294967295
-21.580408 20.355604 -21.537642 4294967295
-21.580318 20.199436 -21.515806 4294967295
-21.579643 21.136492 -21.63925 4294967295
-21.578856 21.605005 -21.698154 4294967295
-21.578352 20.98049 -21.609919 4294967295
-21.575066 18.794085 -21.291492 4294967295
-21.570562 21.44985 -21.625177 4294967295
-21.569149 19.575785 -21.361023 4294967295
-21.56871 21.293913 -21.592365 4294967295
-21.566328 20.669493 -21.492407 4294967295
-21.563787 20.044975 -21.391443 4294967295
-21.563234 21.763031 -21.622044 4294967295
-21.562147 20.51376 -21.445055 4294967295
-21.559355 18.951778 -21.21479 4294967295
-21.556368 19.73329 -21.302605 4294967295
-21.554899 19.889671 -21.314735 4294967295
-21.513031 15.034383 -21.381426 4294967295
-21.512012 15.190659 -21.396358 4294967295
-21.508949 16.284256 -21.526165 4294967295
-21.505623 15.972085 -21.462902 4294967295
-21.497971 16.753567 -21.521563 4294967295
-21.485563 16.598236 -21.422997 4294967295
-21.477774 17.223627 -21.459547 4294967295
-21.475494 15.661474 -21.232599 4294967295
-21.475277 17.692408 -21.507797 4294967295
-21.470396 17.067968 -21.392313 4294967295
-21.462057 18.005878 -21.467999 4294967295
-21.458925 19.41176 -21.639866 4294967295
-21.456936 15.818871 -21.138233 4294967295
-21.450705 19.568729 -21.609951 4294967295
-21.448624 19.10041 -21.533199 4294967295
-21.447954 17.382126 -21.295059 4294967295
-21.437679 18.63282 -21.401241 4294967295
-21.437578 19.726212 -21.549484 4294967295
-21.436483 20.663305 -21.670227 4294967295
-21.434208 17.851955 -21.27326 4294967295
-21.426966 20.352016 -21.568457 4294967295
-21.420046 18.478155 -21.270155 4294967295
-21.416782 18.322186 -21.22855 4294967295
-21.414078 20.509586 -21.509495 4294967295
-21.406401 21.135178 -21.546762 4294967295
-21.405226 19.885695 -21.369318 4294967295
-21.401415 21.448112 -21.558245 4294967295
-21.400904 21.760515 -21.597589 4294967295
-21.40081 20.823433 -21.469439 4294967295
-21.399868 21.604469 -21.56988 4294967295
-21.398275 18.9489 -21.198402 4294967295
-21.394966 21.292685 -21.496847 4294967295
-21.392496 20.043238 -21.311337 4294967295
-21.361031 21.921568 -21.370708 4294967295
-21.357695 20.98451 -21.222328 4294967295
-21.342339 15.187986 -21.325832 4294967295
-21.334595 15.500913 -21.320177 4294967295
-21.328093 16.907368 -21.471058 4294967295
-21.32674 15.657623 -21.292572 4294967295
-21.326223 15.0326 -21.204298 4294967295
-21.32295 15.345324 -21.226465 4294967295
-21.316174 17.064451 -21.418173 4294967295
-21.308285 15.971276 -21.220272 4294967295
-21.303387 17.221632 -21.359901 4294967295
-21.302177 16.440474 -21.246069 4294967295
-21.29491 18.784479 -21.519735 4294967295
-21.290506 16.597542 -21.19474 4294967295
-21.285606 17.847979 -21.33436 4294967295
-21.284653 16.129065 -21.094524 4294967295
-21.284466 18.629217 -21.433546 4294967295
-21.280916 19.72295 -21.56024 4294967295
-21.280453 18.317122 -21.366079 4294967295
-21.278788 19.566975 -21.525761 4294967295
-21.278671 19.098385 -21.461279 4294967295
-21.276522 17.5362 -21.235338 4294967295
-21.272982 15.817166 -20.979364 4294967295
-21.270781 17.380373 -21.178364 4294967295
-21.269653 16.755289 -21.086285 4294967295
-21.263288 21.442715 -21.684378 4294967295
-21.257969 19.256575 -21.353823 4294967295
-21.25268 20.350655 -21.469725 4294967295
-21.248383 18.476171 -21.187923 4294967295
-21.247149 21.13225 -21.541599 4294967295
-21.244221 21.913479 -21.629623 4294967295
-21.242485 19.883053 -21.3426 4294967295
-21.24242 18.945532 -21.214642 4294967295
-21.24091 20.976765 -21.481577 4294967295
-21.238613 20.03969 -21.339781 4294967295
-21.238337 21.289459 -21.508081 4294967295
-21.227785 20.509554 -21.336256 4294967295
-21.222244 21.759968 -21.471838 4294967295
-21.219318 21.604109 -21.432409 4294967295
-21.216169 20.823317 -21.306574 4294967295
-21.205053 20.668289 -21.216223 4294967295
-21.182579 15.341015 -21.338478 4294967295
-21.181101 15.653588 -21.371788 4294967295
-21.173931 16.4352 -21.433474 4294967295
-21.165981 15.810749 -21.299112 4294967295
-21.162741 17.060875 -21.448944 4294967295
-21.155788 16.592672 -21.342041 4294967295
-21.151279 15.030178 -21.101519 4294967295
-21.149582 17.218082 -21.388466 4294967295
-21.148771 18.155462 -21.510881 4294967295
-21.145292 16.749657 -21.298094 4294967295
-21.143116 18.780748 -21.560722 4294967295
-21.142454 15.499588 -21.110455 4294967295
-21.142275 15.186976 -21.066833 4294967295
-21.130188 16.125553 -21.119284 4294967295
-21.12891 16.907093 -21.217607 4294967295
-21.128103 18.313444 -21.403811 4294967295
-21.12097 16.282461 -21.083286 4294967295
-21.119373 15.969927 -21.030855 4294967295
-21.118277 20.345034 -21.618893 4294967295
-21.117695 18.470587 -21.360435 4294967295
-21.116648 17.845663 -21.26895 4294967295
-21.116056 17.37689 -21.201538 4294967295
-21.111198 19.408569 -21.447554 4294967295
-21.10602 20.033939 -21.500364 4294967295
-21.101278 20.190639 -21.492165 4294967295
-21.100266 17.534407 -21.124739 4294967295
-21.093218 17.691269 -21.102222 4294967295
-21.082491 19.880127 -21.333094 4294967295
-21.077578 19.724369 -21.281366 4294967295
-21.074745 18.943258 -21.157549 4294967295
-21.072733 21.131056 -21.442455 4294967295
-21.068096 21.756453 -21.498638 4294967295
-21.066164 20.975573 -21.380463 4294967295
-21.065353 19.569313 -21.184244 4294967295
-21.061474 19.257101 -21.117674 4294967295
-21.058058 21.288975 -21.372644 4294967295
-21.056 21.44545 -21.381124 4294967295
-21.054523 20.508101 -21.244509 4294967295
-21.042393 21.915796 -21.360415 4294967295
-21.018358 15.025515 -21.259825 4294967295
-21.014332 15.494548 -21.298555 4294967295
-21.011923 16.275965 -21.389784 4294967295
-21.008583 17.52599 -21.538893 4294967295
-21.003342 15.3389 -21.209152 4294967295
-21.000803 16.90169 -21.405743 4294967295
-21.000708 16.745457 -21.383921 4294967295
-20.998997 17.058058 -21.415775 4294967295
-20.997538 15.182926 -21.151917 4294967295
-20.988289 15.964949 -21.200745 4294967295
-20.987141 15.808726 -21.17239 4294967295
-20.980339 18.778013 -21.5336 4294967295
-20.980328 17.996922 -21.427404 4294967295
-20.979416 16.434391 -21.209436 4294967295
-20.971798 18.310108 -21.416981 4294967295
-20.965399 17.216814 -21.228691 4294967295
-20.963657 17.685776 -21.281599 4294967295
-20.956989 17.373737 -21.197796 4294967295
-20.954624 18.467844 -21.331762 4294967295
-20.948524 18.937153 -21.357645 4294967295
-20.946787 20.811953 -21.601549 4294967295
-20.945827 19.249899 -21.383383 4294967295
-20.941957 21.593397 -21.677706 4294967295
-20.936031 19.094572 -21.301441 4294967295
-20.935465 20.188345 -21.446526 4294967295
-20.932877 20.032383 -21.409266 4294967295
-20.932863 17.844547 -21.111942 4294967295
-20.929968 21.126238 -21.539795 4294967295
-20.927776 19.564152 -21.313972 4294967295
-20.923338 21.907995 -21.604811 4294967295
-20.908337 21.753611 -21.490685 4294967295
-20.896931 19.879799 -21.165308 4294967295
-20.891029 20.349295 -21.192434 4294967295
-20.886932 20.974876 -21.251972 4294967295
-20.883688 21.287794 -21.274334 4294967295
-20.880188 20.506754 -21.146498 4294967295
-20.87941 15.021175 -21.380398 4294967295
-20.874205 20.663708 -21.130669 4294967295
-20.847929 17.054308 -21.461269 4294967295
-20.840967 15.335829 -21.184763 4294967295
-20.82692 18.618221 -21.543346 4294967295
-20.824486 17.212294 -21.337366 4294967295
-20.820263 15.805969 -21.120239 4294967295
-20.818954 16.900154 -21.260696 4294967295
-20.813538 17.994444 -21.375687 4294967295
-20.810501 15.650229 -21.038557 4294967295
-20.809748 16.119267 -21.09758 4294967295
-20.808884 17.682299 -21.304445 4294967295
-20.806849 18.93248 -21.461557 4294967295
-20.805216 16.275885 -21.09075 4294967295
-20.797625 15.494631 -20.937599 4294967295
-20.793081 15.963982 -20.97315 4294967295
-20.789324 18.465296 -21.28948 4294967295
-20.788206 16.433348 -21.006657 4294967295
-20.785238 20.809259 -21.582357 4294967295
-20.784475 18.153145 -21.217031 4294967295
-20.779085 20.185059 -21.459467 4294967295
-20.777822 19.403957 -21.345606 4294967295
-20.777634 21.278713 -21.598928 4294967295
-20.774817 19.247982 -21.305788 4294967295
-20.772089 20.966934 -21.52223 4294967295
-20.77198 20.342041 -21.436729 4294967295
-20.771881 17.528913 -21.054199 4294967295
-20.767076 21.123718 -21.512436 4294967295
-20.766773 18.779875 -21.192368 4294967295
-20.766258 21.436237 -21.549778 4294967295
-20.761715 21.905392 -21.585297 4294967295
-20.760565 18.311487 -21.090279 4294967295
-20.758537 20.030941 -21.311148 4294967295
-20.755598 20.656294 -21.37781 4294967295
-20.747694 19.563179 -21.180414 4294967295
-20.735577 21.752331 -21.40246 4294967295
-20.733135 19.720932 -21.111557 4294967295
-20.732635 20.502514 -21.214565 4294967295
-20.729389 19.877628 -21.109606 4294967295
-20.723024 21.597572 -21.303623 4294967295
-20.698278 15.175365 -21.261059 4294967295
-20.68227 17.520351 -21.480133 4294967295
-20.680616 15.020009 -21.130638 4294967295
-20.671745 16.583572 -21.28788 4294967295
-20.666782 15.489749 -21.10874 4294967295
-20.662336 17.365637 -21.335743 4294967295
-20.658508 17.053366 -21.269678 4294967295
-20.657181 16.897171 -21.240261 4294967295
-20.64777 15.6472 -21.0124 4294967295
-20.647226 18.148193 -21.348373 4294967295
-20.646631 17.679415 -21.281092 4294967295
-20.646221 16.741642 -21.151314 4294967295
-20.645927 16.429016 -21.107082 4294967295
-20.641682 16.116621 -21.038416 4294967295
-20.641413 19.242483 -21.460854 4294967295
-20.640942 15.803964 -20.991411 4294967295
-20.639753 19.867563 -21.535379 4294967295
-20.637703 18.774078 -21.37434 4294967295
-20.63769 17.99271 -21.268248 4294967295
-20.63686 17.836489 -21.241913 4294967295
-20.630304 19.399792 -21.413429 4294967295
-20.629307 18.305992 -21.258856 4294967295
-20.628466 15.961096 -20.935495 4294967295
-20.627562 16.273888 -20.972342 4294967295
-20.623566 18.619072 -21.265787 4294967295
-20.622822 19.556774 -21.388403 4294967295
-20.619097 19.088329 -21.301786 4294967295
-20.616369 19.713673 -21.369734 4294967295
-20.616179 17.212816 -21.02927 4294967295
-20.596296 20.028248 -21.288158 4294967295
-20.593086 21.122456 -21.416714 4294967295
-20.588789 21.591688 -21.45376 4294967295
-20.584368 20.967182 -21.341673 4294967295
-20.580847 21.280113 -21.362329 4294967295
-20.565416 20.813007 -21.203445 4294967295
-20.55719 20.657598 -21.131437 4294967295
-20.540712 21.753693 -21.178118 4294967295
-20.531834 15.016189 -21.1905 4294967295
-20.505037 16.424597 -21.215849 4294967295
-20.504625 15.799345 -21.128525 4294967295
-20.499985 16.581247 -21.205862 4294967295
-20.494812 15.487238 -21.025553 4294967295
-20.493603 15.956358 -21.081684 4294967295
-20.491787 16.26915 -21.112873 4294967295
-20.488409 17.207312 -21.219191 4294967295
-20.486855 15.174948 -20.934017 4294967295
-20.484707 17.520203 -21.238739 4294967295
-20.481461 16.895184 -21.13393 4294967295
-20.480242 19.395874 -21.465425 4294967295
-20.478783 18.770985 -21.371696 4294967295
-20.47806 18.302216 -21.303671 4294967295
-20.477354 18.927382 -21.384073 4294967295
-20.473475 17.833704 -21.211813 4294967295
-20.468992 17.365095 -21.120583 4294967295
-20.466738 19.240908 -21.36096 4294967295
-20.461786 17.67832 -21.118513 4294967295
-20.460358 17.053051 -21.024904 4294967295
-20.456854 16.740572 -20.960886 4294967295
-20.455786 18.616751 -21.208652 4294967295
-20.452873 19.554798 -21.317822 4294967295
-20.45215 18.148104 -21.122648 4294967295
-20.450668 18.460884 -21.15589 4294967295
-20.44668 20.649315 -21.427917 4294967295
-20.437075 21.275394 -21.453415 4294967295
-20.434795 19.087614 -21.142746 4294967295
-20.430937 20.963575 -21.373203 4294967295
-20.429878 19.713366 -21.197186 4294967295
-20.42972 21.588749 -21.45043 4294967295
-20.4193 19.870745 -21.153143 4294967295
-20.406879 20.809961 -21.203688 4294967295
-20.405918 21.904121 -21.346067 4294967295
-20.402367 21.123085 -21.218243 4294967295
-20.398623 20.185537 -21.068014 4294967295
-20.397621 21.436241 -21.231365 4294967295
-20.397406 20.498346 -21.102894 4294967295
-20.387772 21.750017 -21.213017 4294967295
-20.376459 15.325341 -21.251987 4294967295
-20.363247 15.169749 -21.14938 4294967295
-20.355637 16.108131 -21.229561 4294967295
-20.355299 15.48286 -21.142754 4294967295
-20.349773 18.296478 -21.489876 4294967295
-20.344221 17.203037 -21.307463 4294967295
-20.339336 15.014674 -20.980808 4294967295
-20.337847 15.796573 -21.07757 4294967295
-20.328402 16.266216 -21.082911 4294967295
-20.322805 17.517273 -21.217886 4294967295
-20.32123 17.048418 -21.144646 4294967295
-20.309679 16.892906 -21.052294 4294967295
-20.308851 16.423866 -20.983631 4294967295
-20.303467 18.925663 -21.289352 4294967295
-20.301842 19.2384 -21.321688 4294967295
-20.297495 18.457266 -21.189045 4294967295
-20.296539 18.61367 -21.204338 4294967295
-20.2964 21.738983 -21.626841 4294967295
-20.295158 17.363058 -21.026381 4294967295
-20.280022 19.396786 -21.208498 4294967295
-20.273993 18.772017 -21.086657 4294967295
-20.272806 20.022751 -21.24877 4294967295
-20.272404 18.146713 -20.992136 4294967295
-20.26013 20.649313 -21.255424 4294967295
-20.256481 20.493395 -21.211782 4294967295
-20.253502 21.431543 -21.320473 4294967295
-20.251806 20.806532 -21.225355 4294967295
-20.249804 21.588266 -21.31888 4294967295
-20.237236 21.277121 -21.199179 4294967295
-20.234856 21.902643 -21.269218 4294967295
-20.230202 21.121595 -21.134708 4294967295
-20.224876 20.965853 -21.080748 4294967295
-20.204855 15.010099 -21.128918 4294967295
-20.19014 17.668356 -21.398174 4294967295
-20.184847 15.480256 -21.069298 4294967295
-20.176115 18.294617 -21.396542 4294967295
-20.164484 17.045073 -21.155718 4294967295
-20.163717 15.16867 -20.896931 4294967295
-20.162094 19.389774 -21.458424 4294967295
-20.161842 17.201605 -21.160631 4294967295
-20.158407 15.325366 -20.885426 4294967295
-20.155779 16.26388 -20.996307 4294967295
-20.152754 16.107691 -20.95652 4294967295
-20.152046 15.951344 -20.930994 4294967295
-20.144825 16.577374 -20.971268 4294967295
-20.144815 17.828281 -21.140568 4294967295
-20.144194 20.172873 -21.454136 4294967295
-20.142838 20.016747 -21.424644 4294967295
-20.140743 17.984955 -21.136684 4294967295
-20.138927 18.610443 -21.21018 4294967295
-20.13558 18.141727 -21.126097 4294967295
-20.134996 17.516346 -21.037832 4294967295
-20.127501 17.360544 -20.970562 4294967295
-20.125446 19.236973 -21.211939 4294967295
-20.122179 18.76827 -21.128357 4294967295
-20.109375 18.925783 -21.070793 4294967295
-20.108856 20.332857 -21.25807 4294967295
-20.107378 19.551373 -21.143169 4294967295
-20.105915 19.864193 -21.176512 4294967295
-20.104294 19.708017 -21.145382 4294967295
-20.103296 19.082705 -21.054586 4294967295
-20.09362 20.803444 -21.227903 4294967295
-20.093313 20.647156 -21.204849 4294967295
-20.081856 21.586361 -21.261387 4294967295
-20.081644 20.492075 -21.111967 4294967295
