# .PCD v0.7 - Point Cloud Data file format
VERSION 0.7
FIELDS x y z rgb
SIZE 4 4 4 4
TYPE F F F U
COUNT 1 1 1 1
WIDTH 1121
HEIGHT 1
VIEWPOINT 0 0 0 1 0 0 0
POINTS 1121
DATA ascii
-37.112671 27.70587 -25.488977 4294967295
-37.109295 26.316376 -25.259417 4294967295
-37.089172 27.092957 -25.225389 4294967295
-37.032063 23.05513 -25.360826 4294967295
-37.016254 22.903128 -25.222082 4294967295
-37.016186 25.065868 -25.539888 4294967295
-37.015484 24.448191 -25.443815 4294967295
-37.015129 23.212343 -25.25931 4294967295
-37.013405 24.757479 -25.474028 4294967295
-37.011181 24.139994 -25.366779 4294967295
-37.007599 23.677111 -25.272295 4294967295
-37.003902 25.994768 -25.586199 4294967295
-37.003613 23.368731 -25.197567 4294967295
-37.003201 23.986866 -25.285498 4294967295
-36.986862 23.526016 -25.09741 4294967295
-36.982285 25.535549 -25.35948 4294967295
-36.980755 24.917852 -25.257301 4294967295
-36.976685 26.617899 -25.477526 4294967295
-36.976471 25.22765 -25.271374 4294967295
-36.964008 26.774923 -25.407328 4294967295
-36.963432 27.083961 -25.44857 4294967295
-36.959885 26.312313 -25.308908 4294967295
-36.95945 25.385332 -25.169279 4294967295
-36.9571 25.849346 -25.220253 4294967295
-36.954144 27.394815 -25.425943 4294967295
-36.952946 26.468189 -25.280746 4294967295
-36.935982 27.707619 -25.338257 4294967295
-36.935669 27.244213 -25.267784 4294967295
-36.881531 23.051373 -25.401474 4294967295
-36.868103 24.13493 -25.462168 4294967295
-36.857143 25.681381 -25.609032 4294967295
-36.85598 23.519005 -25.282515 4294967295
-36.851776 24.446716 -25.38805 4294967295
-36.841839 23.212236 -25.133505 4294967295
-36.837959 23.676512 -25.173265 4294967295
-36.829647 24.75964 -25.271477 4294967295
-36.82589 25.996279 -25.425707 4294967295
-36.824078 26.614479 -25.503262 4294967295
-36.821705 24.606531 -25.190607 4294967295
-36.821423 25.53368 -25.324844 4294967295
-36.8176 23.370728 -24.978724 4294967295
-36.816296 25.380135 -25.26462 4294967295
-36.811329 26.153597 -25.341845 4294967295
-36.807392 25.227261 -25.176725 4294967295
-36.806648 26.30901 -25.330294 4294967295
-36.806568 24.918327 -25.125242 4294967295
-36.801483 25.073803 -25.110727 4294967295
-36.797569 27.237759 -25.400126 4294967295
-36.791351 27.393538 -25.377346 4294967295
-36.788719 26.467075 -25.221807 4294967295
-36.786167 26.931133 -25.271294 4294967295
-36.785736 27.549204 -25.358994 4294967295
-36.772808 27.706451 -25.287107 4294967295
-36.7099 23.669001 -25.378649 4294967295
-36.702637 24.906096 -25.507147 4294967295
-36.687328 24.290854 -25.304489 4294967295
-36.68301 24.137075 -25.25021 4294967295
-36.680367 25.837023 -25.480555 4294967295
-36.679291 24.446772 -25.268448 4294967295
-36.678902 25.064884 -25.356398 4294967295
-36.676498 23.365414 -25.0891 4294967295
-36.666561 25.376167 -25.311626 4294967295
-36.66468 26.766884 -25.502121 4294967295
-36.663708 25.53121 -25.313456 4294967295
-36.660126 24.759232 -25.173805 4294967295
-36.659512 24.604792 -25.146595 4294967295
-36.657192 23.523149 -24.970686 4294967295
-36.656345 27.695299 -25.577366 4294967295
-36.653706 27.078051 -25.467333 4294967295
-36.651672 26.615034 -25.384415 4294967295
-36.651131 26.306154 -25.33506 4294967295
-36.646999 25.22526 -25.145975 4294967295
-36.64119 25.689989 -25.171642 4294967295
-36.635643 26.463734 -25.244625 4294967295
-36.631317 26.155519 -25.167645 4294967295
-36.629913 26.001245 -25.134676 4294967295
-36.628273 26.928782 -25.258883 4294967295
-36.627628 27.392445 -25.322252 4294967295
-36.54295 25.212889 -25.526413 4294967295
-36.527565 24.906723 -25.368837 4294967295
-36.526951 23.516039 -25.160217 4294967295
-36.52512 25.988573 -25.509724 4294967295
-36.522514 25.062143 -25.354679 4294967295
-36.514305 26.145144 -25.453545 4294967295
-36.510345 26.763811 -25.51535 4294967295
-36.510033 24.291689 -25.150248 4294967295
-36.508224 27.07316 -25.545214 4294967295
-36.507942 26.300871 -25.429829 4294967295
-36.506985 24.446779 -25.1507 4294967295
-36.503017 26.919765 -25.484587 4294967295
-36.500977 26.456736 -25.401707 4294967295
-36.500271 23.675014 -24.98826 4294967295
-36.496899 25.684975 -25.258585 4294967295
-36.496254 23.984888 -25.004345 4294967295
-36.49585 26.612251 -25.386988 4294967295
-36.493931 25.376455 -25.191578 4294967295
-36.483402 25.842081 -25.182856 4294967295
-36.48056 24.760603 -25.003305 4294967295
-36.461178 27.546436 -25.270288 4294967295
-36.457737 27.701689 -25.267874 4294967295
-36.385456 25.055887 -25.493816 4294967295
-36.373207 24.130989 -25.268667 4294967295
-36.371975 23.822104 -25.214392 4294967295
-36.370243 24.90414 -25.360394 4294967295
-36.365562 25.677517 -25.439598 4294967295
-36.357269 24.751934 -25.243279 4294967295
-36.352203 26.915976 -25.523569 4294967295
-36.351898 24.598333 -25.181522 4294967295
-36.349846 25.835005 -25.347872 4294967295
-36.347191 24.290014 -25.101915 4294967295
-36.346375 26.299202 -25.390551 4294967295
-36.343716 23.981428 -25.031275 4294967295
-36.340252 26.145887 -25.323351 4294967295
-36.333618 25.529001 -25.184429 4294967295
-36.328495 26.766289 -25.328417 4294967295
-36.321957 27.076654 -25.326128 4294967295
-36.320904 25.22221 -25.046549 4294967295
-36.318943 25.99547 -25.145603 4294967295
-36.31538 27.232531 -25.300947 4294967295
-36.309647 27.388248 -25.281868 4294967295
-36.306881 26.461527 -25.125805 4294967295
-36.305134 26.616442 -25.135733 4294967295
-36.293266 27.700773 -25.208015 4294967295
-36.201668 24.130777 -25.157085 4294967295
-36.194641 24.904835 -25.219252 4294967295
-36.192192 23.977797 -25.065575 4294967295
-36.191296 25.678175 -25.308147 4294967295
-36.190754 24.750965 -25.168365 4294967295
-36.188732 26.914759 -25.470594 4294967295
-36.186989 26.14258 -25.344761 4294967295
-36.184879 25.215725 -25.193604 4294967295
-36.180298 27.225468 -25.454609 4294967295
-36.179558 27.689072 -25.517097 4294967295
-36.179249 24.443815 -25.039455 4294967295
-36.173851 27.535795 -25.453028 4294967295
-36.173531 26.454273 -25.292282 4294967295
-36.167538 27.38262 -25.384556 4294967295
-36.167442 25.991814 -25.180132 4294967295
-36.166256 24.291447 -24.922371 4294967295
-36.164761 26.765097 -25.273844 4294967295
-36.159424 25.838774 -25.099234 4294967295
-36.06102 24.125299 -25.270138 4294967295
-36.055531 25.053507 -25.366024 4294967295
-36.052498 24.899519 -25.321411 4294967295
-36.037148 25.984087 -25.368408 4294967295
-36.03075 25.676231 -25.276789 4294967295
-36.029633 26.294594 -25.359156 4294967295
-36.0285 24.440042 -25.079451 4294967295
-36.026459 25.213345 -25.177782 4294967295
-36.024696 26.913649 -25.413811 4294967295
-36.023602 24.595501 -25.066549 4294967295
-36.022472 24.286474 -25.013109 4294967295
-36.01952 26.605646 -25.331053 4294967295
-36.015873 27.224478 -25.395084 4294967295
-36.015751 26.142754 -25.235882 4294967295
-36.0065 25.371599 -25.055656 4294967295
-36.003418 25.526775 -25.055952 4294967295
-36.001163 27.536583 -25.333677 4294967295
-35.998867 25.836836 -25.06818 4294967295
-35.985989 26.766914 -25.110575 4294967295
-35.97628 27.696383 -25.175919 4294967295
-35.972786 27.078777 -25.060102 4294967295
-35.905426 25.358654 -25.455416 4294967295
-35.901787 24.277546 -25.270887 4294967295
-35.8983 25.205439 -25.381227 4294967295
-35.895252 25.669577 -25.426956 4294967295
-35.887104 24.589228 -25.209774 4294967295
-35.885941 25.516787 -25.336964 4294967295
-35.881508 24.744791 -25.19186 4294967295
-35.866447 25.984116 -25.263659 4294967295
-35.864086 26.757305 -25.359549 4294967295
-35.86211 24.438982 -25.006191 4294967295
-35.859955 26.449041 -25.284462 4294967295
-35.858147 26.140276 -25.226166 4294967295
-35.845211 25.060492 -24.974289 4294967295
-35.844406 26.297522 -25.149309 4294967295
-35.83876 26.91696 -25.198875 4294967295
-35.834553 27.536079 -25.258837 4294967295
-35.833675 27.690817 -25.275084 4294967295
-35.826435 26.610252 -25.064459 4294967295
-35.826321 27.383234 -25.176657 4294967295
-35.824413 27.074457 -25.117662 4294967295
-35.817196 27.230534 -25.088026 4294967295
-35.724663 24.587502 -25.165054 4294967295
-35.723923 24.742224 -25.182287 4294967295
-35.7239 25.515099 -25.295055 4294967295
-35.713249 26.753511 -25.39871 4294967295
-35.70805 24.899641 -25.090166 4294967295
-35.70377 25.364239 -25.127001 4294967295
-35.702507 25.673666 -25.163034 4294967295
-35.701817 26.137548 -25.225824 4294967295
-35.701454 26.601318 -25.290932 4294967295
-35.698704 25.983564 -25.18074 4294967295
-35.698376 26.911041 -25.313868 4294967295
-35.696205 27.684177 -25.411045 4294967295
-35.692596 25.211668 -25.023678 4294967295
-35.68803 27.067698 -25.261709 4294967295
-35.683533 27.532303 -25.296968 4294967295
-35.677788 26.296801 -25.074789 4294967295
-35.675198 27.379475 -25.214174 4294967295
-35.602085 24.578814 -25.408192 4294967295
-35.588078 25.199474 -25.397371 4294967295
-35.581329 25.509796 -25.393801 4294967295
-35.569172 24.739153 -25.193308 4294967295
-35.564762 25.049122 -25.20664 4294967295
-35.561165 25.358952 -25.225809 4294967295
-35.55138 25.669939 -25.200378 4294967295
-35.548492 25.979658 -25.224661 4294967295
-35.547932 26.134346 -25.243187 4294967295
-35.538109 27.527357 -25.375385 4294967295
-35.53756 27.218374 -25.326336 4294967295
-35.534786 26.291477 -25.170954 4294967295
-35.526981 26.911385 -25.204935 4294967295
-35.525433 27.375437 -25.261442 4294967295
-35.523266 26.602938 -25.133017 4294967295
-35.409019 24.891636 -25.188034 4294967295
-35.408398 25.973827 -25.341373 4294967295
-35.407913 25.819353 -25.315334 4294967295
-35.402565 25.3566 -25.209213 4294967295
-35.396206 25.666967 -25.208532 4294967295
-35.3885 27.523289 -25.423527 4294967295
-35.382 26.442654 -25.218979 4294967295
-35.372066 25.516832 -25.012178 4294967295
-35.371464 26.90852 -25.210775 4294967295
-35.370026 26.599607 -25.155334 4294967295
-35.361828 26.755846 -25.118883 4294967295
-35.357632 27.684311 -25.223963 4294967295
-35.356998 27.220654 -25.151764 4294967295
-35.353004 27.376081 -25.145576 4294967295
-35.257454 25.351778 -25.289698 4294967295
-35.250408 25.971405 -25.329165 4294967295
-35.24794 25.817293 -25.288927 4294967295
-35.247616 25.508175 -25.241529 4294967295
-35.238972 25.200535 -25.134356 4294967295
-35.222569 26.440535 -25.196712 4294967295
-35.210735 26.752085 -25.156763 4294967295
-35.19973 27.372761 -25.167805 4294967295
-35.197132 26.13619 -24.968906 4294967295
-35.196568 27.528027 -25.167608 4294967295
-35.194351 26.909986 -25.061583 4294967295
-35.192142 27.065069 -25.06823 4294967295
-35.191757 27.21978 -25.087996 4294967295
-35.181889 26.603157 -24.926966 4294967295
-35.083309 25.661493 -25.206764 4294967295
-35.0751 26.281477 -25.237923 4294967295
-35.072342 26.127399 -25.195618 4294967295
-35.061523 25.820192 -25.073011 4294967295
-35.057888 27.057894 -25.227018 4294967295
-35.05719 27.367231 -25.267008 4294967295
-35.052349 25.512581 -24.962185 4294967295
-35.046318 27.67868 -25.234062 4294967295
-35.046276 26.905615 -25.121237 4294967295
-35.035488 25.979771 -24.908794 4294967295
-35.031574 27.527138 -25.105865 4294967295
-35.030293 26.599487 -24.961607 4294967295
-35.025906 26.445669 -24.907621 4294967295
-35.02277 27.219658 -24.997696 4294967295
-35.021862 26.755829 -24.923662 4294967295
-34.917835 25.505787 -25.118946 4294967295
-34.907982 26.280821 -25.160856 4294967295
-34.906563 27.208778 -25.285599 4294967295
-34.906025 25.817272 -25.079359 4294967295
-34.905704 25.971981 -25.099571 4294967295
-34.902794 26.74571 -25.191189 4294967295
-34.898308 25.664049 -25.001621 4294967295
-34.888229 27.521755 -25.199375 4294967295
-34.885635 27.67691 -25.203279 4294967295
-34.883266 26.594921 -25.028894 4294967295
-34.873894 26.442081 -24.93931 4294967295
-34.866215 27.062321 -24.974325 4294967295
-34.766312 25.811396 -25.198595 4294967295
-34.755585 26.122686 -25.166899 4294967295
-34.73481 26.899939 -25.130796 4294967295
-34.73378 26.436182 -25.056011 4294967295
-34.732597 25.972389 -24.980131 4294967295
-34.724819 27.520529 -25.149288 4294967295
-34.723148 26.28356 -24.957577 4294967295
-34.720837 27.675993 -25.143312 4294967295
-34.715664 27.058434 -25.016489 4294967295
-34.708893 26.595718 -24.900673 4294967295
-34.706963 27.369549 -24.999254 4294967295
-34.700455 26.752087 -24.862862 4294967295
-34.696938 27.216908 -24.905176 4294967295
-34.576267 26.897655 -25.115669 4294967295
-34.567234 27.054121 -25.073708 4294967295
-34.565514 26.745119 -25.016523 4294967295
-34.561932 26.591139 -24.9685 4294967295
-34.55331 26.283396 -24.862112 4294967295
-34.551777 26.43841 -24.873636 4294967295
-34.538734 27.214563 -24.892899 4294967295
-34.53355 27.370331 -24.878401 4294967295
-34.4072 26.897459 -25.025761 4294967295
-34.402248 27.053135 -25.012964 4294967295
-34.399876 26.280075 -24.883867 4294967295
-34.396488 27.363674 -25.016827 4294967295
-34.368382 27.678873 -24.861647 4294967295
-34.366199 27.524595 -24.823668 4294967295
-34.272854 26.581041 -25.13821 4294967295
-34.257301 27.048124 -25.094933 4294967295
-34.253979 27.667465 -25.16099 4294967295
-34.238827 27.515921 -25.030912 4294967295
-34.229057 26.89905 -24.87182 4294967295
-34.225853 27.363871 -24.916317 4294967295
-34.22105 27.210119 -24.859766 4294967295
-34.099564 26.736294 -25.041185 4294967295
-34.098888 27.355171 -25.126003 4294967295
-34.098038 26.891291 -25.05278 4294967295
-34.082027 27.049179 -24.961618 4294967295
-34.066532 27.516479 -24.918915 4294967295
-34.056248 27.673332 -24.868366 4294967295
-33.933395 27.199612 -25.039865 4294967295
-33.927071 27.046165 -24.972717 4294967295
-33.922253 26.892395 -24.91621 4294967295
-33.916782 27.357685 -24.944647 4294967295
-33.913769 27.513025 -24.945698 4294967295
-33.885937 27.673498 -24.771036 4294967295
-33.76981 27.662481 -25.057047 4294967295
-33.766434 27.044281 -24.943739 4294967295
-33.75312 27.201687 -24.872025 4294967295
-33.750378 27.511744 -24.89735 4294967295
-33.621582 27.193972 -25.048685 4294967295
-33.477016 27.343582 -25.15538 4294967295
-33.434021 27.507029 -24.874945 4294967295
-33.419731 27.664726 -24.796671 4294967295
-54.760326 32.97514 -28.666515 4294967295
-54.74934 32.82626 -28.539448 4294967295
-54.620956 32.815002 -28.774557 4294967295
-54.61459 32.969936 -28.741152 4294967295
-54.603951 32.66819 -28.592199 4294967295
-54.471977 32.658245 -28.793678 4294967295
-54.461643 33.272682 -28.799828 4294967295
-54.45237 32.817776 -28.638395 4294967295
-54.448608 32.971832 -28.629093 4294967295
-54.434902 33.434933 -28.578896 4294967295
-54.431313 33.130676 -28.49514 4294967295
-54.294628 32.816753 -28.602682 4294967295
-54.29081 32.665302 -28.542292 4294967295
-54.280178 33.585651 -28.596455 4294967295
-54.275936 33.128838 -28.481537 4294967295
-54.149975 32.963928 -28.712517 4294967295
-54.148998 33.269741 -28.75411 4294967295
-54.140095 33.120132 -28.647223 4294967295
-54.13588 32.816067 -28.55801 4294967295
-54.134468 33.427631 -28.646185 4294967295
-54.131866 33.734062 -28.672894 4294967295
-54.131718 33.581367 -28.646259 4294967295
-54.125713 32.666782 -28.439524 4294967295
-53.999588 32.502094 -28.668617 4294967295
-53.993961 32.198448 -28.566618 4294967295
-53.982662 33.119015 -28.614796 4294967295
-53.982243 32.813602 -28.560425 4294967295
-53.980736 33.73074 -28.698135 4294967295
-53.97625 33.274048 -28.581364 4294967295
-53.975761 32.357399 -28.425404 4294967295
-53.975288 33.885456 -28.673574 4294967295
-53.971256 32.970207 -28.48521 4294967295
-53.971237 33.581383 -28.586021 4294967295
-53.970589 33.428829 -28.55485 4294967295
-53.962925 32.667442 -28.35848 4294967295
-53.849876 32.651047 -28.73189 4294967295
-53.84446 33.263912 -28.783312 4294967295
-53.840824 33.723396 -28.825766 4294967295
-53.836079 33.114098 -28.681622 4294967295
-53.835476 32.96154 -28.650888 4294967295
-53.825623 32.353718 -28.460093 4294967295
-53.821419 32.202301 -28.396492 4294967295
-53.820129 33.425259 -28.5865 4294967295
-53.814842 33.579922 -28.563505 4294967295
-53.804935 32.81929 -28.346977 4294967295
-53.790733 34.047009 -28.419191 4294967295
-53.678223 33.724182 -28.746374 4294967295
-53.677509 32.960579 -28.613972 4294967295
-53.67231 33.420753 -28.642179 4294967295
-53.671165 34.184978 -28.75769 4294967295
-53.670975 32.810032 -28.529266 4294967295
-53.666035 32.353226 -28.408703 4294967295
-53.66114 32.202015 -28.338936 4294967295
-53.659698 34.341923 -28.678505 4294967295
-53.655796 33.579395 -28.517052 4294967295
-53.655643 32.050972 -28.263697 4294967295
-53.653427 32.510345 -28.319113 4294967295
-53.647064 34.040955 -28.513123 4294967295
-53.644802 33.12476 -28.34137 4294967295
-53.644329 33.277782 -28.362278 4294967295
-53.637325 33.891647 -28.399288 4294967295
-53.521137 32.042095 -28.44083 4294967295
-53.520267 32.195229 -28.458113 4294967295
-53.518158 33.112888 -28.589899 4294967295
-53.51466 32.808464 -28.507832 4294967295
-53.511719 31.892344 -28.330103 4294967295
-53.509995 32.351524 -28.389925 4294967295
-53.508972 33.880112 -28.632246 4294967295
-53.508255 33.727577 -28.600578 4294967295
-53.501686 32.660057 -28.364799 4294967295
-53.501419 34.188419 -28.613979 4294967295
-53.499229 33.425148 -28.468319 4294967295
-53.494087 32.968395 -28.346096 4294967295
-53.489944 34.498207 -28.560072 4294967295
-53.481815 33.278404 -28.284979 4294967295
-53.47015 34.658333 -28.405523 4294967295
-53.467102 34.812305 -28.403009 4294967295
-53.379269 32.035675 -28.550592 4294967295
-53.371525 31.885389 -28.455246 4294967295
-53.367901 32.956436 -28.598326 4294967295
-53.360172 32.194866 -28.402597 4294967295
-53.354282 31.738159 -28.273781 4294967295
-53.354248 33.113979 -28.499704 4294967295
-53.352028 32.809055 -28.429327 4294967295
-53.351677 33.267708 -28.501553 4294967295
-53.351456 33.879059 -28.600061 4294967295
-53.349499 34.032566 -28.607458 4294967295
-53.347206 32.352077 -28.31019 4294967295
-53.346817 32.505093 -28.331814 4294967295
-53.339462 34.800209 -28.64212 4294967295
-53.334141 33.732414 -28.418034 4294967295
-53.324482 33.582973 -28.305361 4294967295
-53.316463 34.350208 -28.358376 4294967295
-53.313763 34.65691 -28.384195 4294967295
-53.214783 32.648129 -28.555799 4294967295
-53.213715 32.342808 -28.495911 4294967295
-53.206188 32.80389 -28.503159 4294967295
-53.204948 33.109993 -28.542166 4294967295
-53.202534 31.887894 -28.319473 4294967295
-53.197247 32.04253 -28.296768 4294967295
-53.196831 33.724144 -28.56916 4294967295
-53.196533 32.501442 -28.365652 4294967295
-53.189941 32.962315 -28.381357 4294967295
-53.186588 31.740187 -28.150122 4294967295
-53.183617 33.575981 -28.424583 4294967295
-53.180096 33.882942 -28.442959 4294967295
-53.172188 33.427124 -28.296129 4294967295
-53.170498 34.497803 -28.4566 4294967295
-53.154514 34.656532 -28.337236 4294967295
-53.071377 31.725134 -28.500826 4294967295
-53.070312 31.572615 -28.466148 4294967295
-53.060493 32.951515 -28.603167 4294967295
-53.05513 32.80051 -28.529726 4294967295
-53.052895 32.03693 -28.384186 4294967295
-53.04958 32.19091 -28.379343 4294967295
-53.048996 33.566807 -28.599739 4294967295
-53.047962 32.497215 -28.414906 4294967295
-53.047703 34.331299 -28.713383 4294967295
-53.045834 33.415085 -28.546139 4294967295
-53.044807 31.886684 -28.2861 4294967295
-53.041973 33.110729 -28.461164 4294967295
-53.041538 33.722267 -28.557529 4294967295
-53.040562 34.181084 -28.623894 4294967295
-53.034538 33.87759 -28.51943 4294967295
-53.01408 34.496372 -28.435192 4294967295
-53.01112 34.650314 -28.433573 4294967295
-52.908314 32.337147 -28.519337 4294967295
-52.905373 32.643841 -28.542969 4294967295
-52.899174 32.493065 -28.462114 4294967295
-52.895866 31.576763 -28.282019 4294967295
-52.893513 31.883364 -28.310942 4294967295
-52.893345 31.424641 -28.234245 4294967295
-52.886276 32.803181 -28.396067 4294967295
-52.876385 33.570995 -28.432291 4294967295
-52.87566 34.488369 -28.575991 4294967295
-52.87373 33.113258 -28.333233 4294967295
-52.866928 33.727207 -28.372221 4294967295
-52.864594 32.045776 -28.075598 4294967295
-52.861946 34.034748 -28.37746 4294967295
-52.856075 34.189743 -28.349672 4294967295
-52.853348 33.426155 -28.199888 4294967295
-52.852367 34.649738 -28.39142 4294967295
-52.846977 34.8046 -28.367973 4294967295
-52.738899 31.881124 -28.305969 4294967295
-52.738499 31.57539 -28.252317 4294967295
-52.736397 32.187782 -28.333529 4294967295
-52.73542 32.035183 -28.299744 4294967295
-52.732319 32.342052 -28.321911 4294967295
-52.732216 32.494999 -28.345997 4294967295
-52.7272 32.955406 -28.376007 4294967295
-52.71949 33.11095 -28.331789 4294967295
-52.718655 34.028576 -28.47438 4294967295
-52.717583 31.735088 -28.089413 4294967295
-52.716629 33.264847 -28.331121 4294967295
-52.71096 32.80801 -28.205139 4294967295
-52.709396 34.184765 -28.416271 4294967295
-52.704861 32.65712 -28.125307 4294967295
-52.703651 34.492599 -28.414701 4294967295
-52.701591 33.422985 -28.221094 4294967295
-52.695347 33.731041 -28.215057 4294967295
-52.6903 33.579868 -28.144728 4294967295
-52.680256 34.654037 -28.229675 4294967295
-52.677013 34.808151 -28.225597 4294967295
-52.607346 31.259804 -28.407871 4294967295
-52.587036 32.642532 -28.45075 4294967295
-52.584644 32.490437 -28.404303 4294967295
-52.582359 31.879505 -28.283867 4294967295
-52.580994 33.408993 -28.52153 4294967295
-52.578056 32.951355 -28.420235 4294967295
-52.577957 32.033878 -28.269394 4294967295
-52.577686 32.79858 -28.391937 4294967295
-52.57523 33.105217 -28.419884 4294967295
-52.574039 33.258522 -28.43421 4294967295
-52.571198 33.871033 -28.508688 4294967295
-52.570202 31.577509 -28.124876 4294967295
-52.570087 32.342354 -28.248867 4294967295
-52.567333 34.636692 -28.598963 4294967295
-52.566631 32.190544 -28.192892 4294967295
-52.566486 34.025574 -28.491455 4294967295
-52.563766 34.179417 -28.492058 4294967295
-52.55761 34.793102 -28.536835 4294967295
-52.54501 34.339046 -28.349014 4294967295
-52.544315 33.574673 -28.217854 4294967295
-52.542233 34.492954 -28.349133 4294967295
-52.431736 33.099232 -28.51461 4294967295
-52.420467 31.87961 -28.214127 4294967295
-52.419922 32.032745 -28.234243 4294967295
-52.417526 31.727591 -28.162849 4294967295
-52.416874 33.86879 -28.506487 4294967295
-52.415119 34.175156 -28.540689 4294967295
-52.413383 32.187851 -28.200712 4294967295
-52.412571 31.270187 -28.043617 4294967295
-52.411453 32.34145 -28.208433 4294967295
-52.410606 31.117788 -28.00106 4294967295
-52.408245 32.954327 -28.279596 4294967295
-52.407772 32.495632 -28.20048 4294967295
-52.403976 32.802822 -28.216484 4294967295
-52.40345 31.579107 -28.011993 4294967295
-52.400425 32.651054 -28.159754 4294967295
-52.40015 34.792049 -28.506714 4294967295
-52.398899 34.486748 -28.445623 4294967295
-52.39529 33.264652 -28.213703 4294967295
-52.394032 33.723923 -28.277357 4294967295
-52.391064 33.419064 -28.200888 4294967295
-52.377239 34.035744 -28.177151 4294967295
-52.370918 34.343922 -28.170584 4294967295
-52.369068 34.650497 -28.203966 4294967295
-52.282055 31.107334 -28.229677 4294967295
-52.277889 31.567549 -28.26733 4294967295
-52.272644 31.263264 -28.17061 4294967295
-52.272362 30.957363 -28.118212 4294967295
-52.269993 31.72304 -28.221796 4294967295
-52.265755 32.642151 -28.333584 4294967295
-52.261356 31.878799 -28.169647 4294967295
-52.24979 33.106373 -28.265978 4294967295
-52.248848 34.177185 -28.432064 4294967295
-52.247631 32.189247 -28.097084 4294967295
-52.245522 32.954865 -28.202971 4294967295
-52.242577 32.49691 -28.101877 4294967295
-52.240475 33.26252 -28.207809 4294967295
-52.232845 33.724049 -28.214544 4294967295
-52.229408 34.03117 -28.23377 4294967295
-52.226574 33.879215 -28.183548 4294967295
-52.223911 33.421204 -28.085005 4294967295
-52.219711 33.575653 -28.072483 4294967295
-52.212105 34.343273 -28.129314 4294967295
-52.207432 34.497932 -28.112598 4294967295
-52.199444 34.806797 -28.091232 4294967295
-52.118515 31.107811 -28.1458 4294967295
-52.113194 31.262478 -28.123348 4294967295
-52.106785 30.805393 -27.991499 4294967295
-52.105812 31.417812 -28.082512 4294967295
-52.097118 31.573589 -28.030016 4294967295
-52.095455 31.880167 -28.065067 4294967295
-52.094608 32.186462 -28.107361 4294967295
-52.091724 32.95237 -28.206226 4294967295
-52.091267 33.105495 -28.227068 4294967295
-52.085808 32.801376 -28.128674 4294967295
-52.085556 32.495457 -28.076603 4294967295
-52.082916 33.414295 -28.202557 4294967295
-52.081745 33.261723 -28.167219 4294967295
-52.080997 32.649982 -28.060938 4294967295
-52.079784 34.486057 -28.348982 4294967295
-52.074158 34.335136 -28.274023 4294967295
-52.073498 33.723518 -28.168535 4294967295
-52.072433 33.876865 -28.183973 4294967295
-52.057167 34.035236 -28.073023 4294967295
-52.053032 34.648678 -28.13587 4294967295
-52.049644 34.802891 -28.130634 4294967295
-51.958111 32.178284 -28.264482 4294967295
-51.955414 30.955099 -28.041441 4294967295
-51.955078 31.567295 -28.138029 4294967295
-51.951508 31.262379 -28.056541 4294967295
-51.95013 32.486855 -28.243368 4294967295
-51.947876 31.416552 -28.049152 4294967295
-51.944958 31.11138 -27.973419 4294967295
-51.938511 31.725594 -28.015718 4294967295
-51.938118 31.878756 -28.037134 4294967295
-51.936928 33.103184 -28.22562 4294967295
-51.93243 32.645718 -28.111017 4294967295
-51.931725 34.787388 -28.45299 4294967295
-51.927582 33.871254 -28.267015 4294967295
-51.92075 32.955662 -28.057058 4294967295
-51.917358 33.415855 -28.101578 4294967295
-51.915493 33.569504 -28.109915 4294967295
-51.91507 33.263626 -28.05637 4294967295
-51.908157 34.642998 -28.218929 4294967295
-51.908104 34.184078 -28.143827 4294967295
-51.902935 34.338913 -28.122807 4294967295
-51.891994 34.495834 -28.050568 4294967295
-51.833908 30.942572 -28.331291 4294967295
-51.818848 31.406193 -28.272305 4294967295
-51.799271 32.177395 -28.223045 4294967295
-51.793961 32.944054 -28.300241 4294967295
-51.791332 32.332985 -28.177546 4294967295
-51.791183 30.64957 -27.90275 4294967295
-51.788158 31.109722 -27.950527 4294967295
-51.784599 33.100185 -28.242115 4294967295
-51.77779 32.796486 -28.132067 4294967295
-51.77626 34.173832 -28.342152 4294967295
-51.776157 31.572689 -27.918745 4294967295
-51.775909 33.868042 -28.289373 4294967295
-51.775505 32.032082 -27.987532 4294967295
-51.770016 31.727715 -27.889147 4294967295
-51.769756 33.564224 -28.185152 4294967295
-51.768692 34.48243 -28.324806 4294967295
-51.768555 31.881258 -27.901064 4294967295
-51.766373 32.494217 -27.981186 4294967295
-51.76445 34.330986 -28.262367 4294967295
-51.763599 33.413342 -28.105753 4294967295
-51.763569 34.790176 -28.3291 4294967295
-51.761703 33.720009 -28.138662 4294967295
-51.757664 32.650154 -27.928865 4294967295
-51.732906 34.648289 -28.032665 4294967295
-51.677402 30.63485 -28.260664 4294967295
-51.672733 30.942268 -28.26903 4294967295
-51.667492 31.24988 -28.272295 4294967295
-51.664589 31.556768 -28.296272 4294967295
-51.662479 30.792393 -28.153488 4294967295
-51.66185 31.098627 -28.19758 4294967295
-51.66127 30.486691 -28.093128 4294967295
-51.641769 33.705776 -28.441898 4294967295
-51.639168 34.012547 -28.46854 4294967295
-51.636551 31.412573 -28.023439 4294967295
-51.630684 31.873585 -28.046036 4294967295
-51.630512 32.026684 -28.069342 4294967295
-51.629021 32.94529 -28.205112 4294967295
-51.626938 34.47567 -28.434851 4294967295
-51.62677 32.793037 -28.160393 4294967295
-51.622952 34.32415 -28.374798 4294967295
-51.621555 33.100807 -28.163944 4294967295
-51.619667 33.254456 -28.172056 4294967295
-51.614494 33.409229 -28.151152 4294967295
-51.614006 33.562405 -28.171646 4294967295
-51.596363 34.180595 -28.115 4294967295
-51.594509 34.793266 -28.197863 4294967295
-51.594421 33.875229 -28.048189 4294967295
-51.587757 34.642704 -28.113392 4294967295
-51.515778 30.940659 -28.244385 4294967295
-51.514832 30.634907 -28.18646 4294967295
-51.510208 31.095383 -28.220041 4294967295
-51.509365 31.248657 -28.237396 4294967295
-51.505596 31.861845 -28.303312 4294967295
-51.499249 32.016872 -28.272093 4294967295
-51.497932 31.711283 -28.210892 4294967295
-51.494923 30.334761 -27.961094 4294967295
-51.48991 30.489344 -27.94166 4294967295
-51.488331 31.561291 -28.101353 4294967295
-51.486835 30.796444 -27.964117 4294967295
-51.485798 33.551105 -28.401312 4294967295
-51.477173 34.165909 -28.424364 4294967295
-51.475777 33.095589 -28.238541 4294967295
-51.474739 31.412498 -27.956573 4294967295
-51.473312 32.790398 -28.167206 4294967295
-51.470798 33.403271 -28.244211 4294967295
-51.4687 32.638901 -28.101713 4294967295
-51.46822 33.251148 -28.196678 4294967295
-51.462254 34.324142 -28.317545 4294967295
-51.453087 33.868389 -28.162355 4294967295
-51.451271 34.786991 -28.295057 4294967295
-51.44688 32.493027 -27.884417 4294967295
-51.441948 34.48436 -28.163265 4294967295
-51.439785 32.954643 -27.896223 4294967295
-51.439663 34.638184 -28.167906 4294967295
-51.438435 33.720444 -28.008308 4294967295
-51.354164 30.634377 -28.129444 4294967295
-51.348969 31.554176 -28.232321 4294967295
-51.345997 30.330687 -28.007963 4294967295
-51.335468 31.711466 -28.138203 4294967295
-51.325569 32.632843 -28.199661 4294967295
-51.32476 31.408712 -27.994366 4294967295
-51.324654 31.255663 -27.96866 4294967295
-51.320087 33.399715 -28.275208 4294967295
-51.319508 31.869589 -28.022446 4294967295
-51.319279 32.328835 -28.094759 4294967295
-51.317284 33.706661 -28.300056 4294967295
-51.314621 32.483406 -28.078506 4294967295
-51.310543 34.167961 -28.315004 4294967295
-51.30249 32.946579 -28.04603 4294967295
-51.301311 34.018204 -28.209005 4294967295
-51.299442 34.324867 -28.242102 4294967295
-51.296818 32.183044 -27.872234 4294967295
-51.29335 33.102703 -27.990364 4294967295
-51.292747 34.633247 -28.232685 4294967295
-51.29097 33.868786 -28.093233 4294967295
-51.211109 30.475502 -28.202873 4294967295
-51.191277 31.552828 -28.201782 4294967295
-51.189796 31.094151 -28.114536 4294967295
-51.188755 30.635256 -28.031158 4294967295
-51.180801 31.862213 -28.159212 4294967295
-51.180103 30.331638 -27.905607 4294967295
-51.175713 33.088032 -28.312395 4294967295
-51.172863 33.547962 -28.361565 4294967295
-51.170483 32.018555 -28.093298 4294967295
-51.167789 32.631615 -28.168596 4294967295
-51.165554 32.479309 -28.124247 4294967295
-51.165131 31.407934 -27.9473 4294967295
-51.160645 33.858143 -28.303747 4294967295
-51.160381 32.174866 -28.029301 4294967295
-51.159626 33.399479 -28.220589 4294967295
-51.159058 31.25671 -27.869175 4294967295
-51.157597 31.716496 -27.930609 4294967295
-51.15657 33.706551 -28.243221 4294967295
-51.155975 34.01276 -28.28747 4294967295
-51.153996 32.330009 -27.997961 4294967295
-51.148205 34.321484 -28.268682 4294967295
-51.142368 32.793068 -27.970057 4294967295
-51.133705 34.173569 -28.116648 4294967295
-51.128883 32.950642 -27.876379 4294967295
-51.1259 34.635445 -28.122326 4294967295
-51.124527 34.788967 -28.134996 4294967295
-51.112049 34.487328 -27.976006 4294967295
-51.061138 30.318708 -28.215361 4294967295
-51.05608 30.167141 -28.146315 4294967295
-51.047974 30.78179 -28.174095 4294967295
-51.034557 31.398115 -28.155321 4294967295
-51.032303 30.63343 -28.011944 4294967295
-51.025127 30.941788 -27.998476 4294967295
-51.023083 31.860888 -28.128847 4294967295
-51.021774 31.249001 -28.018513 4294967295
-51.020069 32.474045 -28.201292 4294967295
-51.018002 31.097065 -27.960699 4294967295
-51.013298 33.394428 -28.29019 4294967295
-51.0131 32.017132 -28.066063 4294967295
-51.010105 32.630348 -28.13866 4294967295
-51.006996 31.55979 -27.938383 4294967295
-50.999023 32.32782 -27.992121 4294967295
-50.998497 33.858536 -28.23461 4294967295
-50.997532 34.470898 -28.324961 4294967295
-50.995831 33.706432 -28.186544 4294967295
-50.994892 33.24762 -28.104181 4294967295
-50.992016 33.095524 -28.05426 4294967295
-50.98946 32.943302 -28.007166 4294967295
-50.986855 34.780701 -28.280825 4294967295
-50.972313 33.561424 -27.955761 4294967295
-50.970306 34.021362 -28.012306 4294967295
-50.96917 34.174828 -28.027084 4294967295
-50.893742 30.167007 -28.075439 4294967295
-50.883495 30.629311 -28.059856 4294967295
-50.882172 29.864147 -27.924772 4294967295
-50.876999 30.478144 -27.978304 4294967295
-50.876343 30.325222 -27.947859 4294967295
-50.873306 31.091665 -28.044781 4294967295
-50.867065 31.552856 -28.064259 4294967295
-50.864311 31.706804 -28.064863 4294967295
-50.858749 32.473938 -28.13965 4294967295
-50.857895 31.249498 -27.934631 4294967295
-50.856804 30.790438 -27.851013 4294967295
-50.854836 31.862883 -28.006655 4294967295
-50.853657 32.781723 -28.14448 4294967295
-50.852268 32.322971 -28.058262 4294967295
-50.850185 30.945585 -27.817793 4294967295
-50.849197 33.242359 -28.179522 4294967295
-50.848717 32.171024 -28.002523 4294967295
-50.842602 33.703724 -28.195896 4294967295
-50.841694 32.63258 -28.015177 4294967295
-50.841171 31.407797 -27.813053 4294967295
-50.840889 32.939014 -28.057495 4294967295
-50.84066 34.316502 -28.277618 4294967295
-50.839046 32.021008 -27.89325 4294967295
-50.835335 33.093941 -28.033625 4294967295
-50.835274 34.012329 -28.181177 4294967295
-50.829479 33.861286 -28.105829 4294967295
-50.826283 33.403156 -28.00383 4294967295
-50.81871 34.17115 -28.061068 4294967295
-50.735729 30.318699 -28.067427 4294967295
-50.728275 29.861511 -27.928347 4294967295
-50.718575 30.170603 -27.892988 4294967295
-50.715485 31.243383 -28.038675 4294967295
-50.715115 31.855844 -28.134075 4294967295
-50.714058 32.468422 -28.223475 4294967295
-50.712975 30.784803 -27.94277 4294967295
-50.708706 30.020313 -27.782143 4294967295
-50.707554 30.939568 -27.920105 4294967295
-50.700977 32.319588 -28.084673 4294967295
-50.700249 33.085155 -28.201612 4294967295
-50.69471 33.393108 -28.202589 4294967295
-50.692867 31.556614 -27.890596 4294967295
-50.692318 30.637836 -27.737745 4294967295
-50.691765 34.159275 -28.300125 4294967295
-50.691311 32.016483 -27.951008 4294967295
-50.690166 33.700741 -28.212255 4294967295
-50.688526 33.854343 -28.222591 4294967295
-50.687881 32.170696 -27.945724 4294967295
-50.684162 31.712477 -27.839281 4294967295
-50.682465 32.631786 -27.97245 4294967295
-50.681885 34.009678 -28.189285 4294967295
-50.670086 34.779034 -28.209629 4294967295
-50.668644 32.78944 -27.876528 4294967295
-50.668118 34.47364 -28.143177 4294967295
-50.665844 34.627499 -28.147976 4294967295
-50.661781 33.557339 -27.93996 4294967295
-50.661617 32.944893 -27.839869 4294967295
-50.582489 30.315893 -28.076565 4294967295
-50.571331 31.084723 -28.102562 4294967295
-50.570988 29.70669 -27.877808 4294967295
-50.568577 30.473106 -27.980009 4294967295
-50.565094 30.780394 -27.998943 4294967295
-50.56366 29.861946 -27.838615 4294967295
-50.561741 30.628265 -27.945095 4294967295
-50.55706 30.170189 -27.830402 4294967295
-50.54961 31.244469 -27.937983 4294967295
-50.549038 31.704018 -28.006929 4294967295
-50.545975 33.541912 -28.275784 4294967295
-50.544739 32.47089 -28.092657 4294967295
-50.543213 31.858963 -27.980837 4294967295
-50.541389 32.165771 -28.014212 4294967295
-50.540531 33.237648 -28.179161 4294967295
-50.535198 30.942539 -27.76318 4294967295
-50.533813 33.699093 -28.194532 4294967295
-50.529346 32.62899 -27.983261 4294967295
-50.528728 32.93541 -28.027153 4294967295
-50.525707 31.404974 -27.754446 4294967295
-50.521694 32.325211 -27.86735 4294967295
-50.519596 33.857025 -28.095406 4294967295
-50.518604 32.019886 -27.791166 4294967295
-50.513988 34.012035 -28.071243 4294967295
-50.513958 33.093418 -27.923204 4294967295
-50.513527 34.471416 -28.141094 4294967295
-50.511532 33.400475 -27.951332 4294967295
-50.510139 32.788403 -27.840666 4294967295
-50.499676 34.629383 -28.045183 4294967295
-50.495457 34.324673 -27.959194 4294967295
-50.493397 34.172276 -27.916643 4294967295
-50.430027 29.853498 -28.018734 4294967295
-50.419266 30.622257 -28.048258 4294967295
-50.418949 30.162962 -27.971672 4294967295
-50.418884 30.775486 -28.069529 4294967295
-50.404568 29.707596 -27.772762 4294967295
-50.40139 29.555294 -27.720533 4294967295
-50.400475 31.240417 -27.983355 4294967295
-50.39677 30.475767 -27.828114 4294967295
-50.393871 32.008072 -28.049006 4294967295
-50.393631 31.395651 -27.948513 4294967295
-50.390118 31.090427 -27.868725 4294967295
-50.389835 31.703098 -27.964727 4294967295
-50.389206 30.018394 -27.688465 4294967295
-50.388626 30.324972 -27.732691 4294967295
-50.38443 30.938976 -27.794693 4294967295
-50.384148 33.08289 -28.136765 4294967295
-50.37167 34.311668 -28.225143 4294967295
-50.369125 33.240982 -28.030869 4294967295
-50.366436 32.782513 -27.933687 4294967295
-50.365005 32.629841 -27.896666 4294967295
-50.364021 33.395802 -28.01112 4294967295
-50.36063 32.937557 -27.907846 4294967295
-50.360306 31.865509 -27.732756 4294967295
-50.359562 33.703526 -28.021589 4294967295
-50.357513 34.010429 -28.053003 4294967295
-50.357353 32.479164 -27.805557 4294967295
-50.356987 32.172932 -27.753145 4294967295
-50.351994 34.16544 -28.029659 4294967295
-50.348236 33.554249 -27.89863 4294967295
-50.336388 34.783337 -27.992546 4294967295
-50.282063 29.542902 -28.02474 4294967295
-50.253777 30.469925 -27.926886 4294967295
-50.243996 31.391748 -27.989542 4294967295
-50.24139 29.70756 -27.696463 4294967295
-50.239407 30.167761 -27.75304 4294967295
-50.238865 30.627499 -27.822117 4294967295
-50.238537 29.861589 -27.696316 4294967295
-50.236088 32.312969 -28.068468 4294967295
-50.235527 30.322094 -27.743992 4294967295
-50.23156 33.079933 -28.152082 4294967295
-50.231033 30.783014 -27.778797 4294967295
-50.229298 32.774487 -28.083336 4294967295
-50.228771 33.693165 -28.226191 4294967295
-50.226933 31.090628 -27.792402 4294967295
-50.226112 33.234829 -28.129423 4294967295
-50.224545 31.550898 -27.845459 4294967295
-50.221279 32.623981 -27.98925 4294967295
-50.219112 31.246197 -27.749195 4294967295
-50.212387 30.941809 -27.641678 4294967295
-50.208553 32.474949 -27.854345 4294967295
-50.207764 32.015678 -27.773724 4294967295
-50.206688 34.006874 -28.083927 4294967295
-50.206131 31.709799 -27.710402 4294967295
-50.201946 33.396019 -27.944557 4294967295
-50.201839 32.170746 -27.74695 4294967295
-50.19426 33.858021 -27.951666 4294967295
-50.187824 34.472744 -27.9942 4294967295
-50.1824 34.168373 -27.898045 4294967295
-50.180656 34.322117 -27.907534 4294967295
-50.171188 34.784863 -27.899214 4294967295
-50.170795 34.631859 -27.871233 4294967295
-50.107143 29.392948 -27.821909 4294967295
-50.097755 30.008379 -27.838902 4294967295
-50.086491 32.155926 -28.085218 4294967295
-50.086475 30.777601 -27.864094 4294967295
-50.086433 31.083958 -27.912857 4294967295
-50.083149 30.472204 -27.786179 4294967295
-50.082325 29.553104 -27.631649 4294967295
-50.078918 31.239407 -27.872402 4294967295
-50.07634 31.546537 -27.8992 4294967295
-50.075211 32.312641 -28.012192 4294967295
-50.071239 29.709478 -27.560242 4294967295
-50.069088 30.629559 -27.689049 4294967295
-50.068176 31.702236 -27.853128 4294967295
-50.067017 32.008942 -27.892208 4294967295
-50.066307 31.396441 -27.78784 4294967295
-50.06459 32.62233 -27.96944 4294967295
-50.064419 32.469238 -27.943386 4294967295
-50.063576 33.235176 -28.058861 4294967295
-50.06123 30.938349 -27.670181 4294967295
-50.058945 31.858297 -27.797806 4294967295
-50.05703 33.39048 -28.026789 4294967295
-50.054848 33.697449 -28.057016 4294967295
-50.0485 34.312054 -28.100292 4294967295
-50.04668 33.087635 -27.888187 4294967295
-50.039471 32.783653 -27.776718 4294967295
-50.036938 34.009811 -27.951223 4294967295
-50.036865 33.550388 -27.876951 4294967295
-50.032207 32.93922 -27.73844 4294967295
-50.029827 34.47168 -27.963383 4294967295
-50.026947 33.860077 -27.840277 4294967295
-50.023422 34.16761 -27.858917 4294967295
-49.948814 30.157486 -27.910574 4294967295
-49.943806 29.546112 -27.769171 4294967295
-49.943645 30.005783 -27.841398 4294967295
-49.93858 31.079519 -27.9694 4294967295
-49.935627 29.701633 -27.723078 4294967295
-49.932808 31.234426 -27.944099 4294967295
-49.932617 32.153351 -28.089575 4294967295
-49.929729 29.856535 -27.696674 4294967295
-49.921139 31.544336 -27.892382 4294967295
-49.920425 33.075977 -28.131466 4294967295
-49.914757 31.852665 -27.886366 4294967295
-49.913387 30.933897 -27.727329 4294967295
-49.908535 32.314144 -27.90624 4294967295
-49.907593 33.845787 -28.143309 4294967295
-49.907291 30.629238 -27.625622 4294967295
-49.901878 30.324301 -27.529783 4294967295
-49.900497 33.388828 -28.008524 4294967295
-49.900356 32.929432 -27.933762 4294967295
-49.89851 32.470524 -27.844242 4294967295
-49.896404 30.785719 -27.556128 4294967295
-49.888317 34.005482 -28.00153 4294967295
-49.887344 32.627308 -27.772408 4294967295
-49.886894 34.618462 -28.087313 4294967295
-49.883732 32.781677 -27.765738 4294967295
-49.883331 33.547726 -27.884933 4294967295
-49.87405 34.776104 -28.001017 4294967295
-49.865707 34.47274 -27.880007 4294967295
-49.851864 34.324375 -27.736065 4294967295
-49.807842 29.232037 -27.879255 4294967295
-49.795856 30.614084 -27.996529 4294967295
-49.794758 30.00169 -27.889027 4294967295
-49.794552 30.308123 -27.936283 4294967295
-49.785679 29.391373 -27.712736 4294967295
-49.781311 29.852304 -27.748634 4294967295
-49.779411 31.84429 -28.050808 4294967295
-49.775021 30.160561 -27.743443 4294967295
-49.772171 29.701643 -27.645338 4294967295
-49.771545 30.468019 -27.762518 4294967295
-49.765209 30.776329 -27.756929 4294967295
-49.764282 31.542637 -27.871489 4294967295
-49.762428 31.083595 -27.782 4294967295
-49.760849 30.930849 -27.743893 4294967295
-49.760799 29.091661 -27.449232 4294967295
-49.759171 33.228981 -28.096941 4294967295
-49.755978 29.552904 -27.481241 4294967295
-49.749432 32.772743 -27.939589 4294967295
-49.748524 31.241018 -27.686724 4294967295
-49.737564 32.623398 -27.812868 4294967295
-49.737312 33.69569 -27.982193 4294967295
-49.736317 34.002316 -28.022608 4294967295
-49.733829 34.156303 -28.025679 4294967295
-49.732655 32.931381 -27.819599 4294967295
-49.73193 34.310093 -28.033817 4294967295
-49.728138 33.086056 -27.805204 4294967295
-49.720051 34.620502 -27.980551 4294967295
-49.718842 33.395531 -27.774174 4294967295
-49.717339 34.774597 -27.981684 4294967295
-49.709042 33.552013 -27.714296 4294967295
-49.698334 34.474915 -27.769096 4294967295
-49.63699 30.766088 -27.982588 4294967295
-49.634541 30.307243 -27.888084 4294967295
-49.631336 30.154959 -27.836065 4294967295
-49.625732 29.39035 -27.665428 4294967295
-49.62183 29.084875 -27.582867 4294967295
-49.620613 31.383711 -27.939699 4294967295
-49.616909 31.691202 -27.9568 4294967295
-49.616062 31.078701 -27.851616 4294967295
-49.61393 29.853441 -27.637386 4294967295
-49.611439 29.700871 -27.591494 4294967295
-49.611248 28.934444 -27.467365 4294967295
-49.60796 29.548557 -27.537079 4294967295
-49.606155 30.468712 -27.66851 4294967295
-49.602623 29.243423 -27.442156 4294967295
-49.599476 33.381493 -28.076117 4294967295
-49.596443 30.931335 -27.65847 4294967295
-49.593197 32.158165 -27.826405 4294967295
-49.59264 31.545462 -27.723703 4294967295
-49.5896 33.997345 -28.089108 4294967295
-49.586113 33.079594 -27.912361 4294967295
-49.579021 31.856148 -27.655605 4294967295
-49.578289 31.243317 -27.55135 4294967295
-49.578232 34.30751 -28.0404 4294967295
-49.577854 33.84819 -27.963753 4294967295
-49.577663 32.009819 -27.668425 4294967295
-49.571411 32.471519 -27.688126 4294967295
-49.570969 33.544159 -27.855675 4294967295
-49.564045 32.933601 -27.698277 4294967295
-49.561211 32.781281 -27.649437 4294967295
-49.559704 34.160725 -27.856756 4294967295
-49.559692 33.241489 -27.709827 4294967295
-49.542343 34.47311 -27.756588 4294967295
-49.493683 29.381622 -27.857897 4294967295
-49.477715 28.926228 -27.647432 4294967295
-49.473286 29.540508 -27.7073 4294967295
-49.471321 29.234516 -27.641497 4294967295
-49.470715 30.307453 -27.807518 4294967295
-49.467495 28.775679 -27.53525 4294967295
-49.466713 31.534279 -27.968792 4294967295
-49.462948 31.229038 -27.887598 4294967295
-49.459503 30.157433 -27.686867 4294967295
-49.455666 31.844053 -27.922928 4294967295
-49.453491 32.763771 -28.050932 4294967295
-49.447632 31.386889 -27.780664 4294967295
-49.445766 31.693907 -27.81357 4294967295
-49.444588 30.468275 -27.607813 4294967295
-49.442451 29.855711 -27.49161 4294967295
-49.440792 30.009491 -27.501829 4294967295
-49.436951 32.615921 -27.884676 4294967295
-49.434498 33.382626 -27.985863 4294967295
-49.434265 32.157146 -27.788279 4294967295
-49.434113 30.931189 -27.591339 4294967295
-49.432167 33.077042 -27.916985 4294967295
-49.428558 33.844097 -28.008255 4294967295
-49.428421 32.005745 -27.713703 4294967295
-49.427002 31.086592 -27.554804 4294967295
-49.422615 33.233368 -27.859531 4294967295
-49.418728 34.153763 -27.97287 4294967295
-49.41169 33.696602 -27.83919 4294967295
-49.407024 33.544952 -27.774742 4294967295
-49.40556 32.472725 -27.591043 4294967295
-49.395988 34.467957 -27.826818 4294967295
-49.385452 34.624825 -27.760973 4294967295
-49.383133 34.31918 -27.692179 4294967295
-49.373886 34.782093 -27.6863 4294967295
-49.330544 29.994408 -27.881086 4294967295
-49.328362 29.382072 -27.764683 4294967295
-49.322777 29.536871 -27.741291 4294967295
-49.321167 28.924217 -27.629765 4294967295
-49.317886 29.231676 -27.650549 4294967295
-49.316113 30.764668 -27.879673 4294967295
-49.313084 30.152615 -27.756039 4294967295
-49.31031 31.072819 -27.878839 4294967295
-49.298672 29.083595 -27.461538 4294967295
-49.298168 32.455322 -27.994701 4294967295
-49.296268 30.310703 -27.63648 4294967295
-49.295406 30.924021 -27.72683 4294967295
-49.294525 28.778027 -27.377123 4294967295
-49.292763 30.618273 -27.655334 4294967295
-49.291553 33.070133 -28.035753 4294967295
-49.290546 31.38522 -27.758532 4294967295
-49.28614 31.999506 -27.818523 4294967295
-49.277554 32.615093 -27.842724 4294967295
-49.27739 30.469456 -27.499304 4294967295
-49.274876 33.228775 -27.917501 4294967295
-49.269466 33.843311 -27.968878 4294967295
-49.266804 31.698984 -27.604177 4294967295
-49.265503 31.239508 -27.51973 4294967295
-49.265316 32.312515 -27.68915 4294967295
-49.264622 31.852936 -27.609924 4294967295
-49.263786 32.772739 -27.74935 4294967295
-49.262108 31.547134 -27.539557 4294967295
-49.260117 32.927162 -27.742374 4294967295
-49.255989 33.541431 -27.804747 4294967295
-49.255341 32.162384 -27.579372 4294967295
-49.252857 34.002117 -27.851219 4294967295
-49.249943 34.76907 -27.948362 4294967295
-49.247124 33.697617 -27.753319 4294967295
-49.244106 34.158306 -27.80077 4294967295
-49.241093 33.393135 -27.652884 4294967295
-49.240887 34.312626 -27.797667 4294967295
-49.231415 34.622337 -27.765491 4294967295
-49.230011 34.469597 -27.729053 4294967295
-49.173859 28.766438 -27.666826 4294967295
-49.155308 28.924694 -27.532715 4294967295
-49.154766 30.610964 -27.796568 4294967295
-49.15218 28.618864 -27.457144 4294967295
-49.151482 31.684515 -27.939314 4294967295
-49.148773 29.233103 -27.525684 4294967295
-49.145477 31.379911 -27.839216 4294967295
-49.143578 29.387846 -27.505713 4294967295
-49.13242 31.077326 -27.678913 4294967295
-49.130791 31.231085 -27.689375 4294967295
-49.130138 30.924726 -27.635 4294967295
-49.127457 30.465618 -27.538876 4294967295
-49.127289 31.538673 -27.708302 4294967295
-49.125496 29.852871 -27.424467 4294967295
-49.125263 32.305534 -27.812971 4294967295
-49.124458 30.773108 -27.562075 4294967295
-49.123722 33.225304 -27.946192 4294967295
-49.123703 32.765701 -27.872841 4294967295
-49.119511 30.007904 -27.397726 4294967295
-49.119415 33.379913 -27.933815 4294967295
-49.1175 30.315165 -27.429379 4294967295
-49.113567 32.002693 -27.664314 4294967295
-49.112679 33.535343 -27.900681 4294967295
-49.111008 32.156761 -27.666853 4294967295
-49.105846 34.456791 -27.988684 4294967295
-49.104992 34.303905 -27.957016 4294967295
-49.102776 32.619164 -27.669781 4294967295
-49.099125 32.926865 -27.687384 4294967295
-49.093445 34.154652 -27.834055 4294967295
-49.092251 33.69537 -27.750715 4294967295
-49.084965 33.851059 -27.712919 4294967295
-49.080643 33.08614 -27.55402 4294967295
-49.075485 34.773727 -27.778349 4294967295
-49.017792 28.764278 -27.653507 4294967295
-49.011742 29.22579 -27.675056 4294967295
-49.010349 29.68602 -27.736347 4294967295
-49.004356 28.614511 -27.514517 4294967295
-48.997028 29.076462 -27.525219 4294967295
-48.996567 28.923252 -27.496881 4294967295
