# .PCD v0.7 - Point Cloud Data file format
VERSION 0.7
FIELDS x y z rgb
SIZE 4 4 4 4
TYPE F F F U
COUNT 1 1 1 1
WIDTH 1121
HEIGHT 1
VIEWPOINT 0 0 0 1 0 0 0
POINTS 1121
DATA ascii
-41.298588 94.980759 -28.135641 4294967295
-41.298145 92.834435 -27.808451 4294967295
-41.294441 94.525253 -28.034355 4294967295
-41.286633 94.380226 -27.951141 4294967295
-41.28582 95.760979 -28.152958 4294967295
-41.284012 94.84304 -28.00033 4294967295
-41.283867 96.529503 -28.253475 4294967295
-41.279488 95.154549 -28.011747 4294967295
-41.276669 95.617554 -28.059431 4294967295
-41.275208 96.385651 -28.163763 4294967295
-41.271206 95.930084 -28.063639 4294967295
-41.269745 93.63121 -27.705467 4294967295
-41.262497 95.326141 -27.904121 4294967295
-41.25071 97.025612 -28.067755 4294967295
-41.236473 96.73452 -27.912014 4294967295
-41.228146 97.20369 -27.917313 4294967295
-41.215012 97.371483 -27.839397 4294967295
-41.191143 92.476753 -28.141405 4294967295
-41.180866 93.71389 -28.24724 4294967295
-41.173622 92.648285 -28.029863 4294967295
-41.165421 93.270195 -28.059269 4294967295
-41.162731 93.579674 -28.084801 4294967295
-41.161007 92.968124 -27.979151 4294967295
-41.160156 92.815659 -27.94948 4294967295
-41.154503 94.968147 -28.229452 4294967295
-41.142555 93.14077 -27.86046 4294967295
-41.140957 94.369324 -28.03303 4294967295
-41.139206 94.217842 -27.996479 4294967295
-41.13818 93.45211 -27.873058 4294967295
-41.132771 94.531364 -27.993221 4294967295
-41.130497 95.760391 -28.160543 4294967295
-41.129158 95.915138 -28.173353 4294967295
-41.125973 96.071877 -28.171976 4294967295
-41.119289 95.619148 -28.051384 4294967295
-41.115299 95.316757 -27.974539 4294967295
-41.10709 96.552292 -28.096258 4294967295
-41.099838 97.020149 -28.109867 4294967295
-41.096489 94.876755 -27.760757 4294967295
-41.093063 96.414207 -27.965487 4294967295
-41.088863 95.498512 -27.794613 4294967295
-41.087341 97.340477 -28.060104 4294967295
-41.068207 97.514839 -27.93631 4294967295
-41.061817 97.215118 -27.841082 4294967295
-41.023602 93.408722 -28.193399 4294967295
-41.00275 92.510368 -27.894978 4294967295
-41.001568 94.505112 -28.185972 4294967295
-41.001556 92.664986 -27.90892 4294967295
-40.998123 94.815384 -28.205696 4294967295
-40.992458 93.287979 -27.931492 4294967295
-40.990646 94.363365 -28.079168 4294967295
-40.98859 93.905502 -27.994152 4294967295
-40.981407 94.986511 -28.100628 4294967295
-40.975998 94.072144 -27.920691 4294967295
-40.967072 95.308502 -28.036907 4294967295
-40.964882 96.230827 -28.158546 4294967295
-40.963688 95.618813 -28.057119 4294967295
-40.95953 95.776627 -28.048311 4294967295
-40.959286 96.083565 -28.092581 4294967295
-40.957657 95.165222 -27.941648 4294967295
-40.955208 94.707695 -27.853622 4294967295
-40.952763 94.250076 -27.765612 4294967295
-40.948399 97.168617 -28.170637 4294967295
-40.941605 95.489159 -27.864765 4294967295
-40.933029 96.878738 -28.006752 4294967295
-40.92651 96.425735 -27.88755 4294967295
-40.925571 97.04023 -27.972668 4294967295
-40.920311 96.585838 -27.863148 4294967295
-40.919147 97.507324 -27.992666 4294967295
-40.913166 97.360519 -27.923771 4294967295
-40.911198 97.669411 -27.954842 4294967295
-40.877357 92.785347 -28.178036 4294967295
-40.8512 92.965866 -28.000849 4294967295
-40.844654 94.046188 -28.112175 4294967295
-40.842537 92.668091 -27.888428 4294967295
-40.836521 94.208099 -28.072994 4294967295
-40.83585 93.748741 -27.998671 4294967295
-40.825138 94.680191 -28.055065 4294967295
-40.817329 95.455223 -28.110594 4294967295
-40.816746 96.069153 -28.198298 4294967295
-40.814377 92.543816 -27.649776 4294967295
-40.814365 93.1576 -27.741985 4294967295
-40.811504 95.001396 -27.996868 4294967295
-40.811249 96.228394 -28.179316 4294967295
-40.809891 93.469131 -27.753868 4294967295
-40.806274 94.853584 -27.933788 4294967295
-40.805595 95.161064 -27.974691 4294967295
-40.805527 94.5476 -27.881948 4294967295
-40.804573 95.622238 -28.036055 4294967295
-40.803329 95.930275 -28.072636 4294967295
-40.799309 93.633644 -27.695961 4294967295
-40.786865 94.413933 -27.716066 4294967295
-40.782627 96.719398 -28.029541 4294967295
-40.774887 97.494568 -28.085594 4294967295
-40.771252 97.805229 -28.103897 4294967295
-40.766037 96.430626 -27.856552 4294967295
-40.757118 97.207268 -27.903646 4294967295
-40.739197 97.380249 -27.789639 4294967295
-40.737904 97.995277 -27.871973 4294967295
-40.696407 93.271347 -28.058762 4294967295
-40.692921 92.968231 -27.986023 4294967295
-40.689537 92.818352 -27.937145 4294967295
-40.678623 92.52282 -27.807652 4294967295
-40.675785 94.826546 -28.131577 4294967295
-40.669769 94.679565 -28.062616 4294967295
-40.660572 94.229149 -27.923265 4294967295
-40.657452 93.618782 -27.807264 4294967295
-40.656231 92.699394 -27.659626 4294967295
-40.654949 95.46212 -28.064598 4294967295
-40.652737 93.163391 -27.702078 4294967295
-40.647865 96.236465 -28.125683 4294967295
-40.644802 93.478554 -27.687592 4294967295
-40.641041 95.937103 -28.027533 4294967295
-40.639622 95.171715 -27.901497 4294967295
-40.636059 95.022095 -27.851269 4294967295
-40.634197 93.796562 -27.652689 4294967295
-40.628971 93.955505 -27.635817 4294967295
-40.62706 96.565643 -28.012913 4294967295
-40.620205 97.799919 -28.144808 4294967295
-40.611641 97.042488 -27.964329 4294967295
-40.60952 95.664101 -27.740791 4294967295
-40.608051 97.199776 -27.95994 4294967295
-40.604111 96.897278 -27.883816 4294967295
-40.591599 97.371109 -27.857412 4294967295
-40.583797 96.765892 -27.705721 4294967295
-40.564384 98.014587 -27.741884 4294967295
-40.564152 98.168274 -27.763142 4294967295
-40.533688 93.738464 -28.07918 4294967295
-40.53326 92.51178 -27.891787 4294967295
-40.530258 92.821701 -27.914925 4294967295
-40.526691 93.439003 -27.97983 4294967295
-40.524929 94.514458 -28.127502 4294967295
-40.507805 92.99836 -27.76676 4294967295
-40.507229 94.993263 -28.061615 4294967295
-40.505119 95.302238 -28.091562 4294967295
-40.504898 93.921974 -27.882748 4294967295
-40.503765 92.695633 -27.689877 4294967295
-40.492802 94.088081 -27.813553 4294967295
-40.480854 95.941643 -27.998711 4294967295
-40.480782 95.788338 -27.975126 4294967295
-40.479279 94.255722 -27.733482 4294967295
-40.477787 93.643417 -27.630013 4294967295
-40.477676 96.86528 -28.112522 4294967295
-40.474113 95.488655 -27.878304 4294967295
-40.466946 97.490349 -28.122795 4294967295
-40.456673 94.432976 -27.584209 4294967295
-40.452492 97.659492 -28.035709 4294967295
-40.45105 96.127029 -27.794636 4294967295
-40.448334 96.436813 -27.819969 4294967295
-40.440224 96.598991 -27.781197 4294967295
-40.437786 96.294731 -27.716593 4294967295
-40.428097 97.072433 -27.757874 4294967295
-40.41684 98.158745 -27.833237 4294967295
-40.41589 97.392601 -27.710917 4294967295
-40.413815 97.241402 -27.672085 4294967295
-40.406944 97.862724 -27.711842 4294967295
-40.386688 98.345352 -27.626617 4294967295
-40.378117 98.661751 -27.607399 4294967295
-40.36673 93.749901 -27.998566 4294967295
-40.351799 92.53788 -27.70093 4294967295
-40.350517 93.459946 -27.829231 4294967295
-40.348465 92.694786 -27.698584 4294967295
-40.341145 92.855812 -27.665865 4294967295
-40.337582 94.394073 -27.868811 4294967295
-40.336399 93.014191 -27.652779 4294967295
-40.334785 93.629768 -27.732519 4294967295
-40.33115 95.321365 -27.95785 4294967295
-40.325371 94.560349 -27.79892 4294967295
-40.324203 93.333809 -27.60598 4294967295
-40.316975 95.950096 -27.942036 4294967295
-40.316849 95.796822 -27.918076 4294967295
-40.315323 97.025597 -28.090387 4294967295
-40.311256 93.961273 -27.599529 4294967295
-40.310707 95.649956 -27.848372 4294967295
-40.309711 95.190689 -27.771809 4294967295
-40.308178 96.573158 -27.967096 4294967295
-40.306984 95.500481 -27.797062 4294967295
-40.305008 94.888748 -27.690018 4294967295
-40.297432 96.124451 -27.81642 4294967295
-40.290257 96.285591 -27.784838 4294967295
-40.288578 96.901146 -27.864054 4294967295
-40.284447 96.445282 -27.763655 4294967295
-40.280849 97.369797 -27.874269 4294967295
-40.27734 98.447464 -28.008493 4294967295
-40.272316 98.299591 -27.947329 4294967295
-40.27055 97.227547 -27.772985 4294967295
-40.264053 97.848389 -27.815563 4294967295
-40.263134 97.695953 -27.785578 4294967295
-40.255714 97.550583 -27.706188 4294967295
-40.250538 98.170067 -27.758818 4294967295
-40.24828 98.632881 -27.810631 4294967295
-40.235443 98.033142 -27.621071 4294967295
-40.222664 93.123863 -28.000338 4294967295
-40.204483 94.063202 -28.000109 4294967295
-40.199078 94.682465 -28.050974 4294967295
-40.198944 93.455269 -27.866146 4294967295
-40.198277 92.688683 -27.746145 4294967295
-40.189564 94.845886 -28.001715 4294967295
-40.182945 94.392586 -27.882523 4294967295
-40.176426 92.557625 -27.55719 4294967295
-40.175682 93.786362 -27.735464 4294967295
-40.17432 93.941254 -27.748095 4294967295
-40.171803 93.022926 -27.591061 4294967295
-40.171257 95.018631 -27.885683 4294967295
-40.170788 95.939621 -28.019957 4294967295
-40.163345 94.259666 -27.710741 4294967295
-40.157913 95.799942 -27.899273 4294967295
-40.155384 96.262909 -27.948994 4294967295
-40.151947 93.657555 -27.532219 4294967295
-40.151146 95.346809 -27.778969 4294967295
-40.149227 96.883171 -27.994127 4294967295
-40.146053 95.505669 -27.763288 4294967295
-40.145058 97.961403 -28.123226 4294967295
-40.142525 96.583557 -27.897345 4294967295
-40.141563 97.505066 -28.027838 4294967295
-40.137882 96.12822 -27.793179 4294967295
-40.136898 94.594406 -27.555895 4294967295
-40.135063 95.670822 -27.702856 4294967295
-40.125336 97.829536 -27.95064 4294967295
-40.124432 98.290741 -28.012671 4294967295
-40.123188 97.678459 -27.911392 4294967295
-40.122253 97.065735 -27.812422 4294967295
-40.122135 96.758949 -27.765572 4294967295
-40.119308 96.455055 -27.69817 4294967295
-40.115555 98.45388 -27.968319 4294967295
-40.107704 97.23494 -27.724991 4294967295
-40.107243 98.616432 -27.928211 4294967295
-40.092735 97.40464 -27.634409 4294967295
-40.087303 98.791817 -27.799953 4294967295
-40.077442 98.188766 -27.633266 4294967295
-40.070438 92.506218 -27.940166 4294967295
-40.068855 92.968124 -27.997038 4294967295
-40.045033 94.373589 -28.023037 4294967295
-40.04356 92.840698 -27.782318 4294967295
-40.033634 95.152603 -28.051413 4294967295
-40.032131 93.926765 -27.856413 4294967295
-40.031654 94.234154 -27.898716 4294967295
-40.031174 93.313896 -27.757299 4294967295
-40.028313 95.004807 -27.988153 4294967295
-40.027271 94.545624 -27.911398 4294967295
-40.026878 93.471817 -27.747721 4294967295
-40.021423 92.709938 -27.59152 4294967295
-40.018299 94.861931 -27.889317 4294967295
-40.012711 95.481575 -27.938805 4294967295
-40.010937 94.102318 -27.71875 4294967295
-40.006935 96.254822 -28.009789 4294967295
-40.005951 93.18644 -27.543139 4294967295
-39.999378 95.342247 -27.814842 4294967295
-39.998814 95.649765 -27.856451 4294967295
-39.998528 93.808228 -27.578766 4294967295
-39.997772 93.655487 -27.55007 4294967295
-39.990227 96.579567 -27.929123 4294967295
-39.990158 95.965874 -27.83679 4294967295
-39.989849 96.426537 -27.903315 4294967295
-39.989452 98.267784 -28.175592 4294967295
-39.987812 97.656052 -28.071445 4294967295
-39.980892 95.822273 -27.743656 4294967295
-39.976784 96.747452 -27.850235 4294967295
-39.971642 98.440666 -28.063702 4294967295
-39.970169 97.521797 -27.914896 4294967295
-39.965866 96.145264 -27.67573 4294967295
-39.959427 98.76088 -28.017099 4294967295
-39.957085 98.149773 -27.907587 4294967295
-39.95623 97.076515 -27.740479 4294967295
-39.953583 97.232849 -27.743393 4294967295
-39.950211 98.924438 -27.970257 4294967295
-39.943901 96.936317 -27.624163 4294967295
-39.917675 92.502808 -27.967812 4294967295
-39.887836 92.686798 -27.764957 4294967295
-39.886211 93.916199 -27.936174 4294967295
-39.885826 94.223473 -27.97913 4294967295
-39.885395 92.996269 -27.792391 4294967295
-39.87785 94.078339 -27.895874 4294967295
-39.868927 93.473701 -27.736618 4294967295
-39.868221 92.860405 -27.639496 4294967295
-39.861778 93.174065 -27.63665 4294967295
-39.855911 95.789246 -27.982201 4294967295
-39.855404 94.869102 -27.84078 4294967295
-39.854992 95.32991 -27.906467 4294967295
-39.85463 95.023384 -27.857851 4294967295
-39.850376 95.488235 -27.894497 4294967295
-39.849815 93.64698 -27.614981 4294967295
-39.849258 93.3405 -27.564873 4294967295
-39.841339 95.65126 -27.849106 4294967295
-39.840893 96.572403 -27.983292 4294967295
-39.840286 94.731491 -27.703506 4294967295
-39.839703 96.113365 -27.905516 4294967295
-39.838711 93.812019 -27.553934 4294967295
-39.838486 94.426361 -27.644005 4294967295
-39.831688 96.889137 -27.959562 4294967295
-39.830975 97.657005 -28.068769 4294967295
-39.829254 94.589531 -27.597147 4294967295
-39.823261 97.051643 -27.918798 4294967295
-39.818054 95.215401 -27.604218 4294967295
-39.814075 97.214996 -27.872295 4294967295
-39.811943 96.756897 -27.787365 4294967295
-39.810184 98.446693 -28.026245 4294967295
-39.809013 96.299568 -27.69643 4294967295
-39.806004 98.604683 -28.017572 4294967295
-39.801659 96.46093 -27.663763 4294967295
-39.794598 98.924042 -27.977228 4294967295
-39.782509 98.78389 -27.86297 4294967295
-39.780083 99.093452 -27.890495 4294967295
-39.777378 98.329102 -27.755442 4294967295
-39.76059 97.886871 -27.559784 4294967295
-39.736252 92.835617 -27.824848 4294967295
-39.733646 92.991768 -27.828106 4294967295
-39.719936 94.847481 -27.999567 4294967295
-39.70919 93.323891 -27.689291 4294967295
-39.708851 92.556587 -27.572081 4294967295
-39.706779 93.479889 -27.694008 4294967295
-39.706219 95.32222 -27.96475 4294967295
-39.702202 92.716927 -27.5448 4294967295
-39.702194 93.638138 -27.682314 4294967295
-39.687099 94.114349 -27.63711 4294967295
-39.677158 97.194405 -28.020332 4294967295
-39.676559 95.046478 -27.695065 4294967295
-39.674023 94.281487 -27.561319 4294967295
-39.6702 97.048454 -27.944941 4294967295
-39.668823 95.822159 -27.75127 4294967295
-39.667229 97.665405 -28.014114 4294967295
-39.666744 97.512497 -27.987576 4294967295
-39.663544 93.831665 -27.41342 4294967295
-39.655815 95.221809 -27.561438 4294967295
-39.653465 96.452484 -27.727032 4294967295
-39.643646 98.304771 -27.927866 4294967295
-39.634804 97.393517 -27.72373 4294967295
-39.630386 98.165749 -27.804949 4294967295
-39.626167 96.788719 -27.566904 4294967295
-39.620743 96.948074 -27.548916 4294967295
-39.616047 98.948814 -27.811337 4294967295
-39.608742 99.110313 -27.77915 4294967295
-39.607346 98.037292 -27.608263 4294967295
-39.605675 98.653191 -27.687304 4294967295
-39.59515 98.511169 -27.58503 4294967295
-39.582275 98.832336 -27.533743 4294967295
-39.579567 93.143135 -27.869125 4294967295
-39.569714 99.306778 -27.50778 4294967295
-39.563217 92.545807 -27.654295 4294967295
-39.562614 92.699959 -27.672657 4294967295
-39.555145 93.321709 -27.707973 4294967295
-39.553185 94.091263 -27.807714 4294967295
-39.547554 92.868874 -27.582041 4294967295
-39.546989 93.023003 -27.600693 4294967295
-39.537716 93.646713 -27.622448 4294967295
-39.53109 95.495766 -27.847282 4294967295
-39.529217 93.501915 -27.535475 4294967295
-39.528713 94.423714 -27.669123 4294967295
-39.525688 94.273323 -27.623434 4294967295
-39.524551 95.349159 -27.775143 4294967295
-39.522381 94.737373 -27.667213 4294967295
-39.520836 95.046043 -27.701359 4294967295
-39.519966 93.818588 -27.511578 4294967295
-39.516838 94.589622 -27.602556 4294967295
-39.51519 95.666031 -27.750427 4294967295
-39.514336 95.973938 -27.789759 4294967295
-39.512043 93.980354 -27.4748 4294967295
-39.500896 95.220497 -27.574053 4294967295
-39.500011 96.449661 -27.750568 4294967295
-39.497929 94.916489 -27.505882 4294967295
-39.497093 96.759781 -27.774364 4294967295
-39.492668 97.685448 -27.878365 4294967295
-39.491787 96.918961 -27.757305 4294967295
-39.490574 97.841187 -27.885487 4294967295
-39.486423 95.849968 -27.556658 4294967295
-39.482025 96.161736 -27.569317 4294967295
-39.463478 98.638039 -27.795929 4294967295
-39.460751 98.180504 -27.706758 4294967295
-39.456554 97.263824 -27.5378 4294967295
-39.454845 97.419212 -27.547836 4294967295
-39.434162 99.437698 -27.68973 4294967295
-39.432869 99.132072 -27.634233 4294967295
-39.410656 99.617142 -27.535742 4294967295
-39.394676 94.093712 -27.792809 4294967295
-39.390701 94.711845 -27.854412 4294967295
-39.387569 95.175583 -27.899448 4294967295
-39.386669 93.027191 -27.572405 4294967295
-39.382191 93.953102 -27.676006 4294967295
-39.380062 93.494652 -27.591368 4294967295
-39.377563 92.575722 -27.435236 4294967295
-39.3769 93.651459 -27.590466 4294967295
-39.374359 94.268288 -27.662874 4294967295
-39.37289 93.348442 -27.51454 4294967295
-39.370804 92.889809 -27.430161 4294967295
-39.37059 94.579277 -27.680302 4294967295
-39.366077 95.044586 -27.714994 4294967295
-39.362888 95.354973 -27.736778 4294967295
-39.361969 93.206039 -27.409485 4294967295
-39.351162 95.981415 -27.740101 4294967295
-39.345509 94.912537 -27.537476 4294967295
-39.342915 96.911232 -27.815342 4294967295
-39.341587 93.841438 -27.347744 4294967295
-39.339237 97.22216 -27.833431 4294967295
-39.328377 97.080292 -27.728962 4294967295
-39.327526 95.852844 -27.539551 4294967295
-39.323483 96.471375 -27.60067 4294967295
-39.312809 99.246078 -27.932053 4294967295
-39.306904 99.099075 -27.864847 4294967295
-39.298477 97.573013 -27.572886 4294967295
-39.29797 96.6521 -27.431797 4294967295
-39.296864 97.72831 -27.583632 4294967295
-39.292904 98.346786 -27.645361 4294967295
-39.292854 97.425499 -27.507742 4294967295
-39.292446 96.811584 -27.413164 4294967295
-39.291843 98.808533 -27.706001 4294967295
-39.288071 97.891357 -27.540436 4294967295
-39.287739 98.659485 -27.652288 4294967295
-39.280087 98.207138 -27.526207 4294967295
-39.275501 98.979919 -27.606106 4294967295
-39.264332 98.07061 -27.384939 4294967295
-39.247242 93.624168 -27.792608 4294967295
-39.236732 94.249077 -27.805141 4294967295
-39.22583 95.027962 -27.837584 4294967295
-39.224087 94.722755 -27.778788 4294967295
-39.222 93.189377 -27.534519 4294967295
-39.221645 93.957596 -27.646175 4294967295
-39.218632 92.578407 -27.417761 4294967295
-39.217747 93.040131 -27.479731 4294967295
-39.216187 92.888115 -27.44515 4294967295
-39.209873 93.508972 -27.489225 4294967295
-39.208099 95.967613 -27.841627 4294967295
-39.203854 94.436676 -27.581228 4294967295
-39.196632 96.286751 -27.801308 4294967295
-39.193829 93.371796 -27.3459 4294967295
-39.191883 94.602676 -27.514248 4294967295
-39.191372 94.910378 -27.556139 4294967295
-39.190933 96.599823 -27.804237 4294967295
-39.190186 93.836418 -27.387157 4294967295
-39.18684 96.143593 -27.70499 4294967295
-39.185997 95.530281 -27.607231 4294967295
-39.17202 95.237762 -27.456654 4294967295
-39.171555 98.309105 -27.910175 4294967295
-39.168495 95.395058 -27.453049 4294967295
-39.162262 95.862404 -27.474884 4294967295
-39.159233 96.940659 -27.612143 4294967295
-39.154743 97.866753 -27.71558 4294967295
-39.153671 97.407272 -27.638994 4294967295
-39.152298 97.715843 -27.674398 4294967295
-39.151268 96.795578 -27.529549 4294967295
-39.149761 98.025658 -27.701069 4294967295
-39.14875 98.947876 -27.830536 4294967295
-39.144882 97.26313 -27.550215 4294967295
-39.142372 97.57296 -27.57711 4294967295
-39.133362 98.504044 -27.646643 4294967295
-39.132576 98.658447 -27.663603 4294967295
-39.103237 98.843956 -27.466452 4294967295
-39.099285 98.233803 -27.345407 4294967295
-39.097481 99.618172 -27.537556 4294967295
-39.09726 92.543045 -27.681953 4294967295
-39.083958 99.172203 -27.367619 4294967295
-39.080814 94.095291 -27.787104 4294967295
-39.078579 92.715546 -27.564812 4294967295
-39.069847 93.799484 -27.659285 4294967295
-39.0695 92.878357 -27.519602 4294967295
-39.06538 94.878929 -27.785654 4294967295
-39.064365 93.190781 -27.526814 4294967295
-39.063484 93.345276 -27.543062 4294967295
-39.054497 94.429573 -27.635626 4294967295
-39.050331 93.973129 -27.5359 4294967295
-39.048107 95.511093 -27.747625 4294967295
-39.043823 93.05809 -27.350039 4294967295
-39.043072 95.362823 -27.687073 4294967295
-39.042473 93.52037 -27.40848 4294967295
-39.038914 95.060036 -27.610271 4294967295
-39.033718 94.758278 -27.525675 4294967295
-39.032333 93.684395 -27.35535 4294967295
-39.031742 95.988922 -27.693563 4294967295
-39.028854 95.684845 -27.626263 4294967295
-39.020432 96.768631 -27.723026 4294967295
-39.019203 95.234192 -27.48547 4294967295
-39.013996 95.854034 -27.537849 4294967295
-39.005013 98.627449 -27.881508 4294967295
-39.003227 96.633339 -27.571396 4294967295
-38.998314 97.099297 -27.603092 4294967295
-38.986717 96.34362 -27.402088 4294967295
-38.98629 99.108353 -27.809847 4294967295
-38.976536 96.200745 -27.303003 4294967295
-38.97599 97.276718 -27.458811 4294967295
-38.974033 98.814629 -27.672489 4294967295
-38.9706 97.589699 -27.46414 4294967295
-38.970512 97.896996 -27.509144 4294967295
-38.970413 98.357864 -27.576908 4294967295
-38.967491 98.514603 -27.577866 4294967295
-38.962246 97.445038 -27.378761 4294967295
-38.958256 97.756569 -27.394579 4294967295
-38.942448 99.309784 -27.504627 4294967295
-38.939869 99.619781 -27.530989 4294967295
-38.939766 99.466309 -27.507368 4294967295
-38.937546 99.007919 -27.422268 4294967295
-38.930817 92.706932 -27.630934 4294967295
-38.924023 93.020981 -27.625763 4294967295
-38.918858 93.94767 -27.724072 4294967295
-38.914543 93.184212 -27.577692 4294967295
-38.908401 94.419113 -27.714334 4294967295
-38.89711 93.816414 -27.53862 4294967295
-38.895058 94.279312 -27.591728 4294967295
-38.889641 92.902267 -27.345779 4294967295
-38.889572 93.670525 -27.459419 4294967295
-38.887371 92.597244 -27.283133 4294967295
-38.886623 93.519913 -27.414539 4294967295
-38.884647 95.825829 -27.742075 4294967295
-38.878605 95.21788 -27.605654 4294967295
-38.877445 95.065506 -27.574154 4294967295
-38.877182 94.144119 -27.43524 4294967295
-38.866344 94.923439 -27.468334 4294967295
-38.862156 96.156609 -27.619591 4294967295
-38.860416 96.926285 -27.720633 4294967295
-38.855137 97.392555 -27.749626 4294967295
-38.853649 96.31916 -27.57884 4294967295
-38.85268 97.702263 -27.776863 4294967295
-38.841541 95.563805 -27.374222 4294967295
-38.837154 95.414742 -27.318624 4294967295
-38.83691 96.797661 -27.522184 4294967295
-38.834686 97.260811 -27.57402 4294967295
-38.83419 96.493317 -27.456234 4294967295
-38.82983 97.112396 -27.5149 4294967295
-38.822506 98.809631 -27.711102 4294967295
-38.819256 96.662758 -27.367428 4294967295
-38.816822 99.583549 -27.782642 4294967295
-38.816357 96.051193 -27.254454 4294967295
-38.802834 98.370186 -27.495716 4294967295
-38.801136 98.064789 -27.43741 4294967295
-38.800446 99.140755 -27.591928 4294967295
-38.792488 98.995819 -27.509701 4294967295
-38.788662 97.924561 -27.321415 4294967295
-38.777817 99.319016 -27.445747 4294967295
-38.76366 93.485901 -27.666159 4294967295
-38.762333 92.872871 -27.56505 4294967295
-38.757542 92.724106 -27.506464 4294967295
-38.745411 92.582718 -27.393087 4294967295
-38.744987 93.351326 -27.503965 4294967295
-38.741535 94.890831 -27.706209 4294967295
-38.739628 93.81765 -27.532377 4294967295
-38.736309 93.974663 -27.530401 4294967295
-38.71859 94.146477 -27.420979 4294967295
-38.711845 95.689651 -27.598667 4294967295
-38.707916 94.772034 -27.432558 4294967295
-38.703205 93.701241 -27.237726 4294967295
-38.692371 94.327095 -27.248108 4294967295
-38.690823 95.404358 -27.396212 4294967295
-38.687916 97.404358 -27.670881 4294967295
-38.686115 94.487228 -27.224236 4294967295
-38.68578 94.641258 -27.244549 4294967295
-38.67968 98.181015 -27.723412 4294967295
-38.67424 95.57531 -27.295311 4294967295
-38.673241 98.341515 -27.698177 4294967295
-38.670933 96.961624 -27.475851 4294967295
-38.670811 99.265457 -27.816736 4294967295
-38.668507 96.503281 -27.38937 4294967295
-38.667713 96.350471 -27.360632 4294967295
-38.663605 95.893784 -27.261585 4294967295
-38.66304 96.816353 -27.394194 4294967295
-38.661499 97.2789 -27.451107 4294967295
-38.659664 98.663315 -27.642542 4294967295
-38.657902 99.586624 -27.766094 4294967295
-38.654224 98.51561 -27.579182 4294967295
-38.654079 97.747704 -27.464159 4294967295
-38.649372 97.90638 -27.451834 4294967295
-38.642559 98.067314 -27.423845 4294967295
-38.634632 98.844009 -27.478703 4294967295
-38.616348 99.478394 -27.43359 4294967295
-38.614391 99.019592 -27.350599 4294967295
-38.612171 99.175652 -27.356871 4294967295
-38.606449 92.872452 -27.57066 4294967295
-38.59399 93.80677 -27.61451 4294967295
-38.593761 93.960602 -27.635599 4294967295
-38.593132 92.732262 -27.448627 4294967295
-38.574371 93.212196 -27.37723 4294967295
-38.574245 94.287834 -27.535789 4294967295
-38.563175 94.145561 -27.430523 4294967295
-38.559795 92.612167 -27.177425 4294967295
-38.558151 93.536026 -27.30195 4294967295
-38.555397 93.385139 -27.258652 4294967295
-38.546604 94.93087 -27.421038 4294967295
-38.545181 95.546913 -27.501558 4294967295
-38.544113 94.472458 -27.334122 4294967295
-38.537922 97.090614 -27.675253 4294967295
-38.533703 94.636864 -27.279366 4294967295
-38.527794 96.025986 -27.440449 4294967295
-38.526951 95.412239 -27.343023 4294967295
-38.524273 95.261353 -27.300289 4294967295
-38.522442 97.721436 -27.651114 4294967295
-38.521576 96.339798 -27.439716 4294967295
-38.519123 96.649666 -27.467003 4294967295
-38.517933 95.882652 -27.344246 4294967295
-38.514862 98.497482 -27.70853 4294967295
-38.514767 97.422417 -27.548443 4294967295
-38.513855 94.811043 -27.154331 4294967295
-38.50808 97.890396 -27.566975 4294967295
-38.503155 95.129555 -27.120243 4294967295
-38.501038 98.66597 -27.628407 4294967295
-38.50082 95.746841 -27.194029 4294967295
-38.500713 96.822762 -27.35273 4294967295
-38.495342 98.979317 -27.631575 4294967295
-38.494576 96.982918 -27.329824 4294967295
-38.494095 98.212616 -27.508442 4294967295
-38.485424 97.299973 -27.307251 4294967295
-38.483353 99.145912 -27.565145 4294967295
-38.483273 99.453209 -27.610073 4294967295
-38.454792 98.408508 -27.238762 4294967295
-38.454029 99.331383 -27.369745 4294967295
-38.449581 93.026634 -27.591789 4294967295
-38.449055 93.180786 -27.610634 4294967295
-38.424835 92.744293 -27.362225 4294967295
-38.410172 92.91275 -27.275948 4294967295
-38.398445 94.307831 -27.39369 4294967295
-38.374962 95.100388 -27.332943 4294967295
-38.370438 96.641685 -27.526918 4294967295
-38.370258 94.797867 -27.25243 4294967295
-38.368362 94.953522 -27.261124 4294967295
-38.367958 94.185356 -27.144245 4294967295
-38.356541 98.499794 -27.69668 4294967295
-38.355396 97.733002 -27.57443 4294967295
-38.347141 96.512535 -27.331068 4294967295
-38.344391 94.670769 -27.037378 4294967295
-38.343277 98.206825 -27.55266 4294967295
-38.341766 98.976501 -27.655167 4294967295
-38.340729 96.82666 -27.328924 4294967295
-38.340126 97.441978 -27.415478 4294967295
-38.337887 96.983337 -27.330578 4294967295
-38.337284 95.908058 -27.166727 4294967295
-38.331341 97.143944 -27.304705 4294967295
-38.329712 96.069695 -27.133232 4294967295
-38.32896 98.068512 -27.423569 4294967295
-38.322105 95.770142 -27.03116 4294967295
-38.304371 99.324242 -27.422983 4294967295
-38.303455 99.478889 -27.438934 4294967295
-38.2854 92.573601 -27.467739 4294967295
-38.284481 99.192123 -27.252506 4294967295
-38.282913 98.886406 -27.195351 4294967295
-38.278664 93.041359 -27.485973 4294967295
-38.272747 92.739975 -27.396572 4294967295
-38.259548 92.906937 -27.321333 4294967295
-38.252522 93.375114 -27.337433 4294967295
-38.245884 93.689232 -27.333666 4294967295
-38.235249 93.546318 -27.231979 4294967295
-38.223011 93.866203 -27.186668 4294967295
-38.207363 96.03418 -27.389059 4294967295
-38.205544 96.497101 -27.443773 4294967295
-38.20536 95.114082 -27.237736 4294967295
-38.189178 96.821648 -27.367884 4294967295
-38.183887 94.982491 -27.055651 4294967295
-38.182964 97.442909 -27.412771 4294967295
-38.182724 96.674744 -27.297272 4294967295
-38.181652 98.519867 -27.562166 4294967295
-38.181171 97.59848 -27.422211 4294967295
-38.179707 99.136452 -27.638632 4294967295
-38.179466 97.139259 -27.341345 4294967295
-38.17849 95.449348 -27.083874 4294967295
-38.175625 96.221039 -27.176376 4294967295
-38.17522 98.373123 -27.491745 4294967295
-38.17384 98.220955 -27.458769 4294967295
-38.170856 97.302055 -27.300253 4294967295
-38.164482 98.691963 -27.457598 4294967295
-38.162109 99.309113 -27.53092 4294967295
-38.1567 97.931892 -27.286234 4294967295
-38.151012 98.091667 -27.266802 4294967295
-38.136642 97.79953 -27.114775 4294967295
-38.134663 99.031433 -27.282022 4294967295
-38.122948 93.194366 -27.516014 4294967295
-38.119854 93.043823 -27.470369 4294967295
-38.097721 92.758659 -27.260927 4294967295
-38.089043 93.382271 -27.287575 4294967295
-38.071144 93.861572 -27.223194 4294967295
-38.069965 94.477661 -27.30537 4294967295
-38.061893 93.563461 -27.109198 4294967295
-38.051479 96.494759 -27.463907 4294967295
-38.051388 94.035408 -27.099575 4294967295
-38.048706 94.65316 -27.170662 4294967295
-38.043045 95.120193 -27.196941 4294967295
-38.037491 95.433403 -27.201277 4294967295
-38.033558 94.36113 -27.013006 4294967295
-38.032146 95.285187 -27.138954 4294967295
-38.031399 94.209541 -26.974266 4294967295
-38.028297 94.82785 -27.042263 4294967295
-38.026844 96.366837 -27.258797 4294967295
-38.019077 96.836136 -27.26948 4294967295
-38.015308 95.610115 -27.059755 4294967295
-38.014389 97.302208 -27.30295 4294967295
-38.013428 98.379051 -27.454844 4294967295
-38.011772 98.688148 -27.488018 4294967295
-38.003674 95.929741 -27.019094 4294967295
-38.003193 96.699074 -27.12919 4294967295
-37.998787 98.855766 -27.414673 4294967295
-37.996578 98.089661 -27.284735 4294967295
-37.994259 99.475334 -27.47201 4294967295
-37.992981 98.247208 -27.28084 4294967295
-37.991409 97.018974 -27.08741 4294967295
-37.990963 96.250557 -26.970449 4294967295
-37.977379 99.339912 -27.324415 4294967295
-37.973125 92.573112 -27.476147 4294967295
-37.958271 99.206818 -27.160343 4294967295
-37.926392 94.003456 -27.334969 4294967295
-37.920242 92.933487 -27.13052 4294967295
-37.919205 93.088287 -27.145561 4294967295
-37.917377 93.551399 -27.20018 4294967295
-37.91404 94.169739 -27.266354 4294967295
-37.908764 94.328842 -27.250076 4294967295
-37.901115 95.105309 -27.307072 4294967295
-37.899982 96.182373 -27.457628 4294967295
-37.899551 94.799461 -27.250099 4294967295
-37.897243 95.416733 -27.323883 4294967295
-37.887714 94.504066 -27.117182 4294967295
-37.885445 93.737457 -26.986797 4294967295
-37.87606 93.900764 -26.940145 4294967295
-37.871376 95.904694 -27.200848 4294967295
-37.867485 96.831139 -27.308319 4294967295
-37.862942 95.605919 -27.093081 4294967295
-37.862766 98.83403 -27.568474 4294967295
-37.862263 97.144058 -27.315138 4294967295
-37.860188 98.375809 -27.481371 4294967295
-37.854485 96.691032 -27.189573 4294967295
-37.85247 95.309151 -26.970251 4294967295
-37.850338 97.310349 -27.249744 4294967295
-37.848915 98.234146 -27.375412 4294967295
-37.842766 95.780586 -26.9667 4294967295
-37.842381 97.01123 -27.145552 4294967295
-37.8395 99.627388 -27.510126 4294967295
-37.837254 99.322472 -27.448156 4294967295
-37.835266 97.479996 -27.161102 4294967295
-37.824036 98.721863 -27.259771 4294967295
-37.819149 99.495705 -27.337156 4294967295
-37.813503 98.579399 -27.159285 4294967295
-37.810921 99.043404 -27.208315 4294967295
-37.810616 97.813622 -27.024433 4294967295
-37.80645 99.20195 -27.198013 4294967295
-37.802792 97.975716 -26.989365 4294967295
-37.773064 92.924179 -27.201668 4294967295
-37.772877 94.000526 -27.359137 4294967295
-37.762981 93.549324 -27.218042 4294967295
-37.759209 92.630463 -27.054018 4294967295
-37.755619 94.940407 -27.367928 4294967295
-37.747543 94.64122 -27.262959 4294967295
-37.744423 93.721817 -27.10379 4294967295
-37.744171 94.490913 -27.215387 4294967295
-37.742661 92.800781 -26.954576 4294967295
-37.740559 93.418129 -27.029873 4294967295
-37.739822 95.264069 -27.296774 4294967295
-37.733582 93.117516 -26.932961 4294967295
-37.717045 95.13372 -27.10605 4294967295
-37.715927 93.904434 -26.916204 4294967295
-37.715527 94.827705 -27.04944 4294967295
-37.71331 96.060173 -27.214636 4294967295
-37.712936 96.52179 -27.279934 4294967295
-37.710918 95.601364 -27.128922 4294967295
-37.69289 97.00399 -27.200165 4294967295
-37.692127 96.235939 -27.081104 4294967295
-37.690228 95.468903 -26.953619 4294967295
-37.690128 97.314392 -27.225161 4294967295
-37.680027 97.632545 -27.196047 4294967295
-37.675686 99.02076 -27.368166 4294967295
-37.674355 99.483299 -27.426363 4294967295
-37.673702 96.716522 -27.013292 4294967295
-37.673481 96.87056 -27.03434 4294967295
-37.671612 98.41021 -27.247435 4294967295
-37.658016 98.578461 -27.169886 4294967295
-37.657211 99.348053 -27.27734 4294967295
-37.655003 97.966568 -27.056919 4294967295
-37.639149 92.74791 -27.347721 4294967295
-37.610088 92.623093 -27.110935 4294967295
-37.597046 93.558861 -27.150944 4294967295
-37.592457 92.948273 -27.026417 4294967295
-37.587368 93.260986 -27.034302 4294967295
-37.5863 95.107376 -27.298513 4294967295
-37.582256 95.265266 -27.291399 4294967295
-37.578411 93.731422 -27.036358 4294967295
-37.575298 96.041115 -27.353491 4294967295
-37.571712 93.122841 -26.896284 4294967295
-37.567291 94.973076 -27.135864 4294967295
-37.565376 96.205132 -27.303131 4294967295
-37.558441 93.443848 -26.843897 4294967295
-37.55785 94.367493 -26.975639 4294967295
-37.556011 94.830811 -27.030155 4294967295
-37.555828 95.446182 -27.119501 4294967295
-37.549862 94.221756 -26.894142 4294967295
-37.547337 95.608719 -27.079649 4294967295
-37.545563 95.918129 -27.111933 4294967295
-37.541065 95.768982 -27.056139 4294967295
-37.540874 93.923141 -26.782558 4294967295
-37.530624 96.702576 -27.115318 4294967295
-37.530327 94.703178 -26.81831 4294967295
-37.528465 98.549881 -27.371368 4294967295
-37.527344 99.319618 -27.47637 4294967295
-37.521492 99.479607 -27.455965 4294967295
-37.520859 98.250511 -27.270079 4294967295
-37.518806 98.098938 -27.232323 4294967295
-37.515457 99.024948 -27.343622 4294967295
-37.514809 96.872887 -27.021582 4294967295
-37.512371 97.79821 -27.139633 4294967295
-37.507641 96.418884 -26.900795 4294967295
-37.503433 96.577103 -26.892494 4294967295
-37.493343 97.049164 -26.886257 4294967295
-37.490944 97.205521 -26.891264 4294967295
-37.485958 98.748962 -27.081299 4294967295
-37.484413 92.899925 -27.385489 4294967295
-37.479259 97.679337 -26.873316 4294967295
-37.477554 99.21933 -27.087452 4294967295
-37.46991 97.99691 -26.849854 4294967295
-37.454681 92.468185 -27.098879 4294967295
-37.449585 92.780853 -27.106739 4294967295
-37.447231 93.244583 -27.15741 4294967295
-37.4426 93.556801 -27.168678 4294967295
-37.438332 93.868668 -27.182604 4294967295
-37.4314 94.029442 -27.154308 4294967295
-37.424908 95.727455 -27.355726 4294967295
-37.42086 94.655273 -27.167429 4294967295
-37.416126 92.660286 -26.838018 4294967295
-37.407284 96.053131 -27.271513 4294967295
-37.404556 95.594643 -27.183525 4294967295
-37.399193 94.831139 -27.03084 4294967295
-37.391453 95.146683 -27.019255 4294967295
-37.389664 96.99398 -27.27791 4294967295
-37.388153 94.380844 -26.881716 4294967295
-37.384792 94.999657 -26.947647 4294967295
-37.384399 96.845718 -27.216591 4294967295
-37.383442 95.462532 -27.005693 4294967295
-37.381271 93.772301 -26.740438 4294967295
-37.371662 97.16658 -27.168324 4294967295
-37.371525 96.705353 -27.09936 4294967295
-37.369801 97.937378 -27.267862 4294967295
-37.361729 99.175888 -27.389664 4294967295
-37.356987 98.104691 -27.196392 4294967295
-37.353088 99.492607 -27.371475 4294967295
-37.351692 97.341293 -27.044277 4294967295
-37.349579 97.804939 -27.096695 4294967295
-37.34277 97.504478 -27.001383 4294967295
-37.329201 98.287903 -27.014965 4294967295
-37.327343 99.058914 -27.114542 4294967295
-37.31044 93.224892 -27.304705 4294967295
-37.303677 98.77652 -26.895475 4294967295
-37.296661 92.931068 -27.15831 4294967295
-37.285358 94.326454 -27.279095 4294967295
-37.28112 93.715599 -27.15745 4294967295
-37.278236 93.872292 -27.158926 4294967295
-37.273823 93.569107 -27.081274 4294967295
-37.273251 94.184914 -27.16762 4294967295
-37.265526 94.807899 -27.201477 4294967295
-37.262337 93.426781 -26.974333 4294967295
-37.260429 94.659286 -27.141462 4294967295
-37.260109 94.505806 -27.116465 4294967295
-37.255241 92.510635 -26.786369 4294967295
-37.253334 94.051186 -26.998857 4294967295
-37.249542 95.593163 -27.197376 4294967295
-37.249516 92.824097 -26.789652 4294967295
-37.249264 95.901009 -27.240589 4294967295
-37.249195 95.747307 -27.217459 4294967295
-37.246464 95.288727 -27.129538 4294967295
-37.2202 96.853813 -27.163218 4294967295
-37.218266 97.47097 -27.239525 4294967295
-37.211288 97.016899 -27.120499 4294967295
-37.210064 98.248444 -27.292484 4294967295
-37.206078 96.253197 -26.969112 4294967295
-37.199905 99.181755 -27.353741 4294967295
-37.195389 96.418106 -26.913361 4294967295
-37.187824 97.349052 -26.993715 4294967295
-37.187077 96.734444 -26.897699 4294967295
-37.185265 96.582458 -26.861771 4294967295
-37.176369 98.591713 -27.090754 4294967295
-37.167816 98.139282 -26.960176 4294967295
-37.165592 98.756973 -27.034386 4294967295
-37.164658 97.988762 -26.914406 4294967295
-37.164112 97.219994 -26.797216 4294967295
-37.151794 98.463936 -26.888008 4294967295
-37.1385 99.40123 -26.926342 4294967295
-37.135056 98.943314 -26.833218 4294967295
-37.134518 92.936638 -27.119709 4294967295
-37.130424 92.786873 -27.06711 4294967295
-37.12859 94.172974 -27.257214 4294967295
-37.126373 92.637054 -27.014801 4294967295
-37.100941 93.123871 -26.896368 4294967295
-37.099579 93.894539 -26.999495 4294967295
-37.097324 93.281342 -26.892508 4294967295
-37.091282 94.056725 -26.96137 4294967295
-37.066856 96.542984 -27.144371 4294967295
-37.057472 97.167953 -27.166122 4294967295
-37.042152 97.491577 -27.099228 4294967295
-37.04179 96.87664 -27.006117 4294967295
-37.03334 97.808464 -27.079966 4294967295
-37.029472 96.735565 -26.893354 4294967295
-37.028824 98.120857 -27.092127 4294967295
-37.027599 97.04525 -26.924896 4294967295
-37.022221 99.204498 -27.202036 4294967295
-37.016533 99.518158 -27.205633 4294967295
-37.014332 98.28997 -27.008705 4294967295
-37.012054 98.44622 -27.014629 4294967295
-37.008621 97.68055 -26.876463 4294967295
-36.985489 98.935951 -26.888119 4294967295
-36.983017 93.23925 -27.204367 4294967295
-36.981583 99.093979 -26.882156 4294967295
-36.969944 93.867538 -27.199154 4294967295
-36.960159 94.031166 -27.150223 4294967295
-36.950115 93.579712 -27.009012 4294967295
-36.931946 92.674423 -26.740509 4294967295
-36.922443 96.684311 -27.258644 4294967295
-36.920849 93.762848 -26.817656 4294967295
-36.893337 96.868286 -27.068594 4294967295
-36.887142 97.797699 -27.158869 4294967295
-36.885437 97.9533 -27.169003 4294967295
-36.880688 97.189117 -27.021366 4294967295
-36.879429 97.498116 -27.05735 4294967295
-36.878227 97.653206 -27.071175 4294967295
-36.873871 98.888336 -27.220013 4294967295
-36.86335 98.438019 -27.075453 4294967295
-36.842896 99.382744 -27.061588 4294967295
-36.82542 99.555237 -26.956614 4294967295
-36.8237 98.17205 -26.740696 4294967295
-36.820061 98.637627 -26.781931 4294967295
-36.816822 98.79496 -26.780869 4294967295
-36.810669 92.639526 -27.001261 4294967295
-36.794598 92.963158 -26.929136 4294967295
-36.793163 93.118462 -26.94124 4294967295
-36.777267 92.518524 -26.734869 4294967295
-36.77494 93.290436 -26.830856 4294967295
-36.76519 92.83831 -26.691925 4294967295
-36.759453 93.459755 -26.740421 4294967295
-36.717129 98.581047 -27.176796 4294967295
-36.704128 97.363838 -26.901464 4294967295
-36.702549 97.827133 -26.957685 4294967295
-36.687897 98.458023 -26.941153 4294967295
-36.681705 98.156754 -26.850899 4294967295
-36.680416 98.004204 -26.818911 4294967295
-36.679619 99.236137 -26.993677 4294967295
-36.677231 99.546402 -27.021418 4294967295
-36.67387 98.780594 -26.884066 4294967295
-36.672153 98.320694 -26.803846 4294967295
-36.64521 99.118767 -26.720356 4294967295
-36.641823 92.49765 -26.892038 4294967295
-36.636955 99.435417 -26.705339 4294967295
-36.628727 92.818367 -26.841766 4294967295
-36.615093 92.985748 -26.765011 4294967295
-36.613552 93.141205 -26.77635 4294967295
-36.61335 92.679581 -26.707157 4294967295
-36.566605 97.95948 -27.133896 4294967295
-36.543179 98.29174 -27.008547 4294967295
-36.541615 98.139511 -26.974625 4294967295
-36.538612 97.834869 -26.907665 4294967295
-36.534851 97.684891 -26.857746 4294967295
-36.520599 99.238823 -26.979576 4294967295
-36.507599 99.098709 -26.862448 4294967295
-36.505108 98.63958 -26.776663 4294967295
-36.502106 99.566246 -26.890169 4294967295
-36.49781 98.801208 -26.746128 4294967295
-36.49744 92.639496 -27.006247 4294967295
-36.497433 92.485619 -26.983652 4294967295
-36.48037 99.43544 -26.709503 4294967295
-36.468792 93.129425 -26.865591 4294967295
-36.466675 92.977592 -26.827641 4294967295
-36.458031 92.832161 -26.742237 4294967295
-36.402237 98.275421 -27.1257 4294967295
-36.39262 97.977753 -27.010805 4294967295
-36.385345 98.139236 -26.980492 4294967295
-36.383934 98.448486 -27.015301 4294967295
-36.359028 92.467751 -27.118479 4294967295
-36.354351 98.787392 -26.845566 4294967295
-36.350086 99.099731 -26.859667 4294967295
-36.34771 98.64045 -26.774801 4294967295
-36.34663 99.411224 -26.879631 4294967295
-36.345257 92.789001 -27.063568 4294967295
-36.324768 99.280457 -26.698355 4294967295
-36.320602 92.659294 -26.862108 4294967295
-36.319016 98.978592 -26.611523 4294967295
-36.299168 92.988235 -26.7516 4294967295
-36.233242 98.596245 -27.08419 4294967295
-36.226894 97.987328 -26.948132 4294967295
-36.222256 98.45388 -26.982054 4294967295
-36.212963 98.3097 -26.892172 4294967295
-36.207127 98.777573 -26.917416 4294967295
-36.198997 99.093964 -26.903517 4294967295
-36.198513 98.17086 -26.764921 4294967295
-36.182957 99.264832 -26.809776 4294967295
-36.181896 92.48777 -26.97234 4294967295
-36.174576 99.581589 -26.794075 4294967295
-36.171646 99.43074 -26.750341 4294967295
-36.164314 98.97657 -26.629652 4294967295
-36.140179 92.68251 -26.692627 4294967295
-36.070351 98.295128 -26.997234 4294967295
-36.067867 98.143806 -26.956776 4294967295
-36.040237 92.627007 -27.105875 4294967295
-36.037434 98.945297 -26.849064 4294967295
-36.029053 92.484016 -27.002512 4294967295
-36.018486 99.119186 -26.734503 4294967295
-36.01469 99.277161 -26.729527 4294967295
-36.012169 99.587761 -26.756298 4294967295
-36.009109 98.667076 -26.599167 4294967295
-36.006184 99.440117 -26.690491 4294967295
-35.89109 99.088478 -26.949717 4294967295
-35.88044 99.407555 -26.917765 4294967295
-35.870304 98.494423 -26.709723 4294967295
-35.853962 99.281494 -26.704121 4294967295
-35.847378 98.672386 -26.566643 4294967295
-35.83548 98.992897 -26.5257 4294967295
-35.729553 98.939735 -26.895746 4294967295
-35.712044 99.419991 -26.836929 4294967295
-35.671848 99.154228 -26.502314 4294967295
-35.66111 99.62767 -26.492331 4294967295
-35.582283 98.622086 -26.92223 4294967295
-35.543423 99.278618 -26.73242 4294967295
-35.541676 99.588448 -26.764729 4294967295
-35.532776 98.827705 -26.588491 4294967295
-35.523773 99.145195 -26.568605 4294967295
-35.492477 99.486153 -26.388372 4294967295
-35.406494 98.796021 -26.811087 4294967295
-35.397259 99.421623 -26.83444 4294967295
-35.380497 98.977135 -26.646809 4294967295
-35.347691 99.319542 -26.456089 4294967295
-35.347469 99.165688 -26.432068 4294967295
-35.234299 99.428246 -26.793453 4294967295
-35.225098 99.283852 -26.70513 4294967295
-35.216778 98.984451 -26.600683 4294967295
-35.215546 98.831673 -26.569441 4294967295
-35.186134 99.170471 -26.403446 4294967295
-35.062702 99.597885 -26.713341 4294967295
-35.060108 99.292511 -26.650015 4294967295
-35.034988 99.472816 -26.492691 4294967295
-35.01984 99.180397 -26.339533 4294967295
-35.015369 99.030914 -26.285154 4294967295
-34.90337 99.138474 -26.631767 4294967295
-34.890903 99.305519 -26.565115 4294967295
-34.872471 99.016472 -26.388727 4294967295
-34.855896 99.496117 -26.337496 4294967295
-34.729034 99.310837 -26.532936 4294967295
-34.723373 99.470833 -26.514935 4294967295
-34.689281 99.19799 -26.2272 4294967295
-34.520805 99.364235 -26.171087 4294967295
-34.507145 99.532623 -26.09626 4294967295
-34.407516 99.627335 -26.52961 4294967295
-34.387646 99.493828 -26.36618 4294967295
-34.345478 99.383339 -26.044376 4294967295
-34.181683 99.544708 -26.022253 4294967295
-33.838009 99.575432 -25.820604 4294967295
-33.697731 99.558189 -25.942963 4294967295
-33.528458 99.570801 -25.860945 4294967295
-33.362087 99.580383 -25.799713 4294967295
-33.223923 99.561012 -25.936598 4294967295
-32.852467 99.61956 -25.544506 4294967295
-32.54924 99.608238 -25.63068 4294967295
-32.531132 99.472168 -25.482462 4294967295
-31.887367 99.332542 -25.37513 4294967295
-31.761982 99.609489 -25.643778 4294967295
-31.732431 99.484726 -25.417789 4294967295
-31.721216 99.341431 -25.318319 4294967295
-31.582201 99.323059 -25.448771 4294967295
-31.572348 99.487518 -25.402933 4294967295
-31.273752 99.471436 -25.521772 4294967295
-31.076761 99.511086 -25.25419 4294967295
-30.917847 99.203278 -25.204165 4294967295
-30.914478 99.361298 -25.203108 4294967295
-30.911987 99.51844 -25.208046 4294967295
-30.762812 99.200897 -25.224743 4294967295
-30.604584 99.511017 -25.267498 4294967295
-30.473434 99.175652 -25.406828 4294967295
-30.471146 99.332558 -25.413177 4294967295
-30.458475 99.499771 -25.348885 4294967295
-30.45022 99.043938 -25.226913 4294967295
-30.337225 99.618523 -25.620853 4294967295
-30.320841 99.480156 -25.487661 4294967295
-30.301798 99.18969 -25.31448 4294967295
-30.294868 98.887154 -25.223566 4294967295
-30.154085 99.33474 -25.406675 4294967295
-30.146933 99.187126 -25.336277 4294967295
-30.140553 99.502777 -25.336805 4294967295
-30.008341 99.323204 -25.490154 4294967295
-29.975975 99.200401 -25.249166 4294967295
-29.833134 99.185989 -25.35247 4294967295
-29.81687 99.356689 -25.264418 4294967295
-29.799688 92.570984 -25.276279 4294967295
-29.693466 98.859161 -25.433239 4294967295
-29.684885 99.176926 -25.419027 4294967295
-29.675518 99.495506 -25.399527 4294967295
-29.674089 98.104454 -25.19326 4294967295
-29.525801 98.250214 -25.281507 4294967295
-29.52508 98.096176 -25.254826 4294967295
-29.520044 98.874695 -25.33007 4294967295
-29.516897 99.187202 -25.352526 4294967295
-29.492071 99.366257 -25.207159 4294967295
-29.480268 92.729385 -25.275434 4294967295
-29.379372 99.477028 -25.53476 4294967295
-29.351456 99.194939 -25.303473 4294967295
-29.348425 98.888412 -25.23946 4294967295
-29.316059 92.735275 -25.234043 4294967295
-29.311909 92.893799 -25.227964 4294967295
-29.30929 93.205688 -25.25399 4294967295
-29.307283 93.052765 -25.218693 4294967295
-29.241577 99.612404 -25.692936 4294967295
-29.22438 97.463287 -25.272432 4294967295
-29.220293 97.312439 -25.223186 4294967295
-29.217592 98.24353 -25.335848 4294967295
-29.210047 99.333908 -25.437773 4294967295
-29.205118 99.184006 -25.382893 4294967295
-29.19512 98.88427 -25.2722 4294967295
-29.191488 99.506783 -25.335014 4294967295
-29.16992 92.724785 -25.314146 4294967295
-29.153322 93.049339 -25.246386 4294967295
-29.14967 92.897881 -25.200071 4294967295
-29.148178 93.208778 -25.233665 4294967295
-29.142433 93.523552 -25.23872 4294967295
-29.136646 93.683609 -25.221691 4294967295
-29.069345 98.543983 -25.445835 4294967295
-29.050375 99.02655 -25.384056 4294967295
-29.043869 98.413857 -25.253342 4294967295
-29.037771 99.348297 -25.343176 4294967295
-29.033792 98.733139 -25.229387 4294967295
-29.031197 98.890427 -25.233782 4294967295
-29.012547 99.527687 -25.195959 4294967295
-28.987831 93.211151 -25.218626 4294967295
-28.918829 96.525459 -25.213974 4294967295
-28.914457 99.469643 -25.598211 4294967295
-28.903561 98.551933 -25.394783 4294967295
-28.898937 99.175339 -25.450895 4294967295
-28.894953 97.631622 -25.206602 4294967295
-28.889969 98.71981 -25.325634 4294967295
-28.886911 98.258461 -25.239885 4294967295
-28.880619 98.883621 -25.284859 4294967295
-28.87641 99.351997 -25.321991 4294967295
-28.842505 93.199883 -25.304155 4294967295
-28.839149 92.583786 -25.194666 4294967295
-28.814068 93.844887 -25.201105 4294967295
-28.761679 99.155647 -25.590584 4294967295
-28.735128 98.098068 -25.261078 4294967295
-28.732725 99.028992 -25.375523 4294967295
-28.731424 99.494499 -25.432064 4294967295
-28.728275 98.87854 -25.324055 4294967295
