# .PCD v0.7 - Point Cloud Data file format
VERSION 0.7
FIELDS x y z rgb
SIZE 4 4 4 4
TYPE F F F U
COUNT 1 1 1 1
WIDTH 1121
HEIGHT 1
VIEWPOINT 0 0 0 1 0 0 0
POINTS 1121
DATA ascii
-45.329571 75.98481 -26.252958 4294967295
-45.322258 75.223206 -26.074284 4294967295
-45.319386 76.454491 -26.241648 4294967295
-45.317638 69.875008 -26.494299 4294967295
-45.311779 75.846802 -26.084454 4294967295
-45.305965 76.312737 -26.10869 4294967295
-45.30302 70.654427 -26.494652 4294967295
-45.299049 76.62606 -26.100126 4294967295
-45.294155 70.354446 -26.374956 4294967295
-45.292591 70.048531 -26.31459 4294967295
-45.287315 70.206337 -26.295555 4294967295
-45.285767 71.282593 -26.449736 4294967295
-45.283916 71.591194 -26.482353 4294967295
-45.283543 70.823708 -26.360222 4294967295
-45.279434 72.516045 -26.588821 4294967295
-45.279148 71.134415 -26.37216 4294967295
-45.268837 71.449959 -26.336039 4294967295
-45.2686 72.832092 -26.548481 4294967295
-45.264751 72.221146 -26.421946 4294967295
-45.258801 71.918915 -26.325991 4294967295
-45.252785 71.002197 -26.134153 4294967295
-45.241909 73.007935 -26.355555 4294967295
-45.239914 73.163177 -26.363159 4294967295
-45.238522 73.778564 -26.447098 4294967295
-45.229656 74.246719 -26.44655 4294967295
-45.2248 72.715034 -26.168976 4294967295
-45.221493 72.41053 -26.094465 4294967295
-45.219738 74.869362 -26.461285 4294967295
-45.217876 74.410324 -26.37476 4294967295
-45.214279 73.49189 -26.202641 4294967295
-45.207603 74.111931 -26.243738 4294967295
-45.204182 73.961243 -26.192135 4294967295
-45.197372 76.424088 -26.517796 4294967295
-45.194817 74.583633 -26.211397 4294967295
-45.194706 75.044495 -26.281937 4294967295
-45.193443 75.813408 -26.390726 4294967295
-45.190117 76.737526 -26.506529 4294967295
-45.187138 75.3582 -26.268127 4294967295
-45.183414 75.515007 -26.261726 4294967295
-45.179405 75.979233 -26.300619 4294967295
-45.177971 75.21254 -26.169916 4294967295
-45.16861 76.602997 -26.308258 4294967295
-45.155025 70.033211 -26.463472 4294967295
-45.138683 70.353401 -26.37854 4294967295
-45.135517 71.584427 -26.543247 4294967295
-45.13377 69.89653 -26.267277 4294967295
-45.131554 69.744667 -26.225515 4294967295
-45.125927 71.438698 -26.441729 4294967295
-45.122356 70.673683 -26.293772 4294967295
-45.120956 72.671112 -26.591738 4294967295
-45.119701 72.058014 -26.486425 4294967295
-45.11842 71.291229 -26.357054 4294967295
-45.111797 70.528549 -26.184347 4294967295
-45.108112 72.988853 -26.535217 4294967295
-45.105804 70.226059 -26.088135 4294967295
-45.103065 71.150093 -26.208776 4294967295
-45.098721 73.150246 -26.482924 4294967295
-45.090488 71.774818 -26.202042 4294967295
-45.087128 73.313507 -26.412764 4294967295
-45.086765 73.467377 -26.433603 4294967295
-45.085575 72.393303 -26.257418 4294967295
-45.084995 73.775963 -26.466858 4294967295
-45.084908 72.547462 -26.275797 4294967295
-45.07703 72.24675 -26.164352 4294967295
-45.072681 72.864822 -26.224327 4294967295
-45.056973 73.646034 -26.216024 4294967295
-45.055046 73.954872 -26.248011 4294967295
-45.033066 74.127136 -26.093721 4294967295
-45.026627 74.747154 -26.136736 4294967295
-45.02264 76.440147 -26.366116 4294967295
-45.021954 76.133606 -26.313013 4294967295
-45.020744 75.827499 -26.25564 4294967295
-44.999359 70.185883 -26.489136 4294967295
-44.996964 69.880638 -26.422194 4294967295
-44.981655 70.353584 -26.369652 4294967295
-44.969906 69.748451 -26.17944 4294967295
-44.958488 72.215294 -26.467489 4294967295
-44.957558 70.065536 -26.127068 4294967295
-44.956783 72.83091 -26.54875 4294967295
-44.952877 71.605568 -26.327024 4294967295
-44.950317 70.685913 -26.163618 4294967295
-44.949932 72.375916 -26.422066 4294967295
-44.941593 72.536377 -26.378389 4294967295
-44.9408 73.304878 -26.490786 4294967295
-44.939671 72.077179 -26.291521 4294967295
-44.939388 70.848351 -26.098974 4294967295
-44.932251 71.468735 -26.136391 4294967295
-44.906212 73.026573 -26.163572 4294967295
-44.903515 73.182457 -26.165522 4294967295
-44.894955 73.650528 -26.167633 4294967295
-44.890987 75.957726 -26.492014 4294967295
-44.890377 74.26889 -26.22571 4294967295
-44.887402 74.885849 -26.296719 4294967295
-44.875114 75.203606 -26.244921 4294967295
-44.870266 74.593269 -26.110655 4294967295
-44.849499 75.840256 -26.132963 4294967295
-44.824665 70.353722 -26.361206 4294967295
-44.823284 70.50843 -26.373796 4294967295
-44.815994 69.899742 -26.219894 4294967295
-44.805138 69.754662 -26.108471 4294967295
-44.800892 71.908875 -26.406775 4294967295
-44.79229 70.994156 -26.194807 4294967295
-44.790997 70.687889 -26.136852 4294967295
-44.787453 71.766243 -26.274534 4294967295
-44.780815 72.693344 -26.363447 4294967295
-44.776192 72.389938 -26.278648 4294967295
-44.770248 72.548462 -26.254406 4294967295
-44.770103 71.626724 -26.110722 4294967295
-44.763309 72.86145 -26.245916 4294967295
-44.755077 73.32917 -26.250729 4294967295
-44.735989 75.49572 -26.429081 4294967295
-44.72924 75.040771 -26.303444 4294967295
-44.727028 75.349869 -26.333055 4294967295
-44.716629 74.744316 -26.154213 4294967295
-44.709023 74.597153 -26.06913 4294967295
-44.682384 69.881363 -26.400272 4294967295
-44.675148 69.733452 -26.318228 4294967295
-44.666496 70.201164 -26.319679 4294967295
-44.649952 70.982498 -26.305037 4294967295
-44.649208 71.75116 -26.417652 4294967295
-44.64558 70.064087 -26.127396 4294967295
-44.633877 71.302719 -26.222971 4294967295
-44.626919 70.847336 -26.095686 4294967295
-44.622299 71.158401 -26.105953 4294967295
-44.61993 72.235909 -26.252996 4294967295
-44.61874 71.622284 -26.148464 4294967295
-44.608219 72.552811 -26.206091 4294967295
-44.603634 72.095596 -26.097965 4294967295
-44.592525 73.334038 -26.198341 4294967295
-44.592228 72.719658 -26.101023 4294967295
-44.59087 73.181763 -26.161293 4294967295
-44.588688 73.029922 -26.119967 4294967295
-44.554939 75.363182 -26.204113 4294967295
-44.553436 75.671738 -26.239431 4294967295
-44.552685 75.211479 -26.162226 4294967295
-44.511147 70.507217 -26.372217 4294967295
-44.501049 70.054306 -26.219849 4294967295
-44.494057 70.367157 -26.211052 4294967295
-44.492794 71.136398 -26.319433 4294967295
-44.491325 71.598457 -26.378736 4294967295
-44.48571 70.681129 -26.191347 4294967295
-44.471455 71.30722 -26.171558 4294967295
-44.46764 72.07859 -26.25943 4294967295
-44.458347 73.161652 -26.350622 4294967295
-44.452595 73.627274 -26.375483 4294967295
-44.449787 71.939476 -26.092203 4294967295
-44.433434 72.721298 -26.079275 4294967295
-44.340611 70.671738 -26.279156 4294967295
-44.338615 70.212326 -26.192066 4294967295
-44.336216 69.753151 -26.101725 4294967295
-44.33136 70.064369 -26.110146 4294967295
-44.33099 69.910957 -26.083488 4294967295
-44.313889 70.846718 -26.088381 4294967295
-44.310085 71.310844 -26.128916 4294967295
-44.309273 71.004105 -26.075047 4294967295
-44.306297 71.621269 -26.145895 4294967295
-44.300774 72.701431 -26.267365 4294967295
-44.281818 73.485367 -26.233717 4294967295
-44.273499 74.260567 -26.285355 4294967295
-44.247421 74.436218 -26.099928 4294967295
-44.196682 69.739494 -26.234127 4294967295
-44.187351 70.207855 -26.230389 4294967295
-44.179916 70.367409 -26.194485 4294967295
-44.175648 70.063385 -26.112957 4294967295
-44.16526 71.454834 -26.242735 4294967295
-44.162655 71.149567 -26.174551 4294967295
-44.162537 70.688576 -26.10261 4294967295
-44.161907 70.996475 -26.144903 4294967295
-44.155838 71.616096 -26.190948 4294967295
-44.148308 71.314766 -26.083336 4294967295
-44.146992 72.084297 -26.191092 4294967295
-44.130795 72.251167 -26.085062 4294967295
-44.121506 72.719879 -26.081699 4294967295
-44.105148 74.577675 -26.234642 4294967295
-44.104053 74.271263 -26.178576 4294967295
-44.103359 75.040154 -26.291239 4294967295
-44.038673 70.201355 -26.289293 4294967295
-44.002846 71.305588 -26.168398 4294967295
-43.995628 71.46508 -26.134356 4294967295
-43.990364 72.084114 -26.186852 4294967295
-43.989964 71.777046 -26.136385 4294967295
-43.970833 72.407394 -26.078064 4294967295
-43.967484 72.71756 -26.098591 4294967295
-43.96595 73.487297 -26.204496 4294967295
-43.943295 74.120926 -26.118071 4294967295
-43.940514 74.276955 -26.119503 4294967295
-43.940483 74.891731 -26.213739 4294967295
-43.879562 69.895676 -26.217634 4294967295
-43.872845 70.669403 -26.28215 4294967295
-43.87019 70.210419 -26.190119 4294967295
-43.861866 71.139168 -26.26539 4294967295
-43.851891 71.454514 -26.23308 4294967295
-43.850773 72.070129 -26.318604 4294967295
-43.840443 71.002525 -26.070902 4294967295
-43.838974 72.23336 -26.248131 4294967295
-43.836838 71.927711 -26.183853 4294967295
-43.835739 71.621178 -26.127863 4294967295
-43.806152 73.028656 -26.104469 4294967295
-43.73214 70.041901 -26.310135 4294967295
-43.717232 69.899834 -26.167852 4294967295
-43.696106 70.377563 -26.070444 4294967295
-43.691284 70.68885 -26.07926 4294967295
-43.680061 71.773895 -26.155087 4294967295
-43.678738 71.928673 -26.168142 4294967295
-43.678448 72.236328 -26.213015 4294967295
-43.664547 72.70874 -26.17314 4294967295
-43.654793 73.024139 -26.142717 4294967295
-43.64222 74.110481 -26.207775 4294967295
-43.642208 73.495651 -26.113342 4294967295
-43.630821 74.427406 -26.164289 4294967295
-43.629395 74.582306 -26.176508 4294967295
-43.621937 74.742287 -26.140772 4294967295
-43.557163 70.670815 -26.254196 4294967295
-43.555244 69.903694 -26.121084 4294967295
-43.549938 70.830231 -26.220354 4294967295
-43.529572 71.153816 -26.105711 4294967295
-43.526848 72.078346 -26.225481 4294967295
-43.525921 71.310463 -26.100273 4294967295
-43.490135 73.337982 -26.12244 4294967295
-43.468349 74.739594 -26.161554 4294967295
-43.412582 69.892525 -26.227882 4294967295
-43.399429 70.210228 -26.170683 4294967295
-43.384865 70.990349 -26.172928 4294967295
-43.379925 71.609184 -26.227957 4294967295
-43.379353 71.763359 -26.246954 4294967295
-43.354916 72.090431 -26.100344 4294967295
-43.343811 73.021873 -26.153605 4294967295
-43.32436 73.499039 -26.07008 4294967295
-43.323601 74.114624 -26.158218 4294967295
-43.249573 70.204628 -26.220394 4294967295
-43.248116 70.513229 -26.255905 4294967295
-43.245068 70.361877 -26.208273 4294967295
-43.237217 69.906723 -26.075539 4294967295
-43.23354 70.678391 -26.164076 4294967295
-43.231064 70.834084 -26.16803 4294967295
-43.217449 71.921051 -26.224968 4294967295
-43.215084 71.461723 -26.135679 4294967295
-43.186169 72.714973 -26.095137 4294967295
-43.100628 69.737114 -26.20672 4294967295
-43.093433 70.050179 -26.19689 4294967295
-43.089569 70.514427 -26.236862 4294967295
-43.078327 70.676964 -26.1716 4294967295
-43.040798 72.398102 -26.133776 4294967295
-42.924038 70.521049 -26.162985 4294967295
-42.851421 73.808388 -26.08386 4294967295
-42.750492 70.99527 -26.096851 4294967295
-42.58453 71.925026 -26.161057 4294967295
-42.415871 72.241859 -26.110636 4294967295
-42.273193 71.615234 -26.12343 4294967295
-42.260353 72.08683 -26.093229 4294967295
-42.099789 72.243423 -26.083269 4294967295
-52.453262 76.80822 -27.450043 4294967295
-52.433372 76.980576 -27.296824 4294967295
-52.294323 76.811584 -27.415773 4294967295
-52.275551 77.441399 -27.347824 4294967295
-52.268082 77.143021 -27.23114 4294967295
-52.260746 77.303123 -27.190544 4294967295
-52.15538 77.101021 -27.609957 4294967295
-52.140846 78.337662 -27.679781 4294967295
-52.133503 77.733788 -27.514584 4294967295
-52.133163 77.581299 -27.486654 4294967295
-52.13213 78.040764 -27.552217 4294967295
-52.12875 76.974258 -27.347559 4294967295
-52.12748 76.822632 -27.311291 4294967295
-52.124584 77.43692 -27.385191 4294967295
-52.11784 77.290688 -27.300123 4294967295
-52.115101 78.210526 -27.425316 4294967295
-52.107269 77.912605 -27.305616 4294967295
-52.002312 77.098663 -27.628035 4294967295
-51.993511 76.954445 -27.524834 4294967295
-51.987259 77.26622 -27.519001 4294967295
-51.971153 77.587715 -27.42551 4294967295
-51.970036 77.894508 -27.465391 4294967295
-51.964111 77.44178 -27.337952 4294967295
-51.960979 78.05632 -27.409727 4294967295
-51.946571 78.376358 -27.331354 4294967295
-51.943325 78.532463 -27.327372 4294967295
-51.941452 78.840065 -27.360533 4294967295
-51.935177 79.152084 -27.354511 4294967295
-51.933697 79.00071 -27.316446 4294967295
-51.842201 76.797516 -27.533895 4294967295
-51.839577 77.411385 -27.610083 4294967295
-51.827534 78.0345 -27.60265 4294967295
-51.822147 77.581314 -27.480246 4294967295
-51.822056 78.345551 -27.603771 4294967295
-51.822002 76.970016 -27.379438 4294967295
-51.819294 77.278397 -27.405167 4294967295
-51.815437 78.810577 -27.619612 4294967295
-51.801754 77.142647 -27.224546 4294967295
-51.796352 77.912453 -27.301016 4294967295
-51.794212 78.98465 -27.456116 4294967295
-51.791847 79.445541 -27.509748 4294967295
-51.786716 79.297874 -27.439339 4294967295
-51.778671 78.541557 -27.243595 4294967295
-51.764595 79.625923 -27.292801 4294967295
-51.758625 79.173241 -27.165216 4294967295
-51.75629 79.787216 -27.243996 4294967295
-51.687168 77.56118 -27.659081 4294967295
-51.67979 77.109894 -27.519218 4294967295
-51.679474 77.874367 -27.640587 4294967295
-51.678284 77.722717 -27.605202 4294967295
-51.667168 76.969299 -27.382549 4294967295
-51.659286 78.047096 -27.486654 4294967295
-51.655285 78.356758 -27.500879 4294967295
-51.647167 77.294571 -27.255062 4294967295
-51.639687 78.677963 -27.412458 4294967295
-51.638885 78.831635 -27.430197 4294967295
-51.633404 79.142838 -27.431343 4294967295
-51.633148 79.295952 -27.45392 4294967295
-51.63023 79.451744 -27.452906 4294967295
-51.629631 79.605194 -27.472443 4294967295
-51.626503 79.914047 -27.494421 4294967295
-51.62455 78.998825 -27.328102 4294967295
-51.619778 80.073715 -27.459734 4294967295
-51.617573 80.228798 -27.465067 4294967295
-51.607685 80.544586 -27.427212 4294967295
-51.605797 79.782135 -27.286308 4294967295
-51.529861 76.798721 -27.515869 4294967295
-51.518425 77.115547 -27.464411 4294967295
-51.516224 78.034828 -27.593843 4294967295
-51.514591 78.189278 -27.604202 4294967295
-51.507122 77.432304 -27.414164 4294967295
-51.498531 77.287788 -27.313389 4294967295
-51.493366 77.751549 -27.342236 4294967295
-51.488415 78.520874 -27.422546 4294967295
-51.485374 79.288216 -27.519732 4294967295
-51.482155 76.997826 -27.119003 4294967295
-51.480873 77.916718 -27.256626 4294967295
-51.478786 77.6129 -27.188572 4294967295
-51.475647 78.839325 -27.359375 4294967295
-51.475086 79.451393 -27.453655 4294967295
-51.466469 80.53006 -27.55117 4294967295
-51.464756 80.22612 -27.48645 4294967295
-51.462383 80.075661 -27.440702 4294967295
-51.462082 80.68737 -27.537249 4294967295
-51.45649 80.84594 -27.512651 4294967295
-51.453941 79.01387 -27.19244 4294967295
-51.45208 79.933212 -27.324894 4294967295
-51.447872 81.007614 -27.461384 4294967295
-51.443447 79.177292 -27.124544 4294967295
-51.435665 79.796875 -27.155106 4294967295
-51.41629 81.192955 -27.207344 4294967295
-51.346218 77.284584 -27.339159 4294967295
-51.341728 77.747688 -27.373955 4294967295
-51.33905 76.985672 -27.226377 4294967295
-51.338608 78.056549 -27.396009 4294967295
-51.336441 78.211571 -27.401709 4294967295
-51.335659 76.835999 -27.171675 4294967295
-51.332077 78.674545 -27.43759 4294967295
-51.330097 79.593704 -27.568787 4294967295
-51.325165 77.610947 -27.203112 4294967295
-51.31908 78.84034 -27.347809 4294967295
-51.317097 77.924728 -27.181578 4294967295
-51.313442 78.540092 -27.248522 4294967295
-51.308098 78.392433 -27.176624 4294967295
-51.30027 79.011963 -27.206776 4294967295
-51.299984 79.776855 -27.328215 4294967295
-51.298233 80.237312 -27.387106 4294967295
-51.294643 79.935143 -27.305922 4294967295
-51.286091 81.014099 -27.403997 4294967295
-51.280525 79.49054 -27.107132 4294967295
-51.278255 80.410477 -27.235861 4294967295
-51.278076 81.480965 -27.407711 4294967295
-51.274311 81.331955 -27.34977 4294967295
-51.270565 80.571228 -27.192888 4294967295
-51.269066 81.796028 -27.377888 4294967295
-51.265156 80.882607 -27.194803 4294967295
-51.261234 81.65123 -27.284134 4294967295
-51.258327 81.195465 -27.184212 4294967295
-51.205746 77.269905 -27.469149 4294967295
-51.200432 78.345215 -27.595669 4294967295
-51.199837 78.19294 -27.565689 4294967295
-51.196388 78.043457 -27.510582 4294967295
-51.187359 77.440659 -27.33213 4294967295
-51.18494 77.901772 -27.38512 4294967295
-51.183601 78.973297 -27.546614 4294967295
-51.183277 78.514992 -27.469524 4294967295
-51.179497 76.836472 -27.163866 4294967295
-51.173172 79.595146 -27.553913 4294967295
-51.157433 78.693436 -27.266956 4294967295
-51.150608 79.77066 -27.380253 4294967295
-51.150196 80.382637 -27.475615 4294967295
-51.148682 80.537041 -27.487043 4294967295
-51.146442 80.845055 -27.516842 4294967295
-51.142399 79.167175 -27.209023 4294967295
-51.136406 81.925308 -27.601786 4294967295
-51.133671 80.093536 -27.280825 4294967295
-51.131226 79.48423 -27.160295 4294967295
-51.129673 81.015053 -27.394161 4294967295
-51.127693 82.39286 -27.599417 4294967295
-51.127239 81.170425 -27.397535 4294967295
-51.1259 80.713089 -27.311529 4294967295
-51.123302 79.339172 -27.065851 4294967295
-51.122257 81.787079 -27.452717 4294967295
-51.120235 80.26004 -27.18745 4294967295
-51.11977 81.636765 -27.406097 4294967295
-51.102509 81.348694 -27.204897 4294967295
-51.099831 82.727646 -27.404089 4294967295
-51.056892 77.110497 -27.500328 4294967295
-51.050789 76.96347 -27.422035 4294967295
-51.03532 78.048836 -27.459337 4294967295
-51.03352 77.59185 -27.369347 4294967295
-51.033314 77.439125 -27.342791 4294967295
-51.027592 76.832832 -27.193613 4294967295
-51.026272 77.751831 -27.330446 4294967295
-51.020302 77.910583 -27.302805 4294967295
-51.018597 77.300415 -27.188877 4294967295
-51.014656 78.374924 -27.327429 4294967295
-51.008759 78.227768 -27.25094 4294967295
-51.005016 78.537346 -27.267555 4294967295
-50.9953 78.699875 -27.207041 4294967295
-50.989559 80.234924 -27.403923 4294967295
-50.98695 81.154892 -27.529341 4294967295
-50.982861 81.617668 -27.567595 4294967295
-50.979324 79.633484 -27.215254 4294967295
-50.978561 80.551857 -27.356895 4294967295
-50.977592 79.788177 -27.224762 4294967295
-50.977482 79.023445 -27.100132 4294967295
-50.974182 79.94455 -27.219566 4294967295
-50.973576 81.321449 -27.436769 4294967295
-50.972797 80.863541 -27.355782 4294967295
-50.968933 81.937744 -27.494898 4294967295
-50.968407 80.103302 -27.193659 4294967295
-50.959621 82.10025 -27.437958 4294967295
-50.955906 82.409874 -27.454781 4294967295
-50.955528 82.563141 -27.4762 4294967295
-50.954453 81.799797 -27.343195 4294967295
-50.951817 82.719887 -27.468357 4294967295
-50.950886 81.497612 -27.262499 4294967295
-50.945702 81.044075 -27.142839 4294967295
-50.945053 83.032715 -27.458473 4294967295
-50.937195 82.27639 -27.266029 4294967295
-50.929642 82.89595 -27.298674 4294967295
-50.924896 83.359657 -27.331221 4294967295
-50.923019 83.208725 -27.290039 4294967295
-50.904652 83.533913 -27.178465 4294967295
-50.8904 77.579727 -27.475782 4294967295
-50.882137 78.50518 -27.551584 4294967295
-50.870632 77.751839 -27.327345 4294967295
-50.870415 77.140205 -27.226593 4294967295
-50.870354 76.987289 -27.201365 4294967295
-50.861599 76.842697 -27.099953 4294967295
-50.861065 77.3022 -27.169409 4294967295
-50.858131 79.140457 -27.440184 4294967295
-50.856804 78.83593 -27.379147 4294967295
-50.852982 78.227905 -27.246872 4294967295
-50.848171 79.609093 -27.42704 4294967295
-50.847672 78.38607 -27.225071 4294967295
-50.84267 80.379112 -27.502354 4294967295
-50.835438 79.774734 -27.340269 4294967295
-50.828621 79.475639 -27.231205 4294967295
-50.822952 80.704849 -27.379137 4294967295
-50.822853 79.02243 -27.106573 4294967295
-50.820473 81.624779 -27.505558 4294967295
-50.820301 79.33094 -27.133644 4294967295
-50.819176 80.55574 -27.321421 4294967295
-50.819077 80.097015 -27.246437 4294967295
-50.808376 80.872559 -27.276268 4294967295
-50.808319 81.025558 -27.300459 4294967295
-50.805901 79.95726 -27.106405 4294967295
-50.805065 82.099297 -27.44482 4294967295
-50.79771 80.271469 -27.084141 4294967295
-50.794605 82.263016 -27.377983 4294967295
-50.792389 82.418221 -27.383282 4294967295
-50.788513 82.57515 -27.374067 4294967295
-50.785847 81.813255 -27.227301 4294967295
-50.78558 81.507614 -27.175577 4294967295
-50.776825 81.210594 -27.049564 4294967295
-50.774803 83.048187 -27.328175 4294967295
-50.767532 81.985077 -27.091749 4294967295
-50.766891 82.903519 -27.234297 4294967295
-50.76273 83.672539 -27.321331 4294967295
-50.761257 82.756439 -27.160315 4294967295
-50.759979 83.828362 -27.321936 4294967295
-50.759842 83.216782 -27.222006 4294967295
-50.739613 83.390961 -27.069778 4294967295
-50.735142 77.273529 -27.42643 4294967295
-50.724762 78.048218 -27.459076 4294967295
-50.723167 78.20269 -27.469828 4294967295
-50.720802 78.510826 -27.498486 4294967295
-50.72049 77.593552 -27.347721 4294967295
-50.715515 77.904274 -27.35359 4294967295
-50.715416 78.363182 -27.426737 4294967295
-50.711727 76.990089 -27.172403 4294967295
-50.703621 77.456871 -27.175606 4294967295
-50.690266 78.693733 -27.256363 4294967295
-50.684166 79.770432 -27.375751 4294967295
-50.683975 79.158829 -27.275404 4294967295
-50.681377 78.855446 -27.203386 4294967295
-50.673904 79.933617 -27.310816 4294967295
-50.670494 80.701729 -27.404346 4294967295
-50.667755 80.857422 -27.405081 4294967295
-50.663788 79.637779 -27.17309 4294967295
-50.654202 81.788727 -27.434694 4294967295
-50.652554 79.495949 -27.050266 4294967295
-50.6493 81.4879 -27.342596 4294967295
-50.646252 82.102722 -27.414625 4294967295
-50.640877 81.64946 -27.293707 4294967295
-50.639542 80.120995 -27.035345 4294967295
-50.638699 81.345772 -27.225353 4294967295
-50.634315 82.267952 -27.335077 4294967295
-50.631447 80.435165 -27.014006 4294967295
-50.627483 83.345467 -27.448017 4294967295
-50.624096 82.431458 -27.270529 4294967295
-50.622967 83.503105 -27.433247 4294967295
-50.602657 83.065559 -27.182058 4294967295
-50.594585 82.614998 -27.037611 4294967295
-50.588028 83.692757 -27.153034 4294967295
-50.559517 77.90461 -27.34758 4294967295
-50.556633 78.519211 -27.421034 4294967295
-50.551052 77.300842 -27.175182 4294967295
-50.547157 77.151566 -27.116554 4294967295
-50.542534 79.297768 -27.421318 4294967295
-50.535305 77.009872 -26.98851 4294967295
-50.532211 79.460922 -27.356005 4294967295
-50.532196 77.472 -27.035381 4294967295
-50.531059 78.391228 -27.173422 4294967295
-50.529934 78.239319 -27.138943 4294967295
-50.525436 78.090668 -27.075098 4294967295
-50.525024 78.856125 -27.194761 4294967295
-50.511063 78.716812 -27.048409 4294967295
-50.509125 79.024773 -27.080816 4294967295
-50.50779 79.944107 -27.217073 4294967295
-50.503529 79.642365 -27.130634 4294967295
-50.503044 80.713722 -27.298906 4294967295
-50.497395 80.413467 -27.200399 4294967295
-50.492935 80.264946 -27.136902 4294967295
-50.484268 81.038643 -27.18462 4294967295
-50.479187 81.34977 -27.189613 4294967295
-50.477745 81.504219 -27.201696 4294967295
-50.476418 81.811523 -27.239416 4294967295
-50.470249 81.664848 -27.161041 4294967295
-50.469658 80.900421 -27.032667 4294967295
-50.467419 82.432632 -27.259546 4294967295
-50.465511 82.128654 -27.193678 4294967295
-50.463955 82.742126 -27.278669 4294967295
-50.460709 82.898445 -27.275023 4294967295
-50.458328 81.217949 -26.98325 4294967295
-50.457829 83.054398 -27.27457 4294967295
-50.457321 82.596031 -27.196243 4294967295
-50.450703 83.367744 -27.261753 4294967295
-50.447281 81.99437 -27.010258 4294967295
-50.445068 83.220657 -27.18807 4294967295
-50.443531 82.304276 -27.026873 4294967295
-50.436398 83.688652 -27.186464 4294967295
-50.43581 83.842239 -27.205986 4294967295
-50.43309 83.539146 -27.133036 4294967295
-50.420246 77.429909 -27.413416 4294967295
-50.414898 77.740967 -27.416134 4294967295
-50.397072 78.523048 -27.38413 4294967295
-50.392273 78.068794 -27.268524 4294967295
-50.389038 78.836823 -27.363457 4294967295
-50.388824 76.847939 -27.041485 4294967295
-50.385963 77.156769 -27.06584 4294967295
-50.384064 77.617699 -27.123219 4294967295
-50.381496 78.385246 -27.224024 4294967295
-50.38121 78.997475 -27.320011 4294967295
-50.362751 79.780579 -27.282549 4294967295
-50.361351 79.322998 -27.196501 4294967295
-50.36055 79.629784 -27.238783 4294967295
-50.358982 78.713257 -27.077423 4294967295
-50.356953 79.939323 -27.256739 4294967295
-50.356518 80.704597 -27.376007 4294967295
-50.355709 80.093544 -27.270531 4294967295
-50.354702 80.859375 -27.384809 4294967295
-50.347958 80.254272 -27.227755 4294967295
-50.347179 80.408035 -27.245584 4294967295
-50.34005 80.568176 -27.208216 4294967295
-50.330803 81.036469 -27.201664 4294967295
-50.329521 81.496719 -27.264347 4294967295
-50.324154 82.572906 -27.389912 4294967295
-50.313206 81.972305 -27.196344 4294967295
-50.301044 82.443771 -27.16449 4294967295
-50.299316 82.751534 -27.198696 4294967295
-50.299232 81.680557 -27.025673 4294967295
-50.292904 82.299141 -27.06913 4294967295
-50.292591 83.37043 -27.238684 4294967295
-50.28817 82.15097 -27.003374 4294967295
-50.283108 82.921318 -27.082441 4294967295
-50.267536 83.549583 -27.045582 4294967295
-50.257984 83.865631 -27.011824 4294967295
-50.255116 76.979965 -27.254417 4294967295
-50.253273 76.828705 -27.213789 4294967295
-50.245358 77.601318 -27.268066 4294967295
-50.23521 77.305008 -27.130772 4294967295
-50.234131 77.459076 -27.145996 4294967295
-50.232403 78.22583 -27.253998 4294967295
-50.231773 78.685425 -27.322302 4294967295
-50.230007 78.534157 -27.282383 4294967295
-50.228756 77.923332 -27.173149 4294967295
-50.220703 78.084145 -27.127825 4294967295
-50.207043 79.16864 -27.181425 4294967295
-50.199005 79.788612 -27.210058 4294967295
-50.198673 79.023819 -27.084206 4294967295
-50.197502 79.637085 -27.172428 4294967295
-50.196075 80.862434 -27.356714 4294967295
-50.192928 79.335548 -27.083527 4294967295
-50.192387 80.254196 -27.226402 4294967295
-50.19228 79.948296 -27.176283 4294967295
-50.189552 80.563026 -27.250982 4294967295
-50.184368 79.497025 -27.033844 4294967295
-50.171978 80.121513 -27.024725 4294967295
-50.168503 81.502213 -27.215879 4294967295
-50.160831 81.050934 -27.075573 4294967295
-50.1604 80.745285 -27.022667 4294967295
-50.154667 82.74025 -27.29253 4294967295
-50.152103 81.212784 -27.024466 4294967295
-50.150291 81.979774 -27.131691 4294967295
-50.148563 82.440559 -27.190454 4294967295
-50.147312 83.206772 -27.302462 4294967295
-50.146244 83.054909 -27.268633 4294967295
-50.145237 81.831902 -27.063272 4294967295
-50.141361 82.294952 -27.103399 4294967295
-50.139183 83.368195 -27.25658 4294967295
-50.138645 82.90979 -27.178169 4294967295
-50.13681 82.605667 -27.1131 4294967295
-50.11063 83.856995 -27.082783 4294967295
-50.100922 76.825462 -27.239922 4294967295
-50.092361 76.98661 -27.190344 4294967295
-50.089664 77.142212 -27.191532 4294967295
-50.089615 77.295288 -27.215702 4294967295
-50.077892 77.612564 -27.163263 4294967295
-50.075031 77.768349 -27.163073 4294967295
-50.073784 78.687668 -27.299673 4294967295
-50.069065 78.998268 -27.307926 4294967295
-50.068871 77.927315 -27.134264 4294967295
-50.067764 77.469215 -27.050951 4294967295
-50.06525 78.389931 -27.176628 4294967295
-50.056709 79.469391 -27.274605 4294967295
-50.056679 78.245186 -27.077822 4294967295
-50.051834 79.321175 -27.207815 4294967295
-50.048538 80.854332 -27.424854 4294967295
-50.048504 79.171417 -27.154438 4294967295
-50.045746 78.102676 -26.958548 4294967295
-50.036842 78.570557 -26.95517 4294967295
-50.029961 80.566971 -27.214945 4294967295
-50.023598 80.267273 -27.110727 4294967295
-50.022087 81.645874 -27.318659 4294967295
-50.020885 80.423004 -27.111839 4294967295
-50.01693 79.814713 -26.9793 4294967295
-50.016407 79.662155 -26.950226 4294967295
-50.01273 81.043312 -27.139484 4294967295
-50.009392 81.199699 -27.135138 4294967295
-50.007843 81.354294 -27.14628 4294967295
-50.000443 81.973877 -27.180464 4294967295
-50 83.045265 -27.348478 4294967295
-49.993275 80.756729 -26.921942 4294967295
-49.98941 81.525978 -27.011322 4294967295
-49.980801 82.912102 -27.15785 4294967295
-49.980652 82.300148 -27.058332 4294967295
-49.973946 83.837234 -27.245838 4294967295
-49.973038 82.154877 -26.967892 4294967295
-49.970455 83.381859 -27.142 4294967295
-49.969204 82.771027 -27.032978 4294967295
-49.967747 82.619476 -26.99579 4294967295
-49.964561 82.469688 -26.94367 4294967295
-49.957664 83.242096 -27.006786 4294967295
-49.952938 76.9711 -27.328375 4294967295
-49.948978 83.710281 -27.00532 4294967295
-49.933094 77.14296 -27.181351 4294967295
-49.928745 77.606224 -27.217419 4294967295
-49.927719 78.066292 -27.282162 4294967295
-49.925529 76.844009 -27.066862 4294967295
-49.924065 78.375847 -27.299631 4294967295
-49.920128 78.838684 -27.339212 4294967295
-49.917141 77.311195 -27.068014 4294967295
-49.916008 77.465347 -27.082743 4294967295
-49.915039 77.7724 -27.123463 4294967295
-49.909817 78.23658 -27.151957 4294967295
-49.899124 79.777275 -27.304945 4294967295
-49.89423 77.94545 -26.96817 4294967295
-49.892761 79.324471 -27.176369 4294967295
-49.888283 79.634941 -27.186756 4294967295
-49.887379 78.717499 -27.031706 4294967295
-49.884075 79.179924 -27.076784 4294967295
-49.883652 79.945572 -27.195803 4294967295
-49.881207 80.713074 -27.29735 4294967295
-49.871742 79.498154 -27.019314 4294967295
-49.863148 80.27198 -27.067743 4294967295
-49.862133 81.650269 -27.279764 4294967295
-49.852928 81.2005 -27.126707 4294967295
-49.852177 80.435959 -26.997536 4294967295
-49.847855 82.276802 -27.254562 4294967295
-49.844181 82.127533 -27.198326 4294967295
-49.843464 83.046265 -27.339249 4294967295
-49.843285 80.5979 -26.94525 4294967295
-49.836143 82.441788 -27.177973 4294967295
-49.835392 81.830406 -27.073381 4294967295
-49.834145 81.525543 -27.013542 4294967295
-49.828064 82.756119 -27.157293 4294967295
-49.827206 82.603966 -27.12536 4294967295
-49.8251 83.371239 -27.229803 4294967295
-49.815914 83.22773 -27.125973 4294967295
-49.815868 83.686836 -27.199148 4294967295
-49.811676 82.92601 -27.040354 4294967295
-49.803997 83.852226 -27.121216 4294967295
-49.802402 83.547806 -27.058397 4294967295
-49.776764 76.837334 -27.12439 4294967295
-49.775406 77.144745 -27.161722 4294967295
-49.768135 77.916939 -27.221569 4294967295
-49.767666 77.61129 -27.168503 4294967295
-49.763294 78.533737 -27.277874 4294967295
-49.758194 77.467247 -27.062298 4294967295
-49.757217 78.998703 -27.298996 4294967295
-49.754791 77.776657 -27.081964 4294967295
-49.753059 77.319038 -26.993465 4294967295
-49.750748 77.015007 -26.924492 4294967295
-49.750698 78.239807 -27.120222 4294967295
-49.745575 78.397812 -27.10058 4294967295
-49.742516 80.084206 -27.343779 4294967295
-49.738251 78.098694 -26.988386 4294967295
-49.73465 79.326797 -27.153444 4294967295
-49.731766 78.870415 -27.055048 4294967295
-49.728329 80.404282 -27.270512 4294967295
-49.728214 78.720772 -26.999905 4294967295
-49.727989 79.792488 -27.169554 4294967295
-49.725147 79.948334 -27.169582 4294967295
-49.722294 80.563301 -27.243 4294967295
-49.716881 80.721725 -27.220839 4294967295
-49.716263 80.875366 -27.240021 4294967295
-49.712219 80.267227 -27.107138 4294967295
-49.70649 79.507454 -26.935205 4294967295
-49.69986 81.350914 -27.172163 4294967295
-49.688763 82.739365 -27.297031 4294967295
-49.677189 81.067528 -26.927799 4294967295
-49.675831 81.221992 -26.940594 4294967295
-49.675526 83.365005 -27.280979 4294967295
-49.672092 83.674561 -27.300396 4294967295
-49.66975 82.299698 -27.05978 4294967295
-49.669331 83.065361 -27.178658 4294967295
-49.66497 83.222893 -27.165575 4294967295
-49.663837 82.458801 -27.033335 4294967295
-49.659447 82.004021 -26.921986 4294967295
-49.657913 81.85247 -26.884256 4294967295
-49.653023 82.622932 -26.964684 4294967295
-49.638042 83.556839 -26.98266 4294967295
-49.630005 83.871338 -26.96246 4294967295
-49.62365 77.753105 -27.291264 4294967295
-49.615746 76.995293 -27.100794 4294967295
-49.613052 77.916275 -27.224573 4294967295
-49.60796 77.461929 -27.107252 4294967295
-49.596535 78.238235 -27.131397 4294967295
-49.591957 76.864601 -26.87155 4294967295
-49.589207 79.62281 -27.288702 4294967295
-49.586327 78.707306 -27.117035 4294967295
-49.582645 78.404686 -27.036379 4294967295
-49.582012 79.017632 -27.128866 4294967295
-49.577209 79.328445 -27.13653 4294967295
-49.571701 79.18074 -27.064669 4294967295
-49.568439 80.561478 -27.256939 4294967295
-49.567425 81.021561 -27.321629 4294967295
-49.567387 78.113106 -26.856075 4294967295
-49.56736 78.878761 -26.978346 4294967295
-49.565548 81.176453 -27.329952 4294967295
-49.561584 78.57811 -26.879641 4294967295
-49.556412 79.501854 -26.982105 4294967295
-49.551498 80.425232 -27.08675 4294967295
-49.54879 80.734062 -27.112423 4294967295
-49.547428 81.500687 -27.223099 4294967295
-49.547207 80.123299 -27.000902 4294967295
-49.547043 81.654106 -27.244253 4294967295
-49.54591 81.349174 -27.185556 4294967295
-49.545219 79.819046 -26.934807 4294967295
-49.544987 80.278595 -27.006266 4294967295
-49.529827 81.977577 -27.145199 4294967295
-49.524548 82.901192 -27.246641 4294967295
-49.522232 80.913612 -26.908541 4294967295
-49.521313 82.139267 -27.096472 4294967295
-49.509705 83.375549 -27.19245 4294967295
-49.499969 83.844727 -27.182201 4294967295
-49.497223 82.316818 -26.913876 4294967295
-49.496605 83.235992 -27.055428 4294967295
-49.49612 83.542625 -27.10018 4294967295
-49.495911 82.777466 -26.976017 4294967295
-49.476196 77.132996 -27.261881 4294967295
-49.466415 77.601433 -27.251266 4294967295
-49.45956 77.301788 -27.143469 4294967295
-49.457779 77.915779 -27.226021 4294967295
-49.456017 76.845833 -27.039631 4294967295
-49.454899 77.45929 -27.12789 4294967295
-49.447769 78.078407 -27.164541 4294967295
-49.438171 79.465187 -27.302233 4294967295
-49.437946 79.006271 -27.226925 4294967295
-49.434116 78.703842 -27.145138 4294967295
-49.433956 77.019714 -26.874641 4294967295
-49.430229 78.248299 -27.038401 4294967295
-49.430073 78.401558 -27.061512 4294967295
-49.427567 77.791489 -26.94211 4294967295
-49.427059 78.557556 -27.060089 4294967295
-49.424332 79.63176 -27.207884 4294967295
-49.421112 80.09407 -27.25362 4294967295
-49.42091 78.86969 -27.056221 4294967295
-49.418983 79.790054 -27.186436 4294967295
-49.417419 80.403801 -27.270826 4294967295
-49.417061 80.251114 -27.243299 4294967295
-49.407822 80.566353 -27.212904 4294967295
-49.396809 79.352432 -26.922737 4294967295
-49.380501 80.899635 -27.027353 4294967295
-49.378864 81.513611 -27.111149 4294967295
-49.378502 82.126221 -27.205797 4294967295
-49.375011 81.976692 -27.15143 4294967295
-49.374382 82.436493 -27.219353 4294967295
-49.373169 82.743805 -27.257824 4294967295
-49.372444 81.826218 -27.104956 4294967295
-49.3666 81.372818 -26.981478 4294967295
-49.366272 82.291672 -27.125345 4294967295
-49.363926 83.212364 -27.251858 4294967295
-49.363255 81.682381 -27.001686 4294967295
-49.362015 82.908241 -27.186621 4294967295
-49.360199 82.603981 -27.122162 4294967295
-49.357212 83.525337 -27.243179 4294967295
-49.347038 83.382774 -27.131504 4294967295
-49.333611 83.090408 -26.967447 4294967295
-49.326736 83.862961 -27.030754 4294967295
-49.308334 77.297424 -27.179806 4294967295
-49.294964 77.616257 -27.114117 4294967295
-49.288982 76.85627 -26.940643 4294967295
-49.288834 78.234474 -27.159313 4294967295
-49.283558 77.780197 -27.040821 4294967295
-49.282627 78.393509 -27.130592 4294967295
-49.280174 78.548958 -27.133993 4294967295
-49.28001 77.477303 -26.961517 4294967295
-49.276268 79.31813 -27.222677 4294967295
-49.269535 79.171593 -27.140577 4294967295
-49.269138 77.181252 -26.819445 4294967295
-49.267082 79.786285 -27.217299 4294967295
-49.26516 79.635094 -27.176401 4294967295
-49.264423 80.401115 -27.292204 4294967295
-49.263916 77.952019 -26.896954 4294967295
-49.256584 78.877899 -26.980795 4294967295
-49.252872 79.49398 -27.046717 4294967295
-49.249691 80.109489 -27.117199 4294967295
-49.249134 78.119278 -26.794754 4294967295
-49.239864 79.966026 -27.008619 4294967295
-49.238972 81.038567 -27.171974 4294967295
-49.237595 80.274483 -27.038033 4294967295
-49.234089 81.196503 -27.154585 4294967295
-49.222027 82.280075 -27.22226 4294967295
-49.219257 81.670586 -27.100887 4294967295
-49.212894 81.523872 -27.02199 4294967295
-49.211029 81.985039 -27.079294 4294967295
-49.207218 81.835777 -27.022259 4294967295
-49.206913 80.917328 -26.873051 4294967295
-49.202194 82.147049 -27.028086 4294967295
-49.193008 83.534157 -27.169245 4294967295
-49.178238 83.396263 -27.018448 4294967295
-49.170029 82.792175 -26.85051 4294967295
-49.169666 83.864388 -27.018341 4294967295
-49.154881 83.72654 -26.867434 4294967295
-49.153553 76.990204 -27.136873 4294967295
-49.14933 77.147278 -27.125181 4294967295
-49.145081 77.30439 -27.113255 4294967295
-49.142883 76.847076 -27.021219 4294967295
-49.129456 77.778511 -27.052898 4294967295
-49.127941 78.698601 -27.18638 4294967295
-49.125275 78.08873 -27.065975 4294967295
-49.115406 77.944992 -26.95718 4294967295
-49.110775 78.868225 -27.064058 4294967295
-49.105049 80.25164 -27.234739 4294967295
-49.104496 78.414841 -26.937164 4294967295
-49.104321 79.027565 -27.03331 4294967295
-49.101448 77.651886 -26.789007 4294967295
-49.100998 78.57135 -26.931648 4294967295
-49.100674 80.715141 -27.270517 4294967295
-49.099216 79.338753 -27.038475 4294967295
-49.084656 79.506027 -26.938442 4294967295
-49.082928 79.967125 -26.996906 4294967295
-49.074055 79.209976 -26.799013 4294967295
-49.073845 80.435425 -26.992508 4294967295
-49.07143 80.590935 -26.996294 4294967295
-49.065506 79.677811 -26.799221 4294967295
-49.064739 79.831741 -26.817074 4294967295
-49.063892 80.138908 -26.858643 4294967295
-49.063301 80.905235 -26.975626 4294967295
-49.063297 81.97699 -27.146387 4294967295
-49.062836 81.824364 -27.11805 4294967295
-49.062584 81.212196 -27.018301 4294967295
-49.05555 82.137878 -27.104595 4294967295
-49.053883 82.751892 -27.187937 4294967295
-49.050289 82.449379 -27.108465 4294967295
-49.040974 81.693161 -26.906923 4294967295
-49.037621 83.074615 -27.097851 4294967295
-49.035969 81.391853 -26.815371 4294967295
-49.03434 83.384148 -27.11861 4294967295
-49.030689 82.316078 -26.916664 4294967295
-49.024921 82.628197 -26.916204 4294967295
-49.018929 83.706169 -27.035788 4294967295
-49.015968 83.249855 -26.937357 4294967295
-49.007591 83.564705 -26.914619 4294967295
-48.991447 83.887611 -26.82559 4294967295
-48.986675 78.225403 -27.234777 4294967295
-48.968719 77.629944 -26.984068 4294967295
-48.962654 78.095146 -27.005459 4294967295
-48.961777 77.330154 -26.876028 4294967295
-48.960842 77.024651 -26.819275 4294967295
-48.960754 76.871529 -26.794132 4294967295
-48.9552 80.092766 -27.258801 4294967295
-48.954521 78.409187 -26.984879 4294967295
-48.949863 78.873085 -27.018293 4294967295
-48.947994 77.189888 -26.734032 4294967295
-48.945267 77.80529 -26.808348 4294967295
-48.94479 77.958939 -26.828671 4294967295
-48.944542 79.643875 -27.094788 4294967295
-48.939568 80.720436 -27.222975 4294967295
-48.936966 79.191803 -26.957043 4294967295
-48.93668 79.957771 -27.076496 4294967295
-48.929096 80.424545 -27.084976 4294967295
-48.928303 79.812805 -26.98069 4294967295
-48.927998 79.047287 -26.856167 4294967295
-48.927517 79.354095 -26.900843 4294967295
-48.923584 81.195518 -27.15984 4294967295
-48.921021 78.594391 -26.723495 4294967295
-48.910206 82.433571 -27.240702 4294967295
-48.90963 81.974915 -27.162722 4294967295
-48.907124 79.527031 -26.751318 4294967295
-48.905445 80.600945 -26.907711 4294967295
-48.905193 81.366913 -27.027435 4294967295
-48.897755 81.068016 -26.915266 4294967295
-48.896626 82.141075 -27.076271 4294967295
-48.895702 80.916885 -26.873405 4294967295
-48.893627 82.603416 -27.123787 4294967295
-48.881149 83.687744 -27.187998 4294967295
-48.88065 81.697678 -26.866997 4294967295
-48.878128 83.231567 -27.089191 4294967295
-48.86721 82.32383 -26.849957 4294967295
-48.863682 83.093178 -26.941757 4294967295
-48.860661 83.555664 -26.9891 4294967295
-48.855301 82.79538 -26.821604 4294967295
-48.850063 82.953873 -26.801352 4294967295
-48.844162 83.419411 -26.824167 4294967295
-48.835701 83.887589 -26.825224 4294967295
-48.835403 76.996124 -27.07596 4294967295
-48.829517 76.848457 -27.001482 4294967295
-48.819839 77.163826 -26.967794 4294967295
-48.812805 77.476768 -26.956631 4294967295
-48.803596 78.710739 -27.073105 4294967295
-48.801292 77.334389 -26.834267 4294967295
-48.800205 77.641808 -26.87372 4294967295
-48.79591 77.799049 -26.86153 4294967295
-48.792732 78.26162 -26.907562 4294967295
-48.786045 79.340172 -27.021156 4294967295
-48.785458 78.42173 -26.870007 4294967295
-48.78426 79.954445 -27.103384 4294967295
-48.783821 79.80175 -27.075296 4294967295
-48.778992 79.653297 -27.009838 4294967295
-48.775085 80.116524 -27.049679 4294967295
-48.758869 78.906761 -26.716822 4294967295
-48.758545 81.664047 -27.152386 4294967295
-48.758308 79.520157 -26.809492 4294967295
-48.75787 80.592819 -26.976246 4294967295
-48.753525 80.903397 -26.987982 4294967295
-48.748642 80.295525 -26.849026 4294967295
-48.747478 80.756195 -26.912216 4294967295
-48.746655 81.522774 -27.026936 4294967295
-48.738949 80.458206 -26.79092 4294967295
-48.734196 82.760254 -27.115721 4294967295
-48.731739 81.078079 -26.827013 4294967295
-48.731182 82.150795 -26.992714 4294967295
-48.729435 81.386734 -26.856117 4294967295
-48.728722 82.000114 -26.947447 4294967295
-48.724785 81.238152 -26.792236 4294967295
-48.723042 83.384018 -27.118219 4294967295
-48.723003 81.852669 -26.874487 4294967295
-48.720722 83.539497 -27.122818 4294967295
-48.711853 82.629707 -26.901405 4294967295
-48.711342 83.089691 -26.970064 4294967295
-48.710041 82.478371 -26.861633 4294967295
-48.708351 83.245872 -26.968981 4294967295
-48.70649 82.328766 -26.807085 4294967295
-48.696281 82.951813 -26.817678 4294967295
-48.686089 83.728088 -26.852755 4294967295
-48.684959 83.882416 -26.867504 4294967295
-48.676788 76.845451 -27.025452 4294967295
-48.665504 77.009125 -26.953922 4294967295
-48.665482 77.774986 -27.075399 4294967295
-48.653088 77.327103 -26.897106 4294967295
-48.647091 77.639122 -26.894835 4294967295
-48.643597 79.786598 -27.205761 4294967295
-48.643299 77.183037 -26.789597 4294967295
-48.627556 79.036354 -26.947912 4294967295
-48.627357 78.730171 -26.897577 4294967295
-48.624676 77.96666 -26.753119 4294967295
-48.623898 79.958847 -27.062817 4294967295
-48.623203 80.572052 -27.154196 4294967295
-48.619759 78.584221 -26.808681 4294967295
-48.616352 78.89389 -26.828457 4294967295
-48.613815 78.283417 -26.709532 4294967295
-48.605846 79.516808 -26.836571 4294967295
-48.599384 80.135857 -26.87904 4294967295
-48.595955 80.751938 -26.947216 4294967295
-48.593243 79.375748 -26.705206 4294967295
-48.589252 80.452133 -26.841679 4294967295
-48.583241 82.602303 -27.131102 4294967295
-48.581478 82.757195 -27.140455 4294967295
-48.576881 81.23027 -26.85829 4294967295
-48.573418 81.69326 -26.901861 4294967295
-48.564579 82.467949 -26.948477 4294967295
-48.557194 82.015816 -26.812834 4294967295
-48.557175 82.169029 -26.836992 4294967295
-48.55286 83.245583 -26.970627 4294967295
-48.540825 83.564156 -26.917166 4294967295
-48.534863 76.985565 -27.165367 4294967295
-48.529762 83.881813 -26.871944 4294967295
-48.510506 77.774086 -27.080389 4294967295
-48.494545 78.095467 -26.993698 4294967295
-48.49231 77.484787 -26.877514 4294967295
-48.489498 76.874489 -26.756416 4294967295
-48.488785 77.181633 -26.798996 4294967295
-48.48864 78.560593 -27.016569 4294967295
-48.48695 79.481133 -27.148035 4294967295
-48.480671 77.95536 -26.851789 4294967295
-48.475574 79.185753 -27.003071 4294967295
-48.473061 78.881798 -26.933159 4294967295
-48.462177 80.424004 -27.083925 4294967295
-48.459084 79.661163 -26.936251 4294967295
-48.458691 80.274246 -27.030109 4294967295
-48.458477 79.814941 -26.955387 4294967295
-48.453461 79.972977 -26.937201 4294967295
-48.450375 78.750221 -26.716589 4294967295
-48.442814 81.515053 -27.089973 4294967295
-48.442158 79.06456 -26.695604 4294967295
-48.440929 81.670059 -27.098307 4294967295
-48.440678 80.904533 -26.97471 4294967295
-48.439812 81.364876 -27.040253 4294967295
-48.433353 81.218086 -26.961264 4294967295
-48.430729 80.607903 -26.841856 4294967295
-48.430504 79.382248 -26.645464 4294967295
-48.430073 81.987152 -27.054943 4294967295
-48.425835 80.153008 -26.727476 4294967295
-48.413715 81.084244 -26.77063 4294967295
-48.412613 83.38295 -27.125673 4294967295
-48.407597 82.928612 -27.010374 4294967295
-48.407536 82.162811 -26.888401 4294967295
-48.402523 82.627388 -26.91884 4294967295
-48.395355 82.787788 -26.882433 4294967295
-48.391975 82.331581 -26.780952 4294967295
-48.390694 81.873184 -26.697182 4294967295
-48.386223 83.716118 -26.950867 4294967295
-48.383175 83.106476 -26.827925 4294967295
-48.381165 83.874451 -26.932354 4294967295
-48.374989 83.574387 -26.831495 4294967295
-48.362679 77.000626 -27.024549 4294967295
-48.352879 76.856499 -26.917349 4294967295
-48.351196 77.470879 -27.000269 4294967295
-48.35022 77.77816 -27.040569 4294967295
-48.341709 77.632942 -26.9443 4294967295
-48.339771 78.247536 -27.025038 4294967295
-48.329498 78.869995 -27.035246 4294967295
-48.327858 77.186172 -26.754271 4294967295
-48.319839 79.032394 -26.977856 4294967295
-48.311722 79.806099 -27.030582 4294967295
-48.310986 78.121475 -26.757271 4294967295
-48.30941 78.429451 -26.792522 4294967295
-48.304672 79.35331 -26.898155 4294967295
-48.303139 80.273926 -27.030849 4294967295
-48.301777 80.428421 -27.043606 4294967295
-48.296986 77.981384 -26.614582 4294967295
-48.296448 81.199425 -27.119892 4294967295
-48.291775 80.897705 -27.031847 4294967295
-48.291676 79.978661 -26.885395 4294967295
-48.289196 81.512871 -27.107117 4294967295
-48.286316 79.524162 -26.767239 4294967295
-48.283253 80.752861 -26.935564 4294967295
-48.280521 79.682983 -26.742531 4294967295
-48.275764 82.138794 -27.090673 4294967295
-48.27198 81.070312 -26.888821 4294967295
-48.271275 81.377403 -26.931414 4294967295
-48.264423 81.690559 -26.922064 4294967295
-48.262444 83.071022 -27.123676 4294967295
-48.259586 82.461281 -27.00252 4294967295
-48.252323 82.928078 -27.013937 4294967295
-48.247997 81.860062 -26.807518 4294967295
-48.242367 83.397636 -27.002602 4294967295
-48.238026 83.555206 -26.990196 4294967295
-48.228706 83.87104 -26.960007 4294967295
-48.223579 82.650574 -26.722593 4294967295
-48.215633 83.271515 -26.752548 4294967295
-48.209412 83.737511 -26.772778 4294967295
-48.208805 76.99865 -27.039064 4294967295
-48.198029 78.080978 -27.117851 4294967295
-48.188877 76.863861 -26.846554 4294967295
-48.185047 78.552742 -27.081034 4294967295
-48.18391 77.4814 -26.901676 4294967295
-48.178524 78.252525 -26.977482 4294967295
-48.178383 77.793015 -26.903522 4294967295
-48.178223 77.946388 -26.92643 4294967295
-48.173912 77.337471 -26.793003 4294967295
-48.16048 78.729218 -26.897987 4294967295
-48.157997 77.198975 -26.634396 4294967295
-48.139854 81.200165 -27.111914 4294967295
-48.139427 78.902458 -26.744577 4294967295
-48.13892 80.74157 -27.031326 4294967295
-48.138081 80.43602 -26.975748 4294967295
-48.135448 79.978943 -26.880816 4294967295
-48.129009 79.525429 -26.753731 4294967295
-48.128551 78.452919 -26.580011 4294967295
-48.124275 81.675011 -27.053259 4294967295
-48.122906 79.837807 -26.750755 4294967295
-48.12151 81.371376 -26.981449 4294967295
-48.119614 80.913635 -26.892746 4294967295
-48.118572 82.14016 -27.077879 4294967295
-48.11628 80.610443 -26.816126 4294967295
-48.111328 82.300545 -27.04104 4294967295
-48.103031 82.615181 -27.019567 4294967295
-48.101986 82.003464 -26.913809 4294967295
-48.100418 81.085663 -26.755108 4294967295
-48.095901 82.469124 -26.935217 4294967295
-48.095787 83.84774 -27.152319 4294967295
-48.091976 81.860176 -26.805162 4294967295
-48.091614 81.554054 -26.753611 4294967295
-48.081745 83.249321 -26.937069 4294967295
-48.080429 83.403839 -26.950209 4294967295
-48.068977 83.108986 -26.805193 4294967295
-48.068546 83.722275 -26.898533 4294967295
-48.057068 77.301079 -27.120052 4294967295
-48.041821 77.468437 -27.015854 4294967295
-48.037605 78.238358 -27.101467 4294967295
-48.035229 77.780998 -27.008787 4294967295
-48.021332 77.947205 -26.915987 4294967295
-48.018318 78.409706 -26.963291 4294967295
-48.018055 79.022774 -27.057962 4294967295
