# .PCD v0.7 - Point Cloud Data file format
VERSION 0.7
FIELDS x y z rgb
SIZE 4 4 4 4
TYPE F F F U
COUNT 1 1 1 1
WIDTH 1121
HEIGHT 1
VIEWPOINT 0 0 0 1 0 0 0
POINTS 1121
DATA ascii
-37.402393 15.466231 -25.822248 4294967295
-37.401028 16.392553 -25.94869 4294967295
-37.400238 16.85565 -26.011131 4294967295
-37.399586 15.31203 -25.778818 4294967295
-37.392754 16.084469 -25.842268 4294967295
-37.390873 16.702097 -25.91942 4294967295
-37.388901 15.158327 -25.677359 4294967295
-37.379665 17.629206 -25.973398 4294967295
-37.371208 17.166906 -25.842913 4294967295
-37.368004 16.240784 -25.682789 4294967295
-37.362415 17.013296 -25.755428 4294967295
-37.359383 17.322359 -25.778589 4294967295
-37.358723 17.785574 -25.842005 4294967295
-37.355682 17.477095 -25.774117 4294967295
-37.354115 18.403507 -25.899075 4294967295
-37.353683 19.329601 -26.032377 4294967295
-37.348278 18.249743 -25.833382 4294967295
-37.347401 16.551302 -25.576593 4294967295
-37.343037 17.941494 -25.749283 4294967295
-37.331463 18.097052 -25.686876 4294967295
-37.328011 19.795645 -25.911713 4294967295
-37.323666 19.641808 -25.857019 4294967295
-37.318451 19.024876 -25.727627 4294967295
-37.316814 20.260088 -25.897598 4294967295
-37.313965 19.488573 -25.762896 4294967295
-37.309742 18.562569 -25.595266 4294967295
-37.308449 18.71714 -25.608517 4294967295
-37.301983 19.953188 -25.742979 4294967295
-37.29438 20.571703 -25.778049 4294967295
-37.286407 20.109518 -25.651155 4294967295
-37.27319 20.420033 -25.599428 4294967295
-37.270157 14.689556 -25.881817 4294967295
-37.26572 14.844209 -25.871925 4294967295
-37.256367 15.462339 -25.894094 4294967295
-37.247299 15.154165 -25.78196 4294967295
-37.246719 14.999794 -25.754967 4294967295
-37.245266 16.080643 -25.903429 4294967295
-37.2309 15.772929 -25.752363 4294967295
-37.229572 16.853769 -25.901733 4294967295
-37.229385 16.699411 -25.877647 4294967295
-37.228924 15.618655 -25.715101 4294967295
-37.226906 17.625799 -25.995783 4294967295
-37.226818 16.545242 -25.836046 4294967295
-37.225555 17.008488 -25.89496 4294967295
-37.221783 16.236847 -25.753576 4294967295
-37.212402 15.928715 -25.639135 4294967295
-37.211685 18.244682 -25.97488 4294967295
-37.207565 17.93638 -25.899168 4294967295
-37.19862 18.400387 -25.901617 4294967295
-37.188282 18.71022 -25.871128 4294967295
-37.182594 18.09325 -25.73843 4294967295
-37.179558 17.166962 -25.579697 4294967295
-37.178005 17.32155 -25.591034 4294967295
-37.171112 19.638386 -25.881407 4294967295
-37.169342 19.792963 -25.891142 4294967295
-37.159702 18.86772 -25.68395 4294967295
-37.157383 19.331217 -25.735117 4294967295
-37.154205 19.485991 -25.734507 4294967295
-37.153236 19.022856 -25.659182 4294967295
-37.14809 20.721838 -25.871433 4294967295
-37.147457 20.413174 -25.821333 4294967295
-37.128155 20.570055 -25.702353 4294967295
-37.112946 14.995158 -25.916784 4294967295
-37.107529 15.149887 -25.899744 4294967295
-37.096691 15.459387 -25.865648 4294967295
-37.095314 15.305085 -25.832842 4294967295
-37.084904 16.077799 -25.870026 4294967295
-37.081432 15.923665 -25.821852 4294967295
-37.07832 16.695852 -25.912556 4294967295
-37.077755 15.769528 -25.77215 4294967295
-37.071125 15.61558 -25.700794 4294967295
-37.063793 16.388248 -25.760586 4294967295
-37.060459 16.851749 -25.804277 4294967295
-37.056484 16.2344 -25.684235 4294967295
-37.040249 19.169378 -25.996691 4294967295
-37.031048 16.545334 -25.5431 4294967295
-37.030369 18.244188 -25.788029 4294967295
-37.028137 17.16342 -25.612644 4294967295
-37.027721 17.781208 -25.700447 4294967295
-37.021976 19.943272 -25.976269 4294967295
-37.019291 18.399738 -25.729506 4294967295
-37.018814 18.090939 -25.680574 4294967295
-37.016773 18.863235 -25.779173 4294967295
-37.0051 18.710083 -25.670895 4294967295
-37.000217 19.482729 -25.748671 4294967295
-36.991665 19.638149 -25.708691 4294967295
-36.981262 19.330494 -25.587008 4294967295
-36.975906 20.720997 -25.752174 4294967295
-36.975399 20.103394 -25.657606 4294967295
-36.971272 20.412767 -25.672768 4294967295
-36.968872 20.567501 -25.677917 4294967295
-36.935429 15.919738 -25.893879 4294967295
-36.917423 16.075493 -25.784704 4294967295
-36.912674 15.76699 -25.704544 4294967295
-36.90675 15.612966 -25.638454 4294967295
-36.902439 16.231071 -25.697697 4294967295
-36.902409 16.694363 -25.765562 4294967295
-36.895962 16.386023 -25.672974 4294967295
-36.887341 17.313358 -25.746023 4294967295
-36.88588 18.394323 -25.894173 4294967295
-36.884987 16.541359 -25.615299 4294967295
-36.881039 16.850597 -25.631813 4294967295
-36.869396 17.160526 -25.59197 4294967295
-36.867851 17.006195 -25.557947 4294967295
-36.867226 17.469641 -25.621468 4294967295
-36.867138 17.778543 -25.666241 4294967295
-36.865074 18.705307 -25.787315 4294967295
-36.849705 18.243614 -25.606724 4294967295
-36.844536 19.016388 -25.682402 4294967295
-36.842789 17.935369 -25.510712 4294967295
-36.841301 17.626535 -25.454405 4294967295
-36.832428 19.789938 -25.707266 4294967295
-36.831554 20.098886 -25.746254 4294967295
-36.82457 18.555162 -25.468191 4294967295
-36.823071 19.636616 -25.616121 4294967295
-36.822041 20.254492 -25.699364 4294967295
-36.821625 20.40897 -25.719 4294967295
-36.803761 19.947855 -25.520243 4294967295
-36.797482 20.720963 -25.587793 4294967295
-36.766499 15.454216 -25.730124 4294967295
-36.761486 15.763444 -25.738852 4294967295
-36.760231 16.69006 -25.86573 4294967295
-36.753998 16.227308 -25.752151 4294967295
-36.752419 16.072992 -25.71792 4294967295
-36.750732 16.999676 -25.841665 4294967295
-36.74416 17.154663 -25.816298 4294967295
-36.740742 15.610462 -25.564537 4294967295
-36.736912 16.846439 -25.717983 4294967295
-36.72731 16.53833 -25.602457 4294967295
-36.721821 18.546484 -25.857141 4294967295
-36.714195 18.084019 -25.733408 4294967295
-36.707653 18.856812 -25.799006 4294967295
-36.706223 19.474581 -25.879229 4294967295
-36.702621 17.621784 -25.580824 4294967295
-36.701141 19.011942 -25.774099 4294967295
-36.700027 18.703211 -25.720636 4294967295
-36.699505 18.394386 -25.671463 4294967295
-36.693813 19.939236 -25.856619 4294967295
-36.693718 17.468132 -25.493092 4294967295
-36.693546 19.167212 -25.741297 4294967295
-36.688725 17.777586 -25.501974 4294967295
-36.679432 20.404222 -25.81959 4294967295
-36.673012 18.242624 -25.455223 4294967295
-36.670334 19.633202 -25.639816 4294967295
-36.668644 19.324482 -25.582113 4294967295
-36.668621 19.787855 -25.649984 4294967295
-36.652477 20.098732 -25.577442 4294967295
-36.638187 20.563942 -25.541124 4294967295
-36.637062 20.255125 -25.487568 4294967295
-36.628952 20.71962 -25.496378 4294967295
-36.603367 16.841385 -25.881163 4294967295
-36.596558 15.606423 -25.65023 4294967295
-36.586452 17.614925 -25.871042 4294967295
-36.582741 15.916365 -25.594742 4294967295
-36.579132 16.225592 -25.613741 4294967295
-36.576263 16.380289 -25.615467 4294967295
-36.566818 16.072044 -25.501234 4294967295
-36.566208 16.999004 -25.632769 4294967295
-36.563354 16.535807 -25.543968 4294967295
-36.558617 17.463079 -25.64539 4294967295
-36.552883 19.471245 -25.898085 4294967295
-36.54874 18.854069 -25.777277 4294967295
-36.546501 17.309706 -25.534361 4294967295
-36.543243 18.545782 -25.691875 4294967295
-36.543175 17.77347 -25.578083 4294967295
-36.541149 18.237085 -25.6313 4294967295
-36.539738 19.009485 -25.734289 4294967295
-36.536438 19.627571 -25.800861 4294967295
-36.536327 18.083097 -25.573471 4294967295
-36.535656 19.164377 -25.727196 4294967295
-36.534657 17.15626 -25.425303 4294967295
-36.534081 18.701204 -25.64773 4294967295
-36.531422 18.39255 -25.583036 4294967295
-36.53001 19.937174 -25.79929 4294967295
-36.526348 19.783192 -25.749949 4294967295
-36.518013 17.930401 -25.417263 4294967295
-36.505341 20.55797 -25.7101 4294967295
-36.502773 20.094944 -25.623419 4294967295
-36.497166 20.250103 -25.605211 4294967295
-36.452438 15.602384 -25.736166 4294967295
-36.44743 16.374966 -25.812893 4294967295
-36.444065 15.757434 -25.69783 4294967295
-36.434162 16.067093 -25.670988 4294967295
-36.428749 15.91302 -25.608921 4294967295
-36.42601 16.222187 -25.63426 4294967295
-36.42487 16.840139 -25.716518 4294967295
-36.422989 17.612511 -25.816013 4294967295
-36.422791 17.303661 -25.769316 4294967295
-36.407623 18.540571 -25.839968 4294967295
-36.40604 17.459639 -25.669994 4294967295
-36.404022 17.923199 -25.723234 4294967295
-36.399967 16.687742 -25.512568 4294967295
-36.398232 17.151386 -25.567875 4294967295
-36.391666 17.769926 -25.610645 4294967295
-36.386818 18.079351 -25.620646 4294967295
-36.386372 19.00614 -25.753214 4294967295
-36.385242 19.315134 -25.790281 4294967295
-36.384895 16.998043 -25.448141 4294967295
-36.377678 18.389229 -25.599401 4294967295
-36.364571 20.553026 -25.820913 4294967295
-36.362766 18.854256 -25.558805 4294967295
-36.357067 20.090668 -25.698429 4294967295
-36.356213 20.399662 -25.737478 4294967295
-36.35054 19.164589 -25.515121 4294967295
-36.343842 20.246763 -25.624863 4294967295
-36.342224 19.629032 -25.522545 4294967295
-36.308304 20.714767 -25.434269 4294967295
-36.27652 16.68189 -25.7491 4294967295
-36.266068 17.45504 -25.786228 4294967295
-36.261982 17.300962 -25.733932 4294967295
-36.261219 16.219681 -25.57003 4294967295
-36.254143 16.374735 -25.541224 4294967295
-36.251678 18.846331 -25.885195 4294967295
-36.249851 17.147572 -25.623137 4294967295
-36.248837 18.692217 -25.841963 4294967295
-36.246769 16.83885 -25.555498 4294967295
-36.244598 19.155937 -25.878996 4294967295
-36.240715 16.530323 -25.466236 4294967295
-36.238976 18.075443 -25.679842 4294967295
-36.231441 16.994671 -25.46673 4294967295
-36.231388 19.31185 -25.805672 4294967295
-36.22374 20.239286 -25.885786 4294967295
-36.21463 17.768816 -25.45772 4294967295
-36.212181 19.777405 -25.733995 4294967295
-36.208061 19.005535 -25.590998 4294967295
-36.207184 17.924061 -25.426256 4294967295
-36.20406 18.542463 -25.494062 4294967295
-36.203239 18.388031 -25.465485 4294967295
-36.192245 19.470795 -25.543978 4294967295
-36.183289 19.626339 -25.501547 4294967295
-36.174316 20.090937 -25.504265 4294967295
-36.173058 19.936579 -25.472488 4294967295
-36.158161 20.401978 -25.432207 4294967295
-36.154285 20.556993 -25.426683 4294967295
-36.114079 17.451548 -25.814974 4294967295
-36.109737 16.679615 -25.670492 4294967295
-36.096088 18.071047 -25.774887 4294967295
-36.084251 17.299776 -25.576027 4294967295
-36.081764 17.145487 -25.535387 4294967295
-36.08176 16.372843 -25.422297 4294967295
-36.079102 18.845057 -25.764687 4294967295
-36.076321 18.999811 -25.767124 4294967295
-36.07542 17.764097 -25.579792 4294967295
-36.074638 18.227652 -25.641922 4294967295
-36.07262 19.309118 -25.785473 4294967295
-36.066978 16.837692 -25.382906 4294967295
-36.058876 18.383745 -25.55023 4294967295
-36.05883 17.920202 -25.482082 4294967295
-36.048153 19.620857 -25.653296 4294967295
-36.035542 18.695221 -25.426235 4294967295
-36.035435 19.158815 -25.493277 4294967295
-36.031845 19.468254 -25.512476 4294967295
-36.030445 19.777435 -25.547535 4294967295
-36.02932 20.550022 -25.652378 4294967295
-36.023506 20.241781 -25.565022 4294967295
-36.01873 19.93335 -25.485197 4294967295
-36.015705 20.088234 -25.485886 4294967295
-35.987492 20.709917 -25.371819 4294967295
-35.970634 16.520601 -25.770123 4294967295
-35.965557 16.829943 -25.778507 4294967295
-35.944412 16.986216 -25.647985 4294967295
-35.941639 17.913334 -25.763388 4294967295
-35.929657 17.451014 -25.608917 4294967295
-35.928589 16.369436 -25.443048 4294967295
-35.92276 18.069653 -25.649302 4294967295
-35.919865 18.996799 -25.763838 4294967295
-35.91943 19.460199 -25.828398 4294967295
-35.91872 17.142956 -25.484554 4294967295
-35.918507 19.305859 -25.799156 4294967295
-35.913361 18.843039 -25.694178 4294967295
-35.904308 18.689516 -25.606077 4294967295
-35.903793 18.226042 -25.534597 4294967295
-35.903103 18.380629 -25.552204 4294967295
-35.898655 19.153616 -25.632912 4294967295
-35.892803 19.772224 -25.680887 4294967295
-35.891102 17.763662 -25.374979 4294967295
-35.88187 20.082504 -25.646927 4294967295
-35.875362 20.237793 -25.62244 4294967295
-35.863789 19.62113 -25.448368 4294967295
-35.862396 20.702917 -25.596373 4294967295
-35.86108 20.394077 -25.541677 4294967295
-35.857925 19.930897 -25.451101 4294967295
-35.803139 16.827324 -25.731905 4294967295
-35.779377 16.983833 -25.582748 4294967295
-35.776783 17.138575 -25.586563 4294967295
-35.776382 17.602131 -25.651363 4294967295
-35.776127 16.675055 -25.514118 4294967295
-35.775806 17.293175 -25.602055 4294967295
-35.77314 18.220402 -25.718157 4294967295
-35.766247 18.530064 -25.71348 4294967295
-35.764072 18.839245 -25.742897 4294967295
-35.75423 17.758724 -25.513844 4294967295
-35.751446 18.377089 -25.583994 4294967295
-35.750999 17.449942 -25.445356 4294967295
-35.750896 17.913576 -25.512316 4294967295
-35.750774 18.686174 -25.624266 4294967295
-35.736507 19.614738 -25.65659 4294967295
-35.733208 18.997084 -25.542482 4294967295
-35.732769 19.76967 -25.652145 4294967295
-35.731342 19.92433 -25.664404 4294967295
-35.727047 18.070448 -25.362576 4294967295
-35.725647 20.542963 -25.713491 4294967295
-35.706081 20.39094 -25.549637 4294967295
-35.705811 19.309206 -25.389721 4294967295
-35.69796 20.082884 -25.445875 4294967295
-35.676407 20.240091 -25.312799 4294967295
-35.6558 16.514484 -25.749271 4294967295
-35.622223 17.135298 -25.597219 4294967295
-35.621212 16.671793 -25.522303 4294967295
-35.620125 17.753531 -25.672264 4294967295
-35.613003 18.063217 -25.665989 4294967295
-35.612343 18.372272 -25.706329 4294967295
-35.605705 18.836428 -25.726059 4294967295
-35.600628 17.291739 -25.464006 4294967295
-35.589882 16.983538 -25.341381 4294967295
-35.589123 19.919651 -25.764267 4294967295
-35.58289 18.993393 -25.584084 4294967295
-35.582432 18.684391 -25.535698 4294967295
-35.577919 18.221218 -25.435507 4294967295
-35.575386 19.766798 -25.64271 4294967295
-35.574211 17.912447 -25.36367 4294967295
-35.573078 19.303524 -25.558445 4294967295
-35.570679 19.458319 -25.563694 4294967295
-35.567234 20.694752 -25.719166 4294967295
-35.566956 19.613272 -25.559397 4294967295
-35.555416 20.078218 -25.543846 4294967295
-35.54071 20.234556 -25.460365 4294967295
-35.531376 20.544825 -25.43819 4294967295
-35.487331 16.975817 -25.72707 4294967295
-35.479328 17.131006 -25.691956 4294967295
-35.475956 16.822268 -25.622644 4294967295
-35.468132 17.750029 -25.701445 4294967295
-35.468029 17.28651 -25.633129 4294967295
-35.465378 17.441265 -25.63658 4294967295
-35.463104 18.059509 -25.710299 4294967295
-35.45472 18.832815 -25.762545 4294967295
-35.453667 17.596863 -25.574776 4294967295
-35.441467 19.297724 -25.734722 4294967295
-35.430717 18.371778 -25.522203 4294967295
-35.427731 18.681168 -25.545765 4294967295
-35.426624 19.608408 -25.672926 4294967295
-35.426189 19.762959 -25.692322 4294967295
-35.423149 20.226797 -25.737999 4294967295
-35.420975 19.918076 -25.677322 4294967295
-35.407928 18.528671 -25.380705 4294967295
-35.403454 20.074699 -25.573761 4294967295
-35.399563 19.147863 -25.410601 4294967295
-35.393448 18.993956 -25.344057 4294967295
-35.389175 20.385525 -25.516088 4294967295
-35.388 20.694744 -25.552677 4294967295
-35.377487 19.459509 -25.296808 4294967295
-35.313492 17.283234 -25.644068 4294967295
-35.301716 17.747885 -25.626955 4294967295
-35.285755 18.213022 -25.579781 4294967295
-35.282265 18.522444 -25.599737 4294967295
-35.281338 17.90436 -25.503036 4294967295
-35.274406 18.986864 -25.610788 4294967295
-35.27216 19.605185 -25.684658 4294967295
-35.261829 19.760902 -25.632965 4294967295
-35.249294 19.453278 -25.497917 4294967295
-35.248554 19.144238 -25.447577 4294967295
-35.241398 20.072403 -25.531206 4294967295
-35.238602 20.690891 -25.601158 4294967295
-35.236206 18.681803 -25.291309 4294967295
-35.230709 18.836994 -25.274328 4294967295
-35.204269 20.38611 -25.309566 4294967295
-35.196934 20.541636 -25.27939 4294967295
-35.160397 17.125301 -25.642939 4294967295
-35.144577 17.281229 -25.551947 4294967295
-35.140507 17.590698 -25.56773 4294967295
-35.138847 18.209011 -25.645771 4294967295
-35.134224 18.982075 -25.72504 4294967295
-35.12587 17.437468 -25.440222 4294967295
-35.125195 17.901249 -25.502861 4294967295
-35.117996 17.747356 -25.428728 4294967295
-35.112545 19.911583 -25.704475 4294967295
-35.112427 18.675331 -25.523745 4294967295
-35.111385 18.36631 -25.471277 4294967295
-35.11047 18.057245 -25.419746 4294967295
-35.100101 19.75853 -25.59277 4294967295
-35.089844 20.377909 -25.609169 4294967295
-35.083202 20.224188 -25.539076 4294967295
-35.082752 19.451416 -25.423414 4294967295
-35.075958 20.070511 -25.464645 4294967295
-35.069317 18.525204 -25.192066 4294967295
-35.066833 19.298613 -25.286764 4294967295
-35.062279 20.535917 -25.43405 4294967295
-35.050312 20.69202 -25.37076 4294967295
-35.04969 19.60981 -25.208845 4294967295
-34.996876 17.431887 -25.634609 4294967295
-34.995197 17.277493 -25.600124 4294967295
-34.98074 17.587906 -25.541534 4294967295
-34.976692 18.670122 -25.669861 4294967295
-34.965275 19.134933 -25.655508 4294967295
-34.965275 19.289461 -25.677975 4294967295
-34.962368 18.362497 -25.522375 4294967295
-34.940296 17.900879 -25.296909 4294967295
-34.939869 18.05554 -25.316336 4294967295
-34.938629 19.756124 -25.554665 4294967295
-34.93824 18.828732 -25.417053 4294967295
-34.927288 20.221148 -25.540916 4294967295
-34.918709 19.913042 -25.434565 4294967295
-34.914253 19.449768 -25.335274 4294967295
-34.907646 18.986624 -25.220543 4294967295
-34.894814 20.534342 -25.353468 4294967295
-34.870232 20.692081 -25.200054 4294967295
-34.816338 17.740116 -25.504883 4294967295
-34.802879 17.586767 -25.386238 4294967295
-34.792049 18.515425 -25.443581 4294967295
-34.791668 18.051657 -25.373489 4294967295
-34.788773 18.824945 -25.465082 4294967295
-34.782986 18.36174 -25.356367 4294967295
-34.772072 20.681683 -25.615168 4294967295
-34.771694 20.527182 -25.590033 4294967295
-34.771336 18.672173 -25.318029 4294967295
-34.770126 20.21826 -25.533936 4294967295
-34.76926 17.899174 -25.190893 4294967295
-34.76215 19.600864 -25.387148 4294967295
-34.753471 19.29261 -25.280233 4294967295
-34.752357 19.756609 -25.339647 4294967295
-34.748589 19.911667 -25.33519 4294967295
-34.737869 19.449003 -25.191214 4294967295
-34.737583 20.067606 -25.27902 4294967295
-34.648693 18.356445 -25.512709 4294967295
-34.640892 18.66641 -25.501913 4294967295
-34.622742 18.977522 -25.417339 4294967295
-34.622162 19.750544 -25.525368 4294967295
-34.620914 19.286924 -25.449175 4294967295
-34.614418 18.205238 -25.245756 4294967295
-34.605679 20.216255 -25.475143 4294967295
-34.603828 18.51561 -25.215105 4294967295
-34.598675 18.825457 -25.223253 4294967295
-34.594368 20.526838 -25.43936 4294967295
-34.592869 19.135389 -25.226717 4294967295
-34.592537 19.908621 -25.33655 4294967295
-34.591011 19.444895 -25.258371 4294967295
-34.574913 20.374645 -25.278212 4294967295
-34.571663 20.065748 -25.210154 4294967295
-34.49622 18.198391 -25.516699 4294967295
-34.480743 18.354528 -25.428928 4294967295
-34.47118 19.437742 -25.517756 4294967295
-34.440575 19.286547 -25.277458 4294967295
-34.433533 19.90592 -25.317017 4294967295
-34.425842 19.752174 -25.239876 4294967295
-34.418915 20.216959 -25.257816 4294967295
-34.413845 20.372231 -25.244162 4294967295
-34.402554 20.528296 -25.18623 4294967295
-34.329487 18.660147 -25.509005 4294967295
-34.314983 19.589285 -25.540319 4294967295
-34.313618 19.280247 -25.485815 4294967295
-34.309994 18.816793 -25.392878 4294967295
-34.308693 19.899191 -25.540405 4294967295
-34.302925 18.353592 -25.275431 4294967295
-34.295597 20.055342 -25.469761 4294967295
-34.292068 19.437269 -25.355097 4294967295
-34.290989 18.50946 -25.212992 4294967295
-34.290443 18.973511 -25.276337 4294967295
-34.284481 19.128813 -25.256357 4294967295
-34.274918 20.521713 -25.390041 4294967295
-34.244972 20.680128 -25.199707 4294967295
-34.164585 18.503336 -25.425034 4294967295
-34.150841 19.277916 -25.439434 4294967295
-34.147327 19.123672 -25.392124 4294967295
-34.141174 18.815039 -25.303728 4294967295
-34.137741 18.97006 -25.301758 4294967295
-34.123188 19.899607 -25.332836 4294967295
-34.117256 20.673519 -25.402657 4294967295
-34.112465 19.746197 -25.234406 4294967295
-34.107361 20.056139 -25.242962 4294967295
-34.106903 20.520178 -25.306883 4294967295
-34.101028 20.366243 -25.242842 4294967295
-34.012138 18.654486 -25.474352 4294967295
-34.00428 19.273792 -25.508152 4294967295
-33.994572 18.965591 -25.394676 4294967295
-33.991528 18.501949 -25.306032 4294967295
-33.982067 20.049423 -25.46269 4294967295
-33.970776 20.514668 -25.449833 4294967295
-33.969753 19.432266 -25.286049 4294967295
-33.96291 19.123661 -25.192862 4294967295
-33.950359 20.207874 -25.260572 4294967295
-33.829315 19.736727 -25.442991 4294967295
-33.824268 18.809336 -25.273247 4294967295
-33.813568 19.893202 -25.354042 4294967295
-33.803955 19.584967 -25.241415 4294967295
-33.7841 20.670122 -25.257566 4294967295
-33.781456 20.361074 -25.194164 4294967295
-33.675125 18.80551 -25.323929 4294967295
-33.665867 19.270521 -25.325602 4294967295
-33.665432 19.115892 -25.300201 4294967295
-33.664394 19.580023 -25.359859 4294967295
-33.661957 19.734964 -25.364992 4294967295
-33.65554 20.508995 -25.431351 4294967295
-33.6534 20.199953 -25.371611 4294967295
-33.64344 19.427692 -25.189703 4294967295
-33.643269 20.046492 -25.27783 4294967295
-33.502728 19.422899 -25.300011 4294967295
-33.497066 19.73291 -25.30476 4294967295
-33.489994 19.269604 -25.188026 4294967295
-33.360229 19.41831 -25.397465 4294967295
-33.334759 20.194637 -25.329861 4294967295
-33.330257 19.885778 -25.253641 4294967295
-33.316303 20.351562 -25.222458 4294967295
-33.313564 20.661318 -25.247791 4294967295
-33.191994 19.416576 -25.314053 4294967295
-33.17765 19.572886 -25.235697 4294967295
-33.159706 20.193855 -25.198891 4294967295
-33.156441 20.503696 -25.220526 4294967295
-33.029415 20.03303 -25.359705 4294967295
-33.023602 19.569576 -25.252235 4294967295
-33.003204 20.65502 -25.265163 4294967295
-32.999077 20.346077 -25.191759 4294967295
-32.851624 20.187252 -25.23241 4294967295
-54.916149 20.984232 -29.550766 4294967295
-54.751411 20.830635 -29.42046 4294967295
-54.74876 21.288977 -29.472004 4294967295
-54.748703 20.98373 -29.420776 4294967295
-54.745884 21.13685 -29.420092 4294967295
-54.591949 21.134037 -29.41544 4294967295
-54.58337 21.44083 -29.386972 4294967295
-54.56472 21.291443 -29.189758 4294967295
-54.562103 20.986475 -29.114983 4294967295
-54.427536 21.133026 -29.314566 4294967295
-54.424183 20.980917 -29.258451 4294967295
-54.41127 20.830387 -29.11438 4294967295
-54.407295 21.441944 -29.17898 4294967295
-54.404118 21.595219 -29.175056 4294967295
-54.274414 20.977377 -29.29262 4294967295
-54.264339 21.131796 -29.225441 4294967295
-54.255013 20.827927 -29.089344 4294967295
-54.242714 21.593744 -29.10281 4294967295
-54.239143 21.441637 -29.0448 4294967295
-54.238556 21.288986 -29.014132 4294967295
-54.231255 21.748549 -29.02293 4294967295
-54.231106 21.901323 -29.046833 4294967295
-54.123863 20.821274 -29.294443 4294967295
-54.1008 21.436069 -29.184198 4294967295
-54.09864 21.13098 -29.113979 4294967295
-54.0924 22.048452 -29.208202 4294967295
-54.092236 20.979317 -29.030109 4294967295
-54.088337 21.743748 -29.120583 4294967295
-54.087223 21.591208 -29.085125 4294967295
-54.086685 21.896782 -29.130686 4294967295
-53.955601 21.431715 -29.260464 4294967295
-53.951672 22.195911 -29.350546 4294967295
-53.94598 21.127924 -29.122202 4294967295
-53.942478 21.281275 -29.115414 4294967295
-53.932415 20.977461 -28.973106 4294967295
-53.931099 20.82489 -28.935865 4294967295
-53.928768 21.589191 -29.040625 4294967295
-53.925545 21.895294 -29.061583 4294967295
-53.917255 22.049578 -29.011087 4294967295
-53.914436 22.355635 -29.035742 4294967295
-53.805111 21.122854 -29.237993 4294967295
-53.798603 21.42943 -29.229021 4294967295
-53.798561 20.971226 -29.15316 4294967295
-53.791409 21.888885 -29.238972 4294967295
-53.787689 21.736828 -29.17992 4294967295
-53.787357 22.042347 -29.227222 4294967295
-53.785507 21.278963 -29.084545 4294967295
-53.78418 20.82086 -28.996914 4294967295
-53.778046 22.196802 -29.167568 4294967295
-53.773968 21.586521 -29.029709 4294967295
-53.770874 22.350887 -29.127386 4294967295
-53.63612 20.817022 -29.047426 4294967295
-53.633259 20.970284 -29.046562 4294967295
-53.632095 22.497965 -29.287323 4294967295
-53.629837 21.276423 -29.065714 4294967295
-53.627728 22.651514 -29.272774 4294967295
-53.62616 21.735376 -29.107729 4294967295
-53.624866 21.124489 -28.995382 4294967295
-53.624405 22.193954 -29.167191 4294967295
-53.619034 22.042194 -29.093214 4294967295
-53.612362 21.585051 -28.957148 4294967295
-53.611088 21.890869 -28.995838 4294967295
-53.601185 22.351067 -28.981251 4294967295
-53.600834 21.434259 -28.827177 4294967295
-53.593296 22.81094 -28.984993 4294967295
-53.491856 20.965326 -29.157385 4294967295
-53.481155 21.272676 -29.110521 4294967295
-53.477116 22.189928 -29.224546 4294967295
-53.466301 20.81678 -28.900448 4294967295
-53.457355 21.582405 -28.944883 4294967295
-53.455753 22.346672 -29.05592 4294967295
-53.455574 21.429901 -28.90361 4294967295
-53.443066 21.737766 -28.840368 4294967295
-53.436691 22.65588 -28.933268 4294967295
-53.434937 21.892071 -28.791769 4294967295
-53.43034 22.045757 -28.775196 4294967295
-53.429344 22.810112 -28.891775 4294967295
-53.330379 21.727579 -29.211529 4294967295
-53.330093 21.116562 -29.108637 4294967295
-53.327808 21.422508 -29.138123 4294967295
-53.317856 20.96582 -28.972784 4294967295
-53.312408 22.952885 -29.249516 4294967295
-53.312199 21.578022 -29.021927 4294967295
-53.303787 22.649055 -29.121384 4294967295
-53.298527 20.816183 -28.772757 4294967295
-53.29631 21.275131 -28.82798 4294967295
-53.293972 22.192535 -28.957336 4294967295
-53.28899 22.49909 -28.962414 4294967295
-53.278332 22.806761 -28.916157 4294967295
-53.277885 22.348358 -28.836851 4294967295
-53.168194 20.809422 -28.983906 4294967295
-53.16037 21.727615 -29.063585 4294967295
-53.15921 23.102715 -29.278503 4294967295
-53.155857 22.645124 -29.173105 4294967295
-53.15126 20.965061 -28.856039 4294967295
-53.149136 21.118269 -28.861921 4294967295
-53.144024 21.88335 -28.941048 4294967295
-53.143314 21.272112 -28.834391 4294967295
-53.135826 22.037668 -28.892082 4294967295
-53.133453 21.57954 -28.795506 4294967295
-53.131325 22.191332 -28.876524 4294967295
-53.127975 22.344793 -28.871342 4294967295
-53.125839 23.262129 -29.002386 4294967295
-53.121754 22.804485 -28.890345 4294967295
-53.117126 22.95822 -28.873646 4294967295
-53.01926 21.111349 -29.076666 4294967295
-53.01049 22.335188 -29.197828 4294967295
-53.009392 20.807343 -28.937716 4294967295
-52.996719 22.032145 -29.023729 4294967295
-52.992004 21.268799 -28.856142 4294967295
-52.986568 22.186823 -28.957329 4294967295
-52.984119 20.964376 -28.735031 4294967295
-52.981503 22.646238 -28.98679 4294967295
-52.977619 21.729895 -28.801628 4294967295
-52.970043 23.259737 -28.983654 4294967295
-52.962761 22.955517 -28.868038 4294967295
-52.962578 22.496986 -28.79129 4294967295
-52.956894 23.109518 -28.840237 4294967295
-52.955818 23.415421 -28.880602 4294967295
-52.866535 20.802649 -29.035187 4294967295
-52.850159 20.958183 -28.912975 4294967295
-52.847691 22.486828 -29.140718 4294967295
-52.842026 21.1124 -28.864853 4294967295
-52.840267 22.029779 -28.999035 4294967295
-52.836956 21.418989 -28.86927 4294967295
-52.836891 22.336044 -29.018679 4294967295
-52.829727 22.64303 -29.004282 4294967295
-52.828411 23.254515 -29.092421 4294967295
-52.824799 21.573973 -28.785 4294967295
-52.812675 21.881893 -28.72604 4294967295
-52.808594 23.564127 -28.964369 4294967295
-52.807396 22.800148 -28.828608 4294967295
-52.705235 21.259485 -29.041851 4294967295
-52.701225 20.954477 -28.955927 4294967295
-52.692554 21.720173 -29.003023 4294967295
-52.691483 21.108957 -28.893532 4294967295
-52.690643 22.026173 -29.035791 4294967295
-52.689476 20.803537 -28.825583 4294967295
-52.687023 21.415442 -28.903467 4294967295
-52.675426 23.098755 -29.074087 4294967295
-52.674068 21.570555 -28.812271 4294967295
-52.671883 22.18243 -28.892538 4294967295
-52.667988 23.253038 -29.032375 4294967295
-52.665985 22.489241 -28.88958 4294967295
-52.663551 22.948252 -28.942671 4294967295
-52.656372 23.713844 -29.003126 4294967295
-52.645519 23.563225 -28.880894 4294967295
-52.640797 23.41132 -28.813604 4294967295
-52.640579 22.646917 -28.686796 4294967295
-52.538658 22.328634 -29.10125 4294967295
-52.528046 21.719191 -28.906559 4294967295
-52.519993 22.026361 -28.884394 4294967295
-52.519409 21.873592 -28.854237 4294967295
-52.518349 22.485245 -28.944492 4294967295
-52.518002 21.568066 -28.791756 4294967295
-52.515297 22.180086 -28.867313 4294967295
-52.51466 21.109905 -28.687002 4294967295
-52.510128 23.709511 -29.070438 4294967295
-52.50967 21.416595 -28.692265 4294967295
-52.508045 22.640045 -28.877274 4294967295
-52.506447 22.946075 -28.912857 4294967295
-52.486759 23.255678 -28.786638 4294967295
-52.482742 23.56225 -28.800596 4294967295
-52.474289 24.022631 -28.79982 4294967295
-52.396091 21.253971 -29.026602 4294967295
-52.382389 22.17342 -29.053728 4294967295
-52.381527 21.103548 -28.871677 4294967295
-52.379025 20.798166 -28.79949 4294967295
-52.368244 23.093061 -29.076872 4294967295
-52.366409 20.953144 -28.711746 4294967295
-52.363491 21.412394 -28.760466 4294967295
-52.361885 22.482903 -28.920509 4294967295
-52.360455 22.024532 -28.833002 4294967295
-52.359974 22.941835 -28.978172 4294967295
-52.356037 21.566593 -28.718828 4294967295
-52.354416 21.719797 -28.729258 4294967295
-52.352486 23.401844 -28.986057 4294967295
-52.345005 22.333147 -28.744923 4294967295
-52.343529 23.556496 -28.93103 4294967295
-52.342819 22.792263 -28.800138 4294967295
-52.339909 23.251486 -28.848923 4294967295
-52.3311 24.017628 -28.894852 4294967295
-52.317886 23.867495 -28.752028 4294967295
-52.315311 24.17382 -28.778893 4294967295
-52.232986 21.099768 -28.918339 4294967295
-52.227051 20.794949 -28.815691 4294967295
-52.225212 21.253956 -28.873978 4294967295
-52.224991 21.865509 -28.971512 4294967295
-52.221359 22.019022 -28.964052 4294967295
-52.218433 22.172415 -28.962856 4294967295
-52.217213 20.949469 -28.752939 4294967295
-52.211391 21.715023 -28.825497 4294967295
-52.210411 21.409372 -28.766993 4294967295
-52.20715 22.633102 -28.93701 4294967295
-52.203526 23.398075 -29.029099 4294967295
-52.202999 21.563568 -28.725859 4294967295
-52.19664 22.329287 -28.79365 4294967295
-52.192879 23.09446 -28.88455 4294967295
-52.186447 22.789915 -28.777523 4294967295
-52.180862 24.014103 -28.926844 4294967295
-52.18013 24.319965 -28.970074 4294967295
-52.179638 23.708616 -28.866165 4294967295
-52.167423 23.252357 -28.682789 4294967295
-52.164043 22.947142 -28.602909 4294967295
-52.156418 23.86628 -28.684353 4294967295
-52.071335 20.945253 -28.823524 4294967295
-52.058666 21.864853 -28.860067 4294967295
-52.057823 21.253338 -28.753153 4294967295
-52.057079 21.100529 -28.721661 4294967295
-52.056652 20.794704 -28.668146 4294967295
-52.054565 22.018484 -28.848465 4294967295
-52.051098 21.407412 -28.71822 4294967295
-52.050205 22.630854 -28.909126 4294967295
-52.049088 22.783945 -28.924053 4294967295
-52.045818 22.937449 -28.919855 4294967295
-52.04549 22.325939 -28.817543 4294967295
-52.036674 21.715792 -28.639763 4294967295
-52.032677 21.563522 -28.579369 4294967295
-52.0289 23.552309 -28.868944 4294967295
-52.016861 22.178221 -28.538265 4294967295
-52.01664 24.013487 -28.834578 4294967295
-52.016533 23.096024 -28.684515 4294967295
-52.01474 24.31966 -28.867409 4294967295
-52.009754 23.250292 -28.649143 4294967295
-52.008751 23.403431 -28.665102 4294967295
-52.002342 24.16938 -28.732449 4294967295
-51.996418 24.476471 -28.72953 4294967295
-51.915833 21.554258 -28.907906 4294967295
-51.895267 21.40485 -28.700686 4294967295
-51.895172 20.793007 -28.600502 4294967295
-51.894196 21.252075 -28.666342 4294967295
-51.893372 20.946276 -28.609364 4294967295
-51.89024 22.782064 -28.879541 4294967295
-51.887573 22.629665 -28.831078 4294967295
-51.878742 22.478388 -28.727962 4294967295
-51.871735 22.326731 -28.64102 4294967295
-51.869324 22.938974 -28.718952 4294967295
-51.867836 22.174473 -28.581623 4294967295
-51.863583 24.163433 -28.866671 4294967295
-51.862335 23.399137 -28.731482 4294967295
-51.858681 24.011557 -28.798395 4294967295
-51.85569 24.317993 -28.821533 4294967295
-51.855263 23.859344 -28.74329 4294967295
-51.85408 23.247826 -28.633478 4294967295
-51.853565 23.094967 -28.604082 4294967295
-51.849812 24.472149 -28.794273 4294967295
-51.822544 24.630953 -28.57748 4294967295
-51.753162 21.09408 -28.755222 4294967295
-51.739029 20.790443 -28.580521 4294967295
-51.737194 21.402664 -28.663494 4294967295
-51.733479 22.626867 -28.829048 4294967295
-51.732109 23.39164 -28.940878 4294967295
-51.732059 21.709476 -28.667694 4294967295
-51.731873 22.168371 -28.740437 4294967295
-51.726292 21.557499 -28.59185 4294967295
-51.724335 22.322687 -28.698568 4294967295
-51.716366 22.783022 -28.702477 4294967295
-51.715527 21.865349 -28.546209 4294967295
-51.713997 23.089363 -28.731094 4294967295
-51.713089 23.242477 -28.747887 4294967295
-51.711857 23.85441 -28.836149 4294967295
-51.700054 24.468506 -28.830967 4294967295
-51.699989 23.703901 -28.706415 4294967295
-51.696598 22.939753 -28.552404 4294967295
-51.695541 24.316551 -28.766273 4294967295
-51.695263 24.928246 -28.86297 4294967295
-51.689384 23.55308 -28.587841 4294967295
-51.682991 24.013288 -28.605694 4294967295
-51.680202 24.625692 -28.680246 4294967295
-51.676319 24.167645 -28.571514 4294967295
-51.669304 24.781008 -28.608694 4294967295
-51.659988 25.088984 -28.575911 4294967295
-51.604786 21.090265 -28.803675 4294967295
-51.601639 21.243729 -28.800663 4294967295
-51.594769 20.938948 -28.690443 4294967295
-51.589077 20.786884 -28.615412 4294967295
-51.588032 22.622452 -28.903469 4294967295
-51.587475 22.316725 -28.848999 4294967295
-51.58313 21.399796 -28.662014 4294967295
-51.582718 22.929268 -28.906101 4294967295
-51.576885 21.706814 -28.656427 4294967295
-51.57526 23.389423 -28.914543 4294967295
-51.572582 21.554573 -28.593676 4294967295
-51.570293 22.778706 -28.771667 4294967295
-51.569393 22.472979 -28.714178 4294967295
-51.562157 23.544937 -28.823702 4294967295
-51.562126 24.156572 -28.922461 4294967295
-51.559761 22.168789 -28.579613 4294967295
-51.556145 21.863426 -28.498127 4294967295
-51.555851 23.852053 -28.817593 4294967295
-51.552151 24.617365 -28.908749 4294967295
-51.550602 24.311892 -28.845551 4294967295
-51.547607 23.088955 -28.620968 4294967295
-51.542618 23.242901 -28.601723 4294967295
-51.542057 23.701918 -28.671106 4294967295
-51.541725 24.007889 -28.717709 4294967295
-51.532612 24.774504 -28.761137 4294967295
-51.530811 24.469015 -28.695728 4294967295
-51.521645 25.082781 -28.713928 4294967295
-51.443371 20.935623 -28.712442 4294967295
-51.439537 21.242193 -28.72817 4294967295
-51.439285 20.783298 -28.651711 4294967295
-51.43597 21.395758 -28.721483 4294967295
-51.433594 21.090199 -28.65106 4294967295
-51.425617 21.856443 -28.704535 4294967295
-51.424767 21.550636 -28.647543 4294967295
-51.423523 22.468649 -28.785055 4294967295
-51.420692 22.316216 -28.735373 4294967295
-51.41927 23.692841 -28.94548 4294967295
-51.415997 22.164097 -28.669287 4294967295
-51.407612 23.542265 -28.8181 4294967295
-51.403587 24.001852 -28.856878 4294967295
-51.398331 24.155861 -28.835352 4294967295
-51.396389 23.085606 -28.645061 4294967295
-51.394379 23.391939 -28.676851 4294967295
-51.394028 24.309685 -28.822199 4294967295
-51.393707 24.615587 -28.868845 4294967295
-51.389374 24.463594 -28.805979 4294967295
-51.3857 22.781652 -28.501427 4294967295
-51.375805 24.772379 -28.736012 4294967295
-51.374149 23.854931 -28.572969 4294967295
-51.372154 25.07906 -28.75334 4294967295
-51.364159 24.927872 -28.658218 4294967295
-51.357639 25.235237 -28.650349 4294967295
-51.292038 20.932289 -28.735025 4294967295
-51.288406 20.779888 -28.678377 4294967295
-51.278389 22.005356 -28.788074 4294967295
-51.272869 21.700382 -28.690126 4294967295
-51.27063 21.088766 -28.57156 4294967295
-51.26965 21.547947 -28.637121 4294967295
-51.261253 23.079163 -28.810467 4294967295
-51.260723 23.232204 -28.830534 4294967295
-51.259003 23.69133 -28.889519 4294967295
-51.258068 23.538591 -28.856623 4294967295
-51.251167 22.163183 -28.573534 4294967295
-51.245506 22.929211 -28.647396 4294967295
-51.243149 24.612114 -28.8985 4294967295
-51.237659 24.460361 -28.825592 4294967295
-51.236916 22.777836 -28.547192 4294967295
-51.231789 23.849777 -28.675184 4294967295
-51.230953 24.76766 -28.816093 4294967295
-51.226089 22.626833 -28.427324 4294967295
-51.225956 25.227535 -28.846325 4294967295
-51.22401 24.004343 -28.631571 4294967295
-51.219158 24.311312 -28.638359 4294967295
-51.218197 24.158529 -28.605217 4294967295
-51.215145 24.924044 -28.701984 4294967295
-51.215046 23.394123 -28.453947 4294967295
-51.201378 25.385988 -28.655205 4294967295
-51.183262 25.543072 -28.520844 4294967295
-51.146061 20.775122 -28.779928 4294967295
-51.131569 21.389385 -28.751572 4294967295
-51.131462 21.848299 -28.824692 4294967295
-51.122059 20.931959 -28.594072 4294967295
-51.119392 21.544428 -28.66946 4294967295
-51.109924 23.228783 -28.85799 4294967295
-51.106922 22.005581 -28.634195 4294967295
-51.105717 22.158796 -28.648293 4294967295
-51.103252 23.383026 -28.824171 4294967295
-51.10025 21.700714 -28.526287 4294967295
-51.096336 23.843231 -28.837595 4294967295
-51.095318 22.313669 -28.581793 4294967295
-51.093243 22.773064 -28.63768 4294967295
-51.093105 22.62009 -28.611797 4294967295
-51.091511 24.455952 -28.894024 4294967295
-51.083736 23.080864 -28.603735 4294967295
-51.083721 22.927862 -28.578905 4294967295
-51.079689 25.070185 -28.889112 4294967295
-51.075249 24.91823 -28.825529 4294967295
-51.072605 24.306986 -28.703657 4294967295
-51.072372 24.00108 -28.652231 4294967295
-51.059895 25.533398 -28.789719 4294967295
-51.056454 23.545254 -28.438639 4294967295
-51.054745 25.381611 -28.719902 4294967295
-51.05341 24.15799 -28.510715 4294967295
-51.050583 23.699469 -28.411848 4294967295
-51.038048 24.773325 -28.474873 4294967295
-50.957253 20.777729 -28.474487 4294967295
-50.954861 21.237261 -28.527573 4294967295
-50.951763 23.073826 -28.796402 4294967295
-50.947521 23.227606 -28.783943 4294967295
-50.946854 21.697725 -28.531507 4294967295
-50.946388 20.932528 -28.40407 4294967295
-50.946156 22.30994 -28.624041 4294967295
-50.943089 22.157473 -28.572569 4294967295
-50.941658 21.392506 -28.436699 4294967295
-50.940254 22.617035 -28.621758 4294967295
-50.93919 21.086771 -28.365723 4294967295
-50.929264 23.690119 -28.698221 4294967295
-50.92804 24.761087 -28.8601 4294967295
-50.9258 23.8438 -28.692583 4294967295
-50.924149 24.456022 -28.776766 4294967295
-50.922802 23.997393 -28.691025 4294967295
-50.921059 24.15073 -28.700457 4294967295
-50.92057 22.008411 -28.350836 4294967295
-50.916683 23.386602 -28.53887 4294967295
-50.911705 24.917574 -28.741926 4294967295
-50.907223 24.306597 -28.604088 4294967295
-50.895832 25.074022 -28.627798 4294967295
-50.894791 25.839132 -28.741943 4294967295
-50.889545 24.616356 -28.498842 4294967295
-50.881557 25.230179 -28.527649 4294967295
-50.87484 25.690729 -28.542902 4294967295
-50.865974 25.539724 -28.440737 4294967295
-50.819519 20.925251 -28.64122 4294967295
-50.818115 21.384518 -28.702848 4294967295
-50.816013 21.843861 -28.758406 4294967295
-50.810493 21.538807 -28.660927 4294967295
-50.807152 22.151396 -28.730284 4294967295
-50.800545 21.234406 -28.52479 4294967295
-50.799831 21.693642 -28.592466 4294967295
-50.799446 20.7754 -28.441259 4294967295
-50.798603 22.7649 -28.754198 4294967295
-50.788704 22.460726 -28.618498 4294967295
-50.788502 23.072779 -28.715265 4294967295
-50.786339 23.532143 -28.770292 4294967295
-50.77721 24.604723 -28.862991 4294967295
-50.776649 22.309874 -28.488617 4294967295
-50.769638 22.923346 -28.525967 4294967295
-50.768612 22.005169 -28.369158 4294967295
-50.763084 24.148773 -28.665852 4294967295
-50.761505 23.384016 -28.528921 4294967295
-50.760185 22.618998 -28.394188 4294967295
-50.760025 24.914328 -28.762287 4294967295
-50.75872 23.843649 -28.578527 4294967295
-50.755436 23.997335 -28.574497 4294967295
-50.740868 23.234962 -28.324142 4294967295
-50.739689 23.694426 -28.387774 4294967295
-50.734993 24.307619 -28.445374 4294967295
-50.732937 25.379253 -28.599859 4294967295
-50.725708 25.992893 -28.635334 4294967295
-50.721176 25.53491 -28.521917 4294967295
-50.713531 25.689672 -28.479864 4294967295
-50.712406 25.84296 -28.494658 4294967295
-50.709324 26.149725 -28.517044 4294967295
-50.654022 22.148378 -28.737701 4294967295
-50.651653 21.077606 -28.544779 4294967295
-50.650871 21.230783 -28.56258 4294967295
-50.639191 23.375023 -28.805298 4294967295
-50.637318 21.845261 -28.542942 4294967295
-50.63591 22.304625 -28.604507 4294967295
-50.634617 21.539604 -28.470203 4294967295
-50.628059 20.775211 -28.289944 4294967295
-50.627319 24.142241 -28.824932 4294967295
-50.623493 21.694571 -28.397881 4294967295
-50.61676 22.461132 -28.462301 4294967295
-50.615089 22.002199 -28.373903 4294967295
-50.614017 24.756891 -28.807484 4294967295
-50.611786 24.910334 -28.81267 4294967295
-50.609653 22.76857 -28.449629 4294967295
-50.599865 24.300907 -28.6105 4294967295
-50.5994 23.841921 -28.532602 4294967295
-50.596745 23.995497 -28.534096 4294967295
-50.596733 22.617876 -28.312498 4294967295
-50.595707 25.372776 -28.746475 4294967295
-50.592648 22.924833 -28.326126 4294967295
-50.592609 24.455444 -28.571917 4294967295
-50.581329 25.069956 -28.572151 4294967295
-50.575096 25.836403 -28.640879 4294967295
-50.574287 23.69388 -28.289335 4294967295
-50.570229 25.531487 -28.549332 4294967295
-50.5634 25.686062 -28.514492 4294967295
-50.562336 24.614891 -28.332973 4294967295
-50.559227 26.146101 -28.551968 4294967295
-50.550137 25.995186 -28.448256 4294967295
-50.49612 20.768795 -28.482435 4294967295
-50.49577 21.074991 -28.528585 4294967295
-50.485943 22.60708 -28.688976 4294967295
-50.482029 21.689533 -28.507469 4294967295
-50.481701 21.53652 -28.480005 4294967295
-50.480007 20.92444 -28.36694 4294967295
-50.478863 22.455347 -28.602844 4294967295
-50.47102 22.303711 -28.51009 4294967295
-50.467491 21.998192 -28.430248 4294967295
-50.465683 24.294016 -28.78322 4294967295
-50.459435 22.152697 -28.384809 4294967295
-50.457367 21.846853 -28.317635 4294967295
-50.456779 22.765507 -28.460066 4294967295
-50.450134 23.225965 -28.476095 4294967295
-50.45013 23.379026 -28.500645 4294967295
-50.447384 23.838718 -28.550507 4294967295
-50.446487 22.920507 -28.395206 4294967295
-50.44593 25.369104 -28.783617 4294967295
-50.444317 23.533222 -28.474709 4294967295
-50.443642 25.67556 -28.812855 4294967295
-50.439869 25.523438 -28.755531 4294967295
-50.438927 23.993473 -28.501621 4294967295
-50.436611 23.075466 -28.333981 4294967295
-50.433575 24.606762 -28.553425 4294967295
-50.430538 24.454357 -28.502491 4294967295
-50.427711 23.689581 -28.355009 4294967295
-50.411655 24.764482 -28.387596 4294967295
-50.411201 25.223782 -28.457424 4294967295
-50.409214 26.295473 -28.612188 4294967295
-50.408989 25.071203 -28.413626 4294967295
-50.407505 24.918453 -28.376156 4294967295
-50.403873 26.449751 -28.590384 4294967295
-50.402458 25.990997 -28.504379 4294967295
-50.393093 25.840099 -28.398476 4294967295
-50.387489 26.14753 -28.39897 4294967295
-50.333897 21.226425 -28.485147 4294967295
-50.329418 20.920961 -28.39716 4294967295
-50.326275 21.07457 -28.394474 4294967295
-50.32497 22.452467 -28.60417 4294967295
-50.320454 21.381731 -28.393095 4294967295
-50.318935 21.84127 -28.453613 4294967295
-50.312756 22.301601 -28.473669 4294967295
-50.311783 20.77062 -28.219599 4294967295
-50.308113 21.996241 -28.384283 4294967295
-50.305393 22.14982 -28.385258 4294967295
-50.303345 21.690834 -28.293812 4294967295
-50.301392 22.762909 -28.448788 4294967295
-50.301365 24.599382 -28.743162 4294967295
-50.300964 23.528311 -28.567879 4294967295
-50.300728 22.609945 -28.418486 4294967295
-50.296631 21.53883 -28.210993 4294967295
-50.292007 23.376997 -28.465664 4294967295
-50.291126 23.683304 -28.507135 4294967295
-50.289989 23.989643 -28.546366 4294967295
-50.289413 23.071327 -28.394058 4294967295
-50.282146 23.225811 -28.355579 4294967295
-50.278065 22.920357 -28.271059 4294967295
-50.270203 25.524223 -28.620352 4294967295
-50.269588 25.830393 -28.664139 4294967295
-50.259998 24.301933 -28.335505 4294967295
-50.258659 24.149103 -28.299318 4294967295
-50.258186 25.373865 -28.491678 4294967295
-50.257702 25.986141 -28.585686 4294967295
-50.254528 26.139904 -28.58272 4294967295
-50.251873 24.762938 -28.338745 4294967295
-50.248688 26.294302 -28.556658 4294967295
-50.239666 25.071774 -28.282045 4294967295
-50.233456 26.450945 -28.449223 4294967295
-50.226505 26.605663 -28.41357 4294967295
-50.186569 21.375486 -28.568018 4294967295
-50.173035 21.071516 -28.401758 4294967295
-50.171467 22.60256 -28.633501 4294967295
-50.163677 21.685492 -28.418917 4294967295
-50.159489 22.145506 -28.45628 4294967295
-50.158688 22.451818 -28.498381 4294967295
-50.1586 20.920694 -28.252266 4294967295
-50.154881 21.227585 -28.269157 4294967295
-50.153755 21.993408 -28.382118 4294967295
-50.148491 21.534927 -28.262934 4294967295
-50.148327 22.300583 -28.384207 4294967295
-50.146442 23.831688 -28.613173 4294967295
-50.141403 22.914253 -28.422403 4294967295
-50.137863 23.374191 -28.465389 4294967295
-50.135197 21.843483 -28.196943 4294967295
-50.132256 22.762846 -28.318716 4294967295
-50.131779 24.446856 -28.584431 4294967295
-50.130867 24.753128 -28.625561 4294967295
-50.129639 23.681967 -28.44327 4294967295
-50.128597 24.906645 -28.630466 4294967295
-50.123074 24.601732 -28.533655 4294967295
-50.119072 23.071568 -28.253714 4294967295
-50.114529 26.286936 -28.729462 4294967295
-50.113476 25.981169 -28.671324 4294967295
-50.107319 25.370419 -28.520023 4294967295
-50.103313 25.218239 -28.460846 4294967295
-50.100235 23.994064 -28.237974 4294967295
-50.097786 24.300823 -28.265875 4294967295
-50.0951 25.679276 -28.463404 4294967295
-50.093979 26.444794 -28.576326 4294967295
-50.093388 26.138845 -28.522167 4294967295
-50.092449 25.832945 -28.465 4294967295
-50.087883 26.599281 -28.548117 4294967295
-50.082352 25.529057 -28.328642 4294967295
-50.015736 21.069113 -28.374117 4294967295
-50.005928 22.601803 -28.53447 4294967295
-50.001911 20.918175 -28.230177 4294967295
-50.001209 23.214952 -28.591728 4294967295
-49.997086 23.368803 -28.580633 4294967295
-49.995796 22.144321 -28.373478 4294967295
-49.994995 21.838207 -28.31752 4294967295
-49.992821 23.063473 -28.494787 4294967295
-49.992634 22.298 -28.370657 4294967295
-49.9832 21.533894 -28.16663 4294967295
-49.981693 22.759342 -28.349699 4294967295
-49.972588 22.91416 -28.295586 4294967295
-49.967522 23.527628 -28.349897 4294967295
-49.966347 22.455849 -28.168161 4294967295
-49.958664 25.672571 -28.616426 4294967295
-49.958546 25.06039 -28.517443 4294967295
-49.958164 24.448151 -28.416138 4294967295
-49.956074 24.601681 -28.422606 4294967295
-49.953056 23.836733 -28.27405 4294967295
-49.950489 25.980511 -28.594887 4294967295
-49.950321 25.521393 -28.519949 4294967295
-49.947182 23.991047 -28.247829 4294967295
-49.940113 25.217487 -28.382866 4294967295
-49.938473 26.748518 -28.613659 4294967295
-49.933338 26.29059 -28.495899 4294967295
-49.932652 25.372231 -28.343008 4294967295
-49.917259 25.835024 -28.283695 4294967295
-49.880333 21.063196 -28.535448 4294967295
-49.867413 21.371492 -28.473028 4294967295
-49.86031 20.913263 -28.338356 4294967295
-49.859348 21.219692 -28.379044 4294967295
-49.853165 21.680098 -28.399193 4294967295
-49.851295 21.986652 -28.432045 4294967295
-49.849472 21.527586 -28.342871 4294967295
-49.846188 21.83441 -28.363546 4294967295
-49.840183 23.060366 -28.507627 4294967295
-49.838478 23.213774 -28.51741 4294967295
-49.833622 22.602262 -28.377678 4294967295
-49.831566 22.75576 -28.384441 4294967295
-49.830444 23.674578 -28.521612 4294967295
-49.829765 22.143536 -28.271006 4294967295
