# .PCD v0.7 - Point Cloud Data file format
VERSION 0.7
FIELDS x y z rgb
SIZE 4 4 4 4
TYPE F F F U
COUNT 1 1 1 1
WIDTH 1124
HEIGHT 1
VIEWPOINT 0 0 0 1 0 0 0
POINTS 1124
DATA ascii
-4.2439828 116.95625 -23.574759 4294967295
-4.2434883 120.24585 -23.98848 4294967295
-4.2404199 117.1162 -23.575739 4294967295
-4.2396517 115.23653 -23.33362 4294967295
-4.2396359 116.64688 -23.512089 4294967295
-4.2342653 118.06186 -23.662167 4294967295
-4.2219954 119.01319 -23.716234 4294967295
-4.2115779 119.33625 -23.70079 4294967295
-4.2046466 117.77596 -23.465805 4294967295
-4.1987052 117.31131 -23.374857 4294967295
-4.1965671 118.56695 -23.522238 4294967295
-4.1873426 120.76898 -23.751068 4294967295
-4.1797638 119.52282 -23.552361 4294967295
-4.1594806 119.69862 -23.464922 4294967295
-4.1584907 115.79197 -23.836473 4294967295
-4.1545224 114.22923 -23.617298 4294967295
-4.150228 113.91975 -23.554941 4294967295
-4.1437316 116.43185 -23.83773 4294967295
-4.1388249 116.12309 -23.772169 4294967295
-4.1230764 114.72746 -23.510527 4294967295
-4.1135688 115.67611 -23.57922 4294967295
-4.1131334 115.04978 -23.497618 4294967295
-4.1068945 114.8987 -23.444809 4294967295
-4.1061292 118.50244 -23.896631 4294967295
-4.1044579 115.52769 -23.51124 4294967295
-4.1028113 114.43224 -23.363733 4294967295
-4.0981503 118.19663 -23.814854 4294967295
-4.0978832 119.76292 -24.011551 4294967295
-4.0904741 115.38364 -23.417496 4294967295
-4.0788388 118.99776 -23.811916 4294967295
-4.051084 120.7468 -23.883278 4294967295
-4.0417004 116.99531 -23.358025 4294967295
-4.0351615 117.78497 -23.422617 4294967295
-4.0138807 120.62547 -23.667023 4294967295
-3.9957397 119.54568 -23.432472 4294967295
-3.9788918 116.7498 -23.858149 4294967295
-3.9648247 114.09927 -23.4471 4294967295
-3.9258914 115.7014 -23.439754 4294967295
-3.9078848 116.03118 -23.384354 4294967295
-3.9070005 114.46444 -23.18145 4294967295
-3.9061642 120.73287 -23.969536 4294967295
-3.9041848 118.85513 -23.721468 4294967295
-3.9038281 116.34834 -23.402582 4294967295
-3.8996761 117.76256 -23.559015 4294967295
-3.8967717 119.33203 -23.741787 4294967295
-3.8956833 118.07964 -23.577574 4294967295
-3.8953133 120.42992 -23.872719 4294967295
-3.8936346 115.10355 -23.190197 4294967295
-3.886034 118.55867 -23.586105 4294967295
-3.879637 120.13143 -23.750448 4294967295
-3.8715134 119.82574 -23.667994 4294967295
-3.8570607 119.68264 -23.57196 4294967295
-3.8544858 118.74474 -23.439499 4294967295
-3.8467143 118.43849 -23.35887 4294967295
-3.8173423 114.24496 -23.539616 4294967295
-3.8173418 115.02837 -23.638632 4294967295
-3.8021462 115.5121 -23.617937 4294967295
-3.7992907 116.29804 -23.701889 4294967295
-3.7876973 114.89832 -23.462549 4294967295
-3.7800784 115.68874 -23.521421 4294967295
-3.7718978 115.3827 -23.438686 4294967295
-3.7683022 117.57973 -23.696981 4294967295
-3.7675989 113.97583 -23.237713 4294967295
-3.7554843 119.00155 -23.807619 4294967295
-3.7463787 115.87597 -23.363602 4294967295
-3.7385364 116.6668 -23.421314 4294967295
-3.730499 117.30109 -23.458189 4294967295
-3.7100821 116.84954 -23.291174 4294967295
-3.7050974 120.45882 -23.7204 4294967295
-3.6629474 119.87167 -23.419228 4294967295
-3.6546481 116.44097 -23.809166 4294967295
-3.6440454 117.23386 -23.852289 4294967295
-3.6332891 116.61708 -23.716545 4294967295
-3.5967283 116.80711 -23.54393 4294967295
-3.5954623 117.1217 -23.576853 4294967295
-3.5843956 119.63884 -23.835228 4294967295
-3.5689054 118.2431 -23.575665 4294967295
-3.5681837 120.59401 -23.86866 4294967295
-3.5595047 115.90043 -23.229227 4294967295
-3.5579495 118.40996 -23.537819 4294967295
-3.5535223 120.29451 -23.751995 4294967295
-3.5531435 119.51141 -23.65107 4294967295
-3.5501699 119.20078 -23.595852 4294967295
-3.5355031 118.90099 -23.479116 4294967295
-3.5187047 119.85712 -23.50952 4294967295
-3.5131147 113.91785 -23.596376 4294967295
-3.48493 115.19659 -23.606457 4294967295
-3.4806302 115.51385 -23.623419 4294967295
-3.4778028 114.26266 -23.450274 4294967295
-3.4664721 114.58624 -23.430275 4294967295
-3.4639735 115.84229 -23.575428 4294967295
-3.4586344 116.47395 -23.626493 4294967295
-3.4523423 116.00952 -23.534075 4294967295
-3.4467597 117.11157 -23.643209 4294967295
-3.430769 116.34254 -23.460257 4294967295
-3.4236934 115.40837 -23.304331 4294967295
-3.4213014 116.66463 -23.450071 4294967295
-3.417949 117.76483 -23.570944 4294967295
-3.403096 116.21087 -23.295021 4294967295
-3.3655024 118.28341 -23.354742 4294967295
-3.3615425 120.48163 -23.610912 4294967295
-3.3285556 120.04238 -23.378328 4294967295
-3.3141384 114.57952 -23.47752 4294967295
-3.2919767 118.3605 -23.835682 4294967295
-3.2904401 114.75742 -23.372875 4294967295
-3.2740386 115.08562 -23.326326 4294967295
-3.2714996 117.43916 -23.60964 4294967295
-3.271163 119.31981 -23.84507 4294967295
-3.2598805 116.97958 -23.489349 4294967295
-3.2346106 116.37546 -23.277613 4294967295
-3.2316425 119.51334 -23.657537 4294967295
-3.2307487 118.57378 -23.534227 4294967295
-3.2267318 119.20446 -23.592239 4294967295
-3.2253118 116.85429 -23.288155 4294967295
-3.2215216 118.11203 -23.426497 4294967295
-3.2159073 119.99821 -23.63431 4294967295
-3.2107012 117.33803 -23.270824 4294967295
-3.2047579 120.1654 -23.595606 4294967295
-3.1817386 118.93272 -23.316669 4294967295
-3.1759076 114.09008 -23.539368 4294967295
-3.1667547 119.88747 -23.356741 4294967295
-3.1529851 116.30463 -23.695862 4294967295
-3.1506205 114.42601 -23.446306 4294967295
-3.1255999 113.97787 -23.255793 4294967295
-3.1251712 118.21035 -23.787184 4294967295
-3.1244831 116.95734 -23.625519 4294967295
-3.1239114 115.70395 -23.464415 4294967295
-3.1215646 113.82464 -23.214855 4294967295
-3.1211901 116.64688 -23.568739 4294967295
-3.1149373 114.92812 -23.318521 4294967295
-3.1137097 117.75078 -23.66786 4294967295
-3.1064932 115.40605 -23.333569 4294967295
-3.1030478 115.09554 -23.275961 4294967295
-3.0978949 117.13831 -23.505941 4294967295
-3.0844982 116.20982 -23.317123 4294967295
-3.0772624 115.90273 -23.239651 4294967295
-3.0702972 117.94736 -23.460148 4294967295
-3.0510192 120.62996 -23.695091 4294967295
-3.0501556 118.593 -23.43368 4294967295
-3.0308549 119.55158 -23.45116 4294967295
-3.0085545 120.51313 -23.452944 4294967295
-3.0009596 115.51406 -23.645813 4294967295
-2.9596326 117.58884 -23.686249 4294967295
-2.9290316 118.87077 -23.684118 4294967295
-2.918165 117.15642 -23.409985 4294967295
-2.9181561 113.86297 -22.994873 4294967295
-2.9107482 120.76839 -23.825418 4294967295
-2.8960407 120.6255 -23.72876 4294967295
-2.8947692 119.99976 -23.643124 4294967295
-2.8862777 117.81273 -23.322149 4294967295
-2.8852887 119.06802 -23.475027 4294967295
-2.8583655 120.19056 -23.472473 4294967295
-2.8563128 114.08993 -23.555416 4294967295
-2.8517778 119.88313 -23.398506 4294967295
-2.8258333 115.52776 -23.573744 4294967295
-2.8246837 114.27467 -23.409763 4294967295
-2.8197317 114.43584 -23.403618 4294967295
-2.8186264 116.94485 -23.713734 4294967295
-2.8182092 115.0643 -23.474649 4294967295
-2.8171468 114.90848 -23.449347 4294967295
-2.8080285 115.70048 -23.500406 4294967295
-2.8004973 113.66879 -23.204268 4294967295
-2.7928174 116.65477 -23.53936 4294967295
-2.7909276 115.40224 -23.37151 4294967295
-2.7894092 117.12813 -23.580774 4294967295
-2.7831774 119.01463 -23.785063 4294967295
-2.7791207 116.19681 -23.408529 4294967295
-2.7670932 116.83485 -23.424652 4294967295
-2.7644315 117.62118 -23.509468 4294967295
-2.7627904 116.36834 -23.342918 4294967295
-2.7600517 117.93873 -23.526068 4294967295
-2.7579944 115.27486 -23.179577 4294967295
-2.7557092 115.90426 -23.246647 4294967295
-2.7490909 118.26233 -23.50828 4294967295
-2.7437832 117.32642 -23.36207 4294967295
-2.7422805 118.42537 -23.492439 4294967295
-2.7404318 119.3677 -23.601231 4294967295
-2.7387319 114.66454 -22.999825 4294967295
-2.7251298 118.59795 -23.422575 4294967295
-2.7146702 117.50978 -23.229675 4294967295
-2.6864092 118.16304 -23.161009 4294967295
-2.6068645 114.16898 -23.095345 4294967295
-2.6044228 114.328 -23.102343 4294967295
-2.6031775 118.56308 -23.628794 4294967295
-2.5869317 115.12788 -23.109751 4294967295
-2.5601768 119.85702 -23.5623 4294967295
-2.5535731 119.39277 -23.468655 4294967295
-2.5514441 117.0422 -23.161455 4294967295
-2.5514231 119.23796 -23.437704 4294967295
-2.5473576 120.33932 -23.554625 4294967295
-2.5462999 116.41933 -23.055616 4294967295
-2.5317168 117.21698 -23.078239 4294967295
-2.5260835 120.20238 -23.423929 4294967295
-2.5215144 114.73022 -23.571308 4294967295
-2.5185595 119.58206 -23.305735 4294967295
-2.5065875 114.58668 -23.473745 4294967295
-2.504952 114.27454 -23.42576 4294967295
-2.4998617 116.00361 -23.616194 4294967295
-2.4780655 115.86639 -23.48284 4294967295
-2.4738355 113.67463 -23.184546 4294967295
-2.4617865 116.66498 -23.496605 4294967295
-2.4601121 115.41202 -23.330053 4294967295
-2.4588435 114.47211 -23.205038 4294967295
-2.4554837 117.61138 -23.582092 4294967295
-2.4499602 116.36203 -23.395506 4294967295
-2.4482708 116.83398 -23.445881 4294967295
-2.4482226 115.7363 -23.307528 4294967295
-2.437721 114.02012 -23.035667 4294967295
-2.4376314 118.88188 -23.646824 4294967295
-2.4355049 119.0406 -23.655462 4294967295
-2.4302611 118.10475 -23.509817 4294967295
-2.4162371 117.96077 -23.417011 4294967295
-2.4120641 118.27821 -23.434717 4294967295
-2.4095533 118.43733 -23.44136 4294967295
-2.4023745 120.48225 -23.660336 4294967295
-2.3683274 119.88679 -23.404102 4294967295
-2.3588662 118.79758 -23.216711 4294967295
-2.3539679 120.68432 -23.427933 4294967295
-2.3271179 116.64223 -23.636003 4294967295
-2.300952 113.68589 -23.125088 4294967295
-2.2976704 117.92307 -23.640415 4294967295
-2.2969444 117.13983 -23.53808 4294967295
-2.2947826 114.94626 -23.250769 4294967295
-2.2849298 115.26872 -23.238913 4294967295
-2.2817917 116.21261 -23.340906 4294967295
-2.2578318 117.48892 -23.37394 4294967295
-2.2407489 115.15111 -22.989134 4294967295
-2.2271247 116.10477 -23.036585 4294967295
-2.2221501 115.9523 -22.990955 4294967295
-2.2198434 116.42513 -23.038137 4294967295
-2.2176874 120.34869 -23.51993 4294967295
-2.2169063 117.68298 -23.180664 4294967295
-2.2102258 119.25777 -23.343111 4294967295
-2.209352 119.88596 -23.417431 4294967295
-2.2026906 120.67632 -23.48135 4294967295
-2.1989188 118.17004 -23.146227 4294967295
-2.1950233 118.64429 -23.185129 4294967295
-2.1947811 120.21319 -23.381065 4294967295
-2.1868193 114.11615 -23.430593 4294967295
-2.1725364 113.81503 -23.316885 4294967295
-2.1514344 114.77467 -23.325411 4294967295
-2.1437063 114.62464 -23.265507 4294967295
-2.143393 115.25232 -23.342728 4294967295
-2.1407268 116.66611 -23.506233 4294967295
-2.1403191 115.72556 -23.385874 4294967295
-2.1352346 117.76865 -23.615602 4294967295
-2.1239605 117.15167 -23.478193 4294967295
-2.1122932 116.37801 -23.319006 4294967295
-2.1073987 116.06868 -23.254137 4294967295
-2.1063361 114.50074 -23.051443 4294967295
-2.1062827 114.03004 -22.992001 4294967295
-2.1042163 119.36491 -23.651409 4294967295
-2.1017656 115.60308 -23.165705 4294967295
-2.0971291 119.05785 -23.575188 4294967295
-2.0900686 113.73037 -22.868216 4294967295
-2.0898452 118.90774 -23.517639 4294967295
-2.0850093 117.34376 -23.295443 4294967295
-2.0761147 119.70447 -23.544811 4294967295
-2.0663517 115.16382 -22.922401 4294967295
-2.0588281 117.05367 -23.11993 4294967295
-2.0529044 116.27439 -22.990541 4294967295
-2.0524781 117.68703 -23.165787 4294967295
-2.0215218 118.81361 -23.142916 4294967295
-2.0201952 119.59933 -23.234589 4294967295
-2.0169396 114.90895 -23.485273 4294967295
-1.9662554 117.46331 -23.537247 4294967295
-1.9337915 117.02213 -23.309645 4294967295
-1.9013051 116.89451 -23.121304 4294967295
-1.8748144 119.74277 -23.338467 4294967295
-1.8746119 119.11543 -23.258617 4294967295
-1.8726138 117.70506 -23.070911 4294967295
-1.8693264 119.59096 -23.290295 4294967295
-1.8663523 118.96611 -23.196058 4294967295
-1.8657439 118.49593 -23.133789 4294967295
-1.8548166 120.07504 -23.274115 4294967295
-1.8411006 114.92297 -23.410709 4294967295
-1.8394853 114.6107 -23.362953 4294967295
-1.8320453 120.40998 -23.195387 4294967295
-1.8236655 115.40894 -23.379362 4294967295
-1.8101399 116.98942 -23.506105 4294967295
-1.8086902 116.52022 -23.439533 4294967295
-1.8061521 116.2088 -23.386999 4294967295
-1.8030082 115.27039 -23.25255 4294967295
-1.7972807 113.8633 -23.045565 4294967295
-1.7940898 117.31756 -23.462275 4294967295
-1.7903203 116.85041 -23.383675 4294967295
-1.7899349 118.10548 -23.53916 4294967295
-1.7877856 114.18546 -23.035717 4294967295
-1.770465 117.65263 -23.379192 4294967295
-1.7583246 114.36826 -22.902611 4294967295
-1.748417 117.98637 -23.304293 4294967295
-1.7442826 115.95023 -23.026821 4294967295
-1.7402883 115.169 -22.907595 4294967295
-1.7271216 117.22111 -23.095442 4294967295
-1.6853627 118.98537 -23.095676 4294967295
-1.6761357 115.71156 -23.491135 4294967295
-1.6692674 114.14904 -23.25876 4294967295
-1.6226768 117.79847 -23.470152 4294967295
-1.6166091 115.92138 -23.202578 4294967295
-1.596205 118.29308 -23.392166 4294967295
-1.5866609 115.63414 -23.008123 4294967295
-1.579028 117.21035 -23.165487 4294967295
-1.5780069 114.69994 -22.845139 4294967295
-1.5538421 116.13424 -22.897263 4294967295
-1.5460224 118.6526 -23.171812 4294967295
-1.5402071 120.54085 -23.377886 4294967295
-1.5386784 116.93273 -22.917221 4294967295
-1.5238681 113.66557 -23.283209 4294967295
-1.5198158 118.51955 -23.016497 4294967295
-1.5192187 119.14793 -23.092157 4294967295
-1.5183119 119.93348 -23.185888 4294967295
-1.5013051 115.72475 -23.422234 4294967295
-1.4980654 114.31568 -23.228432 4294967295
-1.4918251 116.36062 -23.451883 4294967295
-1.4859234 114.1694 -23.145947 4294967295
-1.4835466 114.64223 -23.192684 4294967295
-1.4748071 113.86523 -23.049082 4294967295
-1.4679147 114.49902 -23.092152 4294967295
-1.4556807 117.17735 -23.363352 4294967295
-1.4555401 118.1187 -23.480627 4294967295
-1.4517215 116.0826 -23.205177 4294967295
-1.4455699 114.04771 -22.917517 4294967295
-1.4440484 114.99084 -23.027748 4294967295
-1.438828 116.72178 -23.217209 4294967295
-1.4249066 114.85072 -22.909061 4294967295
-1.4210745 116.26684 -23.066385 4294967295
-1.4176073 119.56511 -23.461571 4294967295
-1.413604 119.25503 -23.401554 4294967295
-1.409989 115.33485 -22.890965 4294967295
-1.4093388 117.06209 -23.104099 4294967295
-1.4085145 118.31828 -23.257235 4294967295
-1.4080606 118.94632 -23.33357 4294967295
-1.4002807 117.54108 -23.116304 4294967295
-1.3992627 120.05263 -23.425779 4294967295
-1.3915992 117.86282 -23.110781 4294967295
-1.3272246 115.42344 -23.31815 4294967295
-1.3206322 115.11546 -23.244774 4294967295
-1.2856153 117.81397 -23.398205 4294967295
-1.2824137 115.77694 -23.126059 4294967295
-1.2763658 117.35162 -23.291477 4294967295
-1.2684864 119.24145 -23.4867 4294967295
-1.2095568 120.237 -23.300556 4294967295
-1.1633852 119.80865 -23.003323 4294967295
-1.1619661 114.17264 -23.141911 4294967295
-1.1593508 114.95959 -23.226706 4294967295
-1.1509047 114.33924 -23.104506 4294967295
-1.1450542 114.03042 -23.035002 4294967295
-1.1304036 117.18208 -23.352564 4294967295
-1.1130524 115.15725 -23.007557 4294967295
-1.1117873 114.6874 -22.942041 4294967295
-1.1034112 119.08926 -23.449196 4294967295
-1.0874573 118.94691 -23.347324 4294967295
-1.0853204 115.33867 -22.884184 4294967295
-1.0849128 116.43802 -23.019726 4294967295
-1.0842248 115.81066 -22.937529 4294967295
-1.0815583 118.63843 -23.277618 4294967295
-1.0801669 116.91319 -23.054235 4294967295
-1.0760752 117.38779 -23.092115 4294967295
-1.0749136 118.33058 -23.204063 4294967295
-1.0718085 119.43195 -23.325621 4294967295
-1.0636388 116.29995 -22.89036 4294967295
-1.0633202 118.18413 -23.124647 4294967295
-1.0572667 117.87565 -23.054127 4294967295
-1.0479769 118.82592 -23.124186 4294967295
-1.0456707 119.92673 -23.249878 4294967295
-1.0381869 116.16553 -22.739441 4294967295
-1.0365384 117.10925 -22.848949 4294967295
-1.0361023 120.40637 -23.259527 4294967295
-1.0268496 119.31612 -23.074268 4294967295
-1.0012608 113.70226 -23.087629 4294967295
-0.99466181 116.68967 -23.426886 4294967295
-0.99087727 120.76212 -23.065821 4294967295
-0.98679602 120.13787 -22.966158 4294967295
-0.98176873 117.32877 -23.439049 4294967295
-0.95944458 115.93634 -23.147312 4294967295
-0.92133927 114.39979 -22.754488 4294967295
-0.91034681 120.68861 -23.483791 4294967295
-0.89675188 115.36366 -22.745798 4294967295
-0.8799274 118.67619 -23.071909 4294967295
-0.86285388 118.53468 -22.964375 4294967295
-0.86180961 120.26258 -23.175125 4294967295
-0.85991663 120.57827 -23.204672 4294967295
-0.85377079 119.01398 -22.976576 4294967295
-0.8436591 119.33723 -22.963835 4294967295
-0.8416087 114.01574 -23.137093 4294967295
-0.83535969 114.9629 -23.222773 4294967295
-0.83380222 119.81731 -22.972059 4294967295
-0.81073242 120.46664 -22.931948 4294967295
-0.80233997 113.89283 -22.915401 4294967295
-0.79995573 116.40665 -23.217394 4294967295
-0.79499203 117.82352 -23.368561 4294967295
-0.7892102 117.20098 -23.260307 4294967295
-0.78900892 115.31751 -23.023619 4294967295
-0.78437209 116.10654 -23.097973 4294967295
-0.78024101 114.69716 -22.899937 4294967295
-0.77957451 118.15127 -23.328558 4294967295
-0.77332532 118.78464 -23.374952 4294967295
-0.77221859 114.3901 -22.819368 4294967295
-0.76754242 114.23712 -22.77566 4294967295
-0.76560229 115.80915 -22.962152 4294967295
-0.76399648 116.59559 -23.052105 4294967295
-0.76101238 118.48193 -23.272398 4294967295
-0.75505167 114.56211 -22.750698 4294967295
-0.74170458 119.28422 -23.271311 4294967295
-0.72716039 115.2148 -22.685825 4294967295
-0.72338891 116.78875 -22.862925 4294967295
-0.72107548 119.77395 -23.224184 4294967295
-0.71126437 119.62595 -23.154127 4294967295
-0.70716709 117.11732 -22.818802 4294967295
-0.70530492 117.4331 -22.84852 4294967295
-0.69721729 118.06855 -22.885521 4294967295
-0.68725121 119.49088 -23.011072 4294967295
-0.67420483 120.75896 -23.101131 4294967295
-0.65148067 115.92549 -23.226276 4294967295
-0.64340508 114.20574 -22.968855 4294967295
-0.61533958 115.01531 -22.922842 4294967295
-0.57198173 117.88011 -23.053555 4294967295
-0.5625701 120.71431 -23.35848 4294967295
-0.55623013 115.38125 -22.658468 4294967295
-0.55018818 116.3291 -22.745289 4294967295
-0.54745358 116.17444 -22.711603 4294967295
-0.5250988 119.96382 -23.068068 4294967295
-0.51769328 118.71426 -22.873003 4294967295
-0.51597822 119.34402 -22.942734 4294967295
-0.50285017 120.61235 -23.032404 4294967295
-0.49703869 119.6754 -22.884789 4294967295
-0.49494609 114.19553 -23.036812 4294967295
-0.48577791 115.45948 -23.146742 4294967295
-0.4821206 114.36368 -22.990627 4294967295
-0.4801921 114.8364 -23.039602 4294967295
-0.4748064 114.99811 -23.031593 4294967295
-0.45920151 113.75537 -22.794508 4294967295
-0.44789979 117.37683 -23.187878 4294967295
-0.44560999 115.96584 -22.999557 4294967295
-0.4442468 116.28108 -23.031811 4294967295
-0.44331741 115.65379 -22.948549 4294967295
-0.43768239 118.32786 -23.253178 4294967295
-0.43441311 117.70287 -23.157953 4294967295
-0.42553169 118.65278 -23.23011 4294967295
-0.42467839 120.0662 -23.402235 4294967295
-0.42082551 115.20236 -22.774282 4294967295
-0.41974789 114.57496 -22.690224 4294967295
-0.4179059 116.93255 -22.975204 4294967295
-0.41738981 115.36245 -22.776287 4294967295
-0.40935189 118.03938 -23.068689 4294967295
-0.3925665 119.78163 -23.198429 4294967295
-0.38919929 117.58634 -22.90649 4294967295
-0.3857491 117.11823 -22.829918 4294967295
-0.3828932 116.80661 -22.776014 4294967295
-0.3794654 120.4216 -23.20974 4294967295
-0.3527042 117.30478 -22.680086 4294967295
-0.344928 118.56856 -22.797256 4294967295
-0.33336151 115.13872 -23.155073 4294967295
-0.3245022 115.77443 -23.18812 4294967295
-0.31235731 116.41307 -23.204338 4294967295
-0.31213069 119.69798 -22.766525 4294967295
-0.3054426 115.47717 -23.05126 4294967295
-0.29791859 117.2108 -23.228416 4294967295
-0.2724005 114.09243 -22.705395 4294967295
-0.26965961 114.72317 -22.769844 4294967295
-0.26002181 119.59956 -23.32843 4294967295
-0.19885071 120.12639 -23.074137 4294967295
-0.1978313 119.02796 -22.931641 4294967295
-0.1961703 118.87239 -22.903522 4294967295
-0.1944706 120.28743 -23.071327 4294967295
-0.19209389 118.40483 -22.823803 4294967295
-0.1838486 120.61125 -23.056181 4294967295
-0.13678659 116.89771 -23.192268 4294967295
-0.1319585 115.17471 -22.951952 4294967295
-0.1265405 117.53481 -23.218252 4294967295
-0.1259739 114.23751 -22.803679 4294967295
-0.11633 116.44477 -23.028833 4294967295
-0.1122752 115.82015 -22.929674 4294967295
-0.111386 118.64734 -23.277922 4294967295
-0.1107427 117.23487 -23.098263 4294967295
-0.1090185 114.09507 -22.697294 4294967295
-0.1083353 114.72407 -22.772253 4294967295
-0.093924798 115.99335 -22.855406 4294967295
-0.089449599 115.36891 -22.754068 4294967295
-0.0788581 118.04852 -23.033209 4294967295
-0.075710401 117.42312 -22.9387 4294967295
-0.0747637 119.62247 -23.208258 4294967295
-0.073498398 115.06861 -22.633226 4294967295
-0.070207097 116.32841 -22.773296 4294967295
-0.0577094 115.71094 -22.630909 4294967295
-0.0555747 119.79696 -23.129763 4294967295
-0.053262401 116.18624 -22.667004 4294967295
-0.053132702 117.75742 -22.862448 4294967295
-0.038930599 120.75434 -23.162268 4294967295
-0.026056301 117.93874 -22.743591 4294967295
-0.0134342 119.99242 -22.933952 4294967295
0.0018978 119.37797 -22.777151 4294967295
0.033890299 120.34985 -22.731268 4294967295
0.0486372 115.5066 -22.89497 4294967295
0.055973899 118.96786 -23.28849 4294967295
0.0618091 114.41837 -22.690453 4294967295
0.095156498 116.96133 -22.833708 4294967295
0.1043096 118.6974 -23.002516 4294967295
0.1430683 118.57517 -22.785011 4294967295
0.1468918 118.10722 -22.706684 4294967295
0.1558257 120.31489 -22.935442 4294967295
0.1704233 113.74539 -22.883743 4294967295
0.1726642 118.91609 -22.673094 4294967295
0.1764757 120.64797 -22.869226 4294967295
0.1919896 120.03363 -22.711643 4294967295
0.1941517 114.23708 -22.821405 4294967295
0.1948203 115.65136 -22.994289 4294967295
0.20654459 114.87618 -22.836523 4294967295
0.2077127 114.563 -22.791378 4294967295
0.2115245 117.70767 -23.163639 4294967295
0.2121608 114.0955 -22.709896 4294967295
0.21763369 114.41447 -22.721153 4294967295
0.23339871 118.35536 -23.130396 4294967295
0.2381359 116.31767 -22.851641 4294967295
0.2551986 117.43243 -22.901718 4294967295
0.2582424 118.22057 -22.984119 4294967295
0.2718747 115.56158 -22.581533 4294967295
0.27236101 115.24767 -22.539852 4294967295
0.2781373 116.98143 -22.725943 4294967295
0.27987909 117.92572 -22.834602 4294967295
0.28155169 119.96935 -23.080667 4294967295
0.28374499 118.8718 -22.932409 4294967295
0.2839205 117.61508 -22.774811 4294967295
0.28599781 115.88828 -22.54867 4294967295
0.28616449 116.51708 -22.626209 4294967295
0.291875 117.15074 -22.675461 4294967295
0.29391289 119.19516 -22.919733 4294967295
0.33395049 119.07417 -22.695997 4294967295
0.35339379 119.40604 -22.636047 4294967295
0.37710419 115.5135 -22.870342 4294967295
0.38112891 116.61664 -22.986877 4294967295
0.39382279 117.25616 -23.000511 4294967295
0.40837631 114.75502 -22.613058 4294967295
0.4094981 116.95586 -22.881508 4294967295
0.44843721 119.6613 -23.015976 4294967295
0.466515 120.77733 -23.060942 4294967295
0.48049721 120.1617 -22.911472 4294967295
0.48405531 119.22215 -22.775888 4294967295
0.49165991 120.64322 -22.91337 4294967295
0.4918603 118.44337 -22.638227 4294967295
0.4934856 118.91634 -22.688704 4294967295
0.50141472 114.22554 -22.904823 4294967295
0.5198456 120.51182 -22.750311 4294967295
0.52065152 114.87053 -22.885191 4294967295
0.53851312 117.55652 -23.126919 4294967295
0.53868812 117.08549 -23.067343 4294967295
0.5407474 113.94509 -22.665459 4294967295
0.54276907 114.10398 -22.674744 4294967295
0.54747629 114.73662 -22.72909 4294967295
0.5503788 115.68192 -22.831757 4294967295
0.55146861 116.15421 -22.884922 4294967295
0.56144792 118.51931 -23.127626 4294967295
0.5625031 115.53535 -22.750486 4294967295
0.56290293 117.42108 -22.983286 4294967295
0.56295902 115.85002 -22.787313 4294967295
0.56807649 115.06876 -22.663397 4294967295
0.56830889 114.59746 -22.603479 4294967295
0.58937567 116.81602 -22.770336 4294967295
0.59071451 117.91709 -22.900517 4294967295
0.5935697 120.27593 -23.179434 4294967295
0.60100728 119.49732 -23.043818 4294967295
0.60220242 119.18422 -22.998615 4294967295
0.60905182 116.36184 -22.611502 4294967295
0.61000532 117.77713 -22.782822 4294967295
0.61241633 118.72208 -22.887976 4294967295
0.61850429 119.82734 -22.993977 4294967295
0.62330937 117.00311 -22.617271 4294967295
0.65724331 118.13353 -22.581696 4294967295
0.66564912 119.71288 -22.734694 4294967295
0.67064738 115.01869 -22.964975 4294967295
0.67909431 114.39757 -22.8438 4294967295
0.68436319 119.41542 -22.600388 4294967295
0.68599731 115.3462 -22.926077 4294967295
0.68724883 120.0468 -22.664015 4294967295
0.70910662 118.03693 -23.141088 4294967295
0.7204138 118.36115 -23.122755 4294967295
0.7331776 116.64435 -22.8428 4294967295
0.74936777 120.58609 -23.249399 4294967295
0.83482683 120.19246 -22.756842 4294967295
0.84467763 119.72982 -22.648132 4294967295
0.85731709 114.72721 -22.799849 4294967295
0.86063808 116.9297 -23.056683 4294967295
0.86497772 114.26234 -22.702293 4294967295
0.8678354 114.57912 -22.7269 4294967295
0.8692053 118.03683 -23.150015 4294967295
0.87139308 117.72462 -23.099833 4294967295
0.88465148 115.69376 -22.778431 4294967295
0.88865989 114.91142 -22.660305 4294967295
0.89063781 115.54181 -22.728495 4294967295
0.89126068 116.48525 -22.842653 4294967295
0.90622461 118.54108 -23.020859 4294967295
0.90634221 116.18415 -22.727015 4294967295
0.90751261 117.12811 -22.838394 4294967295
0.91298962 116.81863 -22.7715 4294967295
0.91831023 114.46535 -22.451107 4294967295
0.93315411 119.35078 -22.981998 4294967295
0.94096547 118.2578 -22.80554 4294967295
0.94286919 117.47365 -22.698114 4294967295
0.94450557 119.98949 -23.002611 4294967295
0.94718802 117.32027 -22.656647 4294967295
0.95438588 119.68417 -22.913416 4294967295
0.96371108 120.16402 -22.92477 4294967295
0.9737215 120.64452 -22.932652 4294967295
0.98473728 117.98235 -22.544382 4294967295
0.99224257 119.56113 -22.701883 4294967295
1.0087415 119.26157 -22.579096 4294967295
1.0185372 120.5281 -22.685871 4294967295
1.0252585 115.20518 -22.827827 4294967295
1.030058 117.40904 -23.077045 4294967295
1.0445215 118.5215 -23.140499 4294967295
1.0722826 120.27433 -23.214722 4294967295
1.0868875 115.10126 -22.495878 4294967295
1.098196 120.76912 -23.142094 4294967295
1.1200391 118.90321 -22.797041 4294967295
1.1513232 118.30231 -22.560385 4294967295
1.1552136 118.46301 -22.560226 4294967295
1.1568055 119.09332 -22.630356 4294967295
1.1595458 118.78133 -22.577379 4294967295
1.1799078 120.68628 -22.708813 4294967295
1.1846594 115.20433 -22.840542 4294967295
1.1857982 114.73384 -22.776173 4294967295
1.1877227 115.83556 -22.903164 4294967295
1.2008049 115.37545 -22.778345 4294967295
1.2021013 115.06223 -22.73271 4294967295
1.2082924 115.69627 -22.779514 4294967295
1.2234478 116.65248 -22.820013 4294967295
1.2284317 117.59979 -22.911982 4294967295
1.2300208 117.75834 -22.92347 4294967295
1.2339371 119.8044 -23.157482 4294967295
1.2362808 116.82089 -22.774603 4294967295
1.2367809 116.19259 -22.693928 4294967295
1.2504331 118.56219 -22.917843 4294967295
1.252313 117.46371 -22.771612 4294967295
1.2546717 119.19456 -22.974512 4294967295
1.2551945 120.29491 -23.10854 4294967295
1.2604463 119.67115 -23.003883 4294967295
1.2617131 119.98656 -23.036526 4294967295
1.2626058 117.31558 -22.699993 4294967295
1.2745996 118.11216 -22.736986 4294967295
1.2957274 120.48875 -22.923086 4294967295
1.3048792 119.55394 -22.759619 4294967295
1.3439598 114.88908 -22.814758 4294967295
1.3540263 116.15503 -22.920053 4294967295
1.3634526 116.63468 -22.930973 4294967295
1.3833597 118.06646 -23.006042 4294967295
1.390996 119.01601 -23.084555 4294967295
1.3987724 116.35117 -22.713409 4294967295
1.4137528 120.76473 -23.184244 4294967295
1.4694045 117.98543 -22.551754 4294967295
1.4963758 120.05362 -22.669378 4294967295
1.4988241 120.68473 -22.735113 4294967295
1.5114185 118.80905 -22.437145 4294967295
1.5271484 115.06584 -22.72699 4294967295
1.5452991 118.22505 -23.025627 4294967295
1.5527481 116.03117 -22.714857 4294967295
1.5532851 115.87443 -22.692627 4294967295
1.5577027 116.34988 -22.728884 4294967295
1.5649699 117.92814 -22.88735 4294967295
1.5671458 117.61571 -22.837345 4294967295
1.5687439 118.71731 -22.965858 4294967295
1.5701535 115.57458 -22.568428 4294967295
1.575907 120.60938 -23.163784 4294967295
1.5801575 119.0418 -22.94729 4294967295
1.5891384 115.27644 -22.433529 4294967295
1.599187 120.00183 -22.968346 4294967295
1.5995661 118.58753 -22.790834 4294967295
1.6043919 120.16368 -22.961601 4294967295
1.6058927 117.4926 -22.622292 4294967295
1.6082304 119.53843 -22.864201 4294967295
1.6116378 117.18315 -22.554255 4294967295
1.6376201 116.73406 -22.364538 4294967295
1.6535567 118.47823 -22.498901 4294967295
1.6557887 119.26655 -22.585251 4294967295
1.6719823 115.05243 -22.813454 4294967295
1.7178667 116.66408 -22.777189 4294967295
1.7571404 118.27065 -22.774311 4294967295
1.779168 118.76184 -22.721834 4294967295
1.7894068 116.56916 -22.397055 4294967295
1.7966844 120.50691 -22.848139 4294967295
1.8030553 117.36758 -22.425848 4294967295
1.8181537 118.16734 -22.447338 4294967295
1.8298948 120.69414 -22.700367 4294967295
1.8528384 115.54159 -22.776867 4294967295
1.8739984 118.23219 -23.00174 4294967295
1.8858832 117.29955 -22.82497 4294967295
1.8868518 116.35709 -22.70311 4294967295
1.8887944 116.20155 -22.67383 4294967295
1.9072788 117.63274 -22.756271 4294967295
1.9100465 117.94962 -22.781336 4294967295
1.9159006 120.15553 -23.024763 4294967295
1.9208328 118.90244 -22.844025 4294967295
1.9223951 119.847 -22.953114 4294967295
1.9233164 115.44503 -22.402487 4294967295
1.9266902 119.06485 -22.834044 4294967295
1.9298421 118.1243 -22.701206 4294967295
1.9348494 115.76958 -22.383434 4294967295
1.9400328 117.03242 -22.513401 4294967295
1.9549178 118.61822 -22.633512 4294967295
1.9791858 119.42612 -22.608904 4294967295
1.9879464 118.80479 -22.486811 4294967295
1.9927223 119.28091 -22.521294 4294967295
1.9993503 118.50027 -22.390411 4294967295
2.0578251 115.73719 -22.580246 4294967295
2.0797906 120.63027 -23.073895 4294967295
2.0942161 116.71236 -22.514246 4294967295
2.1006966 116.08878 -22.403671 4294967295
2.1037269 119.55137 -22.817272 4294967295
2.1238828 119.88386 -22.754972 4294967295
2.1299458 117.21542 -22.393118 4294967295
2.1319823 120.04836 -22.733765 4294967295
2.1538191 118.18031 -22.390114 4294967295
2.1783233 120.24722 -22.520435 4294967295
2.2058125 116.8271 -22.787374 4294967295
2.2086012 115.88607 -22.65649 4294967295
2.2317576 118.26486 -22.832424 4294967295
2.2335401 116.06486 -22.550743 4294967295
2.2362301 117.63985 -22.732063 4294967295
2.2500811 120.48209 -23.013088 4294967295
2.2569871 118.75885 -22.764227 4294967295
2.2603693 116.55996 -22.474487 4294967295
2.2608652 118.44778 -22.705805 4294967295
2.2635481 116.24809 -22.419548 4294967295
2.2673726 119.08255 -22.75106 4294967295
2.2708962 119.40018 -22.772335 4294967295
2.2747118 117.20166 -22.480429 4294967295
2.2748783 116.41521 -22.382147 4294967295
2.2851274 117.05342 -22.408649 4294967295
2.2864785 120.35757 -22.811005 4294967295
2.3082018 117.38823 -22.331789 4294967295
2.3082678 118.01764 -22.409422 4294967295
2.3142622 117.86556 -22.35984 4294967295
2.3384225 118.98828 -22.37501 4294967295
2.353816 120.73269 -22.512129 4294967295
2.409457 119.22353 -22.870935 4294967295
2.4100187 118.12332 -22.731848 4294967295
2.4384403 116.73248 -22.414076 4294967295
2.4735088 120.38148 -22.686232 4294967295
2.4824574 119.44566 -22.524553 4294967295
2.5044372 119.93723 -22.472832 4294967295
2.5144267 119.63145 -22.383816 4294967295
2.5243042 115.8815 -22.6989 4294967295
2.5386662 116.68021 -22.724287 4294967295
2.5433633 116.05518 -22.62291 4294967295
2.543968 117.94283 -22.853416 4294967295
2.5470324 117.15926 -22.74078 4294967295
2.5634885 118.27444 -22.794607 4294967295
2.569777 117.6509 -22.685282 4294967295
2.5708866 117.80914 -22.699188 4294967295
2.5724597 116.55219 -22.535593 4294967295
2.5886068 119.71192 -22.843998 4294967295
2.5920014 120.18669 -22.885376 4294967295
2.5986571 116.26015 -22.365456 4294967295
2.6135192 119.41954 -22.680397 4294967295
2.6207242 119.26864 -22.624872 4294967295
2.6274168 118.95995 -22.552444 4294967295
2.6291165 117.5454 -22.368713 4294967295
2.645818 117.08783 -22.226662 4294967295
2.6527798 120.39836 -22.600691 4294967295
2.6644769 118.83534 -22.347469 4294967295
2.6708653 118.21144 -22.237591 4294967295
2.6758699 118.53062 -22.25149 4294967295
2.6770115 120.73474 -22.51837 4294967295
2.6818919 120.10972 -22.416075 4294967295
2.7734621 118.63257 -22.59428 4294967295
2.7872047 116.44162 -22.253099 4294967295
2.7885878 118.17387 -22.460287 4294967295
2.8075504 120.23595 -22.618441 4294967295
2.8223708 117.73129 -22.232983 4294967295
2.8492489 119.4863 -22.312733 4294967295
2.8540356 119.01833 -22.23041 4294967295
2.8542809 120.74981 -22.443277 4294967295
2.8758152 116.69417 -22.65976 4294967295
2.8808742 120.61626 -22.290922 4294967295
2.8859022 117.33209 -22.687162 4294967295
2.9042552 117.50536 -22.614956 4294967295
2.9099185 119.24055 -22.800552 4294967295
2.9162645 120.03253 -22.866068 4294967295
2.926791 119.41277 -22.735765 4294967295
2.9322841 120.36136 -22.824987 4294967295
2.9392273 116.4342 -22.304132 4294967295
2.9401741 117.69398 -22.455036 4294967295
2.9535456 119.1218 -22.563316 4294967295
2.9535933 117.86304 -22.407478 4294967295
2.9545934 118.80805 -22.51919 4294967295
2.9565127 120.22569 -22.684622 4294967295
2.9712715 118.35062 -22.377565 4294967295
2.9733598 116.93587 -22.192028 4294967295
2.9807632 119.77528 -22.505241 4294967295
3.075618 118.616 -22.705227 4294967295
3.0807679 118.14857 -22.621243 4294967295
3.089582 119.57213 -22.752203 4294967295
3.1012564 117.06494 -22.382977 4294967295
3.1517272 117.58093 -22.189598 4294967295
3.1768842 119.80686 -22.33643 4294967295
3.2018931 119.98648 -22.231207 4294967295
3.2387083 118.30363 -22.66193 4294967295
3.2471035 117.20954 -22.484112 4294967295
3.269145 117.5434 -22.413193 4294967295
3.270968 118.80392 -22.559568 4294967295
3.2719421 117.86059 -22.438129 4294967295
3.2753465 117.07659 -22.323996 4294967295
3.2795784 120.22758 -22.69154 4294967295
3.2807918 119.75666 -22.627224 4294967295
3.2824111 118.02709 -22.405424 4294967295
3.287962 116.93008 -22.241714 4294967295
3.3113608 118.9968 -22.377869 4294967295
3.3261313 118.53752 -22.246006 4294967295
3.350976 119.66141 -22.258371 4294967295
3.3534167 119.19124 -22.187901 4294967295
3.4364128 118.65085 -22.524282 4294967295
3.4466817 119.4467 -22.570318 4294967295
3.5014951 117.92055 -22.103451 4294967295
3.5638556 117.52043 -22.56142 4294967295
3.5811932 118.32231 -22.572353 4294967295
3.5881221 117.06924 -22.38262 4294967295
3.5952086 117.39017 -22.386248 4294967295
3.6019061 119.12728 -22.566536 4294967295
3.6091571 118.1893 -22.414042 4294967295
3.6144838 117.87911 -22.348749 4294967295
3.6156278 118.82455 -22.459564 4294967295
3.6314092 119.94019 -22.517086 4294967295
3.6379018 119.31632 -22.40719 4294967295
3.6482775 119.64029 -22.394497 4294967295
3.6580956 119.0192 -22.268068 4294967295
3.6657214 118.55351 -22.171928 4294967295
3.731766 117.99887 -22.591585 4294967295
3.8626094 119.68764 -22.136679 4294967295
3.8967738 117.53054 -22.519867 4294967295
3.9017711 117.69225 -22.514502 4294967295
3.9199393 117.39313 -22.385689 4294967295
3.9252062 117.86994 -22.417788 4294967295
3.9266403 118.18602 -22.449476 4294967295
3.9453082 118.51711 -22.39579 4294967295
3.9808638 119.17794 -22.297262 4294967295
4.0293465 118.90538 -22.018295 4294967295
4.0457506 119.54987 -22.014681 4294967295
4.08008 118.02236 -22.474087 4294967295
4.1442757 118.8654 -22.253428 4294967295
4.1813431 118.5827 -22.031248 4294967295
4.19244 119.38003 -22.073349 4294967295
4.1995931 119.22876 -22.018566 4294967295
4.2565041 118.50832 -22.462614 4294967295
4.2708874 118.8357 -22.430305 4294967295
4.3074789 117.92261 -22.133194 4294967295
4.3115473 119.18611 -22.268185 4294967295
4.3519268 118.43369 -21.971731 4294967295
4.4027195 117.86607 -22.464838 4294967295
4.4276395 118.04504 -22.361223 4294967295
4.5953608 118.52351 -22.393076 4294967295
4.6205244 118.86031 -22.307795 4294967295
4.7173214 118.78684 -21.811399 4294967295
4.8187513 118.57777 -22.092957 4294967295
5.0023475 118.59749 -21.989302 4294967295
-18.047222 121.34578 -25.104017 4294967295
-18.016924 122.15629 -25.026525 4294967295
-17.867188 121.68053 -25.023857 4294967295
-17.833603 121.56144 -24.802357 4294967295
-17.833494 121.0948 -24.739403 4294967295
-17.82604 122.81421 -24.923302 4294967295
-17.824718 122.50455 -24.873875 4294967295
-17.823235 121.88387 -24.781931 4294967295
-17.716236 121.20609 -25.013927 4294967295
-17.683674 123.10792 -25.068605 4294967295
-17.67551 122.33913 -24.916149 4294967295
-17.674873 121.71754 -24.82934 4294967295
-17.656471 122.04871 -24.761045 4294967295
-17.649401 122.6788 -24.801876 4294967295
-17.649069 122.21236 -24.737633 4294967295
-17.504776 122.66392 -24.89234 4294967295
-17.352644 122.65725 -24.937954 4294967295
-17.337746 124.22926 -25.056576 4294967295
-17.322985 122.84521 -24.78228 4294967295
-17.318863 122.07153 -24.654099 4294967295
-17.312843 122.38936 -24.65976 4294967295
-17.30085 123.64758 -24.75428 4294967295
-16.987633 123.48824 -24.772356 4294967295
-16.97192 123.97242 -24.741318 4294967295
-16.958612 123.20863 -24.558884 4294967295
-16.861984 123.76374 -25.016443 4294967295
-16.835529 123.6371 -24.839167 4294967295
-16.807442 124.44617 -24.776363 4294967295
-16.676962 124.25993 -24.929697 4294967295
-16.662111 124.89879 -24.924629 4294967295
-16.657097 124.59305 -24.853661 4294967295
-16.653378 123.66315 -24.707621 4294967295
-16.648325 123.98004 -24.719109 4294967295
-16.640993 124.45512 -24.737825 4294967295
-16.511534 125.20153 -25.021017 4294967295
-16.351894 125.51429 -25.063894 4294967295
-16.346165 125.05374 -24.968214 4294967295
-16.345432 124.58761 -24.901972 4294967295
-16.278599 124.3495 -24.466932 4294967295
-16.130735 124.64944 -24.579903 4294967295
-16.03072 125.36376 -25.035528 4294967295
-16.02541 124.74698 -24.921879 4294967295
-16.023235 125.83895 -25.053432 4294967295
-15.990708 125.09647 -24.759331 4294967295
-15.702071 125.377 -24.984451 4294967295
-15.69892 125.53613 -24.986599 4294967295
-15.681673 125.088 -24.823847 4294967295
-15.647676 125.28103 -24.645411 4294967295
-15.535108 126.32055 -25.067204 4294967295
-15.534703 125.85397 -25.003111 4294967295
-15.375072 125.544 -24.964231 4294967295
-15.180346 125.73959 -24.78265 4294967295
-15.151 125.30437 -24.549936 4294967295
-15.013087 125.90504 -24.761555 4294967295
-15.010659 125.59615 -24.706327 4294967295
-14.901308 126.00964 -25.062943 4294967295
-14.80428 125.49264 -24.417103 4294967295
-14.729403 126.64735 -25.076336 4294967295
-14.682534 125.76418 -24.681356 4294967295
-14.670617 126.08884 -24.653282 4294967295
-14.571889 126.80212 -25.111748 4294967295
-14.558904 126.19344 -24.954538 4294967295
-14.487619 125.49216 -24.439089 4294967295
-14.420469 126.48304 -25.120964 4294967295
-14.409564 126.02776 -24.996431 4294967295
-14.335284 125.64127 -24.505346 4294967295
-14.323278 125.81021 -24.456419 4294967295
-14.251801 125.87127 -24.989607 4294967295
-14.228138 126.83174 -24.975861 4294967295
-14.162668 125.65652 -24.433916 4294967295
-14.036228 125.93338 -24.670002 4294967295
-14.033525 125.46873 -24.592974 4294967295
-13.9998 125.66116 -24.418991 4294967295
-13.913859 126.04992 -24.908501 4294967295
-13.751973 126.20942 -24.919231 4294967295
-13.727615 126.70341 -24.840563 4294967295
-13.703218 126.10653 -24.618513 4294967295
-13.692918 125.96181 -24.538853 4294967295
-13.588196 127.15002 -25.021355 4294967295
-13.576043 126.54002 -24.869886 4294967295
-13.538437 126.26915 -24.613167 4294967295
-13.507225 125.52325 -24.331764 4294967295
-13.432094 126.36836 -24.942863 4294967295
-13.401371 126.55757 -24.787218 4294967295
-13.345786 125.52624 -24.325605 4294967295
-13.276789 127.45557 -25.113926 4294967295
-13.272418 126.8371 -25.007309 4294967295
-13.263954 127.15797 -24.999687 4294967295
-13.249545 125.61501 -24.713131 4294967295
-13.244965 126.24349 -24.768572 4294967295
-13.068027 125.79558 -24.612267 4294967295
-13.022606 125.68846 -24.332287 4294967295
-12.965272 126.04723 -24.981646 4294967295
-12.956272 126.21278 -24.950676 4294967295
-12.907601 125.7975 -24.611799 4294967295
-12.904068 125.64536 -24.571239 4294967295
-12.788528 125.75504 -24.847033 4294967295
-12.779632 127.1675 -24.979698 4294967295
-12.645567 126.36174 -25.027178 4294967295
-12.634673 125.74996 -24.88377 4294967295
-12.600794 126.72179 -24.813211 4294967295
-12.591619 125.64014 -24.618454 4294967295
-12.590811 126.10885 -24.674959 4294967295
-12.487407 126.51717 -25.059641 4294967295
-12.483038 126.83359 -25.075512 4294967295
-12.470731 127.62617 -25.107328 4294967295
-12.424185 126.42931 -24.680187 4294967295
-12.365528 125.55612 -24.224791 4294967295
-12.32357 125.89933 -24.958267 4294967295
-12.310728 126.22487 -24.926096 4294967295
-12.305206 126.69849 -24.955784 4294967295
-12.304942 127.01054 -24.994953 4294967295
-12.303898 127.16756 -25.009365 4294967295
-12.246321 125.51395 -24.459028 4294967295
-12.228704 125.37668 -24.338737 4294967295
-12.115721 125.95193 -24.689129 4294967295
-12.109498 126.27052 -24.69455 4294967295
-11.993399 126.6927 -25.006136 4294967295
-11.984158 126.39079 -24.913258 4294967295
-11.977462 126.86572 -24.936329 4294967295
-11.957202 126.10773 -24.720182 4294967295
-11.951013 125.64639 -24.624212 4294967295
-11.914388 125.37325 -24.376402 4294967295
-11.829205 126.07499 -24.903318 4294967295
-11.6703 125.76337 -24.871149 4294967295
-11.665541 125.92438 -24.864597 4294967295
-11.663849 126.54995 -24.93622 4294967295
-11.647279 127.03552 -24.903662 4294967295
-11.638459 126.73307 -24.813358 4294967295
-11.620648 126.12814 -24.631746 4294967295
-11.509547 126.38937 -24.950335 4294967295
-11.487905 125.78853 -24.747356 4294967295
-11.475784 125.17732 -24.59796 4294967295
-11.472803 126.89651 -24.804306 4294967295
-11.436488 125.687 -24.437542 4294967295
-11.339062 125.46609 -24.772133 4294967295
-11.326216 127.5074 -24.96339 4294967295
-11.322331 125.17172 -24.637505 4294967295
-11.3122 125.96253 -24.68191 4294967295
-11.310349 125.02831 -24.549849 4294967295
-11.193871 125.76376 -24.898388 4294967295
-11.179324 125.62315 -24.796457 4294967295
-11.155677 126.42821 -24.76499 4294967295
-11.119098 125.37459 -24.417765 4294967295
-11.039774 125.13497 -24.853033 4294967295
-10.994914 125.02603 -24.581249 4294967295
-10.983574 125.35007 -24.55817 4294967295
-10.977386 125.51264 -24.543739 4294967295
-10.906967 125.41969 -25.048344 4294967295
-10.881618 126.22621 -25.007578 4294967295
-10.870175 126.55028 -24.983986 4294967295
-10.867062 127.02149 -25.027241 4294967295
-10.851823 125.94574 -24.800327 4294967295
-10.83118 127.21574 -24.846655 4294967295
-10.726135 125.44292 -24.93432 4294967295
-10.722507 126.07067 -24.994913 4294967295
-10.658113 125.82652 -24.594519 4294967295
-10.646928 124.90166 -24.410582 4294967295
-10.577236 126.36842 -25.12019 4294967295
-10.562412 124.8241 -24.835375 4294967295
-10.558661 126.07608 -24.97611 4294967295
-10.542256 127.18536 -25.025991 4294967295
-10.532565 125.63549 -24.769819 4294967295
-10.526096 127.82654 -25.016642 4294967295
-10.523701 127.51711 -24.962864 4294967295
-10.523311 125.02096 -24.637291 4294967295
-10.512973 125.34392 -24.620018 4294967295
-10.510396 124.72226 -24.524748 4294967295
-10.413743 124.65755 -24.88118 4294967295
-10.394503 125.76977 -24.915312 4294967295
-10.338875 126.60858 -24.706282 4294967295
-10.267144 125.42488 -25.059528 4294967295
-10.259404 126.2129 -25.117348 4294967295
-10.258237 124.65414 -24.909027 4294967295
-10.249493 125.59934 -24.981461 4294967295
-10.245831 126.07119 -25.021631 4294967295
-10.236422 127.01707 -25.090351 4294967295
-10.204919 125.02171 -24.652599 4294967295
-10.203954 127.2075 -24.929884 4294967295
-10.20188 124.40047 -24.554893 4294967295
-10.190253 125.81745 -24.67194 4294967295
-10.091387 124.35042 -24.833466 4294967295
-10.091277 124.81866 -24.893385 4294967295
-10.067337 124.53137 -24.719946 4294967295
-10.044982 125.33501 -24.69659 4294967295
-10.030599 126.44264 -24.757919 4294967295
-9.9313793 124.50769 -24.856611 4294967295
-9.9218321 124.3615 -24.783445 4294967295
-9.9100428 126.87048 -25.040627 4294967295
-9.9095755 124.99847 -24.796083 4294967295
-9.9071865 126.71748 -25.004623 4294967295
-9.8993864 127.19379 -25.021822 4294967295
-9.8946238 125.17007 -24.733265 4294967295
-9.891757 125.64131 -24.777861 4294967295
-9.8897295 126.42377 -24.867435 4294967295
-9.8881855 127.82975 -25.040319 4294967295
-9.8863087 124.71041 -24.6266 4294967295
-9.8824396 126.27536 -24.806818 4294967295
-9.8717842 125.97436 -24.707354 4294967295
-9.79214 125.57957 -25.115808 4294967295
-9.7523899 125.93311 -24.935831 4294967295
-9.7303534 127.51672 -25.015228 4294967295
-9.7083216 124.10555 -24.449673 4294967295
-9.6946564 126.46182 -24.676388 4294967295
-9.5843334 127.03513 -25.035429 4294967295
-9.5758648 127.82424 -25.08926 4294967295
-9.5719767 126.4239 -24.886515 4294967295
-9.5685844 124.71034 -24.646147 4294967295
-9.5655718 125.96235 -24.790644 4294967295
-9.5651464 124.40163 -24.586813 4294967295
-9.5617332 125.1858 -24.668674 4294967295
-9.5513725 125.04041 -24.591185 4294967295
-9.5502567 126.13445 -24.726051 4294967295
-9.5409546 123.958 -24.392435 4294967295
-9.5397501 124.11543 -24.405924 4294967295
-9.5367928 124.587 -24.450027 4294967295
-9.52771 127.40701 -24.76247 4294967295
-9.4693718 124.02456 -24.905161 4294967295
-9.4533863 123.88486 -24.796663 4294967295
-9.4336967 125.77815 -24.929422 4294967295
-9.4282818 123.5983 -24.617617 4294967295
-9.4192171 127.19784 -25.030561 4294967295
-9.3785696 125.67939 -24.604671 4294967295
-9.3735218 126.30923 -24.657335 4294967295
-9.2897615 123.88969 -24.780001 4294967295
-9.2743406 126.55901 -25.036911 4294967295
-9.2648287 126.25682 -24.944208 4294967295
-9.2610903 125.79247 -24.863224 4294967295
-9.2522249 127.36253 -25.015486 4294967295
-9.2511902 127.67574 -25.050001 4294967295
-9.242425 124.25044 -24.558975 4294967295
-9.2334614 124.72815 -24.569889 4294967295
-9.2161951 124.12114 -24.394064 4294967295
-9.2149696 125.99656 -24.628878 4294967295
-9.2149267 126.15276 -24.648766 4294967295
-9.2121801 125.06244 -24.492708 4294967295
-9.2070961 127.56619 -24.786682 4294967295
-9.2034569 125.54001 -24.504967 4294967295
-9.2020006 127.88381 -24.798819 4294967295
-9.1373196 123.57088 -24.784882 4294967295
-9.118782 125.46311 -24.924025 4294967295
-9.1010971 122.98307 -24.504738 4294967295
-9.0944471 127.04929 -24.991013 4294967295
-9.0896206 125.18103 -24.723124 4294967295
-9.0706625 127.85474 -24.960531 4294967295
-9.0686998 123.48455 -24.386509 4294967295
-9.0594339 126.92989 -24.778042 4294967295
-9.052063 127.24989 -24.777657 4294967295
-9.0313053 126.49084 -24.562742 4294967295
-8.9758043 122.48053 -24.639301 4294967295
-8.9610548 123.27621 -24.658627 4294967295
-8.9580812 125.1528 -24.883471 4294967295
-8.9520025 127.18818 -25.111235 4294967295
-8.9517727 122.81711 -24.547211 4294967295
-8.9510393 126.40884 -25.005486 4294967295
-8.9482279 126.09959 -24.949831 4294967295
-8.947957 123.60183 -24.62674 4294967295
-8.9412069 125.01407 -24.770523 4294967295
-8.9361134 127.67307 -25.084112 4294967295
-8.9359913 124.08251 -24.621201 4294967295
-8.9320526 125.49191 -24.780449 4294967295
-8.9225721 124.2524 -24.56745 4294967295
-8.9131937 127.8533 -24.978157 4294967295
-8.9037304 126.77042 -24.785433 4294967295
-8.8967609 125.99692 -24.646587 4294967295
-8.8779993 123.82923 -24.261791 4294967295
-8.8750658 126.33183 -24.567444 4294967295
-8.8538752 127.6035 -24.611727 4294967295
-8.8391666 120.89653 -24.57044 4294967295
-8.826889 121.0649 -24.52302 4294967295
-8.8232374 121.53708 -24.563236 4294967295
