# .PCD v0.7 - Point Cloud Data file format
VERSION 0.7
FIELDS x y z rgb
SIZE 4 4 4 4
TYPE F F F U
COUNT 1 1 1 1
WIDTH 1121
HEIGHT 1
VIEWPOINT 0 0 0 1 0 0 0
POINTS 1121
DATA ascii
-49.660549 84.451569 -27.323416 4294967295
-49.576767 81.777107 -27.524256 4294967295
-49.574425 82.697136 -27.650862 4294967295
-49.570004 83.160423 -27.686209 4294967295
-49.568703 82.091194 -27.503851 4294967295
-49.55695 81.950127 -27.378344 4294967295
-49.553059 81.648041 -27.295975 4294967295
-49.551823 82.567284 -27.432135 4294967295
-49.550625 82.874458 -27.470749 4294967295
-49.542965 83.647148 -27.527199 4294967295
-49.542633 84.565071 -27.671017 4294967295
-49.535473 82.430962 -27.26712 4294967295
-49.534885 83.349571 -27.40885 4294967295
-49.532539 83.963882 -27.486507 4294967295
-49.525467 84.43013 -27.499084 4294967295
-49.525116 83.818626 -27.398262 4294967295
-49.522461 83.515388 -27.326536 4294967295
-49.517944 84.743927 -27.483358 4294967295
-49.516685 84.898209 -27.497 4294967295
-49.51049 84.292809 -27.345985 4294967295
-49.509232 84.141129 -27.310688 4294967295
-49.417728 82.545372 -27.615574 4294967295
-49.410652 81.940697 -27.457144 4294967295
-49.405956 82.710335 -27.539005 4294967295
-49.404457 83.017776 -27.575024 4294967295
-49.403744 83.630272 -27.666584 4294967295
-49.399193 82.41127 -27.432148 4294967295
-49.395992 83.179428 -27.526836 4294967295
-49.395515 83.332878 -27.547169 4294967295
-49.391998 84.254166 -27.66353 4294967295
-49.384163 82.273521 -27.278793 4294967295
-49.381027 82.888794 -27.349653 4294967295
-49.376484 84.117371 -27.506119 4294967295
-49.373421 82.131363 -27.162237 4294967295
-49.371544 84.887299 -27.585876 4294967295
-49.37085 84.58213 -27.531073 4294967295
-49.363747 83.977623 -27.372496 4294967295
-49.25367 82.095055 -27.468672 4294967295
-49.239811 82.568092 -27.423286 4294967295
-49.239727 83.027153 -27.495773 4294967295
-49.235493 82.878487 -27.435118 4294967295
-49.232788 83.340233 -27.485172 4294967295
-49.230659 82.271339 -27.29612 4294967295
-49.224266 83.195976 -27.387873 4294967295
-49.223698 83.80854 -27.480618 4294967295
-49.221481 81.821434 -27.144344 4294967295
-49.220181 82.741081 -27.279697 4294967295
-49.219326 81.976677 -27.150312 4294967295
-49.212246 82.443047 -27.16297 4294967295
-49.212017 84.126617 -27.429474 4294967295
-49.211594 84.586006 -27.499052 4294967295
-49.206123 83.673683 -27.305855 4294967295
-49.201736 84.902283 -27.463512 4294967295
-49.197857 84.294334 -27.332743 4294967295
-49.191883 84.759605 -27.35483 4294967295
-56.28302 87.378113 -28.815418 4294967295
-56.28046 86.468155 -28.637123 4294967295
-56.278336 85.252853 -28.411438 4294967295
-56.274799 85.561501 -28.429365 4294967295
-56.269859 86.328529 -28.511017 4294967295
-56.265079 85.725182 -28.362963 4294967295
-56.262962 87.706589 -28.67687 4294967295
-56.262905 86.184525 -28.41946 4294967295
-56.262245 88.468254 -28.798428 4294967295
-56.257759 89.08226 -28.858656 4294967295
-56.251873 88.024353 -28.623224 4294967295
-56.251118 85.89389 -28.256403 4294967295
-56.250172 86.656387 -28.375959 4294967295
-56.249264 86.04837 -28.264557 4294967295
-56.24728 89.703659 -28.862118 4294967295
-56.244701 87.271927 -28.426908 4294967295
-56.243122 88.795906 -28.668764 4294967295
-56.241421 88.950157 -28.678343 4294967295
-56.239285 86.821625 -28.29854 4294967295
-56.236126 89.413147 -28.705246 4294967295
-56.235661 89.870171 -28.777819 4294967295
-56.233421 87.133179 -28.294395 4294967295
-56.231552 88.353424 -28.482208 4294967295
-56.230125 91.094002 -28.930725 4294967295
-56.228012 87.901001 -28.371662 4294967295
-56.227318 90.945435 -28.878498 4294967295
-56.227196 90.337105 -28.774727 4294967295
-56.226807 88.206955 -28.411617 4294967295
-56.222298 87.603363 -28.266176 4294967295
-56.220112 90.802353 -28.784685 4294967295
-56.219765 89.281113 -28.524712 4294967295
-56.219711 91.563423 -28.909174 4294967295
-56.214962 88.678093 -28.37656 4294967295
-56.214218 90.048935 -28.600588 4294967295
-56.213974 91.874878 -28.906208 4294967295
-56.212502 91.420425 -28.81531 4294967295
-56.194691 90.682022 -28.518532 4294967295
-56.194355 90.530243 -28.489679 4294967295
-56.138657 85.23539 -28.553129 4294967295
-56.132725 85.394547 -28.522739 4294967295
-56.122574 86.776489 -28.657701 4294967295
-56.119305 87.845642 -28.806318 4294967295
-56.118942 87.237396 -28.700329 4294967295
-56.114727 84.958694 -28.275606 4294967295
-56.113884 87.700005 -28.729496 4294967295
-56.112625 85.722595 -28.384083 4294967295
-56.111427 86.485291 -28.501072 4294967295
-56.10775 88.316086 -28.774111 4294967295
-56.107693 85.119179 -28.234808 4294967295
-56.107254 88.164528 -28.743771 4294967295
-56.105793 85.578316 -28.293854 4294967295
-56.10321 86.342758 -28.397785 4294967295
-56.100212 87.412033 -28.549053 4294967295
-56.097744 88.023842 -28.628325 4294967295
-56.096432 86.046196 -28.282412 4294967295
-56.093956 86.658257 -28.361677 4294967295
-56.090683 88.945534 -28.715479 4294967295
-56.090359 89.098091 -28.73805 4294967295
-56.088764 88.795692 -28.67174 4294967295
-56.08559 87.125038 -28.359612 4294967295
-56.084816 90.32206 -28.890785 4294967295
-56.083214 90.171928 -28.850012 4294967295
-56.080425 89.566788 -28.721172 4294967295
-56.077259 88.657524 -28.537436 4294967295
-56.076553 89.419373 -28.659012 4294967295
-56.075176 87.594322 -28.338223 4294967295
-56.070572 90.796196 -28.833212 4294967295
-56.069195 88.515099 -28.435661 4294967295
-56.068748 91.406952 -28.918476 4294967295
-56.06839 89.277206 -28.556276 4294967295
-56.063599 91.109192 -28.818645 4294967295
-56.062881 91.56646 -28.888748 4294967295
-56.062008 89.893875 -28.598583 4294967295
-56.059368 90.049332 -28.599325 4294967295
-56.054634 91.272591 -28.75967 4294967295
-56.047993 91.889526 -28.799492 4294967295
-56.045414 90.979836 -28.62141 4294967295
-56.042683 91.744102 -28.723789 4294967295
-56.03788 90.684868 -28.499031 4294967295
-55.989853 84.924126 -28.556978 4294967295
-55.986671 85.384544 -28.603842 4294967295
-55.985233 85.233978 -28.564653 4294967295
-55.96455 87.54158 -28.753954 4294967295
-55.96452 86.780617 -28.625605 4294967295
-55.961334 85.56636 -28.390604 4294967295
-55.960388 85.110573 -28.30475 4294967295
-55.95998 87.242653 -28.659668 4294967295
-55.959412 85.873169 -28.423716 4294967295
-55.955936 87.095261 -28.59597 4294967295
-55.953815 86.641068 -28.499115 4294967295
-55.948826 87.408195 -28.580173 4294967295
-55.943035 86.349274 -28.346218 4294967295
-55.942047 89.242668 -28.823601 4294967295
-55.939854 88.636658 -28.700539 4294967295
-55.939354 86.505913 -28.337164 4294967295
-55.93734 86.051369 -28.241261 4294967295
-55.934853 88.033882 -28.550983 4294967295
-55.930466 87.73468 -28.458389 4294967295
-55.929733 88.801163 -28.6308 4294967295
-55.927883 86.976387 -28.305937 4294967295
-55.926888 89.717758 -28.757605 4294967295
-55.926208 86.216789 -28.161976 4294967295
-55.924061 89.873405 -28.756601 4294967295
-55.923191 88.200188 -28.4667 4294967295
-55.91991 90.182861 -28.768698 4294967295
-55.917053 91.859795 -29.023283 4294967295
-55.916786 88.512436 -28.457623 4294967295
-55.914993 89.123566 -28.543163 4294967295
-55.914654 91.558632 -28.949528 4294967295
-55.914341 90.037575 -28.690666 4294967295
-55.909908 90.956078 -28.802488 4294967295
-55.907413 90.502701 -28.702225 4294967295
-55.907333 89.589607 -28.547869 4294967295
-55.90612 91.265106 -28.818024 4294967295
-55.899841 90.816475 -28.682144 4294967295
-55.897278 91.732651 -28.811569 4294967295
-55.896698 90.668213 -28.626947 4294967295
-55.892368 89.455742 -28.381304 4294967295
-55.888638 91.13485 -28.627832 4294967295
-55.878628 90.386223 -28.405567 4294967295
-55.832912 85.383522 -28.612259 4294967295
-55.824623 85.240898 -28.50868 4294967295
-55.817356 85.858414 -28.54269 4294967295
-55.817116 85.554169 -28.489243 4294967295
-55.809635 87.389809 -28.725952 4294967295
-55.805641 85.110611 -28.304522 4294967295
-55.798733 86.641602 -28.49552 4294967295
-55.795708 87.558655 -28.620613 4294967295
-55.791561 88.933426 -28.811796 4294967295
-55.791542 86.954636 -28.479088 4294967295
-55.787369 88.177544 -28.644537 4294967295
-55.787056 87.873474 -28.59042 4294967295
-55.786865 88.482567 -28.69095 4294967295
-55.781952 87.118294 -28.414518 4294967295
-55.781834 86.509262 -28.311005 4294967295
-55.781723 86.357079 -28.284374 4294967295
-55.77758 86.209618 -28.219814 4294967295
-55.775948 88.039062 -28.51158 4294967295
-55.769146 88.656235 -28.550005 4294967295
-55.768627 88.352379 -28.493965 4294967295
-55.768402 87.286705 -28.312729 4294967295
-55.767647 89.571358 -28.689365 4294967295
-55.766392 88.811813 -28.54969 4294967295
-55.761971 89.426109 -28.610443 4294967295
-55.758339 91.256721 -28.883097 4294967295
-55.757202 91.714531 -28.949076 4294967295
-55.754143 91.414116 -28.869234 4294967295
-55.750385 90.505806 -28.68059 4294967295
-55.74527 90.207726 -28.5814 4294967295
-55.744049 90.057007 -28.544382 4294967295
-55.740765 89.299782 -28.385607 4294967295
-55.740105 91.888206 -28.814075 4294967295
-55.737934 89.150955 -28.333418 4294967295
-55.735428 90.372116 -28.514534 4294967295
-55.732979 89.918396 -28.414768 4294967295
-55.730392 89.76931 -28.364901 4294967295
-55.721741 91.606956 -28.590534 4294967295
-55.712776 91.161491 -28.429647 4294967295
-55.656162 85.256859 -28.379425 4294967295
-55.65591 85.561752 -28.428204 4294967295
-55.655807 86.627777 -28.606152 4294967295
-55.653625 87.087067 -28.662313 4294967295
-55.653496 86.478249 -28.558893 4294967295
-55.651283 85.414825 -28.359196 4294967295
-55.649963 86.177849 -28.474655 4294967295
-55.645981 87.705063 -28.69282 4294967295
-55.641712 86.796669 -28.499454 4294967295
-55.640358 85.732162 -28.307806 4294967295
-55.636013 87.564728 -28.573805 4294967295
-55.635555 85.890091 -28.288326 4294967295
-55.63171 86.046913 -28.277822 4294967295
-55.630692 87.418808 -28.498333 4294967295
-55.630375 89.398056 -28.827433 4294967295
-55.629448 89.247009 -28.793215 4294967295
-55.627113 87.27079 -28.439213 4294967295
-55.62294 89.559319 -28.783278 4294967295
-55.622478 86.971687 -28.344618 4294967295
-55.622032 89.103844 -28.698141 4294967295
-55.62125 88.191406 -28.53756 4294967295
-55.619289 86.366142 -28.212421 4294967295
-55.612202 88.659073 -28.52936 4294967295
-55.609413 88.510178 -28.47765 4294967295
-55.607178 88.360603 -28.431137 4294967295
-55.605553 88.971634 -28.518097 4294967295
-55.603355 90.496521 -28.75289 4294967295
-55.603001 89.888153 -28.647421 4294967295
-55.60107 88.824806 -28.45052 4294967295
-55.599712 91.5662 -28.897451 4294967295
-55.595917 89.744614 -28.555504 4294967295
-55.595364 88.070206 -28.269236 4294967295
-55.59153 91.272118 -28.769732 4294967295
-55.582836 90.369659 -28.535069 4294967295
-55.582474 90.826797 -28.60828 4294967295
-55.572514 90.077858 -28.387234 4294967295
-55.571159 90.993088 -28.527824 4294967295
-55.563576 90.697998 -28.405663 4294967295
-55.563236 91.155197 -28.479107 4294967295
-55.562851 91.764626 -28.577627 4294967295
-55.562225 91.460945 -28.520714 4294967295
-55.511696 86.158669 -28.628723 4294967295
-55.503593 85.254372 -28.399683 4294967295
-55.502956 85.864319 -28.495846 4294967295
-55.496475 86.328743 -28.51177 4294967295
-55.494831 87.09201 -28.62398 4294967295
-55.486542 85.731102 -28.316656 4294967295
-55.484718 87.713005 -28.631443 4294967295
-55.480972 86.651527 -28.417742 4294967295
-55.47599 88.332413 -28.651836 4294967295
-55.475269 85.134697 -28.108952 4294967295
-55.474838 85.439964 -28.156006 4294967295
-55.474144 85.59314 -28.175076 4294967295
-55.473343 87.87883 -28.550535 4294967295
-55.473251 87.574402 -28.498646 4294967295
-55.472958 86.965576 -28.393803 4294967295
-55.468582 89.711288 -28.812124 4294967295
-55.461384 89.872284 -28.770315 4294967295
-55.460785 87.284607 -28.330935 4294967295
-55.455654 88.661392 -28.512655 4294967295
-55.448776 90.496567 -28.754421 4294967295
-55.447937 89.584282 -28.593536 4294967295
-55.443455 88.8284 -28.424042 4294967295
-55.44326 89.285469 -28.498793 4294967295
-55.44072 88.5271 -28.347431 4294967295
-55.440712 90.049843 -28.602499 4294967295
-55.439064 88.986 -28.408497 4294967295
-55.437012 91.272118 -28.771923 4294967295
-55.436909 88.227036 -28.260742 4294967295
-55.43655 90.663879 -28.665625 4294967295
-55.435177 90.361122 -28.601778 4294967295
-55.432083 91.43045 -28.751339 4294967295
-55.431622 91.887573 -28.823505 4294967295
-55.431587 90.213295 -28.542717 4294967295
-55.417336 91.601074 -28.639006 4294967295
-55.415993 90.993805 -28.52446 4294967295
-55.412888 90.845398 -28.469923 4294967295
-55.412399 91.150528 -28.516354 4294967295
-55.356232 85.550484 -28.519625 4294967295
-55.355049 84.942604 -28.406561 4294967295
-55.350315 85.709641 -28.489853 4294967295
-55.346855 85.409012 -28.40657 4294967295
-55.34602 86.171524 -28.526236 4294967295
-55.340004 86.330841 -28.49555 4294967295
-55.339722 86.483459 -28.518421 4294967295
-55.336487 85.116264 -28.258709 4294967295
-55.335953 85.269249 -28.279207 4294967295
-55.32975 85.885818 -28.323309 4294967295
-55.327358 86.802559 -28.453968 4294967295
-55.326347 87.260635 -28.521029 4294967295
-55.321156 88.180428 -28.625467 4294967295
-55.312218 86.972694 -28.33811 4294967295
-55.311932 88.343735 -28.564882 4294967295
-55.309036 87.433426 -28.384914 4294967295
-55.303917 88.657898 -28.541046 4294967295
-55.303146 89.876785 -28.737665 4294967295
-55.301868 88.051201 -28.419979 4294967295
-55.300919 87.595383 -28.334616 4294967295
-55.300823 87.138466 -28.257259 4294967295
-55.297581 88.513237 -28.456423 4294967295
-55.296394 89.123787 -28.547297 4294967295
-55.296387 89.580566 -28.623671 4294967295
-55.295921 90.037842 -28.695723 4294967295
-55.295349 89.277321 -28.563021 4294967295
-55.292137 90.499146 -28.736858 4294967295
-55.290905 91.718155 -28.929026 4294967295
-55.289619 88.979698 -28.458612 4294967295
-55.288967 90.350822 -28.681816 4294967295
-55.283054 90.966995 -28.728537 4294967295
-55.282028 88.836555 -28.362268 4294967295
-55.281437 91.121208 -28.73892 4294967295
-55.263737 90.838646 -28.522917 4294967295
-55.261929 91.602135 -28.633383 4294967295
-55.259579 91.45282 -28.586021 4294967295
-55.25214 91.309822 -28.491167 4294967295
-55.209316 85.541489 -28.59247 4294967295
-55.203735 84.93866 -28.438604 4294967295
-55.18882 85.26046 -28.350542 4294967295
-55.188808 87.088158 -28.656 4294967295
-55.184296 86.941193 -28.588516 4294967295
-55.172707 86.040833 -28.327765 4294967295
-55.171539 88.174438 -28.673328 4294967295
-55.171513 87.413116 -28.54583 4294967295
-55.171463 85.128014 -28.163349 4294967295
-55.168671 85.89315 -28.264692 4294967295
-55.166927 85.438019 -28.172029 4294967295
-55.166405 86.809891 -28.3964 4294967295
-55.165089 86.506752 -28.333233 4294967295
-55.164906 86.202255 -28.280582 4294967295
-55.162354 88.033127 -28.562346 4294967295
-55.16156 85.749001 -28.172993 4294967295
-55.158546 86.666748 -28.297768 4294967295
-55.15435 87.738045 -28.436941 4294967295
-55.150543 88.351799 -28.503307 4294967295
-55.147804 87.89814 -28.401426 4294967295
-55.145683 88.662201 -28.508974 4294967295
-55.13982 88.516937 -28.428917 4294967295
-55.139214 89.279137 -28.550547 4294967295
-55.137123 89.129379 -28.505613 4294967295
-55.136551 87.606804 -28.245724 4294967295
-55.136368 89.739395 -28.600405 4294967295
-55.132942 87.30632 -28.16116 4294967295
-55.132931 89.895844 -28.593843 4294967295
-55.131741 91.723961 -28.88797 4294967295
-55.128944 91.575264 -28.836535 4294967295
-55.125015 90.819054 -28.672829 4294967295
-55.124462 90.667488 -28.642246 4294967295
-55.123398 91.886559 -28.835804 4294967295
-55.119667 89.607414 -28.419497 4294967295
-55.119289 88.846237 -28.288691 4294967295
-55.118744 90.979034 -28.639908 4294967295
-55.118362 91.283981 -28.68722 4294967295
-55.111794 90.226219 -28.448009 4294967295
-55.098442 90.547203 -28.374668 4294967295
-55.097759 91.4618 -28.521011 4294967295
-55.089691 91.167221 -28.395048 4294967295
-55.042767 86.012077 -28.558889 4294967295
-55.035999 85.56292 -28.419664 4294967295
-55.027988 86.181534 -28.446949 4294967295
-55.01619 84.976112 -28.133745 4294967295
-55.015423 87.414772 -28.53363 4294967295
-55.010029 86.65947 -28.356352 4294967295
-55.006573 85.139534 -28.069775 4294967295
-55.004044 86.971176 -28.351599 4294967295
-55.002033 85.906853 -28.15484 4294967295
-55.000801 86.822609 -28.296059 4294967295
-54.999889 86.366539 -28.211256 4294967295
-54.997681 88.045013 -28.470501 4294967295
-54.995918 87.133064 -28.30154 4294967295
-54.994999 87.895874 -28.420168 4294967295
-54.994556 85.763069 -28.059891 4294967295
-54.99173 88.965935 -28.56776 4294967295
-54.98988 86.530586 -28.143682 4294967295
-54.988869 89.882996 -28.693676 4294967295
-54.987556 88.51403 -28.45273 4294967295
-54.98587 88.363724 -28.411654 4294967295
-54.985458 88.211884 -28.382383 4294967295
-54.98114 90.80587 -28.774343 4294967295
-54.978703 89.133911 -28.472191 4294967295
-54.976658 88.679398 -28.376936 4294967295
-54.976433 87.30835 -28.145943 4294967295
-54.975185 89.595062 -28.5158 4294967295
-54.969845 88.839905 -28.339069 4294967295
-54.962772 90.980728 -28.629227 4294967295
-54.961334 91.439247 -28.692108 4294967295
-54.960522 90.526672 -28.532135 4294967295
-54.959621 89.309242 -28.320423 4294967295
-54.952896 91.754211 -28.664608 4294967295
-54.952488 89.774902 -28.330456 4294967295
-54.951214 89.471748 -28.267778 4294967295
-54.951187 90.690414 -28.470888 4294967295
-54.950516 91.909424 -28.667898 4294967295
-54.94479 90.088951 -28.309818 4294967295
-54.942169 90.396828 -28.336334 4294967295
-54.940399 91.617477 -28.523224 4294967295
-54.932419 91.170448 -28.372906 4294967295
-54.87373 85.114395 -28.274067 4294967295
-54.872196 85.420921 -28.310648 4294967295
-54.869175 85.729149 -28.333445 4294967295
-54.868523 86.339348 -28.42902 4294967295
-54.866604 85.27494 -28.233366 4294967295
-54.864918 84.972038 -28.16692 4294967295
-54.852318 85.900963 -28.202547 4294967295
-54.851444 87.578026 -28.473898 4294967295
-54.850597 86.055351 -28.212029 4294967295
-54.848423 88.038559 -28.522079 4294967295
-54.846874 87.888077 -28.482332 4294967295
-54.846844 87.431107 -28.405857 4294967295
-54.846111 88.802803 -28.627583 4294967295
-54.84383 88.653244 -28.581078 4294967295
-54.842857 86.52153 -28.216484 4294967295
-54.841259 86.675781 -28.227077 4294967295
-54.838799 88.506943 -28.509064 4294967295
-54.832222 89.276344 -28.575043 4294967295
-54.828392 88.214661 -28.361845 4294967295
-54.827869 87.148628 -28.179165 4294967295
-54.825535 89.588997 -28.563869 4294967295
-54.823494 86.848907 -28.087799 4294967295
-54.821346 87.003853 -28.093279 4294967295
-54.819126 88.98745 -28.402954 4294967295
-54.818901 89.44471 -28.477011 4294967295
-54.814674 89.145134 -28.387081 4294967295
-54.813301 90.669868 -28.628199 4294967295
-54.810352 90.97802 -28.651646 4294967295
-54.805874 90.222069 -28.483265 4294967295
-54.805061 89.766083 -28.399582 4294967295
-54.793468 91.455658 -28.571438 4294967295
-54.792297 91.152519 -28.509838 4294967295
-54.791901 91.609879 -28.582291 4294967295
-54.789684 90.089432 -28.30793 4294967295
-54.787605 91.310608 -28.491766 4294967295
-54.778351 90.560318 -28.279142 4294967295
-54.730473 85.558311 -28.457277 4294967295
-54.718025 87.096062 -28.595779 4294967295
-54.716282 85.117386 -28.249821 4294967295
-54.711853 85.274841 -28.234226 4294967295
-54.710453 86.800247 -28.475008 4294967295
-54.70779 86.041504 -28.323532 4294967295
-54.705887 87.414917 -28.534258 4294967295
-54.704315 86.959747 -28.443615 4294967295
-54.696987 87.27301 -28.426594 4294967295
-54.692867 88.039558 -28.515322 4294967295
-54.692364 84.992157 -28.003105 4294967295
-54.688869 85.758446 -28.097721 4294967295
-54.688324 86.673615 -28.244965 4294967295
-54.687653 89.416489 -28.695267 4294967295
-54.682045 88.509384 -28.491339 4294967295
-54.680691 88.66333 -28.504173 4294967295
-54.679443 88.96946 -28.54336 4294967295
-54.676323 88.211494 -28.387686 4294967295
-54.676289 87.754433 -28.311279 4294967295
-54.675735 89.278526 -28.559795 4294967295
-54.673622 87.605179 -28.261267 4294967295
-54.672245 89.130402 -28.502151 4294967295
-54.672184 87.911652 -28.298685 4294967295
-54.668655 90.505402 -28.697111 4294967295
-54.666584 88.375412 -28.323027 4294967295
-54.665916 91.7267 -28.87451 4294967295
-54.663456 89.902565 -28.547709 4294967295
-54.659348 90.059853 -28.535078 4294967295
-54.656399 91.281731 -28.710587 4294967295
-54.655373 90.978462 -28.650414 4294967295
-54.653702 91.13279 -28.660315 4294967295
-54.652687 90.372566 -28.524212 4294967295
-54.652458 90.677452 -28.572803 4294967295
-54.643311 90.84095 -28.513628 4294967295
-54.642612 91.450989 -28.608582 4294967295
-54.633652 91.918922 -28.601833 4294967295
-54.631405 91.617126 -28.530378 4294967295
-54.581039 84.942719 -28.405504 4294967295
-54.577763 85.251205 -28.425915 4294967295
-54.56974 85.565117 -28.402561 4294967295
-54.554909 86.648804 -28.443048 4294967295
-54.554081 85.12574 -28.181974 4294967295
-54.553604 86.955032 -28.481707 4294967295
-54.550838 87.872276 -28.608158 4294967295
-54.550499 87.111 -28.478367 4294967295
-54.544224 87.72773 -28.521799 4294967295
-54.536072 85.908516 -28.142488 4294967295
-54.53503 85.452339 -28.056797 4294967295
-54.532543 87.589096 -28.38871 4294967295
-54.532501 88.960197 -28.616264 4294967295
-54.531643 89.418121 -28.684315 4294967295
-54.52689 86.528854 -28.15917 4294967295
-54.526272 86.224678 -28.102737 4294967295
-54.524982 89.578415 -28.648209 4294967295
-54.523083 86.07589 -28.047974 4294967295
-54.519356 87.452156 -28.24172 4294967295
-54.519127 88.671478 -28.442282 4294967295
-54.518845 88.06234 -28.338369 4294967295
-54.518505 88.367493 -28.385889 4294967295
-54.510094 87.31057 -28.130924 4294967295
-54.507534 88.532883 -28.310017 4294967295
-54.504948 90.21183 -28.564751 4294967295
-54.504364 90.974022 -28.685934 4294967295
-54.504032 88.841812 -28.3284 4294967295
-54.499683 88.237373 -28.186937 4294967295
-54.496586 91.897186 -28.766073 4294967295
-54.494389 89.158089 -28.290146 4294967295
-54.493587 89.311432 -28.308094 4294967295
-54.491879 89.770607 -28.368301 4294967295
-54.490887 91.295113 -28.612362 4294967295
-54.488632 90.84095 -28.515629 4294967295
-54.488018 90.689369 -28.484661 4294967295
-54.486881 90.538422 -28.448843 4294967295
-54.48671 89.929207 -28.345985 4294967295
-54.4818 91.458588 -28.553921 4294967295
-54.481285 90.088142 -28.32128 4294967295
-54.476692 91.617188 -28.532139 4294967295
-54.474941 90.400581 -28.313442 4294967295
-54.42112 85.558052 -28.459785 4294967295
-54.418835 85.408279 -28.413422 4294967295
-54.410416 86.332184 -28.487762 4294967295
-54.395794 86.04422 -28.302507 4294967295
-54.390038 87.727081 -28.527893 4294967295
-54.389656 86.813309 -28.372562 4294967295
-54.387829 85.291107 -28.102575 4294967295
-54.383339 85.906059 -28.162523 4294967295
-54.380836 87.280731 -28.367285 4294967295
-54.378464 87.893021 -28.446674 4294967295
-54.377415 87.437119 -28.361101 4294967295
-54.376019 85.761978 -28.069763 4294967295
-54.370106 86.226166 -28.091316 4294967295
-54.369972 88.664841 -28.495012 4294967295
-54.367214 89.58213 -28.621361 4294967295
-54.3624 89.283241 -28.526514 4294967295
-54.361034 88.370689 -28.362175 4294967295
-54.359009 88.98259 -28.444735 4294967295
-54.356674 88.833 -28.397938 4294967295
-54.350452 91.125404 -28.720032 4294967295
-54.350105 88.231194 -28.236282 4294967295
-54.349171 88.079872 -28.202387 4294967295
-54.348587 91.279968 -28.728148 4294967295
-54.344906 87.017662 -27.985897 4294967295
-54.343147 88.544258 -28.222872 4294967295
-54.340675 89.461601 -28.351934 4294967295
-54.334061 90.536133 -28.468136 4294967295
-54.331959 91.757263 -28.651085 4294967295
-54.331467 90.691628 -28.469591 4294967295
-54.331089 91.606033 -28.617804 4294967295
-54.329556 90.084496 -28.35083 4294967295
-54.327045 90.239899 -28.353058 4294967295
-54.314747 90.864342 -28.341099 4294967295
-54.308624 91.024185 -28.310101 4294967295
-54.308315 91.481682 -28.383123 4294967295
-54.248466 85.578362 -28.296083 4294967295
-54.244251 85.735596 -28.282627 4294967295
-54.241997 85.433273 -28.21133 4294967295
-54.235054 84.983727 -28.071676 4294967295
-54.231258 87.274658 -28.416059 4294967295
-54.22987 85.294563 -28.074638 4294967295
-54.229691 86.514427 -28.275297 4294967295
-54.228916 86.057999 -28.192314 4294967295
-54.216908 88.053368 -28.410643 4294967295
-54.213417 87.905075 -28.353333 4294967295
-54.212967 86.991058 -28.197535 4294967295
-54.21191 86.382431 -28.086699 4294967295
-54.210987 88.212723 -28.381554 4294967295
-54.210426 89.127609 -28.528011 4294967295
-54.207249 87.150139 -28.170313 4294967295
-54.202885 85.93528 -27.927896 4294967295
-54.20253 88.679878 -28.379719 4294967295
-54.202518 88.832275 -28.40489 4294967295
-54.200821 89.29142 -28.465107 4294967295
-54.197887 86.856049 -28.033745 4294967295
-54.194565 88.994102 -28.357172 4294967295
-54.190674 88.541489 -28.245628 4294967295
-54.187843 89.45929 -28.371267 4294967295
-54.18708 91.440666 -28.692558 4294967295
-54.185146 89.919662 -28.422285 4294967295
-54.184784 87.481209 -28.01457 4294967295
-54.18158 90.076332 -28.414812 4294967295
-54.172646 91.610672 -28.585415 4294967295
-54.171295 90.545868 -28.396238 4294967295
-54.169273 90.243546 -28.327158 4294967295
-54.163822 90.707314 -28.352922 4294967295
-54.16214 89.642448 -28.160622 4294967295
-54.161079 91.777206 -28.504557 4294967295
-54.158127 90.866615 -28.325949 4294967295
-54.157448 91.172211 -28.370232 4294967295
-54.098133 85.420776 -28.312603 4294967295
-54.088623 85.279091 -28.200167 4294967295
-54.083061 85.590324 -28.199678 4294967295
-54.081158 85.744949 -28.207512 4294967295
-54.079048 86.052261 -28.238684 4294967295
-54.071743 84.993156 -27.994896 4294967295
-54.070976 86.213951 -28.189953 4294967295
-54.064369 88.812599 -28.558531 4294967295
-54.063873 87.746513 -28.377359 4294967295
-54.063847 86.984421 -28.250874 4294967295
-54.060776 85.158051 -27.919598 4294967295
-54.056721 86.687721 -28.135086 4294967295
-54.056408 89.126755 -28.536095 4294967295
-54.055775 86.383842 -28.075903 4294967295
-54.055023 86.842148 -28.14477 4294967295
-54.051823 87.303238 -28.191214 4294967295
-54.047974 90.203247 -28.635445 4294967295
-54.046917 85.93644 -27.918926 4294967295
-54.044899 87.158798 -28.102537 4294967295
-54.044838 87.616272 -28.177736 4294967295
-54.041706 89.601364 -28.477148 4294967295
-54.038353 89.910118 -28.496901 4294967295
-54.036648 88.540543 -28.254192 4294967295
-54.036549 88.388229 -28.228025 4294967295
-54.033825 90.982002 -28.632004 4294967295
-54.033371 91.287193 -28.678276 4294967295
-54.031898 89.003448 -28.286392 4294967295
-54.031139 89.76638 -28.405647 4294967295
-54.030483 88.090439 -28.121952 4294967295
-54.025906 87.943321 -28.05479 4294967295
-54.022594 88.709572 -28.150711 4294967295
-54.019993 91.760506 -28.631496 4294967295
-54.018238 90.391441 -28.388435 4294967295
-54.017883 90.849007 -28.460878 4294967295
-54.012749 90.093239 -28.287704 4294967295
-54.011238 90.552284 -28.349592 4294967295
-54.010818 89.485817 -28.169071 4294967295
-54.010071 90.706093 -28.364134 4294967295
-53.991749 91.642754 -28.347807 4294967295
-53.987507 91.190704 -28.233299 4294967295
-53.941574 85.727562 -28.347822 4294967295
-53.926346 85.134903 -28.107674 4294967295
-53.925152 85.28875 -28.121967 4294967295
-53.924454 87.271393 -28.443468 4294967295
-53.922791 88.035278 -28.55427 4294967295
-53.922302 84.986946 -28.045441 4294967295
-53.911942 87.133446 -28.303854 4294967295
-53.908852 85.61219 -28.023359 4294967295
-53.90591 86.073067 -28.072157 4294967295
-53.904831 86.531784 -28.137983 4294967295
-53.902683 86.839211 -28.168793 4294967295
-53.900124 87.756912 -28.296694 4294967295
-53.898724 85.928734 -27.981207 4294967295
-53.895622 89.895737 -28.608418 4294967295
-53.892071 87.613831 -28.197874 4294967295
-53.890553 90.511185 -28.662863 4294967295
-53.887894 87.923615 -28.210159 4294967295
-53.886776 86.399948 -27.947659 4294967295
-53.883148 88.691414 -28.292831 4294967295
-53.882305 87.472694 -28.083385 4294967295
-53.8815 91.283768 -28.706133 4294967295
-53.879883 89.15255 -28.338634 4294967295
-53.876572 90.9851 -28.610743 4294967295
-53.873585 89.312447 -28.30628 4294967295
-53.868649 91.908737 -28.689503 4294967295
-53.868214 89.013931 -28.206816 4294967295
-53.867641 90.843552 -28.504011 4294967295
-53.86668 89.777939 -28.318846 4294967295
-53.860355 90.39518 -28.361887 4294967295
-53.856392 88.875427 -28.073578 4294967295
-53.855045 89.639381 -28.187347 4294967295
-53.84824 91.171844 -28.377207 4294967295
-53.846962 90.106407 -28.189114 4294967295
-53.844761 91.633263 -28.421045 4294967295
-53.837563 90.727516 -28.204092 4294967295
-53.781853 84.970665 -28.177942 4294967295
-53.771099 85.897705 -28.231009 4294967295
-53.770958 86.050339 -28.25491 4294967295
-53.762314 85.29763 -28.050051 4294967295
-53.761116 87.586082 -28.416988 4294967295
-53.757309 86.82827 -28.25635 4294967295
-53.757267 86.218399 -28.155218 4294967295
-53.757107 85.456024 -28.027754 4294967295
-53.756981 88.200539 -28.479986 4294967295
-53.749741 85.159225 -27.910109 4294967295
-53.747997 88.363457 -28.423254 4294967295
-53.744549 88.519913 -28.417002 4294967295
-53.743534 88.06382 -28.33222 4294967295
-53.743084 87.911903 -28.302921 4294967295
-53.742775 85.777298 -27.947384 4294967295
-53.742142 86.693184 -28.092812 4294967295
-53.739098 86.391624 -28.014662 4294967295
-53.737495 89.137856 -28.453381 4294967295
-53.733311 90.057144 -28.566269 4294967295
-53.733292 86.550789 -27.986897 4294967295
-53.728073 88.844131 -28.317167 4294967295
-53.726261 89.760796 -28.451683 4294967295
-53.725697 89.609062 -28.42137 4294967295
-53.72242 89.460541 -28.366333 4294967295
-53.720547 90.83432 -28.575743 4294967295
-53.718365 90.532204 -28.505545 4294967295
-53.717438 89.314018 -28.295731 4294967295
-53.717354 90.685799 -28.521479 4294967295
-53.711903 90.235168 -28.39633 4294967295
-53.704403 89.939285 -28.277626 4294967295
-53.704174 91.463631 -28.52721 4294967295
-53.704079 90.396965 -28.350191 4294967295
-53.703117 91.312538 -28.492422 4294967295
-53.70142 89.028023 -28.099361 4294967295
-53.689461 91.633926 -28.418337 4294967295
-53.686455 91.180344 -28.315445 4294967295
-53.683048 91.794144 -28.385107 4294967295
-53.625874 85.124313 -28.193768 4294967295
-53.62207 85.433578 -28.209478 4294967295
-53.619972 84.978409 -28.114862 4294967295
-53.618893 86.352036 -28.33153 4294967295
-53.616249 87.422134 -28.483507 4294967295
-53.601643 87.743881 -28.400934 4294967295
-53.599739 87.898521 -28.408737 4294967295
-53.59742 86.681496 -28.186415 4294967295
-53.593094 89.125587 -28.549431 4294967295
-53.592838 88.668686 -28.471706 4294967295
-53.591129 85.315826 -27.90263 4294967295
-53.589668 85.775162 -27.964849 4294967295
-53.589558 87.147987 -28.190353 4294967295
-53.588795 88.216133 -28.359474 4294967295
-53.58847 85.92907 -27.979109 4294967295
-53.581642 86.546997 -28.017679 4294967295
-53.581173 86.8526 -28.063734 4294967295
-53.578648 89.295044 -28.443213 4294967295
-53.57328 90.36821 -28.570362 4294967295
-53.571545 87.321236 -28.051609 4294967295
-53.569374 88.543739 -28.233122 4294967295
-53.566101 89.004974 -28.278807 4294967295
-53.565414 89.92041 -28.423439 4294967295
-53.558113 89.471771 -28.281614 4294967295
-53.557106 90.539993 -28.448437 4294967295
-53.555576 89.779686 -28.308817 4294967295
-53.553261 91.458977 -28.564268 4294967295
-53.552902 88.410507 -28.058149 4294967295
-53.548767 91.616806 -28.548553 4294967295
-53.547421 90.246742 -28.310104 4294967295
-53.545441 91.011261 -28.417799 4294967295
-53.540688 91.779022 -28.500254 4294967295
-53.532269 91.332024 -28.348322 4294967295
-53.519192 91.195404 -28.204311 4294967295
-53.460106 85.746483 -28.196169 4294967295
-53.460072 85.288963 -28.120464 4294967295
-53.452114 87.12793 -28.349768 4294967295
-53.450394 84.994698 -27.982275 4294967295
-53.45015 86.062752 -28.15605 4294967295
-53.443932 86.374832 -28.149858 4294967295
-53.443153 85.613045 -28.017069 4294967295
-53.441547 88.05484 -28.404562 4294967295
-53.440582 85.463371 -27.968597 4294967295
-53.436821 87.450455 -28.261204 4294967295
-53.436462 86.68837 -28.132278 4294967295
-53.435497 87.299492 -28.224047 4294967295
-53.435272 85.164169 -27.870052 4294967295
-53.432941 88.522186 -28.401819 4294967295
-53.431744 85.931023 -27.963739 4294967295
-53.430344 87.762894 -28.252659 4294967295
-53.42897 88.221909 -28.315544 4294967295
-53.427361 89.748108 -28.552052 4294967295
-53.426247 86.852562 -28.064657 4294967295
-53.425964 88.987679 -28.413826 4294967295
-53.42244 86.246689 -27.929535 4294967295
-53.421108 86.553329 -27.967739 4294967295
-53.416115 87.931862 -28.148634 4294967295
-53.412075 90.833076 -28.5891 4294967295
-53.410484 89.158325 -28.298487 4294967295
-53.40881 90.074966 -28.433977 4294967295
-53.405243 87.029152 -27.899109 4294967295
-53.403133 88.709503 -28.156433 4294967295
-53.40078 89.627167 -28.28578 4294967295
-53.39838 87.647308 -27.937363 4294967295
-53.398247 91.459297 -28.564062 4294967295
-53.397881 90.697723 -28.435246 4294967295
-53.39703 88.411606 -28.050779 4294967295
-53.3969 90.546471 -28.401258 4294967295
-53.389729 89.335258 -28.135302 4294967295
-53.385479 90.255219 -28.247446 4294967295
-53.377445 91.179604 -28.325243 4294967295
-53.375397 91.639389 -28.381981 4294967295
-53.343456 91.373123 -28.042107 4294967295
-53.311764 85.891533 -28.281532 4294967295
-53.30508 86.051575 -28.246075 4294967295
-53.304577 85.44207 -28.141094 4294967295
-53.302876 86.816521 -28.351585 4294967295
-53.302448 84.986801 -28.046478 4294967295
-53.30106 86.666115 -28.310034 4294967295
-53.299648 86.362732 -28.247049 4294967295
-53.299057 87.583199 -28.442432 4294967295
-53.287777 85.766014 -28.039097 4294967295
-53.284821 85.159027 -27.911833 4294967295
-53.28405 86.227867 -28.080643 4294967295
-53.279194 88.825775 -28.463263 4294967295
-53.27578 87.457504 -28.20653 4294967295
-53.275196 86.542999 -28.050634 4294967295
-53.274601 87.763863 -28.246046 4294967295
-53.273907 85.629021 -27.888275 4294967295
-53.273678 88.984673 -28.438393 4294967295
-53.273235 88.375374 -28.334045 4294967295
-53.270988 89.445137 -28.489273 4294967295
-53.269852 87.159264 -28.10265 4294967295
-53.262928 89.149734 -28.366175 4294967295
-53.262421 87.32032 -28.060442 4294967295
-53.260002 88.543259 -28.239309 4294967295
-53.249683 90.080086 -28.396749 4294967295
-53.249111 90.538071 -28.466787 4294967295
-53.248917 88.251129 -28.088751 4294967295
-53.246384 90.388893 -28.417055 4294967295
-53.24638 87.948982 -28.015579 4294967295
-53.244511 89.628822 -28.274702 4294967295
-53.24287 89.325783 -28.209684 4294967295
-53.241772 88.106865 -27.99896 4294967295
-53.236771 90.247894 -28.304964 4294967295
-53.221844 89.808121 -28.094604 4294967295
-53.219276 91.488533 -28.347294 4294967295
-53.218163 90.880013 -28.236902 4294967295
-53.192642 91.063148 -28.031063 4294967295
-53.19231 91.826111 -28.153488 4294967295
-53.184734 91.682785 -28.059875 4294967295
-53.16254 85.580093 -28.283482 4294967295
-53.153355 85.437851 -28.175364 4294967295
-53.152027 85.286789 -28.138281 4294967295
-53.15197 85.89698 -28.23805 4294967295
-53.151657 85.744812 -28.210165 4294967295
-53.149532 86.662247 -28.341362 4294967295
-53.141129 86.519279 -28.240364 4294967295
-53.13723 87.591187 -28.380564 4294967295
-53.135658 86.372948 -28.16585 4294967295
-53.134327 86.832031 -28.229019 4294967295
-53.132599 86.223869 -28.113119 4294967295
-53.123032 86.0821 -28.001534 4294967295
-53.120678 87.915207 -28.281136 4294967295
-53.116852 87.157013 -28.121239 4294967295
-53.108597 89.454025 -28.422567 4294967295
-53.108463 87.471695 -28.095558 4294967295
-53.10804 89.759575 -28.467604 4294967295
-53.107849 88.540054 -28.26548 4294967295
-53.099823 88.244339 -28.142841 4294967295
-53.099602 87.024132 -27.940264 4294967295
-53.097912 89.619064 -28.351109 4294967295
-53.097134 87.332115 -27.968113 4294967295
-53.09539 89.164574 -28.253185 4294967295
-53.094158 88.403435 -28.11672 4294967295
-53.092098 87.795616 -27.997849 4294967295
-53.088806 91.001923 -28.494303 4294967295
-53.086441 89.327576 -28.19739 4294967295
-53.083973 90.702827 -28.400572 4294967295
-53.083103 88.721367 -28.066984 4294967295
-53.083092 90.856323 -28.417677 4294967295
-53.079048 90.251282 -28.28096 4294967295
-53.078705 88.116211 -27.926989 4294967295
-53.078606 89.946831 -28.226849 4294967295
-53.071487 90.412758 -28.237768 4294967295
-53.07132 90.107956 -28.18614 4294967295
-53.069168 91.635284 -28.417181 4294967295
-53.042622 91.514832 -28.152536 4294967295
-53.014759 91.853539 -27.951151 4294967295
-53.00124 85.434624 -28.201569 4294967295
-52.989326 85.753036 -28.144171 4294967295
-52.988373 86.364258 -28.235765 4294967295
-52.986198 86.671761 -28.266232 4294967295
-52.986099 87.434372 -28.390501 4294967295
-52.985901 85.604301 -28.088245 4294967295
-52.984631 86.978569 -28.302147 4294967295
-52.976257 85.004662 -27.901024 4294967295
-52.975105 86.531784 -28.14115 4294967295
-52.974918 87.142143 -28.239622 4294967295
-52.973274 85.160591 -27.899195 4294967295
-52.968769 88.826607 -28.459511 4294967295
-52.96381 85.323738 -27.838852 4294967295
-52.963734 88.527519 -28.364071 4294967295
-52.962143 87.614319 -28.199572 4294967295
-52.961094 87.310448 -28.140028 4294967295
-52.954472 89.605621 -28.455769 4294967295
-52.954071 87.776115 -28.151833 4294967295
-52.95113 89.304611 -28.375616 4294967295
-52.945759 88.395844 -28.177048 4294967295
-52.944466 89.15992 -28.290543 4294967295
-52.941513 89.468369 -28.313969 4294967295
-52.939297 90.23336 -28.419096 4294967295
-52.932083 90.851753 -28.454166 4294967295
-52.930847 90.395844 -28.368002 4294967295
-52.927082 88.264885 -27.983662 4294967295
-52.923786 90.099236 -28.254337 4294967295
-52.9231 90.710007 -28.34823 4294967295
-52.913227 91.026741 -28.309364 4294967295
-52.911201 89.046227 -27.965715 4294967295
-52.908634 91.489693 -28.343023 4294967295
-52.90456 89.969414 -28.056087 4294967295
-52.901138 90.583641 -28.125385 4294967295
-52.889305 91.360413 -28.14393 4294967295
-52.844292 91.719673 -27.788588 4294967295
-52.839233 84.98468 -28.063677 4294967295
-52.836178 85.140648 -28.061195 4294967295
-52.834873 85.752396 -28.14954 4294967295
-52.830406 85.604813 -28.084307 4294967295
-52.826881 85.913902 -28.102634 4294967295
-52.823483 86.375412 -28.1471 4294967295
-52.820835 85.310265 -27.948132 4294967295
-52.813416 87.302116 -28.206579 4294967295
-52.810902 86.542168 -28.058908 4294967295
-52.81031 85.474586 -27.878424 4294967295
-52.801479 87.163147 -28.0742 4294967295
-52.801083 86.248024 -27.920511 4294967295
-52.80003 88.995209 -28.361191 4294967295
-52.796696 87.77887 -28.131199 4294967295
-52.79401 87.476807 -28.057053 4294967295
-52.793407 87.630066 -28.076612 4294967295
-52.793201 89.613136 -28.399771 4294967295
-52.792065 87.936737 -28.114571 4294967295
-52.788326 88.856308 -28.230982 4294967295
-52.788227 86.720375 -27.879913 4294967295
-52.787876 90.07682 -28.426878 4294967295
-52.785553 89.317093 -28.281025 4294967295
-52.780109 90.543419 -28.43202 4294967295
-52.779293 87.035744 -27.849602 4294967295
-52.778088 90.69828 -28.438843 4294967295
-52.777538 88.563728 -28.083956 4294967295
-52.776691 89.785011 -28.276348 4294967295
-52.773182 90.399147 -28.344763 4294967295
-52.772846 88.111404 -27.966726 4294967295
-52.770096 89.945282 -28.242048 4294967295
-52.764099 88.731873 -27.988106 4294967295
-52.735981 91.053429 -28.110411 4294967295
-52.725758 90.913055 -27.993534 4294967295
-52.697544 91.404533 -27.814985 4294967295
-52.692226 85.128357 -28.161055 4294967295
-52.683052 85.291092 -28.103632 4294967295
-52.67926 85.600471 -28.119579 4294967295
-52.67408 85.9114 -28.123034 4294967295
-52.674007 86.369186 -28.19735 4294967295
-52.668995 86.527382 -28.177324 4294967295
-52.663517 86.075798 -28.053175 4294967295
-52.658878 85.775757 -27.961573 4294967295
-52.655666 87.00013 -28.132637 4294967295
-52.654346 91.914375 -27.501869 4294967295
-52.653431 88.223045 -28.312361 4294967295
-52.651669 85.020523 -27.771833 4294967295
-52.648453 86.245277 -27.942944 4294967295
-52.646248 86.8582 -28.023102 4294967295
-52.644363 85.486618 -27.78124 4294967295
-52.643738 87.318817 -28.075539 4294967295
-52.642029 87.625923 -28.110146 4294967295
-52.642025 87.778496 -28.135084 4294967295
-52.640678 87.169701 -28.023096 4294967295
-52.636906 88.089485 -28.139128 4294967295
-52.632793 86.720772 -27.877346 4294967295
-52.632771 88.399368 -28.151978 4294967295
-52.629471 87.945442 -28.047411 4294967295
-52.625233 88.560623 -28.109304 4294967295
-52.624771 89.018837 -28.18009 4294967295
-52.624619 89.171562 -28.203674 4294967295
-52.62149 89.327744 -28.200594 4294967295
-52.611359 88.881828 -28.034775 4294967295
-52.610958 90.255287 -28.255932 4294967295
-52.598232 89.812607 -28.0669 4294967295
-52.594841 90.426849 -28.136375 4294967295
-52.587898 90.740173 -28.124041 4294967295
-52.581146 90.900749 -28.088446 4294967295
-52.572968 90.605286 -27.965191 4294967295
-52.558567 91.080177 -27.910967 4294967295
-52.52491 91.88356 -27.734098 4294967295
-52.520039 91.431412 -27.615477 4294967295
-52.518505 86.67485 -28.243391 4294967295
-52.517197 91.28212 -27.565018 4294967295
-52.513798 86.22242 -28.12639 4294967295
-52.507999 86.534088 -28.124359 4294967295
-52.503918 91.603378 -27.495962 4294967295
-52.499912 86.085327 -27.977051 4294967295
-52.499886 85.322144 -27.851978 4294967295
-52.499241 85.017525 -27.796257 4294967295
-52.495434 87.006012 -28.086678 4294967295
-52.493923 85.176056 -27.773588 4294967295
-52.492863 85.787903 -27.863962 4294967295
-52.491688 86.399788 -27.9533 4294967295
-52.489594 87.470398 -28.109238 4294967295
-52.488293 85.48764 -27.773081 4294967295
-52.482502 85.952103 -27.79612 4294967295
-52.473911 88.708954 -28.168438 4294967295
-52.464798 89.787392 -28.261438 4294967295
-52.46159 87.349571 -27.833515 4294967295
-52.460178 88.114372 -27.945677 4294967295
-52.459766 88.267464 -27.966953 4294967295
-52.457207 90.101364 -28.243383 4294967295
-52.457161 88.575684 -27.993546 4294967295
-52.454868 89.036133 -28.047853 4294967295
-52.451916 90.71772 -28.295755 4294967295
-52.450733 89.956406 -28.160513 4294967295
-52.450222 89.34671 -28.056152 4294967295
-52.450169 89.651932 -28.105591 4294967295
-52.43401 89.518188 -27.93601 4294967295
-52.432877 90.435104 -28.075537 4294967295
-52.432438 90.283035 -28.046669 4294967295
-52.425377 90.596535 -28.033371 4294967295
-52.370819 91.271751 -27.645077 4294967295
-52.361572 91.893509 -27.66217 4294967295
-52.360226 91.131645 -27.525358 4294967295
-52.356659 85.0037 -27.908728 4294967295
-52.344967 86.237793 -28.003714 4294967295
-52.344193 87.001717 -28.121422 4294967295
-52.342384 91.458321 -27.415678 4294967295
-52.336437 88.231133 -28.251482 4294967295
-52.336407 85.331329 -27.777584 4294967295
-52.336105 87.621231 -28.148844 4294967295
-52.334759 87.927925 -28.18667 4294967295
-52.333546 87.318947 -28.076124 4294967295
-52.33342 87.166473 -28.050093 4294967295
-52.333233 86.098228 -27.87389 4294967295
-52.32869 86.408623 -27.883171 4294967295
-52.328133 85.951233 -27.803379 4294967295
-52.3251 85.801918 -27.751329 4294967295
-52.324463 88.092255 -28.119617 4294967295
-52.323177 89.161705 -28.282522 4294967295
-52.322983 85.651558 -27.707464 4294967295
-52.321445 86.87471 -27.893242 4294967295
-52.315796 88.712547 -28.141857 4294967295
-52.315746 89.017754 -28.191227 4294967295
-52.312519 86.732079 -27.78853 4294967295
-52.307896 87.805923 -27.921761 4294967295
-52.30566 89.639717 -28.200809 4294967295
-52.305443 89.487404 -28.173956 4294967295
-52.296406 88.582245 -27.943773 4294967295
-52.291424 89.808891 -28.098598 4294967295
-52.289021 88.43808 -27.852882 4294967295
-52.286175 90.120201 -28.101566 4294967295
-52.285591 90.426041 -28.146183 4294967295
-52.282795 88.903198 -27.872059 4294967295
-52.281193 89.362968 -27.93252 4294967295
-52.259872 90.761536 -27.966413 4294967295
-52.25676 90.307312 -27.863878 4294967295
-52.23484 91.401711 -27.842663 4294967295
-52.227154 91.105515 -27.724216 4294967295
-52.224911 91.566185 -27.778933 4294967295
-52.221382 91.265045 -27.697605 4294967295
-52.205238 85.152267 -27.966883 4294967295
-52.204967 86.983917 -28.263252 4294967295
-52.201935 85.461205 -27.987242 4294967295
-52.201054 85.92009 -28.0541 4294967295
-52.198345 87.143944 -28.229105 4294967295
-52.19809 85.770737 -28.002768 4294967295
-52.195515 85.620941 -27.954893 4294967295
-52.193092 86.2342 -28.032896 4294967295
-52.191563 86.84639 -28.118847 4294967295
-52.187878 85.32402 -27.836952 4294967295
-52.179737 91.772766 -27.400705 4294967295
-52.175526 86.559082 -27.926077 4294967295
-52.174946 88.391129 -28.219627 4294967295
-52.173016 86.714554 -27.928593 4294967295
-52.170753 88.090744 -28.1325 4294967295
-52.169777 87.786652 -28.073994 4294967295
-52.168797 89.161018 -28.289249 4294967295
-52.16539 87.486366 -27.98513 4294967295
-52.165241 88.554832 -28.158024 4294967295
-52.162659 87.642097 -27.985655 4294967295
-52.16127 86.422333 -27.774052 4294967295
-52.160767 87.338951 -27.918989 4294967295
-52.155758 89.938911 -28.297472 4294967295
-52.15144 88.265404 -27.985243 4294967295
-52.149593 89.030617 -28.093252 4294967295
-52.148193 89.337425 -28.13055 4294967295
-52.140797 89.803787 -28.139299 4294967295
-52.133553 89.507004 -28.024979 4294967295
-52.128384 89.665627 -28.003832 4294967295
-52.121902 90.283653 -28.045624 4294967295
-52.101414 90.460297 -27.888018 4294967295
-52.093796 90.774551 -27.869947 4294967295
-52.089127 90.932701 -27.853262 4294967295
-52.058907 91.426498 -27.658802 4294967295
-52.053394 91.738449 -27.659512 4294967295
-52.052315 86.065659 -28.135958 4294967295
-52.051849 91.28215 -27.571056 4294967295
-52.051208 85.608994 -28.051514 4294967295
-52.042828 85.770889 -28.001789 4294967295
-52.042244 86.687332 -28.145821 4294967295
-52.038078 85.012726 -27.835138 4294967295
-52.033806 87.307236 -28.170206 4294967295
-52.031662 86.241219 -27.977089 4294967295
-52.03038 85.937309 -27.915916 4294967295
-52.028713 91.156784 -27.340115 4294967295
-52.027313 86.551369 -27.98815 4294967295
-52.025291 87.927254 -28.193939 4294967295
-52.02422 86.402161 -27.935724 4294967295
-52.022057 87.473091 -28.090595 4294967295
-52.021492 88.541924 -28.259567 4294967295
-52.021095 88.847511 -28.305737 4294967295
-52.018772 88.239861 -28.185688 4294967295
-52.01862 87.629601 -28.084883 4294967295
-52.01741 89.004311 -28.297842 4294967295
-52.017174 88.089081 -28.146597 4294967295
-52.015079 91.631302 -27.29343 4294967295
-52.01416 85.191628 -27.647165 4294967295
-52.014069 86.87149 -27.920069 4294967295
-52.01281 87.17823 -27.958607 4294967295
-52.010017 89.165398 -28.256973 4294967295
-52.007229 89.321182 -28.257027 4294967295
-52.001312 89.633179 -28.254122 4294967295
-51.993179 88.726952 -28.032705 4294967295
-51.987984 87.816933 -27.837307 4294967295
-51.985535 89.804077 -28.13872 4294967295
-51.978275 89.507271 -28.024492 4294967295
-51.96484 90.286026 -28.029358 4294967295
-51.95892 90.44558 -28.001589 4294967295
-51.930946 90.783691 -27.802736 4294967295
-51.920647 90.948494 -27.736082 4294967295
-51.915134 90.649559 -27.63736 4294967295
-51.904613 91.27282 -27.643347 4294967295
-51.899269 85.300179 -28.030355 4294967295
-51.898552 85.1483 -27.999123 4294967295
-51.890789 85.462143 -27.979918 4294967295
-51.889629 91.137772 -27.485336 4294967295
-51.888557 86.685768 -28.158836 4294967295
-51.886818 85.619171 -27.969503 4294967295
-51.885674 85.009674 -27.859938 4294967295
-51.882156 86.845535 -28.12686 4294967295
-51.881336 85.777885 -27.945679 4294967295
-51.880436 87.15271 -28.16124 4294967295
-51.877964 91.609848 -27.456297 4294967295
-51.877224 86.545761 -28.033381 4294967295
-51.87698 87.461823 -28.180227 4294967295
-51.876411 91.76445 -27.467361 4294967295
-51.8708 86.094879 -27.90184 4294967295
-51.868526 87.776588 -28.154877 4294967295
-51.86618 87.016052 -28.00989 4294967295
-51.865944 85.947556 -27.833864 4294967295
