# .PCD v0.7 - Point Cloud Data file format
VERSION 0.7
FIELDS x y z rgb
SIZE 4 4 4 4
TYPE F F F U
COUNT 1 1 1 1
WIDTH 1126
HEIGHT 1
VIEWPOINT 0 0 0 1 0 0 0
POINTS 1126
DATA ascii
-2.5756354 7.5644803 -18.85178 4294967295
-2.571008 6.7757177 -18.727705 4294967295
-2.562212 8.5105629 -18.900898 4294967295
-2.5549879 6.3019905 -18.583611 4294967295
-2.5505488 7.2485094 -18.679998 4294967295
-2.5420749 7.8793812 -18.71526 4294967295
-2.5378783 7.4060183 -18.633341 4294967295
-2.5279605 8.3524542 -18.700926 4294967295
-2.5223739 8.03685 -18.631657 4294967295
-2.5156455 10.718393 -18.935429 4294967295
-2.5040941 11.98009 -19.034285 4294967295
-2.4974196 11.033991 -18.87957 4294967295
-2.4957216 7.7208385 -18.451643 4294967295
-2.4928694 12.295686 -19.015211 4294967295
-2.4883494 9.7720966 -18.672327 4294967295
-2.4867022 8.8253908 -18.543943 4294967295
-2.48594 9.140974 -18.579851 4294967295
-2.4842079 10.876398 -18.790218 4294967295
-2.4827642 10.403163 -18.722788 4294967295
-2.4822965 9.6143198 -18.620569 4294967295
-2.4768431 12.61144 -18.970928 4294967295
-2.4704909 9.2987061 -18.518621 4294967295
-2.4577219 11.50772 -18.730885 4294967295
-2.4515853 13.08523 -18.898121 4294967295
-2.4488688 12.454382 -18.804075 4294967295
-2.4483621 12.138902 -18.761518 4294967295
-2.4116848 7.0874972 -18.7743 4294967295
-2.4112537 12.928597 -18.666389 4294967295
-2.4091926 12.770871 -18.635614 4294967295
-2.4071853 7.4028869 -18.790558 4294967295
-2.3980324 7.5604568 -18.762445 4294967295
-2.3979895 8.5068579 -18.881847 4294967295
-2.3965302 6.2982821 -18.595016 4294967295
-2.3936114 7.7181273 -18.759176 4294967295
-2.3810775 8.3489389 -18.773142 4294967295
-2.3774285 9.1375952 -18.85368 4294967295
-2.374069 6.7710614 -18.536915 4294967295
-2.3718688 10.241601 -18.964046 4294967295
-2.3706737 8.033287 -18.67865 4294967295
-2.3697817 6.4553275 -18.474506 4294967295
-2.3674867 7.2443113 -18.562197 4294967295
-2.3672962 8.1910105 -18.680862 4294967295
-2.3605113 8.9797573 -18.744957 4294967295
-2.3603818 7.8753533 -18.604679 4294967295
-2.3589165 10.083935 -18.876152 4294967295
-2.354326 10.557119 -18.911871 4294967295
-2.3517618 9.4529819 -18.75886 4294967295
-2.3478484 10.872605 -18.917755 4294967295
-2.3465893 8.6641121 -18.632006 4294967295
-2.3315508 9.2951527 -18.632854 4294967295
-2.3247607 9.9262638 -18.676992 4294967295
-2.3218112 12.450124 -18.980503 4294967295
-2.3194335 12.134756 -18.928169 4294967295
-2.3188744 8.8216801 -18.506489 4294967295
-2.31479 9.7684898 -18.604731 4294967295
-2.3138509 11.819413 -18.85902 4294967295
-2.3135526 11.346198 -18.797647 4294967295
-2.3119681 11.97718 -18.86908 4294967295
-2.3038514 13.081407 -18.966042 4294967295
-2.3025908 11.030814 -18.700266 4294967295
-2.3004034 11.661897 -18.768547 4294967295
-2.2984695 11.188634 -18.698586 4294967295
-2.2927251 9.610672 -18.469 4294967295
-2.2848728 11.504372 -18.667141 4294967295
-2.2679632 12.609131 -18.718035 4294967295
-2.2317989 7.8721566 -18.772898 4294967295
-2.2280397 6.2942824 -18.553856 4294967295
-2.2223239 8.8185177 -18.8428 4294967295
-2.2220116 7.5564618 -18.681726 4294967295
-2.215801 7.2407713 -18.609297 4294967295
-2.2152851 6.1360888 -18.467033 4294967295
-2.2079167 6.9249892 -18.528088 4294967295
-2.2058096 6.6092982 -18.477163 4294967295
-2.2052202 9.764864 -18.872721 4294967295
-2.204689 8.0295191 -18.650713 4294967295
-2.2001035 7.7138624 -18.586805 4294967295
-2.1973093 9.2916164 -18.771481 4294967295
-2.1946642 9.1338444 -18.737688 4294967295
-2.1899695 7.3980541 -18.493803 4294967295
-2.1871228 10.080372 -18.817739 4294967295
-2.183615 10.238131 -18.819286 4294967295
-2.1810546 8.1869936 -18.546755 4294967295
-2.1755476 8.6603565 -18.577696 4294967295
-2.1733489 7.0820284 -18.366779 4294967295
-2.1721139 6.7662797 -18.320417 4294967295
-2.1713243 8.9759283 -18.59543 4294967295
-2.1706359 11.657872 -18.930613 4294967295
-2.1687844 9.9226522 -18.701715 4294967295
-2.1666536 11.342473 -18.869904 4294967295
-2.1524887 11.027145 -18.755844 4294967295
-2.1449854 10.553883 -18.65674 4294967295
-2.1293585 12.920603 -18.873806 4294967295
-2.1275716 12.131886 -18.764816 4294967295
-2.1261559 10.711824 -18.578018 4294967295
-2.124758 12.762979 -18.829788 4294967295
-2.1247528 12.447471 -18.789907 4294967295
-2.122895 12.605272 -18.800104 4294967295
-2.1135561 11.974383 -18.671476 4294967295
-2.1066222 13.236742 -18.79459 4294967295
-2.1025918 11.816785 -18.594112 4294967295
-2.0999916 13.079166 -18.739939 4294967295
-2.0958517 11.501262 -18.518936 4294967295
-2.08267 7.2376204 -18.753502 4294967295
-2.0680497 6.606143 -18.597256 4294967295
-2.0656641 6.9216809 -18.624613 4294967295
-2.0610321 8.6571102 -18.819492 4294967295
-2.0576224 7.3948894 -18.642279 4294967295
-2.0559039 8.4993038 -18.772732 4294967295
-2.0499523 7.5525389 -18.622046 4294967295
-2.0309992 10.549985 -18.90131 4294967295
-2.0295377 9.919014 -18.813997 4294967295
-2.0234499 8.1833487 -18.562998 4294967295
-2.0219688 10.234546 -18.814226 4294967295
-2.0182047 7.7097945 -18.475758 4294967295
-2.0135024 10.86561 -18.84959 4294967295
-2.0121002 6.4467926 -18.284338 4294967295
-2.010432 8.0253448 -18.474922 4294967295
-2.0074446 6.7624288 -18.299828 4294967295
-1.9965612 10.39244 -18.701197 4294967295
-1.9948618 8.340826 -18.433273 4294967295
-1.9938692 10.708021 -18.726952 4294967295
-1.9906934 10.076879 -18.630648 4294967295
-1.9903393 8.9721498 -18.489315 4294967295
-1.9838628 9.2877865 -18.495274 4294967295
-1.9762986 9.1299114 -18.435757 4294967295
-1.9756193 8.8141994 -18.39234 4294967295
-1.9687322 12.128345 -18.774715 4294967295
-1.9685075 11.339441 -18.673943 4294967295
-1.964938 12.286194 -18.774786 4294967295
-1.9626838 9.4455671 -18.40436 4294967295
-1.9607384 12.917349 -18.832485 4294967295
-1.9500418 9.7612762 -18.378061 4294967295
-1.9442044 11.971035 -18.626495 4294967295
-1.9390537 12.760142 -18.699158 4294967295
-1.9388639 11.182007 -18.498934 4294967295
-1.9352368 13.233603 -18.738953 4294967295
-1.9309503 11.024253 -18.437605 4294967295
-1.9290582 11.497818 -18.48749 4294967295
-1.927356 12.602632 -18.618057 4294967295
-1.9200826 6.4449239 -18.643812 4294967295
-1.9185714 12.445019 -18.552189 4294967295
-1.9157363 11.655872 -18.437727 4294967295
-1.8915926 8.1800385 -18.713881 4294967295
-1.8771573 7.8642354 -18.598587 4294967295
-1.8744408 8.6532125 -18.683952 4294967295
-1.869037 7.3906188 -18.496382 4294967295
-1.8688469 7.7062798 -18.535221 4294967295
-1.8620915 6.2854452 -18.320614 4294967295
-1.8607998 10.230958 -18.81175 4294967295
-1.8582276 8.0217733 -18.519537 4294967295
-1.85695 6.7589321 -18.353497 4294967295
-1.8563054 10.388743 -18.808172 4294967295
-1.8561125 7.2325082 -18.408882 4294967295
-1.8559951 8.3374023 -18.547699 4294967295
-1.8492811 9.2842493 -18.632092 4294967295
-1.8404804 10.07325 -18.685658 4294967295
-1.8373553 9.4420252 -18.589674 4294967295
-1.834392 8.9685307 -18.514439 4294967295
-1.8336625 7.0741458 -18.27157 4294967295
-1.8335745 9.5998363 -18.589828 4294967295
-1.829185 9.126338 -18.507139 4294967295
-1.8247315 9.7576542 -18.563528 4294967295
-1.8138152 9.915494 -18.526394 4294967295
-1.8128576 11.335833 -18.700609 4294967295
-1.8110199 11.020255 -18.651186 4294967295
-1.7963312 10.704754 -18.534611 4294967295
-1.7949282 11.967308 -18.686584 4294967295
-1.7902707 12.756363 -18.761801 4294967295
-1.789595 10.86265 -18.519329 4294967295
-1.7752894 13.230127 -18.74328 4294967295
-1.7709525 11.652087 -18.521509 4294967295
-1.7691731 12.599087 -18.631697 4294967295
-1.7636681 11.494352 -18.463537 4294967295
-1.7582276 12.125842 -18.514784 4294967295
-1.7516336 12.441669 -18.52017 4294967295
-1.7497586 12.915225 -18.57012 4294967295
-1.7434103 11.810405 -18.397545 4294967295
-1.7286825 8.1763239 -18.702312 4294967295
-1.7286772 7.2294765 -18.582865 4294967295
-1.7264669 13.073707 -18.46839 4294967295
-1.7223226 6.2822771 -18.430233 4294967295
-1.7054939 7.7025266 -18.521532 4294967295
-1.7029201 7.3867893 -18.468277 4294967295
-1.6962063 7.5445151 -18.453131 4294967295
-1.6941762 9.2806358 -18.661495 4294967295
-1.6912316 6.4392743 -18.287767 4294967295
-1.6890706 9.438427 -18.654749 4294967295
-1.6829462 8.3335791 -18.483442 4294967295
-1.6822593 7.0706162 -18.320568 4294967295
-1.681644 8.8070965 -18.536366 4294967295
-1.6787893 8.0178099 -18.421921 4294967295
-1.675186 6.9125586 -18.263718 4294967295
-1.6706388 10.385297 -18.677965 4294967295
-1.6703002 10.069678 -18.636395 4294967295
-1.6642106 9.5962057 -18.544899 4294967295
-1.659835 7.8596458 -18.303047 4294967295
-1.6583685 8.4911699 -18.375044 4294967295
-1.6578399 11.647794 -18.770378 4294967295
-1.6565152 10.701013 -18.644068 4294967295
-1.6554686 10.227552 -18.578896 4294967295
-1.6518736 9.9118891 -18.520323 4294967295
-1.6357164 11.016856 -18.575346 4294967295
-1.6322362 12.437239 -18.736301 4294967295
-1.6308042 9.1225023 -18.310804 4294967295
-1.6267234 10.859106 -18.508516 4294967295
-1.6165344 11.806294 -18.574787 4294967295
-1.6059095 12.122167 -18.559168 4294967295
-1.6057252 10.543541 -18.359127 4294967295
-1.6052312 11.332921 -18.456099 4294967295
-1.594002 12.280258 -18.516956 4294967295
-1.5868381 11.175278 -18.340221 4294967295
-1.5867729 11.491055 -18.379704 4294967295
-1.5850123 6.27918 -18.55246 4294967295
-1.5735158 12.912168 -18.489721 4294967295
-1.5734253 6.7523737 -18.551716 4294967295
-1.570647 13.070104 -18.494663 4294967295
-1.5688256 8.0148458 -18.686884 4294967295
-1.5641632 12.596665 -18.401123 4294967295
-1.5585405 7.8568773 -18.613363 4294967295
-1.5524076 7.6989474 -18.561491 4294967295
-1.5484289 6.4360018 -18.381552 4294967295
-1.5428596 8.9614229 -18.670862 4294967295
-1.5394135 10.065995 -18.792128 4294967295
-1.5369598 7.3829627 -18.441143 4294967295
-1.5361997 7.067205 -18.397379 4294967295
-1.5319128 8.6456919 -18.574009 4294967295
-1.529768 8.3299875 -18.523035 4294967295
-1.5297357 9.7504215 -18.70191 4294967295
-1.5289681 7.540679 -18.419371 4294967295
-1.5246474 9.9082317 -18.69528 4294967295
-1.519179 8.8034248 -18.527521 4294967295
-1.5149432 9.4347658 -18.585024 4294967295
-1.5127045 9.1190767 -18.533562 4294967295
-1.5115188 8.4876423 -18.44779 4294967295
-1.4927709 6.5924144 -18.111172 4294967295
-1.4898427 12.275553 -18.81225 4294967295
-1.4835463 9.5925598 -18.441267 4294967295
-1.4835216 11.802293 -18.719658 4294967295
-1.480119 12.433553 -18.781483 4294967295
-1.4786611 11.01326 -18.594875 4294967295
-1.4779776 10.381886 -18.511734 4294967295
-1.4768107 11.171115 -18.605127 4294967295
-1.4720495 13.064905 -18.818995 4294967295
-1.4708952 11.486858 -18.61409 4294967295
-1.4701132 9.2767582 -18.331448 4294967295
-1.4586383 11.644883 -18.570124 4294967295
-1.4582279 12.118399 -18.627665 4294967295
-1.4518852 10.855675 -18.435455 4294967295
-1.4445435 10.224166 -18.317593 4294967295
-1.440696 10.697887 -18.357248 4294967295
-1.4403461 12.907962 -18.633972 4294967295
-1.4374669 11.960955 -18.499613 4294967295
-1.4373244 10.540013 -18.319777 4294967295
-1.4254138 12.592651 -18.516405 4294967295
-1.4135946 12.750806 -18.474735 4294967295
-1.391129 6.7480817 -18.439434 4294967295
-1.3886663 7.3794832 -18.506163 4294967295
-1.3867481 7.8530016 -18.555834 4294967295
-1.3801019 8.326437 -18.580885 4294967295
-1.3800954 6.5899177 -18.362076 4294967295
-1.3786678 8.4842596 -18.593304 4294967295
-1.3757892 6.9055886 -18.379431 4294967295
-1.3599634 7.5368104 -18.376583 4294967295
-1.3590481 6.4314427 -18.232555 4294967295
-1.3587791 7.0630937 -18.310736 4294967295
-1.3546507 8.1682625 -18.428482 4294967295
-1.3428303 8.0102119 -18.347044 4294967295
-1.3418318 9.1153803 -18.481077 4294967295
-1.3386258 7.694334 -18.285362 4294967295
-1.3385552 8.95749 -18.44413 4294967295
-1.338382 11.325106 -18.741489 4294967295
-1.3266585 10.536096 -18.581074 4294967295
-1.3239547 10.220407 -18.527233 4294967295
-1.3212411 8.6415701 -18.314209 4294967295
-1.3202169 11.798817 -18.70661 4294967295
-1.3191093 9.2731571 -18.382681 4294967295
-1.3177273 9.7468138 -18.435158 4294967295
-1.315244 10.69403 -18.541555 4294967295
-1.3147907 11.641085 -18.658497 4294967295
-1.3053688 9.5889158 -18.350939 4294967295
-1.3007598 12.430482 -18.684902 4294967295
-1.2997999 10.378393 -18.421406 4294967295
-1.2991126 11.483484 -18.557039 4294967295
-1.2956996 9.4309883 -18.280714 4294967295
-1.2954041 11.167812 -18.497971 4294967295
-1.2911643 12.588531 -18.654863 4294967295
-1.2882811 9.9047337 -18.301781 4294967295
-1.2837536 12.904381 -18.656076 4294967295
-1.2771838 11.010138 -18.38327 4294967295
-1.253006 12.115778 -18.396696 4294967295
-1.2489285 12.273757 -18.395372 4294967295
-1.2389984 12.747675 -18.403381 4294967295
-1.2279646 7.3757596 -18.506556 4294967295
-1.2099245 8.006917 -18.492252 4294967295
-1.2023951 7.0594516 -18.333813 4294967295
-1.1980913 8.322506 -18.47048 4294967295
-1.1956455 6.5855331 -18.239054 4294967295
-1.1924493 10.216695 -18.679647 4294967295
-1.1921668 6.427505 -18.201073 4294967295
-1.1894872 6.7433066 -18.226908 4294967295
-1.1861037 9.1117611 -18.507544 4294967295
-1.179806 6.2692065 -18.116886 4294967295
-1.1785682 7.5327134 -18.26955 4294967295
-1.1751422 7.6905766 -18.27162 4294967295
-1.1745872 8.795927 -18.407913 4294967295
-1.1727371 8.480114 -18.35853 4294967295
-1.1720238 7.2167182 -18.195744 4294967295
-1.1715786 9.4274502 -18.471788 4294967295
-1.1644018 7.8483295 -18.235653 4294967295
-1.1603711 9.7431965 -18.453285 4294967295
-1.1597484 8.1641264 -18.251226 4294967295
-1.1584611 12.110952 -18.741461 4294967295
-1.1488239 9.2694826 -18.333616 4294967295
-1.1483223 11.637647 -18.629171 4294967295
-1.1475825 8.637785 -18.247627 4294967295
-1.1461929 11.164124 -18.558487 4294967295
-1.1417999 11.006308 -18.515781 4294967295
-1.14141 10.53268 -18.454124 4294967295
-1.1358958 8.9535646 -18.226639 4294967295
-1.1271694 10.848572 -18.419872 4294967295
-1.1231022 12.585219 -18.617371 4294967295
-1.1224686 9.5852652 -18.23638 4294967295
-1.1079655 11.480391 -18.399593 4294967295
-1.1078017 11.954074 -18.458378 4294967295
-1.0970449 11.796371 -18.38261 4294967295
-1.0931035 12.270149 -18.421768 4294967295
-1.0831558 11.322817 -18.250792 4294967295
-1.0608857 8.1612482 -18.573238 4294967295
-1.0468378 6.7400045 -18.321455 4294967295
-1.0466113 8.9503775 -18.598446 4294967295
-1.0368134 8.3188181 -18.468105 4294967295
-1.0365834 6.4238791 -18.228439 4294967295
-1.036375 9.2660313 -18.58503 4294967295
-1.0342852 7.845108 -18.395367 4294967295
-1.0179317 6.265398 -18.11167 4294967295
-1.0156921 6.897182 -18.179554 4294967295
-1.0127096 10.371034 -18.601231 4294967295
-1.0088813 8.6343193 -18.36281 4294967295
-1.0046494 6.5809765 -18.082436 4294967295
-0.99171299 9.8974781 -18.432644 4294967295
-0.99028212 10.529035 -18.504688 4294967295
-0.98833412 7.0545216 -18.057337 4294967295
-0.98456568 11.634165 -18.614075 4294967295
-0.98120731 10.0554 -18.39798 4294967295
-0.9732545 11.476473 -18.535515 4294967295
-0.96717268 10.213359 -18.345001 4294967295
-0.96531272 9.1078033 -18.196224 4294967295
-0.95361042 12.58194 -18.572638 4294967295
-0.95190263 9.5816269 -18.186235 4294967295
-0.95075321 11.950488 -18.478352 4294967295
-0.94866449 11.792632 -18.447645 4294967295
-0.94617891 9.739583 -18.176401 4294967295
-0.92650998 11.319215 -18.273069 4294967295
-0.92030478 11.161346 -18.220993 4294967295
-0.9166497 12.266977 -18.341139 4294967295
-0.90712869 12.425114 -18.311611 4294967295
-0.88681853 7.6837211 -18.444893 4294967295
-0.87915391 6.8940072 -18.305828 4294967295
-0.87572312 6.5780516 -18.248302 4294967295
-0.87545282 6.7359843 -18.266766 4294967295
-0.86849082 6.2619491 -18.171049 4294967295
-0.86438411 7.5254111 -18.308676 4294967295
-0.85767841 9.420207 -18.51223 4294967295
-0.85482121 8.9465218 -18.437841 4294967295
-0.85456568 8.6307106 -18.396797 4294967295
-0.84956729 8.1568956 -18.311291 4294967295
-0.84688717 7.9989247 -18.277527 4294967295
-0.84266943 7.8409176 -18.235788 4294967295
-0.83439553 8.3146439 -18.252478 4294967295
-0.83267611 9.1043024 -18.342882 4294967295
-0.83103943 10.367556 -18.493277 4294967295
-0.82776922 8.472517 -18.237982 4294967295
-0.8273735 9.5780478 -18.374975 4294967295
-0.8250286 11.472753 -18.601109 4294967295
-0.79628241 9.8939142 -18.253521 4294967295
-0.78685647 10.051886 -18.224524 4294967295
-0.77578467 11.315535 -18.326048 4294967295
-0.77279758 12.263116 -18.429729 4294967295
-0.7714076 10.841752 -18.243773 4294967295
-0.7710647 11.947319 -18.381031 4294967295
-0.77073652 10.999711 -18.260159 4294967295
-0.76430058 11.631574 -18.306257 4294967295
-0.76066828 10.525908 -18.148375 4294967295
-0.74785322 6.8909564 -18.458975 4294967295
-0.74588549 12.105735 -18.27042 4294967295
-0.74530983 11.789836 -18.227709 4294967295
-0.73567331 12.421854 -18.257233 4294967295
-0.72677028 6.2587233 -18.270344 4294967295
-0.71655983 7.2060828 -18.336576 4294967295
-0.716236 9.416626 -18.61278 4294967295
-0.71540469 7.5219092 -18.370298 4294967295
-0.70906562 7.6797194 -18.357317 4294967295
-0.70634037 7.8375983 -18.363054 4294967295
-0.69593108 9.2586794 -18.487803 4294967295
-0.69390488 6.5737357 -18.139793 4294967295
-0.69018251 8.7849274 -18.398487 4294967295
-0.68620008 10.837488 -18.635878 4294967295
-0.678828 7.0473089 -18.121269 4294967295
-0.67793798 7.9951091 -18.235809 4294967295
-0.67624909 6.4152694 -18.028463 4294967295
-0.67215443 6.7311673 -18.046976 4294967295
-0.66412067 10.679798 -18.501745 4294967295
-0.66261971 8.6267548 -18.235905 4294967295
-0.65492272 11.311462 -18.533522 4294967295
-0.65423852 9.5744057 -18.311636 4294967295
-0.65352982 12.100874 -18.625532 4294967295
-0.65269983 10.995699 -18.482325 4294967295
-0.65100801 9.7323437 -18.314764 4294967295
-0.64917481 11.785205 -18.563311 4294967295
-0.64713627 9.1005249 -18.2153 4294967295
-0.64468408 8.468606 -18.123169 4294967295
-0.64267421 10.206177 -18.331179 4294967295
-0.64202547 11.627433 -18.506466 4294967295
-0.63124102 11.153851 -18.391106 4294967295
-0.62998432 11.469708 -18.424301 4294967295
-0.61854023 11.943647 -18.424622 4294967295
-0.6176343 10.364243 -18.221411 4294967295
-0.60776383 9.8903379 -18.110739 4294967295
-0.59968698 12.25987 -18.36676 4294967295
-0.58613533 6.5713663 -18.414751 4294967295
-0.57744849 12.418297 -18.27154 4294967295
-0.54989541 6.2544804 -18.187565 4294967295
-0.52939361 7.2017937 -18.200588 4294967295
-0.5266341 8.6233139 -18.36492 4294967295
-0.52575868 7.9915352 -18.281017 4294967295
-0.52250743 9.0970678 -18.403103 4294967295
-0.52133512 8.3073778 -18.297827 4294967295
-0.5172261 6.7275577 -18.078093 4294967295
-0.51412308 7.5174441 -18.161293 4294967295
-0.51267642 11.149799 -18.610159 4294967295
-0.51110089 11.623431 -18.661512 4294967295
-0.51077241 7.6753659 -18.163811 4294967295
-0.50931591 8.9390545 -18.315046 4294967295
-0.50680888 11.465627 -18.619497 4294967295
-0.50153577 6.8851848 -18.016775 4294967295
-0.49713659 7.3591256 -18.053576 4294967295
-0.4966042 9.5707827 -18.32869 4294967295
-0.4902657 10.202545 -18.375288 4294967295
-0.48970899 8.7809515 -18.19381 4294967295
-0.487032 9.4128113 -18.259352 4294967295
-0.48647651 7.8329611 -18.057993 4294967295
-0.48410919 9.254837 -18.224394 4294967295
-0.4816539 11.308079 -18.469646 4294967295
-0.474861 8.4648342 -18.077324 4294967295
-0.4707413 10.518531 -18.314037 4294967295
-0.47044769 10.044661 -18.252987 4294967295
-0.45910171 10.676569 -18.27371 4294967295
-0.45444539 10.360663 -18.209949 4294967295
-0.45335281 12.098137 -18.422571 4294967295
-0.4425694 11.940406 -18.347002 4294967295
-0.44159609 11.782475 -18.32213 4294967295
-0.4187921 6.5674305 -18.381254 4294967295
-0.4141514 7.0410972 -18.416773 4294967295
-0.39273179 7.9882388 -18.425108 4294967295
-0.39053401 7.6723461 -18.374094 4294967295
-0.38776621 8.4619341 -18.458952 4294967295
-0.38188729 8.9356203 -18.488075 4294967295
-0.37816331 6.8823209 -18.211012 4294967295
-0.37712511 8.1459532 -18.364328 4294967295
-0.37360209 8.3038483 -18.365965 4294967295
-0.3728064 7.5140824 -18.262686 4294967295
-0.37272841 9.4093018 -18.500263 4294967295
-0.37053919 8.7776184 -18.409641 4294967295
-0.36817881 9.7251072 -18.516426 4294967295
-0.36470231 9.5671959 -18.478647 4294967295
-0.3605732 6.4078918 -18.060612 4294967295
-0.34549549 10.356803 -18.478621 4294967295
-0.34145129 7.1974878 -18.061029 4294967295
-0.34126171 11.304264 -18.57572 4294967295
-0.3379977 10.514764 -18.45974 4294967295
-0.33303329 11.778061 -18.592722 4294967295
-0.32754931 11.620255 -18.544594 4294967295
-0.32629931 11.462369 -18.518314 4294967295
-0.32553881 7.8292522 -18.058199 4294967295
-0.32440361 12.251889 -18.607655 4294967295
-0.32428929 10.198967 -18.349306 4294967295
-0.31998649 10.830759 -18.406416 4294967295
-0.30536371 9.8830862 -18.211922 4294967295
-0.29639271 10.988936 -18.304453 4294967295
-0.29232901 10.041099 -18.164459 4294967295
-0.2901715 11.146968 -18.292171 4294967295
-0.28923509 12.094688 -18.406328 4294967295
-0.28597179 11.936808 -18.369656 4294967295
-0.2538701 6.5635586 -18.360415 4294967295
-0.2462544 7.0371962 -18.38059 4294967295
-0.23963919 7.5108709 -18.405928 4294967295
-0.237547 7.6687665 -18.414955 4294967295
-0.2332575 8.6162348 -18.511745 4294967295
-0.23035631 6.4049644 -18.219261 4294967295
-0.22483671 7.3526425 -18.309738 4294967295
-0.2228153 8.7740593 -18.477707 4294967295
-0.220672 6.2467041 -18.149462 4294967295
-0.21871971 7.8263988 -18.337654 4294967295
-0.1986969 10.037322 -18.511875 4294967295
-0.1966444 9.7214861 -18.461655 4294967295
-0.19436079 9.8794117 -18.469698 4294967295
-0.19197451 8.4578867 -18.278996 4294967295
-0.1918314 6.8779674 -18.079971 4294967295
-0.1917311 7.1939859 -18.119116 4294967295
-0.19053259 10.195264 -18.489595 4294967295
-0.18987601 9.0897121 -18.347469 4294967295
-0.18917979 9.2476597 -18.363701 4294967295
-0.1874698 10.826932 -18.553072 4294967295
-0.1842853 6.7197618 -18.021204 4294967295
-0.18283629 9.5635395 -18.370632 4294967295
-0.1703631 8.2996588 -18.147697 4294967295
-0.14917471 11.143179 -18.395288 4294967295
-0.1472822 10.669336 -18.326067 4294967295
-0.1376619 11.617174 -18.395403 4294967295
-0.13388459 11.775183 -18.395754 4294967295
-0.1183381 11.459501 -18.275974 4294967295
-0.1153256 10.511578 -18.141485 4294967295
-0.1139541 11.93349 -18.312845 4294967295
-0.1072299 10.985666 -18.159233 4294967295
-0.098407097 11.301782 -18.153406 4294967295
-0.087221697 6.2437158 -18.291185 4294967295
-0.084316298 6.5595641 -18.315842 4294967295
-0.075523697 6.7173042 -18.29035 4294967295
-0.071974903 7.0331526 -18.311695 4294967295
-0.071392402 6.8751726 -18.288879 4294967295
-0.063665703 7.822783 -18.367954 4294967295
-0.061041899 7.5068221 -18.31481 4294967295
-0.0583161 8.2965536 -18.399832 4294967295
-0.0576507 8.1385975 -18.376593 4294967295
-0.051736798 8.7703142 -18.425377 4294967295
-0.034745201 9.7178659 -18.456726 4294967295
-0.034162499 9.5599289 -18.433916 4294967295
-0.0275065 7.1901784 -18.102394 4294967295
-0.0263019 9.0860481 -18.333998 4294967295
-0.025768399 6.3999853 -17.994324 4294967295
-0.023677099 10.665471 -18.518583 4294967295
-0.0223689 9.8758116 -18.412804 4294967295
-0.0100061 8.6119852 -18.190619 4294967295
-0.0060458998 8.4539423 -18.1504 4294967295
-0.0043386999 10.507671 -18.399206 4294967295
0.00083490001 8.9279013 -18.174416 4294967295
0.000925 10.82361 -18.411726 4294967295
0.004737 9.2438831 -18.193956 4294967295
0.0109454 10.191819 -18.280882 4294967295
0.0119844 11.613464 -18.453836 4294967295
0.0141349 9.4018545 -18.165373 4294967295
0.018529501 11.929453 -18.459763 4294967295
0.026100701 10.349874 -18.222662 4294967295
0.027264399 10.033877 -18.177034 4294967295
0.030086599 11.297811 -18.321028 4294967295
0.0306384 11.139843 -18.298374 4294967295
0.0508065 10.982071 -18.174728 4294967295
0.093957797 6.5553408 -18.226591 4294967295
0.094062798 8.4509068 -18.463696 4294967295
0.098407 7.9770141 -18.381943 4294967295
0.1028549 7.6610169 -18.319452 4294967295
0.1064984 6.8710184 -18.201674 4294967295
0.1148158 8.2927208 -18.337135 4294967295
0.1171933 6.7127504 -18.126829 4294967295
0.1197653 8.9245234 -18.390886 4294967295
0.1199483 7.5027285 -18.2117 4294967295
0.122505 8.1346493 -18.277775 4294967295
0.1301699 6.2383027 -18.00061 4294967295
0.13433529 7.0283923 -18.078243 4294967295
0.1374239 9.2403536 -18.339664 4294967295
0.1389053 9.714242 -18.391453 4294967295
0.1455048 10.18812 -18.416918 4294967295
0.1493831 7.3441472 -18.040442 4294967295
0.156092 11.451742 -18.520872 4294967295
0.16173419 9.0822506 -18.19482 4294967295
0.16436049 8.6081877 -18.121883 4294967295
0.16504879 10.820068 -18.395626 4294967295
0.1751876 7.8178406 -17.967119 4294967295
0.17641009 10.346227 -18.277798 4294967295
0.1798607 10.030249 -18.220442 4294967295
0.1824882 10.504251 -18.266348 4294967295
0.18629859 10.66227 -18.266562 4294967295
0.1917116 9.8722582 -18.139688 4294967295
0.2093356 9.3981218 -17.989614 4294967295
0.21135341 11.294522 -18.216965 4294967295
0.24005871 11.61097 -18.109007 4294967295
0.24552719 7.0257583 -18.334282 4294967295
0.245811 6.5518117 -18.273436 4294967295
0.25641441 6.7095318 -18.238741 4294967295
0.28086579 6.2348156 -18.053675 4294967295
0.28180569 6.3928294 -18.068647 4294967295
0.28550729 8.4469032 -18.307014 4294967295
0.28911579 7.8148751 -18.209288 4294967295
0.2893537 8.6048489 -18.307049 4294967295
0.29507911 9.0787487 -18.337021 4294967295
0.2984215 7.1826153 -18.082272 4294967295
0.3094171 6.8662715 -17.98616 4294967295
0.31132349 8.1305857 -18.134789 4294967295
0.3132534 9.2366486 -18.263462 4294967295
0.31401789 10.184547 -18.3783 4294967295
0.3172484 7.3402786 -18.005333 4294967295
0.31995419 11.290298 -18.486349 4294967295
0.33333391 7.4980369 -17.942486 4294967295
0.34647959 10.500683 -18.251186 4294967295
0.35409439 9.5525713 -18.093287 4294967295
0.35413569 10.816748 -18.251465 4294967295
0.35506541 9.3945255 -18.068499 4294967295
0.35525379 11.132759 -18.285315 4294967295
0.35742369 10.974783 -18.254377 4294967295
0.35887381 10.658778 -18.207338 4294967295
0.36265081 8.9203148 -17.970123 4294967295
0.37014869 9.7106066 -18.030634 4294967295
0.3732211 11.765005 -18.272243 4294967295
0.39541581 11.449308 -18.118702 4294967295
0.40695831 6.864018 -18.312107 4294967295
0.43069571 6.3893862 -18.130913 4294967295
0.4368636 7.4953713 -18.237783 4294967295
0.44368199 6.230979 -18.044464 4294967295
0.44603819 7.1791568 -18.151125 4294967295
0.44630629 8.1272335 -18.26848 4294967295
0.45272049 8.7591438 -18.314714 4294967295
0.4531326 8.4431515 -18.273029 4294967295
0.45397681 8.60114 -18.288485 4294967295
0.45528471 6.7048235 -18.044294 4294967295
0.45723519 7.0208769 -18.073872 4294967295
0.46259001 7.810966 -18.145351 4294967295
0.46703771 9.3910255 -18.32041 4294967295
0.46777999 7.6528444 -18.09893 4294967295
0.482537 6.5460525 -17.88463 4294967295
0.49384609 10.655 -18.341185 4294967295
0.49898559 10.023025 -18.235685 4294967295
0.49900189 7.3361354 -17.899124 4294967295
0.50129467 10.497057 -18.283201 4294967295
0.50306809 10.18105 -18.234533 4294967295
0.50467777 9.2328777 -18.107542 4294967295
0.50477362 9.7069874 -18.166422 4294967295
0.50731778 10.813106 -18.291883 4294967295
0.50821292 10.971113 -18.307077 4294967295
0.51087439 11.287132 -18.332998 4294967295
0.51932079 11.603236 -18.329256 4294967295
0.52292252 9.0747328 -17.994158 4294967295
0.52540702 9.865037 -18.080381 4294967295
0.55050659 11.129594 -18.109991 4294967295
0.55054492 11.445681 -18.149374 4294967295
0.5621205 6.2284226 -18.262835 4294967295
0.58539361 7.0178633 -18.242435 4294967295
0.58593768 6.5437951 -18.180309 4294967295
0.60654032 7.965538 -18.252731 4294967295
0.61101329 8.281497 -18.269365 4294967295
0.61761552 7.3332391 -18.116858 4294967295
0.62658513 7.4911151 -18.090673 4294967295
0.62918317 8.4393082 -18.196045 4294967295
0.63978952 6.8585629 -17.943861 4294967295
0.64273798 9.0713034 -18.205713 4294967295
0.64547408 6.3841267 -17.855356 4294967295
0.64661711 7.1745825 -17.948442 4294967295
0.65213341 6.7001662 -17.860804 4294967295
0.65978932 8.755106 -18.078794 4294967295
0.66029787 9.2292538 -18.135534 4294967295
0.66937548 8.5969563 -18.009897 4294967295
0.67256713 11.441586 -18.349571 4294967295
0.67368698 10.335513 -18.205406 4294967295
0.67441797 9.3872547 -18.082981 4294967295
0.67892468 8.9130306 -18.000544 4294967295
0.67958289 10.967652 -18.25432 4294967295
0.68083161 9.7033587 -18.089691 4294967295
0.68369138 7.6481833 -17.817814 4294967295
0.70504189 10.01952 -18.005247 4294967295
0.70998722 10.8099 -18.078835 4294967295
0.71159822 10.651848 -18.050802 4294967295
0.71718568 10.177641 -17.962831 4294967295
0.74307412 11.284488 -17.968748 4294967295
0.74806643 6.2239175 -18.13512 4294967295
0.7663188 6.3814559 -18.061459 4294967295
0.77708513 7.0134287 -18.085443 4294967295
0.78289348 7.1713619 -18.075487 4294967295
0.78326237 8.2776728 -18.211998 4294967295
0.79209077 8.7516689 -18.22613 4294967295
0.79528898 9.0676956 -18.249302 4294967295
0.79599488 10.173739 -18.384047 4294967295
0.80054247 9.2256937 -18.242191 4294967295
0.80189538 10.489748 -18.393391 4294967295
0.80199432 6.696681 -17.918392 4294967295
0.80307579 8.9096193 -18.189693 4294967295
0.80421478 6.8547258 -17.926805 4294967295
0.80544209 9.3837013 -18.236893 4294967295
0.81894279 9.6997404 -18.207363 4294967295
0.8193379 11.121865 -18.383232 4294967295
0.82174343 7.4867578 -17.916203 4294967295
0.82433021 8.4352608 -18.021626 4294967295
0.82676482 9.5416908 -18.147577 4294967295
0.82696211 7.8028703 -17.929052 4294967295
0.82938641 7.9609327 -17.936422 4294967295
0.83765012 7.3283386 -17.815012 4294967295
0.84770292 7.644412 -17.803127 4294967295
0.84901953 11.438258 -18.270967 4294967295
0.85249472 10.964205 -18.193893 4294967295
0.85693479 10.648148 -18.131647 4294967295
0.85864782 10.806216 -18.142654 4294967295
0.85942161 8.593008 -17.861845 4294967295
0.86878788 9.8578224 -17.972151 4294967295
0.92302662 6.8519683 -18.143038 4294967295
0.92841172 7.1679468 -18.155033 4294967295
0.93170738 7.0098224 -18.118425 4294967295
0.93173081 8.5901642 -18.315899 4294967295
0.93448317 7.483922 -18.163523 4294967295
0.94306737 6.2191515 -17.961527 4294967295
0.94354153 6.5353193 -17.998638 4294967295
0.94374651 7.9579072 -18.175461 4294967295
0.95012307 9.0640755 -18.281187 4294967295
0.95243227 6.376986 -17.933418 4294967295
0.95651788 9.3800907 -18.288027 4294967295
0.95711982 7.3254251 -18.028059 4294967295
0.95855689 9.6961212 -18.317122 4294967295
0.96965748 7.6413627 -18.003508 4294967295
0.98015702 6.6924896 -17.831228 4294967295
0.98209321 10.328254 -18.275909 4294967295
0.98474872 8.4315834 -18.025211 4294967295
0.99119037 8.9057732 -18.05159 4294967295
0.99508941 11.27649 -18.328062 4294967295
0.9952485 10.012223 -18.169191 4294967295
1.0152812 10.960654 -18.185421 4294967295
1.0272925 10.170387 -18.025257 4294967295
1.0377026 10.644711 -18.031374 4294967295
1.0402297 11.118985 -18.077757 4294967295
1.0830621 7.0062895 -18.168079 4294967295
1.085627 6.3739743 -18.075974 4294967295
1.1135253 8.2701921 -18.170597 4294967295
1.1184169 7.1635938 -18.007355 4294967295
1.1205343 6.6892409 -17.937273 4294967295
1.1253786 8.5861807 -18.149607 4294967295
1.1273131 6.847188 -17.922424 4294967295
1.1291274 8.111928 -18.071217 4294967295
1.13508 10.640655 -18.356831 4294967295
1.1416293 8.7441072 -18.08643 4294967295
1.1475692 7.4792323 -17.898062 4294967295
1.1493502 10.008595 -18.205046 4294967295
1.1533707 8.9021025 -18.046267 4294967295
1.1585389 9.2182465 -18.059404 4294967295
1.1585689 7.3208904 -17.822153 4294967295
1.1771961 11.11515 -18.201241 4294967295
1.178863 9.3762703 -17.975454 4294967295
1.1825967 9.5343685 -17.976162 4294967295
1.1841432 9.0600176 -17.908997 4294967295
1.1912923 10.166792 -18.01082 4294967295
1.1939387 10.482999 -18.036829 4294967295
1.2018731 10.957341 -18.055618 4294967295
1.2098259 10.799317 -17.995296 4294967295
1.2347792 6.6866441 -18.17635 4294967295
1.2805395 6.3692617 -17.903543 4294967295
1.2812597 6.2111139 -17.880121 4294967295
1.2923272 7.6339102 -18.001436 4294967295
1.2960415 7.9500532 -18.021996 4294967295
1.2969742 6.8432264 -17.879002 4294967295
1.30389 9.2146645 -18.139948 4294967295
1.3090029 8.8984756 -18.074406 4294967295
1.3104147 10.479136 -18.264622 4294967295
1.3104368 8.5822763 -18.027609 4294967295
1.3116699 8.7403631 -18.041069 4294967295
1.3134633 6.5265198 -17.755426 4294967295
1.3141806 9.5307827 -18.126995 4294967295
1.3181168 10.163066 -18.185904 4294967295
1.3181829 7.1590347 -17.810379 4294967295
1.3198711 9.0565014 -18.038765 4294967295
1.3227481 7.7915273 -17.866116 4294967295
1.3259827 9.3726692 -18.047112 4294967295
1.3266898 7.0006914 -17.747257 4294967295
1.3273522 8.2658653 -17.901901 4294967295
1.3292171 10.321179 -18.14909 4294967295
1.334051 7.3168688 -17.749241 4294967295
1.3349227 8.1076326 -17.843563 4294967295
1.3538784 10.795591 -18.08268 4294967295
1.3598876 9.8469677 -17.93359 4294967295
1.3665296 10.005107 -17.919497 4294967295
1.3703363 10.953844 -18.018585 4294967295
1.3727332 11.111977 -18.026119 4294967295
1.3762554 10.637663 -17.948938 4294967295
1.4312737 6.5238824 -17.976341 4294967295
1.4430274 6.3654423 -17.896751 4294967295
1.4597994 7.6300778 -17.969275 4294967295
1.4606169 8.578701 -18.08353 4294967295
1.4651308 8.1043425 -18.001347 4294967295
1.4705935 7.1554732 -17.855101 4294967295
1.4755089 8.2623272 -17.968258 4294967295
1.4764866 6.2063413 -17.706629 4294967295
1.4784659 9.0528574 -18.051891 4294967295
1.4793123 6.9971294 -17.790968 4294967295
1.4892368 7.3132486 -17.779926 4294967295
1.4902637 10.31758 -18.149725 4294967295
1.5032252 7.9456716 -17.787691 4294967295
1.5053798 9.3689718 -17.954395 4294967295
1.5088029 10.633867 -18.094864 4294967295
1.5096728 7.7874007 -17.735125 4294967295
1.5147692 10.001464 -17.985567 4294967295
1.5154302 9.6852121 -17.942728 4294967295
1.5174367 8.4199953 -17.774584 4294967295
1.5194309 9.2107821 -17.863148 4294967295
1.5349522 10.950308 -18.001297 4294967295
1.5424676 10.792251 -17.943325 4294967295
1.5798184 6.6785412 -18.060186 4294967295
1.5842335 8.4173231 -18.25469 4294967295
1.6055746 6.3616214 -17.889753 4294967295
1.609072 9.0493708 -18.207317 4294967295
1.6121716 9.2074251 -18.211283 4294967295
1.6124742 7.9427214 -18.051958 4294967295
1.6168461 8.7331591 -18.128359 4294967295
1.6174566 8.2588644 -18.066082 4294967295
1.6180483 7.4682794 -17.964437 4294967295
1.6251477 6.8355665 -17.849417 4294967295
1.6320785 8.5749235 -18.031206 4294967295
1.6404402 10.472 -18.225388 4294967295
1.6438709 8.8910589 -18.010719 4294967295
1.6463133 10.63011 -18.215267 4294967295
1.6491886 7.7840285 -17.845579 4294967295
1.6508962 6.2021694 -17.639536 4294967295
1.6528196 8.1002865 -17.866583 4294967295
1.6567074 7.6257386 -17.787621 4294967295
1.6578954 6.9929857 -17.702635 4294967295
1.6610407 9.8397055 -18.041817 4294967295
1.6705564 10.155957 -18.032911 4294967295
1.6820718 10.788486 -18.053301 4294967295
1.6848038 9.6815796 -17.901325 4294967295
1.6886392 9.5234213 -17.862103 4294967295
1.6955706 9.9978914 -17.886072 4294967295
1.7112861 10.314263 -17.845675 4294967295
1.7298183 6.2007499 -18.057665 4294967295
1.7423835 7.3071404 -18.131863 4294967295
1.7429433 7.7813849 -18.18816 4294967295
1.7478691 6.6746006 -18.025143 4294967295
1.7545244 8.413538 -18.20821 4294967295
1.7670472 7.622889 -18.046061 4294967295
1.7775003 6.357542 -17.835218 4294967295
1.7908123 9.6779747 -18.181707 4294967295
1.7936894 10.626425 -18.285368 4294967295
1.7949973 8.7293472 -18.042179 4294967295
1.7980891 6.8315268 -17.789831 4294967295
1.7983363 10.784524 -18.281496 4294967295
1.7988769 8.2549248 -17.963331 4294967295
1.8167335 9.5198421 -18.030432 4294967295
1.8170002 7.4638481 -17.772705 4294967295
1.8194325 6.9892235 -17.701174 4294967295
1.8270547 8.8872414 -17.899168 4294967295
1.8272167 9.045393 -17.918066 4294967295
1.8289715 9.3616791 -17.948601 4294967295
1.8343749 8.5708523 -17.822565 4294967295
1.8348621 9.2035074 -17.898981 4294967295
1.8432693 10.310525 -17.994347 4294967295
1.8447642 9.9942503 -17.947323 4294967295
1.8482018 10.468686 -17.989035 4294967295
1.8562111 9.8361111 -17.869509 4294967295
1.9147053 6.1962752 -17.937298 4294967295
1.9250497 7.4610991 -18.042509 4294967295
1.9264323 6.3540955 -17.897528 4294967295
1.928268 7.3029113 -18.006481 4294967295
1.9298521 6.8284612 -17.939318 4294967295
1.9299613 8.7258883 -18.175247 4294967295
1.9449533 8.8838739 -18.118948 4294967295
1.9606568 6.6695437 -17.763374 4294967295
1.9728376 8.0929117 -17.879036 4294967295
1.978682 6.5108776 -17.652235 4294967295
1.97963 9.0417824 -17.962866 4294967295
1.9820237 7.1436443 -17.714165 4294967295
1.9942893 10.306876 -18.046227 4294967295
1.9951251 7.6180115 -17.706881 4294967295
1.999878 7.7761412 -17.702497 4294967295
2.0026729 9.51616 -17.90519 4294967295
2.0046821 8.5670843 -17.776724 4294967295
2.0126486 8.2505932 -17.696901 4294967295
2.019465 9.832489 -17.859501 4294967295
2.0207322 9.9906645 -17.872789 4294967295
2.027318 10.148856 -17.859123 4294967295
2.029443 10.465211 -17.887777 4294967295
2.0549419 6.8255534 -18.122288 4294967295
2.0662522 7.1415205 -18.104395 4294967295
2.0978343 8.7221594 -18.141422 4294967295
2.0988033 6.3500032 -17.841022 4294967295
2.1048262 6.1916499 -17.79081 4294967295
2.1051469 7.2988601 -17.927113 4294967295
2.1158025 6.665925 -17.794329 4294967295
2.1210396 8.2475348 -17.964838 4294967295
2.1299675 7.4565563 -17.821115 4294967295
2.1302071 9.354454 -18.056314 4294967295
2.1325707 7.6146946 -17.827637 4294967295
2.132674 9.038168 -18.004429 4294967295
2.1349959 9.6707039 -18.071466 4294967295
2.1392262 8.8799772 -17.951557 4294967295
2.1398509 8.5636492 -17.908993 4294967295
2.1471758 10.303236 -18.088598 4294967295
2.1523802 9.1962233 -17.924364 4294967295
2.15312 6.9814606 -17.644735 4294967295
2.1676295 7.7723174 -17.669806 4294967295
2.1777415 9.8288622 -17.874788 4294967295
2.1801295 10.461554 -17.941507 4294967295
2.1913145 9.9870663 -17.825788 4294967295
2.2231894 6.1890922 -18.007797 4294967295
2.2360342 6.5050302 -17.982199 4294967295
2.2552192 7.9279089 -18.062366 4294967295
2.2576256 8.4022608 -18.109259 4294967295
2.2603111 7.7696919 -18.016928 4294967295
2.2655487 7.6114554 -17.970749 4294967295
2.2666447 9.1927767 -18.162081 4294967295
2.2691731 8.7184019 -18.09024 4294967295
2.2691896 6.6623497 -17.834175 4294967295
2.2779481 9.3508501 -18.124619 4294967295
2.278873 8.8764601 -18.060883 4294967295
2.2852633 8.2438021 -17.949812 4294967295
2.2894719 9.6670771 -18.10573 4294967295
2.2950459 7.1363459 -17.762478 4294967295
2.3027308 9.5089235 -18.019012 4294967295
2.3050892 8.5599279 -17.888943 4294967295
2.3083363 8.0853281 -17.81344 4294967295
2.3099029 7.2942562 -17.707031 4294967295
2.3152137 9.9833727 -18.014973 4294967295
2.3308754 10.299737 -17.975183 4294967295
2.3433542 10.457969 -17.931795 4294967295
2.3486741 9.0341959 -17.727652 4294967295
2.3627367 10.141677 -17.794436 4294967295
2.3820701 6.5016503 -18.058947 4294967295
2.3966837 7.4501214 -18.103193 4294967295
2.4041309 7.6081195 -18.085255 4294967295
2.4109042 7.9242783 -18.090401 4294967295
2.411525 7.7661324 -18.067587 4294967295
2.4221561 8.0822582 -18.053251 4294967295
2.4292839 6.8167982 -17.859795 4294967295
2.43396 8.7146969 -18.072353 4294967295
2.4420662 6.3418598 -17.736158 4294967295
2.4440081 7.1328559 -17.824785 4294967295
2.4559608 6.9743872 -17.74472 4294967295
2.4610236 8.8726454 -17.95537 4294967295
2.4620149 9.1889715 -17.989725 4294967295
2.464081 6.1830044 -17.605244 4294967295
2.4647017 8.5562601 -17.897432 4294967295
2.4753847 9.6634302 -17.981262 4294967295
2.4827504 7.2902842 -17.648775 4294967295
2.4894569 10.137953 -17.969259 4294967295
2.4923871 9.8216057 -17.915104 4294967295
2.4960248 9.9797935 -17.91642 4294967295
2.5781541 8.2367649 -18.099442 4294967295
2.5853984 7.2877035 -17.944878 4294967295
2.5862298 7.9203582 -18.019371 4294967295
2.5947473 6.3383088 -17.779659 4294967295
2.5986161 7.1292462 -17.858526 4294967295
2.6002738 8.5528221 -18.027218 4294967295
2.6013894 7.7619548 -17.923233 4294967295
2.6034443 8.7109518 -18.030899 4294967295
2.6058137 7.6036935 -17.881241 4294967295
2.6146502 6.4959998 -17.698919 4294967295
2.6158412 6.8124347 -17.732271 4294967295
2.6216173 9.5016508 -18.037603 4294967295
2.626534 10.292408 -18.111153 4294967295
2.6280241 6.1791334 -17.592077 4294967295
2.6380339 9.9761372 -18.013838 4294967295
2.6437469 8.0777426 -17.748936 4294967295
2.6506658 9.185195 -17.851782 4294967295
2.6507652 9.8179779 -17.929976 4294967295
2.655411 10.134356 -17.945896 4294967295
2.656976 6.9697399 -17.54443 4294967295
2.6605699 9.3433657 -17.821514 4294967295
2.6606617 9.0269308 -17.781698 4294967295
2.6652708 8.3939552 -17.679737 4294967295
2.6655879 9.6597795 -17.835564 4294967295
2.7163773 6.1774383 -17.959929 4294967295
2.7385051 6.9677677 -17.946747 4294967295
2.7439723 6.809454 -17.899536 4294967295
2.7470086 8.0748148 -18.041542 4294967295
2.7517028 7.6002307 -17.95891 4294967295
2.7646511 6.4925156 -17.75601 4294967295
2.77034 7.4417019 -17.845356 4294967295
2.7723098 7.9162798 -17.894428 4294967295
2.7793608 8.7071533 -17.957232 4294967295
2.7794044 7.1250834 -17.760353 4294967295
2.7911379 9.4979944 -17.996229 4294967295
2.7923646 9.8143387 -18.029373 4294967295
2.7937682 8.5488281 -17.865004 4294967295
2.7974026 8.3905792 -17.82703 4294967295
2.8028316 9.3397779 -17.917679 4294967295
2.8111191 9.1815424 -17.856277 4294967295
2.8130527 9.9725447 -17.944862 4294967295
2.8224611 9.0232639 -17.779491 4294967295
2.8263061 8.8650045 -17.740458 4294967295
2.8296075 8.2319689 -17.645145 4294967295
2.8306539 7.7571459 -17.580853 4294967295
2.9034905 6.4893241 -17.869194 4294967295
2.9093606 6.6473827 -17.85931 4294967295
2.9116118 6.3308907 -17.808668 4294967295
2.9393349 8.8616743 -17.983677 4294967295
2.9464798 8.5452251 -17.908428 4294967295
2.9483852 8.3869991 -17.87919 4294967295
2.9537711 7.5957966 -17.753805 4294967295
2.9546101 8.7033587 -17.887188 4294967295
2.962692 7.9121366 -17.748245 4294967295
2.9673696 9.652524 -17.940941 4294967295
2.9679887 7.7538071 -17.701935 4294967295
2.9736066 9.3360987 -17.870264 4294967295
2.979893 8.0701447 -17.681372 4294967295
3.0209525 9.9690123 -17.710791 4294967295
3.0233264 9.019371 -17.580875 4294967295
3.0233977 9.1776562 -17.600182 4294967295
3.042742 9.8107653 -17.581553 4294967295
3.0873661 7.276113 -17.854067 4294967295
3.0937014 8.5416756 -17.979399 4294967295
3.0973864 6.8011918 -17.744764 4294967295
3.1018929 6.168036 -17.643505 4294967295
3.1117849 6.6425829 -17.652754 4294967295
3.1159406 8.0667772 -17.808735 4294967295
3.1180224 6.3258615 -17.582094 4294967295
3.11923 7.4337401 -17.713606 4294967295
3.1208265 7.7502198 -17.744886 4294967295
3.1244984 6.4839768 -17.569204 4294967295
3.1265099 7.5918689 -17.696678 4294967295
3.1344147 7.1168957 -17.597996 4294967295
3.1355572 9.4906673 -17.887018 4294967295
3.1434126 6.958406 -17.533123 4294967295
3.1648347 9.1740875 -17.700663 4294967295
3.1744862 8.8574791 -17.612875 4294967295
3.1755192 9.3323164 -17.666649 4294967295
3.1799326 9.8071213 -17.70344 4294967295
3.1860793 8.2241545 -17.476007 4294967295
3.1872184 9.6488476 -17.647194 4294967295
3.1876469 8.3824549 -17.487793 4294967295
3.2349517 7.1144276 -17.903515 4294967295
3.2619667 8.5379219 -17.944683 4294967295
3.2649646 7.2720447 -17.772535 4294967295
3.2753894 6.1638894 -17.582706 4294967295
3.2961156 7.7462726 -17.675142 4294967295
3.2985177 6.4798622 -17.505915 4294967295
3.2986934 9.3287897 -17.858616 4294967295
3.2992048 8.0627728 -17.698929 4294967295
3.3035827 8.8540354 -17.775171 4294967295
3.3053024 7.9044099 -17.648689 4294967295
3.3057141 8.3792324 -17.705555 4294967295
3.30744 6.9545856 -17.520081 4294967295
3.3075755 6.6379485 -17.480103 4294967295
3.3096774 9.4869986 -17.823154 4294967295
3.3108118 9.0122442 -17.758547 4294967295
3.3116565 9.170495 -17.773949 4294967295
3.3138297 7.5876884 -17.566608 4294967295
3.32671 8.6955862 -17.639502 4294967295
3.3283169 8.220685 -17.572502 4294967295
3.3592439 9.6452026 -17.594168 4294967295
3.4330401 6.7933493 -17.68012 4294967295
3.4331226 6.4767809 -17.640436 4294967295
3.437393 6.6349597 -17.638666 4294967295
3.4478798 7.1095839 -17.64501 4294967295
3.4523284 6.1596437 -17.504885 4294967295
3.4584017 8.8504086 -17.808245 4294967295
3.460007 6.9510217 -17.56459 4294967295
3.4611878 8.0590544 -17.696123 4294967295
3.4653122 7.425828 -17.596912 4294967295
3.4752676 9.3250885 -17.782635 4294967295
3.4753084 8.5337315 -17.684271 4294967295
3.4891062 6.3169513 -17.340162 4294967295
3.4909937 7.267014 -17.448563 4294967295
3.4958062 7.9002624 -17.50301 4294967295
3.5010922 7.7418485 -17.456879 4294967295
3.5017166 9.1667051 -17.630497 4294967295
3.5034516 7.583467 -17.425411 4294967295
3.5038474 9.6415768 -17.678726 4294967295
3.5132253 9.008337 -17.5532 4294967295
3.5165873 8.3749952 -17.457796 4294967295
3.5197566 8.6916389 -17.481197 4294967295
3.5406177 9.4832125 -17.474884 4294967295
3.5892651 6.6314206 -17.686489 4294967295
3.5894792 6.7896972 -17.70504 4294967295
3.594604 7.1061392 -17.718637 4294967295
3.6057525 6.156074 -17.545065 4294967295
3.6121104 6.4725351 -17.552494 4294967295
3.6157501 6.9473863 -17.593163 4294967295
3.6161475 6.3141046 -17.512655 4294967295
3.6236982 7.8970389 -17.671139 4294967295
3.6248021 9.321476 -17.842216 4294967295
3.6384277 7.7385087 -17.577793 4294967295
3.6405249 7.4218307 -17.52804 4294967295
3.6475072 9.0048285 -17.689369 4294967295
3.6515927 8.6882048 -17.629675 4294967295
3.6526494 8.3715754 -17.585133 4294967295
3.6562243 7.2631903 -17.429827 4294967295
3.6821556 7.5794339 -17.339304 4294967295
3.6852648 8.0544968 -17.382648 4294967295
3.7810712 8.6847925 -17.789625 4294967295
3.7823391 6.1518383 -17.469406 4294967295
3.7967989 8.2097654 -17.65218 4294967295
3.799515 7.2598019 -17.520889 4294967295
3.819032 6.3091722 -17.305571 4294967295
3.8196907 6.7842979 -17.361158 4294967295
3.8237813 7.4176836 -17.41921 4294967295
3.8285606 6.4673076 -17.277557 4294967295
3.83337 8.3676662 -17.489019 4294967295
3.8338754 7.7342358 -17.408001 4294967295
3.838531 7.5757871 -17.365105 4294967295
3.8386519 9.159318 -17.560726 4294967295
3.8399432 7.892509 -17.397297 4294967295
3.8422616 6.9421644 -17.267948 4294967295
3.8535247 8.525815 -17.407915 4294967295
3.9194176 6.4653726 -17.630522 4294967295
3.9334192 6.9399757 -17.619438 4294967295
3.9488382 8.681056 -17.758137 4294967295
3.9518313 7.5728874 -17.605951 4294967295
3.9573905 7.4144597 -17.55859 4294967295
3.9626558 8.2060061 -17.630352 4294967295
3.9719813 6.7807436 -17.407291 4294967295
3.9755752 6.6222816 -17.36973 4294967295
3.9908271 7.2554593 -17.372047 4294967295
3.9919384 9.155695 -17.601852 4294967295
3.9957302 8.5223112 -17.504486 4294967295
3.9971781 7.7304783 -17.399191 4294967295
3.9993224 9.3139944 -17.584612 4294967295
4.0006351 8.363904 -17.460392 4294967295
4.005796 8.997282 -17.513084 4294967295
4.0083518 7.0967059 -17.264938 4294967295
4.0253186 8.0468378 -17.297953 4294967295
4.0265756 7.8884158 -17.272058 4294967295
4.079916 6.6199274 -17.654963 4294967295
4.0854955 7.5696344 -17.744724 4294967295
4.1054192 6.4609427 -17.508186 4294967295
4.1076798 7.8858852 -17.673317 4294967295
4.1160827 7.252429 -17.553024 4294967295
4.1199927 6.9356484 -17.494324 4294967295
4.1228714 6.1437297 -17.381941 4294967295
4.123455 7.7273159 -17.575071 4294967295
4.126327 6.3020148 -17.384315 4294967295
4.1272073 8.043932 -17.595564 4294967295
4.1349206 8.9938049 -17.674707 4294967295
4.141449 8.2020874 -17.54417 4294967295
4.1445255 9.1520739 -17.646433 4294967295
4.1497664 8.5186911 -17.541912 4294967295
4.1519866 8.8353634 -17.570045 4294967295
4.1552505 6.7764554 -17.298908 4294967295
4.1939721 8.6766624 -17.341166 4294967295
4.2436986 6.7744126 -17.663092 4294967295
4.2580462 7.5657067 -17.689587 4294967295
4.2594714 6.1406436 -17.50617 4294967295
4.2680964 7.248867 -17.600365 4294967295
4.2736163 6.2986102 -17.455317 4294967295
4.2787662 8.515317 -17.703955 4294967295
4.2830911 7.4069228 -17.54529 4294967295
