# .PCD v0.7 - Point Cloud Data file format
VERSION 0.7
FIELDS x y z rgb
SIZE 4 4 4 4
TYPE F F F U
COUNT 1 1 1 1
WIDTH 1130
HEIGHT 1
VIEWPOINT 0 0 0 1 0 0 0
POINTS 1130
DATA ascii
137.73233 -3.1167548 -18.062021 4294967295
137.7357 -5.8304048 -17.885597 4294967295
137.73906 -3.7955699 -18.004116 4294967295
137.74776 -4.1354117 -17.962601 4294967295
137.76634 -4.4760656 -17.897961 4294967295
137.78081 -3.4595387 -17.927248 4294967295
137.80045 -2.7825534 -17.923281 4294967295
137.8231 -2.4449432 -17.891214 4294967295
137.90576 -9.2147751 -18.136265 4294967295
137.94174 -8.2009239 -18.115065 4294967295
137.9485 -6.5061007 -18.204432 4294967295
137.95647 -7.524066 -18.122677 4294967295
137.9581 -8.5415649 -18.055679 4294967295
137.96834 -6.1687174 -18.179026 4294967295
137.99255 -7.8664789 -18.017025 4294967295
138.00728 -6.8503275 -18.045671 4294967295
138.02168 -4.8166738 -18.138216 4294967295
138.02962 -4.1390371 -18.16173 4294967295
138.04506 -5.4968839 -18.041348 4294967295
138.06905 -5.8380713 -17.964094 4294967295
138.07608 -4.4818287 -18.031771 4294967295
138.07883 -3.1253035 -18.109579 4294967295
138.07933 -5.1605015 -17.982071 4294967295
138.07982 -3.8037374 -18.06513 4294967295
138.10008 -3.4660733 -18.038725 4294967295
138.1297 -2.4505961 -18.032503 4294967295
138.13086 -2.7899058 -18.008751 4294967295
138.17944 -9.2168179 -18.354031 4294967295
138.20587 -8.2022705 -18.355221 4294967295
138.26584 -8.8860388 -18.172787 4294967295
138.27864 -8.5481319 -18.163837 4294967295
138.30463 -7.5331421 -18.166187 4294967295
138.30637 -7.1941643 -18.183147 4294967295
138.31039 -6.5162687 -18.215757 4294967295
138.33394 -5.1617494 -18.244858 4294967295
138.35023 -6.858882 -18.101532 4294967295
138.36209 -5.8423686 -18.136917 4294967295
138.36414 -6.1817207 -18.11108 4294967295
138.37337 -4.1474609 -18.215668 4294967295
138.38649 -3.1309974 -18.248119 4294967295
138.40092 -2.4537327 -18.256435 4294967295
138.42036 -4.8295393 -18.063623 4294967295
138.42139 -4.4903965 -18.082342 4294967295
138.42438 -3.4729884 -18.138439 4294967295
138.4304 -3.8126531 -18.103317 4294967295
138.45398 -2.7967296 -18.111298 4294967295
138.53438 -8.5486183 -18.423494 4294967295
138.57315 -7.8741064 -18.374899 4294967295
138.57712 -9.2308226 -18.281567 4294967295
138.58066 -9.5702734 -18.252224 4294967295
138.60756 -7.5381341 -18.315571 4294967295
138.61554 -6.5215311 -18.359995 4294967295
138.61867 -8.8956776 -18.205439 4294967295
138.62592 -7.200664 -18.293682 4294967295
138.62677 -6.8616147 -18.312731 4294967295
138.64658 -5.1677194 -18.371511 4294967295
138.64876 -4.8287888 -18.387447 4294967295
138.65398 -6.1857071 -18.29118 4294967295
138.6555 -5.8467011 -18.308647 4294967295
138.66806 -4.1520834 -18.384453 4294967295
138.69345 -2.7975075 -18.409206 4294967295
138.70087 -5.5113063 -18.223665 4294967295
138.7027 -2.4590497 -18.408642 4294967295
138.7085 -3.1377418 -18.353075 4294967295
138.71407 -4.4948201 -18.255947 4294967295
138.73404 -3.478801 -18.272345 4294967295
138.82423 -9.5693216 -18.539965 4294967295
138.85878 -8.2165279 -18.543369 4294967295
138.8736 -7.2007837 -18.571901 4294967295
138.89055 -9.2367029 -18.406223 4294967295
138.90776 -7.8819718 -18.450132 4294967295
138.91331 -8.8997793 -18.3741 4294967295
138.92604 -6.1881914 -18.512522 4294967295
138.92799 -8.5620499 -18.360863 4294967295
138.92799 -5.8492851 -18.528963 4294967295
138.9317 -6.8668442 -18.457294 4294967295
138.94328 -5.5114775 -18.514318 4294967295
138.96252 -7.5478182 -18.343382 4294967295
138.96672 -4.4961076 -18.52268 4294967295
138.97644 -6.5316095 -18.373905 4294967295
138.97734 -4.8360486 -18.476892 4294967295
138.98016 -5.1753931 -18.449253 4294967295
139.00676 -2.46453 -18.555355 4294967295
139.01126 -3.1430707 -18.502844 4294967295
139.02191 -4.1612844 -18.414946 4294967295
139.03162 -3.4837184 -18.43434 4294967295
139.05435 -2.8070664 -18.423386 4294967295
139.06938 -3.8257418 -18.325247 4294967295
139.13309 -8.5578012 -18.738052 4294967295
139.1375 -9.2361832 -18.685841 4294967295
139.16042 -8.8993711 -18.653378 4294967295
139.16681 -8.2219524 -18.6805 4294967295
139.18958 -7.5459929 -18.669401 4294967295
139.20087 -7.8860493 -18.622095 4294967295
139.21085 -6.5307851 -18.682899 4294967295
139.22177 -6.8707752 -18.636442 4294967295
139.24895 -7.2122374 -18.552042 4294967295
139.27016 -6.1967936 -18.565664 4294967295
139.28181 -5.519568 -18.58053 4294967295
139.28532 -5.1807604 -18.593363 4294967295
139.28928 -4.5028849 -18.626205 4294967295
139.30212 -3.8257022 -18.638243 4294967295
139.3161 -4.165875 -18.584665 4294967295
139.32733 -2.8102772 -18.642487 4294967295
139.32962 -3.1495504 -18.616207 4294967295
139.34126 -2.4721632 -18.631138 4294967295
139.37326 -3.4919269 -18.493517 4294967295
139.48344 -9.2451963 -18.734426 4294967295
139.48781 -8.5675802 -18.766237 4294967295
139.48845 -6.8726716 -18.869761 4294967295
139.49219 -8.907011 -18.735041 4294967295
139.52171 -7.2145925 -18.771366 4294967295
139.52974 -9.588726 -18.605659 4294967295
139.53162 -7.8935642 -18.706257 4294967295
139.53366 -6.5375848 -18.785486 4294967295
139.53943 -7.5552168 -18.70908 4294967295
139.56473 -4.5059767 -18.83917 4294967295
139.58037 -5.8634443 -18.718801 4294967295
139.58272 -5.1854973 -18.755367 4294967295
139.59946 -5.5259442 -18.69541 4294967295
139.60703 -3.4920826 -18.80381 4294967295
139.60847 -4.1703262 -18.758423 4294967295
139.6205 -3.8321702 -18.751425 4294967295
139.63405 -2.4768472 -18.803936 4294967295
139.6604 -3.1569409 -18.70064 4294967295
139.66397 -2.8180845 -18.713303 4294967295
139.75783 -9.2473326 -18.949587 4294967295
139.77814 -8.5713348 -18.944323 4294967295
139.78522 -7.216146 -19.011835 4294967295
139.80933 -9.591301 -18.808867 4294967295
139.81593 -7.5578556 -18.919445 4294967295
139.8203 -8.2362604 -18.86735 4294967295
139.83844 -6.8818393 -18.909101 4294967295
139.84151 -7.8991818 -18.838974 4294967295
139.847 -5.8655548 -18.952154 4294967295
139.85551 -4.8492603 -18.995327 4294967295
139.88516 -5.5296946 -18.884468 4294967295
139.90956 -3.1583509 -18.974663 4294967295
139.91159 -6.2100282 -18.781055 4294967295
139.9196 -6.5498056 -18.741501 4294967295
139.93344 -4.5163803 -18.835272 4294967295
139.94115 -4.1778927 -18.838322 4294967295
139.96056 -3.5011842 -18.835234 4294967295
139.99319 -3.8427584 -18.738449 4294967295
139.99831 -2.4865942 -18.810453 4294967295
140.00462 -2.8261795 -18.774862 4294967295
140.06688 -9.5917454 -19.062944 4294967295
140.08159 -9.2542152 -19.049776 4294967295
140.12003 -7.2240067 -19.086374 4294967295
140.12256 -8.2411566 -19.017614 4294967295
140.12315 -7.9022264 -19.037165 4294967295
140.12563 -8.5804348 -18.989473 4294967295
140.15656 -7.5662441 -18.980659 4294967295
140.17018 -5.8723855 -19.05389 4294967295
140.17392 -4.8557158 -19.108131 4294967295
140.18913 -6.2129936 -18.988916 4294967295
140.20631 -6.5534997 -18.928066 4294967295
140.20766 -4.5193782 -19.050859 4294967295
140.21852 -4.1811967 -19.046629 4294967295
140.2216 -6.8938942 -18.871618 4294967295
140.22462 -2.8255858 -19.116356 4294967295
140.22748 -3.8428564 -19.046804 4294967295
140.23488 -5.5386982 -18.924751 4294967295
140.23701 -5.1998014 -18.940742 4294967295
140.25444 -3.1667781 -19.026201 4294967295
140.31688 -3.5104852 -18.860411 4294967295
140.38536 -9.2591801 -19.196293 4294967295
140.38916 -9.5984802 -19.166515 4294967295
140.4205 -8.5846176 -19.156736 4294967295
140.43266 -9.9417038 -19.044704 4294967295
140.43347 -7.2299762 -19.210516 4294967295
140.43732 -8.9251719 -19.096853 4294967295
140.46811 -5.1992006 -19.256065 4294967295
140.47011 -6.555232 -19.167593 4294967295
140.47456 -8.2506409 -19.052389 4294967295
140.47523 -7.572669 -19.092787 4294967295
140.48335 -7.9124184 -19.053017 4294967295
140.49133 -6.218049 -19.139353 4294967295
140.49756 -6.8966084 -19.083025 4294967295
140.49794 -5.879601 -19.145004 4294967295
140.50938 -5.5415392 -19.139477 4294967295
140.51343 -4.8638506 -19.172024 4294967295
140.53349 -4.1873999 -19.167463 4294967295
140.54779 -4.5275354 -19.113403 4294967295
140.57341 -3.1733084 -19.137897 4294967295
140.58371 -3.5131238 -19.09304 4294967295
140.59581 -2.4968143 -19.127981 4294967295
140.62772 -2.8381729 -19.033039 4294967295
140.6906 -8.9253941 -19.360245 4294967295
140.70583 -9.9436131 -19.262121 4294967295
140.71719 -7.2333302 -19.403456 4294967295
140.72397 -8.2506762 -19.324881 4294967295
140.73148 -7.9124365 -19.328499 4294967295
140.75995 -6.8981504 -19.325459 4294967295
140.76677 -7.5766673 -19.267786 4294967295
140.77618 -8.5944738 -19.183096 4294967295
140.79301 -5.5451293 -19.332766 4294967295
140.79713 -5.2065053 -19.344173 4294967295
140.81097 -6.5635824 -19.228319 4294967295
140.83263 -5.8873911 -19.220142 4294967295
140.85802 -6.2285552 -19.140446 4294967295
140.87894 -4.8740501 -19.175838 4294967295
140.88385 -4.1963239 -19.206408 4294967295
140.90358 -3.8587737 -19.181749 4294967295
140.90465 -2.5026393 -19.263113 4294967295
140.90849 -3.5200789 -19.191305 4294967295
140.9404 -2.8442533 -19.15943 4294967295
140.94603 -3.1837614 -19.125422 4294967295
140.98479 -8.9294825 -19.5287 4294967295
141.03738 -9.2733831 -19.386143 4294967295
141.04495 -7.9183865 -19.452463 4294967295
141.07002 -9.9544687 -19.268766 4294967295
141.07597 -7.5822477 -19.401697 4294967295
141.08832 -5.8886127 -19.477846 4294967295
141.10059 -5.5506887 -19.47051 4294967295
141.10265 -4.5340624 -19.528587 4294967295
141.10741 -6.2291594 -19.412848 4294967295
141.11107 -7.2463923 -19.341496 4294967295
141.11624 -6.5688772 -19.371439 4294967295
141.12216 -8.2644024 -19.253036 4294967295
141.18629 -3.1845412 -19.419035 4294967295
141.19312 -4.8801646 -19.29854 4294967295
141.2059 -4.2030764 -19.310936 4294967295
141.2114 -3.8644476 -19.319193 4294967295
141.22679 -3.5265517 -19.30452 4294967295
141.2395 -2.5103035 -19.338053 4294967295
141.24562 -2.8497992 -19.30298 4294967295
141.31618 -9.9537363 -19.548214 4294967295
141.34428 -8.9397488 -19.546131 4294967295
141.36116 -9.6192074 -19.465311 4294967295
141.37485 -8.2647552 -19.517452 4294967295
141.3826 -8.6044121 -19.478594 4294967295
141.39629 -7.2498817 -19.530798 4294967295
141.40764 -9.284709 -19.378969 4294967295
141.41687 -6.2348328 -19.546127 4294967295
141.42131 -7.5910559 -19.452082 4294967295
141.45351 -5.8989391 -19.482512 4294967295
141.46603 -5.2219958 -19.495461 4294967295
141.48723 -2.8507833 -19.593161 4294967295
141.48993 -3.1899529 -19.565994 4294967295
141.49438 -4.5462494 -19.471888 4294967295
141.49893 -3.8685956 -19.503304 4294967295
141.50085 -5.5638323 -19.394157 4294967295
141.50259 -4.2078781 -19.473936 4294967295
141.50902 -4.8864198 -19.417168 4294967295
141.59064 -9.6169682 -19.782822 4294967295
141.658 -8.9456863 -19.669399 4294967295
141.66872 -9.2856035 -19.623768 4294967295
141.67097 -8.2691059 -19.681324 4294967295
141.67543 -8.6084194 -19.650152 4294967295
141.72754 -7.9353294 -19.571857 4294967295
141.73598 -6.9192123 -19.615185 4294967295
141.73682 -5.902463 -19.676083 4294967295
141.75278 -6.2427435 -19.618317 4294967295
141.76443 -3.5321598 -19.758913 4294967295
141.77727 -3.8720474 -19.708447 4294967295
141.77789 -5.5668902 -19.60231 4294967295
141.77942 -5.2280402 -19.61977 4294967295
141.7834 -4.8893881 -19.631523 4294967295
141.78477 -6.5844393 -19.523634 4294967295
141.82292 -2.5195501 -19.686951 4294967295
141.82518 -4.2146668 -19.577085 4294967295
141.83902 -2.8596787 -19.62892 4294967295
141.84518 -4.5552406 -19.510012 4294967295
141.86795 -3.2007909 -19.541365 4294967295
141.94987 -8.9495697 -19.842838 4294967295
141.96774 -10.306804 -19.718052 4294967295
141.99405 -8.2759314 -19.782961 4294967295
141.99457 -8.6148739 -19.760881 4294967295
141.99593 -9.29282 -19.71587 4294967295
142.00237 -9.9712982 -19.659224 4294967295
142.00481 -5.9047241 -19.904673 4294967295
142.00911 -6.9217129 -19.831997 4294967295
142.01645 -7.9390612 -19.752316 4294967295
142.01945 -9.6340132 -19.640835 4294967295
142.0247 -5.5674939 -19.879793 4294967295
142.02672 -6.5843353 -19.812366 4294967295
142.05862 -7.2649531 -19.697079 4294967295
142.06 -5.2314558 -19.819473 4294967295
142.062 -4.553791 -19.856693 4294967295
142.07529 -7.6053944 -19.6378 4294967295
142.08568 -6.2503943 -19.697575 4294967295
142.0885 -4.2169161 -19.816641 4294967295
142.10385 -4.8960104 -19.73946 4294967295
142.14014 -3.8818815 -19.718689 4294967295
142.14751 -2.5264916 -19.785473 4294967295
142.15787 -2.8662083 -19.740702 4294967295
142.1824 -3.2069931 -19.663315 4294967295
142.26671 -9.2946596 -19.937796 4294967295
142.26817 -9.6336508 -19.913515 4294967295
142.2724 -8.2786589 -19.987434 4294967295
142.28922 -8.6190596 -19.927881 4294967295
142.29707 -9.975338 -19.826189 4294967295
142.30176 -7.9424734 -19.940882 4294967295
142.30223 -6.9259472 -20.002489 4294967295
142.31746 -7.6050138 -19.925653 4294967295
142.32341 -7.2666607 -19.932894 4294967295
142.32831 -8.961606 -19.817074 4294967295
142.33374 -5.5731802 -20.013712 4294967295
142.358 -6.5918589 -19.89522 4294967295
142.3745 -4.5597992 -19.98278 4294967295
142.37534 -4.8987598 -19.959906 4294967295
142.38135 -3.5436661 -20.029779 4294967295
142.38345 -6.2550921 -19.857651 4294967295
142.39381 -3.8834839 -19.980219 4294967295
142.41705 -5.2410135 -19.843142 4294967295
142.4346 -5.9203949 -19.760941 4294967295
142.44827 -2.5317621 -19.938717 4294967295
142.45854 -2.8714383 -19.894178 4294967295
142.46069 -4.2275138 -19.805559 4294967295
142.47032 -3.211266 -19.846199 4294967295
142.53024 -9.2958107 -20.176056 4294967295
142.53365 -10.312504 -20.105486 4294967295
142.55122 -9.9754219 -20.086081 4294967295
142.57506 -9.6389103 -20.052223 4294967295
142.61078 -6.9315205 -20.137409 4294967295
142.61713 -6.5932374 -20.143742 4294967295
142.62102 -8.2878227 -20.030313 4294967295
142.62817 -7.9496059 -20.034786 4294967295
142.64114 -7.2730169 -20.046772 4294967295
142.64244 -6.2565374 -20.106516 4294967295
142.64557 -7.6122856 -20.015722 4294967295
142.66278 -8.6305656 -19.913479 4294967295
142.69382 -5.9219389 -20.009483 4294967295
142.7067 -4.9062457 -20.04266 4294967295
142.71069 -4.5676556 -20.054354 4294967295
142.72137 -3.5517559 -20.092552 4294967295
142.72696 -5.2467861 -19.975218 4294967295
142.72998 -3.2134862 -20.0937 4294967295
142.74472 -4.2313547 -19.997171 4294967295
142.82671 -2.5424862 -19.913578 4294967295
142.82724 -10.316412 -20.274469 4294967295
142.85301 -9.3026114 -20.278048 4294967295
142.8873 -8.967063 -20.220276 4294967295
142.90097 -7.9519024 -20.251627 4294967295
142.90848 -9.6467361 -20.129974 4294967295
142.91559 -6.5979767 -20.301666 4294967295
142.92303 -8.631567 -20.159298 4294967295
142.92699 -7.6154089 -20.212881 4294967295
142.94772 -5.9230494 -20.269768 4294967295
142.95064 -6.9398069 -20.200441 4294967295
142.95389 -8.2955427 -20.109428 4294967295
142.95543 -7.2790766 -20.168549 4294967295
142.96887 -4.5694456 -20.304873 4294967295
142.99207 -6.2655978 -20.147217 4294967295
142.99487 -5.2491941 -20.203518 4294967295
143.0004 -5.5885139 -20.169935 4294967295
143.0401 -2.54162 -20.266979 4294967295
143.05472 -3.220444 -20.19169 4294967295
143.05914 -4.9154 -20.077068 4294967295
143.06239 -2.8820887 -20.194986 4294967295
143.06799 -4.2382002 -20.098612 4294967295
143.19434 -8.2948256 -20.400219 4294967295
143.21608 -10.329735 -20.225132 4294967295
143.2254 -7.2812519 -20.391684 4294967295
143.23001 -7.9592657 -20.33942 4294967295
143.23232 -8.9759512 -20.271452 4294967295
143.23694 -6.2658701 -20.427948 4294967295
143.23856 -8.6376963 -20.278067 4294967295
143.24309 -9.3158131 -20.22591 4294967295
143.25153 -9.9943581 -20.164831 4294967295
143.25798 -7.6229396 -20.296284 4294967295
143.26277 -5.5904121 -20.410555 4294967295
143.26921 -6.9462433 -20.312342 4294967295
143.26929 -9.657197 -20.145046 4294967295
143.27957 -4.914135 -20.413868 4294967295
143.29921 -5.9322281 -20.306303 4294967295
143.31282 -6.6111183 -20.233328 4294967295
143.32452 -4.5788116 -20.331821 4294967295
143.32799 -3.2236614 -20.407492 4294967295
143.36064 -3.9038115 -20.290983 4294967295
143.36446 -2.8874269 -20.344921 4294967295
143.39462 -4.2453027 -20.19232 4294967295
143.44189 -2.5539837 -20.188568 4294967295
143.50508 -8.6392937 -20.50886 4294967295
143.58405 -6.9523668 -20.43269 4294967295
143.58893 -5.2586904 -20.525902 4294967295
143.59465 -4.9203424 -20.533646 4294967295
143.60448 -6.6152763 -20.406879 4294967295
143.60556 -7.9708185 -20.320837 4294967295
143.61908 -6.2776537 -20.394318 4294967295
143.62321 -7.2946243 -20.322231 4294967295
143.62386 -4.2449799 -20.508657 4294967295
143.64203 -3.5686817 -20.508875 4294967295
143.64519 -5.602067 -20.376377 4294967295
143.64932 -5.9412932 -20.346067 4294967295
143.65361 -3.2306893 -20.503258 4294967295
143.68393 -3.9106638 -20.392241 4294967295
143.71298 -2.8960819 -20.388432 4294967295
143.71606 -4.59096 -20.276979 4294967295
143.733 -2.5585761 -20.363602 4294967295
143.87033 -6.6172457 -20.639048 4294967295
143.91876 -6.9602027 -20.507639 4294967295
143.92059 -5.9438553 -20.56601 4294967295
143.92401 -4.9276743 -20.620836 4294967295
143.95155 -5.2686892 -20.537079 4294967295
143.95308 -5.6076694 -20.512697 4294967295
143.96024 -3.2363381 -20.642445 4294967295
143.96509 -6.2864027 -20.443571 4294967295
143.97287 -4.5926528 -20.530142 4294967295
143.97676 -2.5598636 -20.646446 4294967295
143.98671 -3.9159751 -20.540293 4294967295
143.99284 -2.8998423 -20.588917 4294967295
144.01192 -3.5789704 -20.503618 4294967295
144.03954 -4.2588763 -20.398861 4294967295
144.26216 -4.9356985 -20.687956 4294967295
144.29176 -4.2603135 -20.662197 4294967295
144.29587 -3.582926 -20.694551 4294967295
144.31209 -2.9064088 -20.699297 4294967295
144.32863 -4.6020174 -20.557316 4294967295
144.36534 -3.2491179 -20.557051 4294967295
144.36914 -2.5715516 -20.590092 4294967295
144.6432 -2.574965 -20.803505 4294967295
144.70174 -2.9179831 -20.649391 4294967295
144.70311 -3.2570157 -20.625458 4294967295
133.40163 -0.65985203 -16.315519 4294967295
133.40631 -1.3389173 -16.261955 4294967295
133.42188 -1.000576 -16.245888 4294967295
133.43738 0.0166154 -16.272455 4294967295
133.46278 1.7120943 -16.317678 4294967295
133.48309 3.0685899 -16.353859 4294967295
133.58128 5.7795143 -16.288748 4294967295
133.7323 -1.3459327 -16.358154 4294967295
133.73277 -1.6853591 -16.335796 4294967295
133.73871 -0.66759402 -16.385197 4294967295
133.74081 -1.007117 -16.358982 4294967295
133.75537 0.68888259 -16.430153 4294967295
133.7657 0.0094609 -16.363108 4294967295
133.78546 0.34764341 -16.337078 4294967295
133.7953 1.0258963 -16.356026 4294967295
133.80495 -0.33246949 -16.248215 4294967295
133.80595 2.7223601 -16.436495 4294967295
133.80867 3.0616183 -16.451208 4294967295
133.81198 1.7037828 -16.35854 4294967295
133.86038 3.3984296 -16.348942 4294967295
133.87866 3.7369905 -16.326494 4294967295
133.91539 5.4327245 -16.344793 4294967295
133.91888 5.0930824 -16.315294 4294967295
133.92416 4.7533426 -16.28149 4294967295
133.95433 6.449666 -16.31543 4294967295
133.97137 6.7885475 -16.295998 4294967295
133.97385 7.127986 -16.311285 4294967295
133.97887 6.1091695 -16.23575 4294967295
134.00356 -2.367218 -16.521338 4294967295
134.01997 -1.6896911 -16.524521 4294967295
134.02914 -2.0296874 -16.481482 4294967295
134.03363 -1.0119178 -16.534277 4294967295
134.05624 -0.67405128 -16.501507 4294967295
134.06499 -0.33524081 -16.501884 4294967295
134.07249 -1.35392 -16.420477 4294967295
134.08414 0.68170691 -16.519728 4294967295
134.08968 1.0207608 -16.527697 4294967295
134.121 2.7159438 -16.558882 4294967295
134.13992 2.0361083 -16.471453 4294967295
134.15082 1.3566093 -16.403111 4294967295
134.15198 3.3931592 -16.52742 4294967295
134.15305 -0.0014069 -16.313101 4294967295
134.16527 4.7501693 -16.580437 4294967295
134.16989 4.4105501 -16.548283 4294967295
134.17453 4.0709052 -16.51601 4294967295
134.17816 3.0523996 -16.44383 4294967295
134.17879 3.7312677 -16.484699 4294967295
134.17902 1.6944687 -16.357103 4294967295
134.24393 5.4256439 -16.435385 4294967295
134.24971 5.0858998 -16.400387 4294967295
134.26001 6.7829647 -16.481735 4294967295
134.26012 6.4434719 -16.460278 4294967295
134.26086 5.7644401 -16.416176 4294967295
134.29124 7.1213303 -16.428505 4294967295
134.31763 6.1016955 -16.302126 4294967295
134.34839 -1.3575308 -16.635986 4294967295
134.37213 -1.0197694 -16.600616 4294967295
134.38394 -2.0387435 -16.509014 4294967295
134.40399 0.33569241 -16.60944 4294967295
134.40508 -2.3796721 -16.43754 4294967295
134.42549 -0.68389392 -16.494726 4294967295
134.4539 -0.3462877 -16.448261 4294967295
134.45395 3.0479808 -16.659843 4294967295
134.45442 1.6903296 -16.574036 4294967295
134.46777 1.0106852 -16.499924 4294967295
134.47052 3.7259445 -16.66271 4294967295
134.47603 5.0832539 -16.734303 4294967295
134.47786 0.67061901 -16.454735 4294967295
134.49956 2.3667276 -16.508936 4294967295
134.5024 4.4032679 -16.629164 4294967295
134.51891 5.7602501 -16.674545 4294967295
134.54227 2.7039475 -16.428453 4294967295
134.54922 6.0984688 -16.623581 4294967295
134.56088 7.1163802 -16.659348 4294967295
134.58223 4.7391148 -16.460352 4294967295
134.58432 5.4180632 -16.497719 4294967295
134.63162 6.434761 -16.448681 4294967295
134.63773 6.7740803 -16.45536 4294967295
134.66951 -1.7035612 -16.722507 4294967295
134.6747 -1.3645723 -16.731325 4294967295
134.69614 -2.3841863 -16.616905 4294967295
134.72925 -1.0288615 -16.622787 4294967295
134.74522 -0.3510761 -16.627121 4294967295
134.74542 -0.011672 -16.647779 4294967295
134.76431 1.0054209 -16.666374 4294967295
134.77335 0.66545773 -16.623741 4294967295
134.78525 1.3436267 -16.637764 4294967295
134.78876 1.6828601 -16.650549 4294967295
134.80919 3.3789215 -16.707809 4294967295
134.81026 4.0577092 -16.747541 4294967295
134.8159 2.6997075 -16.649504 4294967295
134.81778 3.7179313 -16.708538 4294967295
134.82999 2.3594959 -16.594868 4294967295
134.83307 3.038275 -16.629906 4294967295
134.83377 2.0198121 -16.564692 4294967295
134.85043 6.7713108 -16.821377 4294967295
134.85321 4.3951406 -16.66663 4294967295
134.88567 5.0726433 -16.631855 4294967295
134.91904 5.4107242 -16.573711 4294967295
134.92856 4.7312279 -16.508778 4294967295
134.93303 6.4287333 -16.603943 4294967295
134.95972 -1.0295153 -16.945856 4294967295
134.96167 -1.3689389 -16.920111 4294967295
134.97047 -1.7088531 -16.878048 4294967295
134.98032 -0.35226539 -16.939253 4294967295
135.00854 0.32459211 -16.914474 4294967295
135.01062 -2.0510004 -16.76157 4294967295
135.02274 -2.391252 -16.711697 4294967295
135.03615 -0.69521809 -16.785524 4294967295
135.04741 1.0009434 -16.86451 4294967295
135.06207 -0.0180967 -16.766302 4294967295
135.0623 1.6788185 -16.871449 4294967295
135.06274 2.3575137 -16.912708 4294967295
135.09232 0.65887982 -16.736782 4294967295
135.09955 2.0161316 -16.804239 4294967295
135.10487 1.3369923 -16.749277 4294967295
135.11615 4.0516787 -16.891661 4294967295
135.119 3.0333319 -16.821484 4294967295
135.13043 3.7115932 -16.836639 4294967295
135.13309 3.3720434 -16.809189 4294967295
135.13625 2.693013 -16.759384 4294967295
135.16458 5.4071398 -16.861361 4294967295
135.16725 6.4252768 -16.918467 4294967295
135.20731 5.065856 -16.738808 4294967295
135.21175 6.7630339 -16.834017 4294967295
135.24742 6.0826969 -16.707113 4294967295
135.25302 5.7429457 -16.672642 4294967295
135.26924 -1.3747116 -17.059771 4294967295
135.29575 -1.0371974 -17.018024 4294967295
135.29831 -2.0553262 -16.948601 4294967295
135.29842 -1.7160126 -16.969416 4294967295
135.30203 -2.3949296 -16.9186 4294967295
135.31242 7.0988941 -16.616343 4294967295
135.35466 -0.70174152 -16.899508 4294967295
135.36357 0.99452192 -16.9841 4294967295
135.37401 1.6726208 -17.001566 4294967295
135.37793 0.31492209 -16.907742 4294967295
135.3828 -0.3641715 -16.85392 4294967295
135.40649 1.3313978 -16.903414 4294967295
135.41412 0.6521244 -16.843077 4294967295
135.41916 2.009485 -16.91568 4294967295
135.45134 4.0442595 -16.966263 4294967295
135.45557 3.0258014 -16.892803 4294967295
135.45853 5.4015121 -17.033773 4294967295
135.46034 4.7226496 -16.987196 4294967295
135.4742 2.3459282 -16.806372 4294967295
135.47888 3.7035139 -16.879833 4294967295
135.48073 3.3639739 -16.854307 4294967295
135.49028 5.0607448 -16.937391 4294967295
135.51428 5.7386189 -16.922789 4294967295
135.5153 4.3807168 -16.835796 4294967295
135.52081 6.7566953 -16.970728 4294967295
135.54216 6.4164357 -16.899025 4294967295
135.58638 -2.0596862 -17.134401 4294967295
135.5923 7.0935745 -16.822525 4294967295
135.60263 6.0745687 -16.73456 4294967295
135.61183 -1.7221631 -17.09527 4294967295
135.63333 0.65153652 -17.192268 4294967295
135.6385 0.3119283 -17.158884 4294967295
135.64442 0.99016929 -17.187109 4294967295
135.65492 -0.70708179 -17.056625 4294967295
135.65997 2.0071712 -17.213623 4294967295
135.68034 -0.36936259 -17.01755 4294967295
135.68628 -1.0485123 -16.961241 4294967295
135.6897 -0.0305834 -17.016521 4294967295
135.69267 -1.388339 -16.924957 4294967295
135.72221 1.3249898 -17.02408 4294967295
135.7303 5.0574985 -17.237341 4294967295
135.74333 2.6813815 -17.058651 4294967295
135.75102 1.6627543 -16.976984 4294967295
135.75162 2.3415468 -17.017841 4294967295
135.75348 3.6990232 -17.097969 4294967295
135.77557 4.3767567 -17.087893 4294967295
135.77618 6.7523365 -17.2344 4294967295
135.78329 3.3581557 -17.006231 4294967295
135.79105 4.0366268 -17.030174 4294967295
135.80536 3.0176001 -16.932945 4294967295
135.80888 4.7146606 -17.03023 4294967295
135.83731 5.3923168 -17.005224 4294967295
135.88927 7.087646 -16.987934 4294967295
135.90392 6.4080987 -16.91103 4294967295
135.90712 -1.3878022 -17.285006 4294967295
135.908 6.0684166 -16.880239 4294967295
135.93922 -1.050674 -17.2302 4294967295
135.96504 -1.7310623 -17.126919 4294967295
135.97235 -2.0709286 -17.08849 4294967295
135.97406 0.64364201 -17.253418 4294967295
135.98112 2.0004382 -17.321192 4294967295
135.98512 -0.37502 -17.1639 4294967295
136.0062 2.338383 -17.283041 4294967295
136.01295 0.3019481 -17.140341 4294967295
136.03 3.6944337 -17.311203 4294967295
136.04709 1.6574368 -17.144114 4294967295
136.06137 0.97781819 -17.068119 4294967295
136.06595 5.3894348 -17.331911 4294967295
136.06754 2.674485 -17.159166 4294967295
136.06836 4.3712997 -17.262825 4294967295
136.07393 4.7104025 -17.270805 4294967295
136.09161 5.0489869 -17.250099 4294967295
136.10504 5.7271681 -17.260628 4294967295
136.1223 3.3505208 -17.071968 4294967295
136.16487 6.7430496 -17.182568 4294967295
136.17747 6.4031353 -17.131699 4294967295
136.17924 6.0636082 -17.10635 4294967295
136.21645 -1.7329452 -17.39912 4294967295
136.21883 7.0805559 -17.07622 4294967295
136.22166 -0.71555799 -17.450142 4294967295
136.23595 0.3012493 -17.479765 4294967295
136.26437 -2.0755649 -17.264887 4294967295
136.27582 -0.37978151 -17.343405 4294967295
136.28485 1.9946587 -17.469824 4294967295
136.28645 1.655303 -17.444937 4294967295
136.2946 -1.0596416 -17.256828 4294967295
136.30098 2.3330581 -17.452848 4294967295
136.30374 3.0114598 -17.488543 4294967295
136.30763 0.63618159 -17.331612 4294967295
136.32338 3.689029 -17.484407 4294967295
136.3416 0.97350532 -17.272533 4294967295
136.35892 4.365942 -17.442711 4294967295
136.37602 4.7044902 -17.423473 4294967295
136.4102 4.024209 -17.300598 4294967295
136.41081 5.0423059 -17.362497 4294967295
136.4231 2.6659453 -17.185677 4294967295
136.44005 6.0592108 -17.356794 4294967295
136.44096 6.7379251 -17.396854 4294967295
136.46764 5.7186999 -17.270582 4294967295
136.49632 7.0753169 -17.287361 4294967295
136.52075 6.3955078 -17.187506 4294967295
136.5269 -2.0781331 -17.510576 4294967295
136.55167 -0.38359761 -17.557673 4294967295
136.56834 -0.7239244 -17.497252 4294967295
136.57172 -1.402698 -17.447128 4294967295
136.57568 -1.7422574 -17.416691 4294967295
136.58925 -0.0467145 -17.490103 4294967295
136.61226 1.9875832 -17.562502 4294967295
136.61328 -1.0661762 -17.370161 4294967295
136.62088 0.62993652 -17.457733 4294967295
136.62202 0.2905581 -17.433977 4294967295
136.62799 0.96882677 -17.462088 4294967295
136.68207 1.6443934 -17.376829 4294967295
136.69278 2.3225374 -17.393745 4294967295
136.69475 2.6617939 -17.410206 4294967295
136.70061 3.6795583 -17.459717 4294967295
136.71501 5.3756075 -17.531286 4294967295
136.7157 4.0181932 -17.445238 4294967295
136.71947 5.0360765 -17.499664 4294967295
136.73373 4.3567204 -17.423864 4294967295
136.74657 4.6955209 -17.414646 4294967295
136.74913 3.3377984 -17.324234 4294967295
136.78293 6.7303677 -17.455647 4294967295
136.78734 6.0513973 -17.403032 4294967295
136.79733 5.7115784 -17.358397 4294967295
136.82266 -2.0830474 -17.677629 4294967295
136.86012 7.0670071 -17.294878 4294967295
136.86177 -0.050384998 -17.712044 4294967295
136.86714 -1.7469075 -17.593941 4294967295
136.88138 -0.39085221 -17.644781 4294967295
136.88631 -0.73041987 -17.612087 4294967295
136.90732 -1.4103661 -17.520447 4294967295
136.91093 0.96434188 -17.659534 4294967295
136.91206 1.982017 -17.720167 4294967295
136.91684 0.6247282 -17.624578 4294967295
136.9328 0.28448299 -17.565916 4294967295
136.96509 1.3004899 -17.553133 4294967295
136.96698 2.3183095 -17.611965 4294967295
136.97615 3.3357253 -17.653652 4294967295
136.97876 4.0141706 -17.689688 4294967295
136.98761 4.6923275 -17.711014 4294967295
137.01817 1.6368279 -17.449282 4294967295
137.02269 2.9940572 -17.523058 4294967295
137.0266 4.3512554 -17.598186 4294967295
137.03363 5.0296087 -17.623814 4294967295
137.04623 6.0470753 -17.657431 4294967295
137.05359 5.7074447 -17.619026 4294967295
137.07576 3.6701922 -17.440268 4294967295
137.09502 6.3845358 -17.563744 4294967295
137.15822 -2.0907421 -17.750872 4294967295
137.16061 6.7214956 -17.430479 4294967295
137.18158 -1.7531366 -17.717037 4294967295
137.18828 -1.0751088 -17.743448 4294967295
137.203 -0.73683411 -17.729927 4294967295
137.20967 -0.39801171 -17.735298 4294967295
137.22278 1.9758537 -17.85203 4294967295
137.224 1.6365614 -17.828047 4294967295
137.23959 0.61791557 -17.728165 4294967295
137.24074 -0.060704201 -17.683311 4294967295
137.24846 2.3136916 -17.812721 4294967295
137.27222 4.0087142 -17.862213 4294967295
137.29111 0.27549291 -17.585974 4294967295
137.29633 2.6504364 -17.72122 4294967295
137.32936 3.6667073 -17.706881 4294967295
137.3477 4.3444958 -17.705935 4294967295
137.35588 3.3260679 -17.623461 4294967295
137.39502 5.6998425 -17.679054 4294967295
137.43434 5.3588228 -17.565567 4294967295
137.44537 6.7160463 -17.62397 4294967295
137.44707 6.3765693 -17.598972 4294967295
137.47737 -1.7580864 -17.883848 4294967295
137.51152 -1.0819507 -17.845778 4294967295
137.528 -0.743788 -17.828131 4294967295
137.53149 -2.1010845 -17.735661 4294967295
137.54196 -1.4232402 -17.753191 4294967295
137.54929 0.95112348 -17.883497 4294967295
137.55276 -0.0668476 -17.812128 4294967295
137.55659 0.61144298 -17.84527 4294967295
137.56586 3.3248329 -17.992088 4294967295
137.57018 0.27135211 -17.792334 4294967295
137.57698 1.6280496 -17.860661 4294967295
137.58018 -0.40786359 -17.726669 4294967295
137.58281 2.3062494 -17.889055 4294967295
137.6075 1.9656405 -17.810057 4294967295
137.61337 2.6439114 -17.838396 4294967295
137.62257 3.6613066 -17.88003 4294967295
137.6544 6.3741217 -17.973896 4294967295
137.67976 2.979821 -17.703606 4294967295
137.68315 6.7123299 -17.927494 4294967295
137.69971 4.6756868 -17.76218 4294967295
137.70114 3.9968863 -17.716703 4294967295
137.7173 5.0142832 -17.742012 4294967295
137.72166 7.0502539 -17.858212 4294967295
137.72685 5.6926317 -17.761717 4294967295
137.73189 5.3530393 -17.728798 4294967295
137.75517 -1.4226625 -18.113741 4294967295
137.78516 -2.1030481 -18.001266 4294967295
137.80188 -1.7650101 -17.983112 4294967295
137.82451 0.60790402 -18.077431 4294967295
137.83037 -0.41005749 -18.000528 4294967295
137.84488 1.6242948 -18.092869 4294967295
137.85397 2.9805434 -18.155756 4294967295
137.85422 0.26690409 -17.986734 4294967295
137.85587 -0.75092721 -17.919661 4294967295
137.86264 -0.072854802 -17.945906 4294967295
137.88728 -1.0922613 -17.824944 4294967295
137.89833 0.94277221 -17.92539 4294967295
137.90051 1.2819192 -17.941343 4294967295
137.90318 3.9957328 -18.103594 4294967295
137.91855 2.2987318 -17.962227 4294967295
137.93365 1.9586327 -17.905798 4294967295
137.94109 3.3154032 -17.972595 4294967295
137.95641 2.6360257 -17.894564 4294967295
137.95837 5.3502374 -18.058472 4294967295
137.97002 5.6890216 -18.0522 4294967295
137.97708 3.6529369 -17.909296 4294967295
138.01016 5.0087366 -17.916014 4294967295
138.01094 4.669363 -17.893108 4294967295
138.035 7.3830595 -18.005255 4294967295
138.07089 6.703084 -17.87908 4294967295
138.09427 -1.4305727 -18.178606 4294967295
138.11516 -2.1103604 -18.087637 4294967295
138.12904 -0.076159701 -18.181377 4294967295
138.13876 -1.7727836 -18.053368 4294967295
138.16005 2.2962413 -18.25614 4294967295
138.1657 -0.75689793 -18.05349 4294967295
138.16582 0.9391849 -18.158379 4294967295
138.17232 -1.0965722 -18.016905 4294967295
138.17584 0.26015401 -18.092852 4294967295
138.18553 -0.41892529 -18.028053 4294967295
138.18623 0.59876353 -18.089581 4294967295
138.19711 1.615823 -18.127245 4294967295
138.2292 2.6318021 -18.11529 4294967295
138.23306 1.2745373 -18.022038 4294967295
138.23941 2.9705296 -18.112413 4294967295
138.25407 3.6483178 -18.120235 4294967295
138.26039 3.3087404 -18.084393 4294967295
138.26759 4.6654649 -18.151751 4294967295
138.29254 5.3429136 -18.135448 4294967295
138.29286 6.0214386 -18.17679 4294967295
138.31453 5.0026884 -18.062923 4294967295
138.31656 3.9846354 -17.995001 4294967295
138.33122 4.323297 -17.981733 4294967295
138.36972 6.6971149 -18.039053 4294967295
138.37971 -1.4348712 -18.369162 4294967295
138.39093 7.3750658 -18.031517 4294967295
138.41353 -1.776301 -18.269041 4294967295
138.44855 -0.76112533 -18.250219 4294967295
138.44992 0.2563071 -18.310156 4294967295
138.45488 0.59517097 -18.319597 4294967295
138.46075 -2.1187601 -18.137541 4294967295
138.46477 2.2903733 -18.401638 4294967295
138.47957 -0.42391559 -18.19873 4294967295
138.48094 -1.1024456 -18.153439 4294967295
138.48335 1.9502149 -18.3372 4294967295
138.5009 1.610059 -18.275076 4294967295
138.51117 2.966291 -18.335249 4294967295
138.52284 1.2696025 -18.202782 4294967295
138.55099 3.6427259 -18.284243 4294967295
138.55362 0.92856687 -18.109734 4294967295
138.57628 4.6592474 -18.288288 4294967295
138.57872 2.6235845 -18.156311 4294967295
138.58095 3.9805415 -18.235252 4294967295
138.61314 6.6931858 -18.328329 4294967295
138.61404 5.3361254 -18.242098 4294967295
138.62329 5.675015 -18.241552 4294967295
138.62907 4.9962029 -18.185919 4294967295
138.63614 4.3172774 -18.12734 4294967295
138.65607 6.0129995 -18.185911 4294967295
138.66963 7.0304184 -18.217384 4294967295
138.69817 -1.7804946 -18.461267 4294967295
138.70706 6.3503647 -18.087847 4294967295
138.71655 7.3681145 -18.128763 4294967295
138.7182 -0.42539451 -18.498585 4294967295
138.74519 -1.1053963 -18.393505 4294967295
138.75266 -1.4450532 -18.355068 4294967295
138.75935 -0.088850297 -18.423534 4294967295
138.77461 0.2493737 -18.408903 4294967295
138.78325 1.2663412 -18.45188 4294967295
138.80133 0.58693928 -18.367599 4294967295
138.80269 -2.1268973 -18.196169 4294967295
138.80753 3.2999442 -18.521318 4294967295
138.81177 2.6214209 -18.469435 4294967295
138.82541 0.92472172 -18.332399 4294967295
138.83978 1.6023362 -18.340839 4294967295
138.84035 3.637506 -18.465736 4294967295
138.85954 1.9404736 -18.315758 4294967295
138.87302 4.3143568 -18.431581 4294967295
138.8788 4.653306 -18.439108 4294967295
138.89436 2.2778552 -18.255539 4294967295
138.90137 6.6876049 -18.512596 4294967295
138.92833 6.0081358 -18.407652 4294967295
138.93208 7.0257087 -18.461941 4294967295
138.9323 4.9902048 -18.335283 4294967295
138.93706 3.972147 -18.261038 4294967295
138.95781 5.3284073 -18.29677 4294967295
138.96385 7.3638449 -18.408865 4294967295
139.00247 5.6658869 -18.213575 4294967295
139.00874 6.3443217 -18.240959 4294967295
139.04575 -1.4498726 -18.527504 4294967295
139.06508 -1.7903299 -18.46138 4294967295
139.08397 -0.43493491 -18.501419 4294967295
139.09027 -0.096171103 -18.507755 4294967295
139.09683 0.2425871 -18.513474 4294967295
139.09827 -2.1318073 -18.36298 4294967295
139.10359 0.92050147 -18.539766 4294967295
139.11221 -1.1151251 -18.393518 4294967295
139.11404 1.9373667 -18.578445 4294967295
139.12044 2.954464 -18.626619 4294967295
139.12311 2.6151826 -18.599318 4294967295
139.13487 2.2754092 -18.550884 4294967295
139.13937 1.5968037 -18.498373 4294967295
139.17812 5.3258457 -18.639256 4294967295
139.18645 3.2903349 -18.493755 4294967295
139.20534 4.6463013 -18.533817 4294967295
139.2086 3.6284766 -18.463154 4294967295
139.21265 4.3067484 -18.495726 4294967295
139.22421 4.9846931 -18.510845 4294967295
139.22589 7.0198812 -18.633022 4294967295
139.24365 6.0015821 -18.528585 4294967295
139.25166 7.3581867 -18.594021 4294967295
139.28271 6.6785984 -18.479605 4294967295
139.29401 5.660306 -18.390234 4294967295
139.29936 6.3386927 -18.419762 4294967295
139.36852 -2.1349511 -18.58865 4294967295
139.36948 -1.7958791 -18.60742 4294967295
139.39581 -1.1193523 -18.58811 4294967295
139.40724 1.9321516 -18.75058 4294967295
139.40961 -0.78109097 -18.57699 4294967295
139.41548 -0.1031368 -18.605318 4294967295
139.42949 0.91349649 -18.635748 4294967295
139.43097 -0.44328359 -18.548241 4294967295
139.44281 2.269367 -18.688791 4294967295
139.45346 2.947109 -18.705994 4294967295
139.45963 1.5901237 -18.607584 4294967295
139.46123 0.2332377 -18.519787 4294967295
139.47594 3.2851441 -18.674717 4294967295
139.47652 1.2499752 -18.547232 4294967295
139.49431 4.9801207 -18.73699 4294967295
139.50214 4.3014297 -18.676748 4294967295
139.50899 3.6227212 -18.618753 4294967295
139.54523 7.0131483 -18.744568 4294967295
139.54897 5.9954233 -18.672777 4294967295
139.55829 5.3165998 -18.609089 4294967295
139.57385 6.3336782 -18.635866 4294967295
139.59943 7.3504734 -18.639444 4294967295
139.60208 5.6540599 -18.528177 4294967295
139.63297 6.6707368 -18.519335 4294967295
139.66795 -1.8010329 -18.767061 4294967295
139.68297 -1.1238256 -18.774139 4294967295
139.69194 -0.78529978 -18.774261 4294967295
139.69907 -2.1423035 -18.673656 4294967295
139.73828 -0.1099565 -18.708532 4294967295
139.74188 1.2464185 -18.784107 4294967295
139.74724 2.9417455 -18.876701 4294967295
139.7502 0.90679359 -18.743822 4294967295
139.75514 0.2281754 -18.690294 4294967295
139.7565 -0.45027211 -18.645134 4294967295
139.76151 3.6192632 -18.885548 4294967295
139.78201 2.2616663 -18.753824 4294967295
139.78238 1.5832965 -18.710978 4294967295
139.80096 1.9214642 -18.688738 4294967295
139.82736 3.2768946 -18.711411 4294967295
139.84161 4.2938285 -18.741291 4294967295
139.84598 4.6328335 -18.752155 4294967295
139.87485 3.9530685 -18.643061 4294967295
139.88109 4.9705219 -18.691586 4294967295
139.88162 5.3097329 -18.711376 4294967295
139.88583 6.3272381 -18.764584 4294967295
139.88606 6.6664438 -18.785049 4294967295
139.92638 7.3434763 -18.733383 4294967295
139.93185 -1.8038255 -19.006895 4294967295
139.94003 5.9858904 -18.617575 4294967295
139.94397 7.0036001 -18.671474 4294967295
139.94667 -1.1267583 -19.014421 4294967295
139.97182 0.2277939 -19.039932 4294967295
139.98462 -1.4683307 -18.905281 4294967295
139.9873 -0.79034591 -18.940994 4294967295
139.99515 0.9044981 -19.02776 4294967295
140.01213 0.56443357 -18.96731 4294967295
140.02942 -2.1496336 -18.759232 4294967295
140.05754 2.9355407 -19.008816 4294967295
140.05983 -0.1166987 -18.814564 4294967295
140.06279 -0.45604539 -18.786699 4294967295
140.06619 2.5960002 -18.967745 4294967295
140.07013 2.2566795 -18.937628 4294967295
140.07477 1.9173005 -18.905815 4294967295
140.09837 3.6117496 -18.95606 4294967295
140.11246 1.2368724 -18.776339 4294967295
140.14566 4.9661808 -18.930225 4294967295
140.1571 5.6440291 -18.945629 4294967295
140.16785 4.6260338 -18.857702 4294967295
140.18121 7.3389397 -18.994648 4294967295
140.18425 3.9468579 -18.777647 4294967295
140.19673 5.9816384 -18.87463 4294967295
140.20424 5.3028975 -18.815243 4294967295
140.20802 4.2850037 -18.743452 4294967295
140.22485 6.998229 -18.872402 4294967295
140.24373 -2.1489112 -19.114 4294967295
140.28403 -1.134533 -19.083481 4294967295
140.299 -1.4745842 -19.027719 4294967295
140.31406 1.236938 -19.160652 4294967295
140.31572 -0.79752833 -19.03097 4294967295
140.32074 -0.1196876 -19.061266 4294967295
140.32498 -1.8154342 -18.946495 4294967295
140.33472 1.5748277 -19.133732 4294967295
140.33989 0.55731559 -19.058811 4294967295
140.34395 0.89615768 -19.070406 4294967295
140.34842 1.9131396 -19.122971 4294967295
140.36404 -0.46149829 -18.939831 4294967295
140.38728 0.2153506 -18.927956 4294967295
140.40939 2.9272363 -19.044485 4294967295
140.41478 4.6225462 -19.13702 4294967295
140.43471 4.9607859 -19.11175 4294967295
140.44107 2.2472911 -18.929153 4294967295
140.4568 2.5856507 -18.913588 4294967295
140.47083 5.2983942 -19.048998 4294967295
140.47218 3.6024613 -18.940933 4294967295
140.4734 3.2632048 -18.91708 4294967295
140.47845 3.9413559 -18.947336 4294967295
140.49017 4.280015 -18.941212 4294967295
140.49121 7.3325176 -19.127682 4294967295
140.49371 5.9758015 -19.037933 4294967295
140.50505 6.314537 -19.032654 4294967295
140.51915 6.6531954 -19.020945 4294967295
140.54738 6.9913874 -18.976494 4294967295
140.58813 -0.80110431 -19.250587 4294967295
140.61052 -1.8197093 -19.135798 4294967295
140.63466 -1.1431773 -19.121824 4294967295
140.63568 -0.4650898 -19.16144 4294967295
140.63792 0.55195951 -19.219137 4294967295
140.63795 -1.4824839 -19.093243 4294967295
140.64749 1.5685554 -19.25996 4294967295
140.65814 1.2289035 -19.214264 4294967295
140.70415 1.9045188 -19.149717 4294967295
140.70969 2.2433302 -19.15781 4294967295
140.71347 3.5995352 -19.232979 4294967295
140.72226 0.88611132 -19.044811 4294967295
140.72893 3.2596829 -19.176229 4294967295
140.72905 2.9205618 -19.154982 4294967295
140.74486 2.5806193 -19.097374 4294967295
140.7482 4.6152344 -19.215496 4294967295
140.76418 5.6318922 -19.241426 4294967295
140.7813 3.9354513 -19.096909 4294967295
140.78409 4.9528017 -19.153376 4294967295
140.81602 5.9689655 -19.142405 4294967295
140.82513 4.2726231 -19.016447 4294967295
140.83546 6.9857578 -19.16033 4294967295
140.85194 7.3243666 -19.143147 4294967295
140.8678 -1.4830832 -19.411253 4294967295
140.86801 -1.1441286 -19.431704 4294967295
140.87804 6.3057842 -19.01985 4294967295
140.94449 -1.8272815 -19.212896 4294967295
140.94659 1.5630381 -19.417665 4294967295
140.95474 -0.1326151 -19.293938 4294967295
140.96152 -0.47210261 -19.257338 4294967295
140.96904 -0.81166101 -19.21899 4294967295
140.99487 0.2040112 -19.222095 4294967295
140.99606 0.54303771 -19.240292 4294967295
141.00008 1.2209845 -19.272966 4294967295
141.0184 1.8981519 -19.272503 4294967295
141.03683 2.9144814 -19.292841 4294967295
141.04784 0.87912369 -19.141588 4294967295
141.04927 3.9311719 -19.32695 4294967295
141.05017 2.574688 -19.240997 4294967295
141.05144 4.9483328 -19.384813 4294967295
141.05402 3.252732 -19.274012 4294967295
141.08815 5.6249943 -19.341869 4294967295
141.10231 4.607008 -19.246298 4294967295
141.10365 4.2677922 -19.222172 4294967295
141.10776 6.980691 -19.38048 4294967295
141.10849 5.2850304 -19.273958 4294967295
141.10924 5.963275 -19.314138 4294967295
141.13144 6.6407108 -19.304718 4294967295
141.15593 6.300633 -19.227154 4294967295
141.17426 7.3175249 -19.247742 4294967295
141.18132 -1.150332 -19.55625 4294967295
141.19231 -2.1679842 -19.468021 4294967295
141.22777 -0.13636801 -19.511816 4294967295
141.25266 1.5571325 -19.55916 4294967295
141.25874 -1.4944539 -19.356455 4294967295
141.2858 -0.479013 -19.356855 4294967295
141.28627 0.1990881 -19.397652 4294967295
141.28697 2.233285 -19.521717 4294967295
141.30998 2.9101508 -19.510538 4294967295
141.31538 0.87550348 -19.372353 4294967295
141.33005 1.2137501 -19.35939 4294967295
141.33354 0.53534079 -19.309393 4294967295
141.3454 4.2646332 -19.51256 4294967295
141.37624 3.2459254 -19.378511 4294967295
141.39151 1.8885942 -19.25938 4294967295
141.39433 3.9232903 -19.378632 4294967295
141.40318 5.957552 -19.483929 4294967295
141.42009 4.9395189 -19.382044 4294967295
141.42293 4.6002603 -19.354536 4294967295
141.42836 3.5825353 -19.27911 4294967295
141.44139 5.6169147 -19.374775 4294967295
141.44972 6.9731541 -19.439398 4294967295
141.45045 6.6339951 -19.41674 4294967295
141.46379 7.3118024 -19.427929 4294967295
141.46649 6.2942452 -19.358767 4294967295
141.51329 -1.8356911 -19.595863 4294967295
141.53804 -1.1593697 -19.580662 4294967295
141.55476 0.1955428 -19.62583 4294967295
141.55499 -0.82146859 -19.562447 4294967295
141.55656 -0.14355899 -19.600697 4294967295
141.56522 -1.5001837 -19.496994 4294967295
141.56998 0.8726306 -19.632645 4294967295
141.59853 -0.4852016 -19.483007 4294967295
141.6039 2.2267594 -19.638214 4294967295
141.60973 1.88743 -19.603767 4294967295
141.62138 1.2087076 -19.534986 4294967295
141.62845 3.2425563 -19.644386 4294967295
141.64664 4.2587633 -19.665287 4294967295
141.68661 4.9350882 -19.615021 4294967295
141.69292 2.5611722 -19.453838 4294967295
141.70432 5.2734084 -19.595139 4294967295
141.72289 3.5770543 -19.447554 4294967295
141.73726 6.6284571 -19.602995 4294967295
141.74832 5.6107054 -19.514669 4294967295
141.75545 6.2886767 -19.540121 4294967295
141.76503 4.5925617 -19.41324 4294967295
141.77605 5.9487419 -19.471655 4294967295
141.7939 7.3046942 -19.514343 4294967295
141.80197 6.9652581 -19.474762 4294967295
141.85571 0.19003581 -19.778868 4294967295
141.86366 -2.1833982 -19.614058 4294967295
141.86624 -1.844559 -19.629036 4294967295
141.87439 -0.48906991 -19.694019 4294967295
141.8755 -1.1671535 -19.649561 4294967295
141.88821 1.8829925 -19.80872 4294967295
141.89661 -0.1514492 -19.663795 4294967295
141.90445 -1.5080992 -19.561958 4294967295
141.92328 0.52499747 -19.644148 4294967295
141.94687 2.8969133 -19.736422 4294967295
141.95128 3.9137423 -19.78908 4294967295
141.97461 1.5392413 -19.588768 4294967295
141.979 3.5734036 -19.704325 4294967295
141.98038 0.86072761 -19.533587 4294967295
141.98662 1.19947 -19.540161 4294967295
141.99059 5.2680779 -19.782322 4294967295
141.99173 2.5555737 -19.612156 4294967295
142.01015 4.2500777 -19.674488 4294967295
142.01349 3.2326598 -19.603931 4294967295
142.04378 6.6221962 -19.743593 4294967295
142.04486 6.2830839 -19.720156 4294967295
142.05922 5.9434428 -19.666142 4294967295
142.08499 5.6032953 -19.585894 4294967295
142.12024 -1.16887 -19.931919 4294967295
142.12929 -2.1862602 -19.848354 4294967295
142.13338 6.9580965 -19.558302 4294967295
142.14604 7.2968383 -19.550117 4294967295
142.16945 0.52269822 -19.92334 4294967295
142.17476 -0.83345681 -19.827391 4294967295
142.18556 -1.8511409 -19.739756 4294967295
142.1877 -0.49529999 -19.818558 4294967295
142.19801 1.198952 -19.899467 4294967295
142.19888 -1.5130243 -19.730015 4294967295
142.21745 -0.1581538 -19.771021 4294967295
142.22211 0.85859108 -19.823116 4294967295
142.22726 0.1802642 -19.769352 4294967295
142.24951 3.2300789 -19.906574 4294967295
142.26143 2.551475 -19.837307 4294967295
142.28821 3.5672135 -19.838465 4294967295
142.30049 3.9056675 -19.831169 4294967295
142.31204 2.8879404 -19.741842 4294967295
142.32701 2.2089927 -19.665567 4294967295
142.35182 5.2596321 -19.796909 4294967295
142.35202 6.6158738 -19.88018 4294967295
142.36107 4.2419581 -19.71282 4294967295
142.38609 6.9537163 -19.822756 4294967295
142.38991 7.2926683 -19.834919 4294967295
142.39038 5.5971508 -19.729155 4294967295
142.39868 5.9359379 -19.730999 4294967295
142.39882 4.5793972 -19.646923 4294967295
142.40079 4.9184556 -19.663376 4294967295
142.40698 -2.1899652 -20.054504 4294967295
142.41885 6.2742949 -19.705547 4294967295
142.43001 -1.5137424 -20.043432 4294967295
142.43985 -0.4976871 -20.083549 4294967295
142.44643 -0.837008 -20.047539 4294967295
142.46771 -1.8552028 -19.935886 4294967295
142.48979 0.177074 -20.010666 4294967295
142.54201 0.51292968 -19.911642 4294967295
142.56268 2.2067611 -19.968758 4294967295
142.59393 1.1879795 -19.834139 4294967295
142.59758 3.5610132 -19.972212 4294967295
142.61983 1.8646748 -19.816555 4294967295
