# .PCD v0.7 - Point Cloud Data file format
VERSION 0.7
FIELDS x y z rgb
SIZE 4 4 4 4
TYPE F F F U
COUNT 1 1 1 1
WIDTH 1126
HEIGHT 1
VIEWPOINT 0 0 0 1 0 0 0
POINTS 1126
DATA ascii
34.555492 -0.69069529 -12.868252 4294967295
34.55772 -1.9695992 -13.379701 4294967295
34.557983 -2.291069 -13.341872 4294967295
34.56123 0.42907041 -12.305236 4294967295
34.572887 0.58937508 -12.276511 4294967295
34.597614 -0.85442609 -12.679679 4294967295
34.604767 1.3926263 -12.239733 4294967295
34.618137 -1.3310579 -13.209328 4294967295
34.619907 -1.0096518 -13.238947 4294967295
34.620201 -0.37321851 -12.643641 4294967295
34.620945 -2.1351609 -13.106087 4294967295
34.634037 -1.8145635 -13.090002 4294967295
34.636948 -0.052461199 -12.612794 4294967295
34.650974 -0.53617013 -12.500906 4294967295
34.654751 -0.2145265 -12.522462 4294967295
34.66761 0.58938271 -12.562553 4294967295
34.675072 -0.69184321 -13.053069 4294967295
34.68576 0.1054265 -12.434022 4294967295
34.688385 -2.4533699 -13.463966 4294967295
34.707973 0.26503569 -12.362704 4294967295
34.710945 -3.0980809 -13.2995 4294967295
34.712223 0.90871018 -12.419181 4294967295
34.71661 -1.9734045 -13.405252 4294967295
34.722004 -1.6523644 -13.42024 4294967295
34.739769 1.2291433 -12.344751 4294967295
34.740601 0.74608761 -12.286158 4294967295
34.740795 1.3900831 -12.359033 4294967295
34.742592 -2.6183896 -13.226979 4294967295
34.748627 -0.85767812 -12.737823 4294967295
34.754307 -2.2977779 -13.21648 4294967295
34.754356 1.0673292 -12.267422 4294967295
34.757214 -1.3334434 -13.315011 4294967295
34.75935 1.7111031 -12.320915 4294967295
34.77108 -2.1382942 -13.167215 4294967295
34.772205 -2.942342 -13.070803 4294967295
34.780022 1.8710583 -12.255854 4294967295
34.786579 -0.53841472 -12.62144 4294967295
34.788441 -1.81803 -13.133973 4294967295
34.790104 -0.055883899 -12.66242 4294967295
34.815048 -1.015959 -13.118569 4294967295
34.822941 0.4248758 -12.585109 4294967295
34.823315 0.1029688 -12.546807 4294967295
34.831108 -0.3803947 -12.460151 4294967295
34.842014 -0.85699958 -13.028238 4294967295
34.846146 -1.9749967 -13.54906 4294967295
34.852749 -1.8147972 -13.540822 4294967295
34.862442 1.2273536 -12.517747 4294967295
34.864788 -3.101476 -13.345421 4294967295
34.874207 1.8705667 -12.543889 4294967295
34.875736 0.90466952 -12.427294 4294967295
34.876534 0.260665 -12.350455 4294967295
34.879536 1.3873922 -12.467188 4294967295
34.884232 -2.9423263 -13.285441 4294967295
34.886738 1.7089597 -12.474936 4294967295
34.894958 -2.7824378 -13.260603 4294967295
34.89996 1.0642958 -12.347969 4294967295
34.920059 -0.70142061 -12.731965 4294967295
34.921253 -0.37970239 -12.76394 4294967295
34.921398 -2.4629977 -13.190811 4294967295
34.941021 -1.4997962 -13.221983 4294967295
34.945709 -2.1433005 -13.129622 4294967295
34.952011 -0.059859 -12.676721 4294967295
34.957596 -0.2211383 -12.635818 4294967295
34.971916 -0.54395121 -12.541306 4294967295
34.986511 0.90362781 -12.648009 4294967295
35.007362 0.58052683 -12.527179 4294967295
35.010376 -2.9434667 -13.442895 4294967295
35.014683 1.3848933 -12.589668 4294967295
35.016224 0.74097341 -12.509862 4294967295
35.020145 -3.1049967 -13.385211 4294967295
35.021717 0.25772089 -12.432532 4294967295
35.022511 -2.7837241 -13.412415 4294967295
35.034981 -2.1417859 -13.435656 4294967295
35.035896 -0.54146272 -12.950109 4294967295
35.040913 1.8663971 -12.539145 4294967295
35.04612 0.41723961 -12.352568 4294967295
35.050598 1.2219732 -12.42652 4294967295
35.055267 -0.70361948 -12.853719 4294967295
35.055775 -0.2210352 -12.906814 4294967295
35.062164 -1.8223579 -13.362971 4294967295
35.062351 -1.1794072 -13.43565 4294967295
35.078274 1.703498 -12.370197 4294967295
35.080395 -0.38350639 -12.789293 4294967295
35.106625 -0.860964 -13.294246 4294967295
35.109219 -1.6650594 -13.192003 4294967295
35.110401 -2.3083539 -13.113786 4294967295
35.115326 1.0573664 -12.147243 4294967295
35.122635 0.096547 -12.674341 4294967295
35.122662 -1.5052395 -13.156275 4294967295
35.123257 -1.3444804 -13.172251 4294967295
35.124741 -1.9878228 -13.09282 4294967295
35.127312 1.539902 -12.154169 4294967295
35.136059 2.1836963 -12.192548 4294967295
35.15414 -0.70338231 -13.121463 4294967295
35.157314 -1.0252432 -13.071957 4294967295
35.163174 0.7378853 -12.584673 4294967295
35.163975 0.41591939 -12.544669 4294967295
35.180111 0.89787602 -12.534864 4294967295
35.190891 1.3801862 -12.546643 4294967295
35.194355 -0.54522449 -12.978044 4294967295
35.198406 2.0236571 -12.589941 4294967295
35.202641 -2.6284924 -13.370932 4294967295
35.20829 -2.146693 -13.403275 4294967295
35.210266 -2.7898571 -13.321916 4294967295
35.214169 2.1838508 -12.544885 4294967295
35.215927 1.0568445 -12.409062 4294967295
35.22839 1.8611757 -12.450854 4294967295
35.237492 -1.0235972 -13.414364 4294967295
35.239391 -2.9529924 -13.18648 4294967295
35.240543 -1.9883796 -13.291979 4294967295
35.243286 -1.827812 -13.29931 4294967295
35.247875 -1.6673778 -13.299211 4294967295
35.252506 -0.388154 -12.762482 4294967295
35.257263 1.6986859 -12.316229 4294967295
35.257614 -2.3112538 -13.186647 4294967295
35.273434 -0.70452023 -13.306623 4294967295
35.279804 -0.2289927 -12.671041 4294967295
35.288956 1.2138448 -12.133445 4294967295
35.296627 1.53558 -12.139378 4294967295
35.304455 0.25229371 -12.627028 4294967295
35.306393 0.0912228 -12.600862 4294967295
35.323315 -0.070799701 -12.514407 4294967295
35.336037 -2.7910039 -13.480619 4294967295
35.336319 1.5380867 -12.645938 4294967295
35.339588 0.57211637 -12.522482 4294967295
35.350811 -2.9529362 -13.402946 4294967295
35.364502 1.2146332 -12.495826 4294967295
35.37289 0.40914229 -12.370145 4294967295
35.39579 -2.4742365 -13.277348 4294967295
35.398811 -0.55202359 -12.821124 4294967295
35.400459 -1.3491896 -13.387039 4294967295
35.403214 -1.6709188 -13.339285 4294967295
35.407532 -1.9927922 -13.285241 4294967295
35.418499 -0.39240289 -12.760381 4294967295
35.421364 -3.1195011 -13.101246 4294967295
35.426483 1.0501865 -12.228162 4294967295
35.428093 1.3722042 -12.258477 4294967295
35.429008 0.88898528 -12.199616 4294967295
35.430279 -2.3161228 -13.157208 4294967295
35.430412 0.72784013 -12.175577 4294967295
35.433037 -0.70836282 -13.329633 4294967295
35.448303 2.3374748 -12.287561 4294967295
35.456253 -2.6398184 -13.016179 4294967295
35.501572 0.085192896 -12.481685 4294967295
35.502682 0.40710479 -12.513991 4294967295
35.529072 0.72754478 -12.444711 4294967295
35.538189 0.2439547 -12.35294 4294967295
35.543201 0.56570578 -12.369566 4294967295
35.550026 1.2093997 -12.415677 4294967295
35.552296 -0.55545551 -12.869234 4294967295
35.55534 0.88705802 -12.357565 4294967295
35.557575 1.8530524 -12.45888 4294967295
35.565125 1.0475399 -12.336635 4294967295
35.578197 -0.39624259 -12.783612 4294967295
35.57914 -1.8367571 -13.278406 4294967295
35.582455 -2.9626665 -13.136688 4294967295
35.588566 2.0125234 -12.352782 4294967295
35.589378 -2.3199422 -13.182309 4294967295
35.590847 -2.8025203 -13.121371 4294967295
35.601112 0.4069407 -12.783452 4294967295
35.602631 -2.6426294 -13.09245 4294967295
35.610985 -3.1258411 -13.003876 4294967295
35.611893 -1.1959113 -13.220419 4294967295
35.614441 2.1723027 -12.267238 4294967295
35.61747 -0.55306458 -13.27143 4294967295
35.61832 1.3667482 -12.159705 4294967295
35.62674 2.4938431 -12.254608 4294967295
35.629032 -2.4838626 -13.004884 4294967295
35.635174 -2.0017648 -13.035296 4294967295
35.640236 -1.3587391 -13.088392 4294967295
35.643456 -0.39395151 -13.185569 4294967295
35.644424 1.5264546 -12.073224 4294967295
35.644489 -0.23956241 -12.535866 4294967295
35.648052 -2.1636021 -12.965283 4294967295
35.665127 0.2421191 -12.508156 4294967295
35.67112 0.080751799 -12.465723 4294967295
35.671497 -1.6827211 -12.926302 4294967295
35.673374 2.3305612 -12.048903 4294967295
35.698456 -1.3553842 -13.517848 4294967295
35.698727 0.56212509 -12.410035 4294967295
35.700275 1.2060963 -12.477322 4294967295
35.706921 1.6887603 -12.505774 4294967295
35.715061 1.3663093 -12.436368 4294967295
35.716366 -2.8036473 -13.281086 4294967295
35.721588 -3.1256721 -13.223478 4294967295
35.736969 -2.1620719 -13.271873 4294967295
35.739258 0.88186109 -12.284119 4294967295
35.744884 -0.2396089 -12.797193 4294967295
35.750858 -2.0023179 -13.234549 4294967295
35.757298 2.0082643 -12.340389 4294967295
35.767376 -0.080099598 -12.725361 4294967295
35.7705 2.6518247 -12.360926 4294967295
35.778564 -2.9694996 -13.013482 4294967295
35.782864 1.845922 -12.219424 4294967295
35.786098 -2.3266661 -13.056665 4294967295
35.787827 -2.6485188 -13.013039 4294967295
35.789268 3.1341512 -12.340775 4294967295
35.78989 0.079450898 -12.653445 4294967295
35.799625 -1.8451235 -13.057494 4294967295
35.799732 2.8115711 -12.262031 4294967295
35.801613 2.4893315 -12.217713 4294967295
35.803082 -1.523667 -13.08033 4294967295
35.803783 0.2395681 -12.616101 4294967295
35.807407 -2.4891889 -12.952919 4294967295
35.807625 2.1668687 -12.156829 4294967295
35.835739 0.3986302 -12.506341 4294967295
35.841133 -2.3224564 -13.49851 4294967295
35.883045 2.3281543 -12.537115 4294967295
35.892578 1.3615353 -12.388689 4294967295
35.893429 -2.808913 -13.234178 4294967295
35.896664 0.87816918 -12.317194 4294967295
35.898735 1.5222486 -12.382371 4294967295
35.908482 2.0048742 -12.398423 4294967295
35.910847 2.4878683 -12.444061 4294967295
35.92535 -2.4897892 -13.143059 4294967295
35.926182 3.1313143 -12.456078 4294967295
35.931187 -2.0077295 -13.174687 4294967295
35.93288 -2.9729331 -13.057906 4294967295
35.946671 1.8419019 -12.226969 4294967295
35.954197 3.2911875 -12.362184 4294967295
35.971081 0.39625689 -12.627542 4294967295
35.972927 2.1627879 -12.158479 4294967295
35.980679 -1.8505638 -12.994929 4294967295
35.987965 -1.207583 -13.039128 4294967295
35.991032 1.2000196 -12.639426 4294967295
36.01585 1.0376552 -12.521671 4294967295
36.034653 -2.8113039 -13.330754 4294967295
36.039017 1.5194527 -12.483985 4294967295
36.044224 0.55294001 -12.352953 4294967295
36.048546 -1.5260568 -13.421772 4294967295
36.054222 1.3576128 -12.404737 4294967295
36.057758 -2.3307145 -13.293322 4294967295
36.060745 2.00143 -12.452069 4294967295
36.066181 0.074446701 -12.872861 4294967295
36.067276 0.71265942 -12.278997 4294967295
36.074543 3.4500282 -12.562099 4294967295
36.084164 -3.1369736 -13.096083 4294967295
36.087032 -2.6546552 -13.139606 4294967295
36.088161 -2.9764459 -13.098427 4294967295
36.089207 -1.3681628 -13.27754 4294967295
36.090736 -2.4941006 -13.143119 4294967295
36.095913 -2.0119684 -13.177406 4294967295
36.099026 -1.6905231 -13.201622 4294967295
36.105583 -1.0476625 -13.248713 4294967295
36.111801 2.1599879 -12.266007 4294967295
36.117165 3.1261892 -12.354747 4294967295
36.121536 3.6091971 -12.392355 4294967295
36.123386 1.83723 -12.182883 4294967295
36.139885 -1.8543848 -13.01992 4294967295
36.149952 0.23027959 -12.556023 4294967295
36.151985 0.55216241 -12.584598 4294967295
36.156704 2.6411815 -12.141351 4294967295
36.168488 2.4795153 -12.075792 4294967295
36.174538 1.5169058 -12.604505 4294967295
36.174599 2.3180902 -12.032948 4294967295
36.177368 1.9997481 -12.648231 4294967295
36.19302 -1.6895884 -13.486914 4294967295
36.196911 -2.493789 -13.379786 4294967295
36.19907 -2.3331645 -13.389484 4294967295
36.202591 -2.8158369 -13.320457 4294967295
36.20274 -1.2152846 -12.841959 4294967295
36.212227 3.2833288 -11.992573 4294967295
36.212677 0.70966047 -12.360145 4294967295
36.213654 2.9640567 -12.613222 4294967295
36.215431 1.3537138 -12.422551 4294967295
36.222534 0.87015802 -12.339064 4294967295
36.224438 -2.9784169 -13.214873 4294967295
36.230713 -2.1747804 -13.2814 4294967295
36.233231 -1.8533347 -13.307977 4294967295
36.235958 1.191546 -12.322086 4294967295
36.236755 -1.3711566 -13.348867 4294967295
36.247044 3.1236489 -12.498058 4294967295
36.267597 0.38996321 -12.766108 4294967295
36.267994 0.8728019 -12.819539 4294967295
36.271099 0.55071521 -12.770447 4294967295
36.280472 -2.6611915 -13.027669 4294967295
36.281097 -0.89175922 -13.226738 4294967295
36.286247 -1.2138094 -13.169518 4294967295
36.286591 2.6387291 -12.284822 4294967295
36.294548 1.6717219 -12.142797 4294967295
36.295773 0.2272916 -12.635147 4294967295
36.29644 1.8327435 -12.153591 4294967295
36.299324 2.1548307 -12.178788 4294967295
36.31831 2.3150413 -12.121226 4294967295
36.324108 3.6037188 -12.244964 4294967295
36.328091 2.475714 -12.100469 4294967295
36.330475 1.5132852 -12.643224 4294967295
36.333935 3.4422176 -12.187312 4294967295
36.347221 1.6734186 -12.594662 4294967295
36.352814 2.7968793 -12.038341 4294967295
36.355743 0.70679468 -12.450498 4294967295
36.361637 -2.9804657 -13.327436 4294967295
36.367588 -2.0161147 -13.413558 4294967295
36.37775 2.6380312 -12.582773 4294967295
36.384201 2.9597831 -12.5937 4294967295
36.384937 1.1883116 -12.388885 4294967295
36.388309 -2.6609597 -13.257619 4294967295
36.391651 0.3882584 -12.931904 4294967295
36.396595 3.1202757 -12.562524 4294967295
36.397198 -3.1441977 -13.167197 4294967295
36.402683 -2.8229425 -13.18195 4294967295
36.408031 -1.6974818 -13.288803 4294967295
36.417274 -2.341536 -13.17866 4294967295
36.421967 -0.89433169 -13.324783 4294967295
36.423615 1.3473001 -12.252686 4294967295
36.426044 1.8304502 -12.298048 4294967295
36.426567 0.2252139 -12.774155 4294967295
36.440254 2.3130229 -12.296342 4294967295
36.446854 3.6013706 -12.416813 4294967295
36.450283 2.4736471 -12.274634 4294967295
36.450741 1.9903152 -12.21773 4294967295
36.453503 -1.5399233 -13.125701 4294967295
36.454052 -2.1834788 -13.050236 4294967295
36.457413 -1.2184618 -13.146744 4294967295
36.464169 2.7952189 -12.255864 4294967295
36.464699 0.86688232 -12.695259 4294967295
36.465828 2.1506922 -12.175807 4294967295
36.470791 1.5104841 -12.744291 4294967295
36.474445 0.54432768 -12.619668 4294967295
36.481182 -0.73746312 -13.106874 4294967295
36.495499 -1.0602167 -13.013114 4294967295
36.511944 1.8303592 -12.61671 4294967295
36.513474 0.70308357 -12.482202 4294967295
36.520184 1.1858255 -12.510449 4294967295
36.526699 1.6685845 -12.539467 4294967295
36.535282 -2.824645 -13.31284 4294967295
36.541325 2.1509571 -12.536116 4294967295
36.543678 -3.146987 -13.242749 4294967295
36.546326 2.633822 -12.571193 4294967295
36.559288 1.3447684 -12.372685 4294967295
36.560478 -2.3441315 -13.267327 4294967295
36.562019 3.2772641 -12.581937 4294967295
36.567471 0.86627591 -12.945917 4294967295
36.569012 -2.0231032 -13.269922 4294967295
36.574135 0.38306829 -12.864363 4294967295
36.588768 -2.9898028 -13.081306 4294967295
36.590816 0.54303861 -12.816167 4294967295
36.594761 -2.1858983 -13.148977 4294967295
36.601536 -0.57784379 -13.305069 4294967295
36.603363 -2.6692004 -13.059751 4294967295
36.603664 -1.2213749 -13.223359 4294967295
36.614491 2.308526 -12.262441 4294967295
36.616924 -1.8658056 -13.097258 4294967295
36.621899 -1.705286 -13.09575 4294967295
36.623966 -1.0619175 -13.160752 4294967295
36.627388 -1.5447968 -13.092188 4294967295
36.632526 3.5965555 -12.337276 4294967295
36.634056 2.7909639 -12.239421 4294967295
36.634956 3.4353607 -12.309226 4294967295
36.645897 3.1126876 -12.228861 4294967295
36.650837 1.9845083 -12.080667 4294967295
36.66806 1.826725 -12.654785 4294967295
36.6745 2.9503276 -12.096365 4294967295
36.676044 1.6653011 -12.604609 4294967295
36.701069 -2.5073495 -13.347959 4294967295
36.703094 0.69753641 -12.386703 4294967295
36.704933 2.1469569 -12.544431 4294967295
36.705212 -2.3468466 -13.349757 4294967295
36.706905 2.9520319 -12.628245 4294967295
36.713478 -2.1866519 -13.33514 4294967295
36.723347 1.0185517 -12.342627 4294967295
36.725544 2.6291306 -12.517272 4294967295
36.726784 -2.9919178 -13.190649 4294967295
36.728146 3.1121576 -12.56191 4294967295
36.73592 -1.866659 -13.282386 4294967295
36.737019 -2.8318772 -13.16819 4294967295
36.738914 1.1787881 -12.298881 4294967295
36.739902 -2.6712391 -13.175022 4294967295
36.742836 3.4336448 -12.540033 4294967295
36.744839 2.3061073 -12.403662 4294967295
36.749016 1.5004485 -12.295291 4294967295
36.751842 -0.7419048 -13.347118 4294967295
36.754738 -1.2246255 -13.280682 4294967295
36.76498 0.53836232 -12.782039 4294967295
36.766644 1.9828658 -12.280032 4294967295
36.769257 0.6990934 -12.783335 4294967295
36.770348 1.1819552 -12.833949 4294967295
36.772583 -1.5476102 -13.173018 4294967295
36.773003 2.7880788 -12.34641 4294967295
36.782452 1.0203125 -12.767414 4294967295
36.796284 -2.032022 -13.023734 4294967295
36.796715 2.464781 -12.21518 4294967295
36.807117 -0.58470178 -13.145381 4294967295
36.813461 -1.7114617 -12.991956 4294967295
36.826267 -1.3905365 -12.977598 4294967295
36.828247 3.269073 -12.181214 4294967295
36.841339 3.5908349 -12.165731 4294967295
36.845406 -0.90907443 -12.956338 4294967295
36.853443 -1.0705616 -12.906032 4294967295
36.885986 2.3031759 -12.501638 4294967295
36.887829 1.8198833 -12.439296 4294967295
36.888992 2.1419678 -12.471325 4294967295
36.895531 -2.3530653 -13.250763 4294967295
36.897541 3.4300458 -12.583941 4294967295
36.900459 -2.0317283 -13.267748 4294967295
36.902069 1.6580755 -12.364242 4294967295
36.902592 -2.9970925 -13.149482 4294967295
36.903427 -1.7102431 -13.292541 4294967295
36.906857 2.4632688 -12.436848 4294967295
36.910046 2.6242011 -12.442482 4294967295
36.912983 1.3352998 -12.284097 4294967295
36.91481 1.4963131 -12.295144 4294967295
36.914955 -1.5502223 -13.26498 4294967295
36.931244 -0.5862118 -13.309986 4294967295
36.932178 3.1064837 -12.409355 4294967295
36.933746 -1.8733312 -13.153654 4294967295
36.937672 1.9784954 -12.259105 4294967295
36.94606 -1.3915657 -13.159575 4294967295
36.949112 -2.8399317 -12.982719 4294967295
36.949257 -2.679023 -13.000433 4294967295
36.951412 -0.42666459 -13.248079 4294967295
36.955544 1.1767447 -12.756082 4294967295
36.956768 0.8546744 -12.714555 4294967295
36.97789 2.9434161 -12.208975 4294967295
36.982811 -1.0723255 -13.050016 4294967295
37.001095 -0.75171977 -13.013918 4294967295
37.013187 3.2642338 -12.105099 4294967295
37.024841 2.3003521 -12.608583 4294967295
37.02515 1.4950837 -12.515738 4294967295
37.036701 -3.1597507 -13.255877 4294967295
37.03756 1.3333586 -12.448024 4294967295
37.040398 1.8164288 -12.491715 4294967295
37.04324 1.9773549 -12.49874 4294967295
37.044991 2.1383357 -12.510097 4294967295
37.051643 -1.3915945 -13.397682 4294967295
37.053234 -2.5176346 -13.263345 4294967295
37.063545 3.425993 -12.582885 4294967295
37.065716 -2.6794801 -13.195448 4294967295
37.080914 0.85285628 -12.879622 4294967295
37.084682 1.0136162 -12.882947 4294967295
37.096645 -1.5556543 -13.200603 4294967295
37.098293 -3.0038738 -13.029398 4294967295
37.099854 -2.8430834 -13.041498 4294967295
37.10033 -1.0732788 -13.240846 4294967295
37.101933 3.2633564 -12.411867 4294967295
37.103252 1.6521295 -12.223283 4294967295
37.105259 -2.1998637 -13.093198 4294967295
37.105843 -1.2345389 -13.200644 4294967295
37.111938 2.6184852 -12.298736 4294967295
37.116745 -0.75263077 -13.212213 4294967295
37.117512 -1.7180549 -13.099399 4294967295
37.125393 3.5846248 -12.355205 4294967295
37.126572 1.1723062 -12.734736 4294967295
37.132851 -2.3628891 -12.965266 4294967295
37.133614 -2.0410793 -12.998825 4294967295
37.136307 1.4938083 -12.732664 4294967295
37.139572 2.7783833 -12.207125 4294967295
37.149529 -0.91573262 -13.063684 4294967295
37.152935 -0.4332073 -13.105052 4294967295
37.161724 2.9385707 -12.137337 4294967295
37.175293 -1.8832228 -12.851529 4294967295
37.184677 2.6186132 -12.668621 4294967295
37.196037 1.3296056 -12.476915 4294967295
37.204967 2.134511 -12.533023 4294967295
37.205048 -0.59753919 -12.87974 4294967295
37.208691 -3.0037594 -13.248287 4294967295
37.225166 2.9389267 -12.544353 4294967295
37.230042 -2.2010808 -13.254957 4294967295
37.230839 -1.557682 -13.324925 4294967295
37.234058 1.9720076 -12.399073 4294967295
37.239861 -1.7191968 -13.270831 4294967295
37.244141 2.4548259 -12.413981 4294967295
37.244911 2.2936881 -12.392588 4294967295
37.245152 3.5823898 -12.538225 4294967295
37.249897 -0.75471032 -13.340707 4294967295
37.263748 -2.3645401 -13.102869 4294967295
37.265869 1.8093044 -12.254306 4294967295
37.266476 -2.6865814 -13.055459 4294967295
37.269611 -1.3995645 -13.189328 4294967295
37.278358 -1.8829048 -13.099748 4294967295
37.283615 1.3296354 -12.787358 4294967295
37.300465 1.4897563 -12.738753 4294967295
37.308285 3.2576356 -12.250695 4294967295
37.313171 -2.5292935 -12.888389 4294967295
37.315369 -0.91999382 -13.062605 4294967295
37.331795 -0.59922069 -13.034008 4294967295
37.336441 1.9710207 -12.650837 4294967295
37.337643 3.0952494 -12.115702 4294967295
37.337711 1.6488611 -12.609164 4294967295
37.341419 -1.2436709 -12.922641 4294967295
37.355293 -1.0836622 -12.885868 4294967295
37.35931 -0.1181439 -12.9797 4294967295
37.360828 2.4530065 -12.608936 4294967295
37.365223 -0.44044149 -12.919657 4294967295
37.367065 3.0969415 -12.657423 4294967295
37.396938 -3.0099359 -13.158031 4294967295
37.40509 -1.8843346 -13.25368 4294967295
37.414673 2.6116271 -12.413486 4294967295
37.415951 -2.8505545 -13.100921 4294967295
37.42318 -2.5292945 -13.108815 4294967295
37.424107 -1.5639412 -13.214833 4294967295
37.424374 -1.2421811 -13.250343 4294967295
37.42643 2.2888482 -12.330173 4294967295
37.429638 1.8052872 -12.262464 4294967295
37.431667 3.2553301 -12.419298 4294967295
37.433147 2.933038 -12.376785 4294967295
37.444687 1.4867473 -12.823965 4294967295
37.445705 -0.60006428 -13.238901 4294967295
37.449005 -1.7266437 -13.09784 4294967295
37.456673 -2.210007 -13.012572 4294967295
37.463013 3.4151804 -12.313186 4294967295
37.468613 -0.27974021 -13.184658 4294967295
37.475578 -2.0504785 -12.955908 4294967295
37.480747 3.5756235 -12.261111 4294967295
37.483456 -1.0853462 -13.034403 4294967295
37.485596 -0.44174561 -13.09905 4294967295
37.493526 -2.6957469 -12.811577 4294967295
37.500862 -0.1208474 -13.075111 4294967295
37.501396 -0.92561728 -12.981568 4294967295
37.506691 0.039730299 -13.070301 4294967295
37.52729 -0.76638472 -12.897206 4294967295
37.527882 -1.4103734 -12.821682 4294967295
37.542027 3.414618 -12.657544 4294967295
37.572712 -1.5670019 -13.281936 4294967295
37.572918 2.930095 -12.480123 4294967295
37.575893 -2.6935265 -13.14141 4294967295
37.57848 3.5742488 -12.531306 4294967295
37.585186 1.9628206 -12.321585 4294967295
37.585609 2.1239338 -12.338232 4294967295
37.588261 3.0905468 -12.437594 4294967295
37.592342 2.6070089 -12.366472 4294967295
37.602978 -2.8565989 -13.015827 4294967295
37.604462 -3.0176642 -12.991669 4294967295
37.612492 -1.7307734 -13.106101 4294967295
37.620647 2.7668841 -12.272529 4294967295
37.621033 -0.76584351 -13.181935 4294967295
37.627628 -1.24906 -13.100984 4294967295
37.637432 -0.60600471 -13.135286 4294967295
37.638977 -1.8936512 -12.982918 4294967295
37.639263 1.8031784 -12.746131 4294967295
37.639389 3.2495544 -12.25316 4294967295
37.652027 -1.4117142 -12.986077 4294967295
37.662933 0.19704241 -13.125691 4294967295
37.663643 -2.378432 -12.830359 4294967295
37.668156 -2.5397782 -12.794205 4294967295
37.671089 2.1237025 -12.656616 4294967295
37.672352 -2.2180982 -12.814145 4294967295
37.681278 -0.93082428 -12.925081 4294967295
37.687038 0.51749653 -13.066818 4294967295
37.692104 0.034316 -12.991923 4294967295
37.692497 1.9615887 -12.553501 4294967295
37.709545 0.35520771 -12.959429 4294967295
37.712666 -1.0939547 -12.782497 4294967295
37.724552 2.6044445 -12.499712 4294967295
37.728542 -0.1289271 -12.829353 4294967295
37.737129 -0.4515039 -12.75877 4294967295
37.744133 2.764679 -12.440434 4294967295
37.749149 2.4422054 -12.383952 4294967295
37.752438 -2.6987162 -13.097929 4294967295
37.757652 -1.5726618 -13.205184 4294967295
37.780777 -2.3790312 -13.022327 4294967295
37.789692 -1.7358972 -13.060145 4294967295
37.793873 -2.5410013 -12.952234 4294967295
37.800941 -1.8976727 -12.997371 4294967295
37.80698 -1.2542746 -13.046573 4294967295
37.811428 -0.6107828 -13.102082 4294967295
37.814117 -2.0596185 -12.926952 4294967295
37.81892 -0.28937989 -13.108981 4294967295
37.819046 3.4061139 -12.216911 4294967295
37.827888 3.5669446 -12.200203 4294967295
37.829365 -0.93388528 -12.994575 4294967295
37.845814 -1.0959815 -12.911221 4294967295
37.846207 0.35274309 -13.074157 4294967295
37.852661 1.9577528 -12.575781 4294967295
37.86768 2.4402986 -12.57123 4294967295
37.869095 -1.4196072 -12.782556 4294967295
37.87645 0.51193333 -12.972817 4294967295
37.879543 -0.77625197 -12.814337 4294967295
37.887051 0.189321 -12.894329 4294967295
37.888683 2.6004376 -12.506404 4294967295
37.895351 2.1167789 -12.425113 4294967295
37.912464 0.0267593 -12.775532 4294967295
37.913742 -1.737168 -13.22443 4294967295
37.920601 -2.0595102 -13.1608 4294967295
37.924515 -1.8988732 -13.163596 4294967295
37.927895 3.2432237 -12.424428 4294967295
37.933285 3.4041374 -12.421393 4294967295
37.939568 3.5650232 -12.414831 4294967295
37.947117 -2.7053285 -12.982912 4294967295
37.948963 -2.5445054 -12.993872 4294967295
37.952473 3.0810552 -12.308859 4294967295
37.967133 -0.936252 -13.104754 4294967295
37.982101 -0.29343969 -13.118663 4294967295
37.991882 -2.2258205 -12.860764 4294967295
37.992558 -1.4209024 -12.949459 4294967295
37.999901 -1.5824133 -12.902169 4294967295
38.011703 -1.1002504 -12.910342 4294967295
38.016186 2.7591574 -12.67623 4294967295
38.016937 0.83114457 -13.108901 4294967295
38.017178 -2.3887601 -12.742494 4294967295
38.020203 -0.45684141 -12.949836 4294967295
38.036407 -0.13587829 -12.922357 4294967295
38.040756 -1.2632656 -12.777245 4294967295
38.041237 0.66879427 -12.994638 4294967295
38.050781 2.9187362 -12.557754 4294967295
38.051773 0.34619129 -12.916457 4294967295
38.068161 0.023172 -12.815168 4294967295
38.086323 -1.5810314 -13.215083 4294967295
38.091621 -1.9032738 -13.157643 4294967295
38.097927 -2.5475352 -13.059692 4294967295
38.098763 -2.2256916 -13.092922 4294967295
38.101089 -1.4211498 -13.175036 4294967295
38.123722 -0.77894419 -13.158726 4294967295
38.129097 -2.3889632 -12.954871 4294967295
38.1297 -0.2965126 -13.189911 4294967295
38.133194 -2.067306 -12.975228 4294967295
38.141293 3.5595841 -12.273138 4294967295
38.152763 -3.0348375 -12.788337 4294967295
38.169842 -2.714138 -12.757442 4294967295
38.183056 -1.2659041 -12.869683 4294967295
38.183899 3.2382247 -12.723559 4294967295
38.186672 0.1828485 -13.019818 4294967295
38.194611 -1.1056823 -12.842344 4294967295
38.194847 0.66531461 -13.042344 4294967295
38.200272 3.3986373 -12.67719 4294967295
38.206081 0.50367761 -12.979733 4294967295
38.207157 -0.46243331 -12.865891 4294967295
38.207207 -0.1404054 -12.902225 4294967295
38.212631 3.0759442 -12.591825 4294967295
38.221237 0.34178191 -12.901649 4294967295
38.227074 -0.6247555 -12.768998 4294967295
38.227776 -0.94689649 -12.729673 4294967295
38.240974 0.82370031 -12.87857 4294967295
38.246605 0.98441112 -12.874608 4294967295
38.273357 -1.1039959 -13.185335 4294967295
38.279316 -2.8750446 -12.961005 4294967295
38.286678 3.5563452 -12.354286 4294967295
38.295277 -0.94453228 -13.117137 4294967295
38.297321 -2.0714915 -12.981266 4294967295
38.305737 -0.78426832 -13.094142 4294967295
38.312454 -2.5556419 -12.8668 4294967295
38.314087 -3.0388317 -12.805565 4294967295
38.318596 -0.46316949 -13.079951 4294967295
38.323723 0.34133959 -13.15101 4294967295
38.339447 -1.4305345 -12.888154 4294967295
38.344593 0.0181372 -13.032213 4294967295
38.354397 -1.5926182 -12.810927 4294967295
38.361012 -2.39834 -12.693517 4294967295
38.36311 0.98297042 -13.068756 4294967295
38.386272 -1.9170325 -12.648678 4294967295
38.386307 -1.7559631 -12.666809 4294967295
38.38744 0.49858719 -12.91805 4294967295
38.391499 1.1424142 -12.975107 4294967295
38.395386 -0.30705771 -12.795403 4294967295
38.398888 0.175852 -12.836391 4294967295
38.424225 1.4627169 -12.88262 4294967295
38.434078 -2.7175343 -13.022213 4294967295
38.445675 -1.913528 -13.067782 4294967295
38.448322 -0.62602919 -13.20335 4294967295
38.459457 -1.7535528 -13.031723 4294967295
38.462265 -3.0417688 -12.874628 4294967295
38.470554 -2.5593777 -12.896721 4294967295
38.476074 -0.1449323 -13.148773 4294967295
38.498848 -2.0784564 -12.839997 4294967295
38.50272 -1.5956557 -12.879512 4294967295
38.507568 -2.2401464 -12.787386 4294967295
38.509296 -1.4350958 -12.871866 4294967295
38.51157 -2.4014976 -12.753355 4294967295
38.517685 -2.885154 -12.674469 4294967295
38.52327 -0.95297158 -12.871589 4294967295
38.540554 -0.47100911 -12.85826 4294967295
38.544601 -1.1154599 -12.769282 4294967295
38.546173 0.81684607 -12.982183 4294967295
38.550423 0.011479 -12.874173 4294967295
38.560085 1.1381099 -12.963916 4294967295
38.560974 0.65498608 -12.905643 4294967295
38.563385 1.6209805 -13.005674 4294967295
38.569088 0.49348131 -12.855421 4294967295
38.570637 1.2985662 -12.940618 4294967295
38.571049 -0.31190261 -12.756406 4294967295
38.579044 0.33184749 -12.797952 4294967295
38.580399 0.1707076 -12.774351 4294967295
38.586536 0.97563058 -12.841487 4294967295
38.588737 -2.5600271 -13.083791 4294967295
38.603992 1.4578516 -12.827523 4294967295
38.609467 -1.5957315 -13.111664 4294967295
38.621006 -3.0455561 -12.902014 4294967295
38.642754 -2.7252331 -12.852897 4294967295
38.645958 -0.95432651 -13.041022 4294967295
38.647621 -0.7934444 -13.052729 4294967295
38.650715 -2.4037848 -12.858069 4294967295
38.651974 -1.9207976 -12.907861 4294967295
38.653095 -0.63281119 -13.049438 4294967295
38.662357 -1.438477 -12.921737 4294967295
38.669659 -0.4728826 -13.002502 4294967295
38.670338 -2.8884544 -12.726064 4294967295
38.671803 -2.0832949 -12.811555 4294967295
38.679543 0.33152011 -13.054853 4294967295
38.688343 1.135988 -13.111453 4294967295
38.693012 0.97474039 -13.074841 4294967295
38.69352 0.65271038 -13.036355 4294967295
38.708637 1.6178999 -13.08636 4294967295
38.710026 -0.3144286 -12.861896 4294967295
38.713154 -1.7641988 -12.685293 4294967295
38.725861 1.4560032 -13.000361 4294967295
38.725994 -1.2818635 -12.689537 4294967295
38.726902 0.0066192001 -12.831997 4294967295
38.73064 1.9388084 -13.036308 4294967295
38.736145 0.48922521 -12.850389 4294967295
38.743465 2.2602227 -13.022363 4294967295
38.770424 -1.5996728 -13.130245 4294967295
38.811962 -1.7636492 -12.948685 4294967295
38.814457 -2.7300327 -12.829398 4294967295
38.818859 -2.2472456 -12.866831 4294967295
38.824589 -1.2814789 -12.953764 4294967295
38.826309 -1.9257221 -12.874019 4294967295
38.840714 0.0055918 -13.036312 4294967295
38.841236 -2.0878704 -12.797081 4294967295
38.841576 -0.47750559 -12.978198 4294967295
38.843636 -1.1217575 -12.897128 4294967295
38.847569 0.1661862 -13.027604 4294967295
38.848866 0.81013072 -13.095485 4294967295
38.849354 -2.4106114 -12.728653 4294967295
38.851807 -2.5718751 -12.70077 4294967295
38.865654 0.48715141 -12.993014 4294967295
38.866276 0.32609031 -12.972327 4294967295
38.869736 0.64793879 -12.995206 4294967295
38.871475 -0.1573301 -12.897148 4294967295
38.875355 1.4527142 -13.064337 4294967295
38.879364 -0.96312261 -12.774897 4294967295
38.880039 -0.64103448 -12.808739 4294967295
38.891056 0.96880281 -12.947905 4294967295
38.894897 -0.31985411 -12.786839 4294967295
38.897346 -0.80324471 -12.72245 4294967295
38.910934 1.128763 -12.888036 4294967295
38.918179 2.2557039 -12.987288 4294967295
38.924335 2.5774882 -12.999582 4294967295
38.932911 2.0939598 -12.911155 4294967295
38.947926 1.7710947 -12.815651 4294967295
38.954655 -1.9272795 -13.020964 4294967295
38.965118 -2.4111183 -12.925144 4294967295
38.966034 1.6090928 -12.726253 4294967295
38.973549 -1.7676367 -12.964988 4294967295
38.973888 -0.64058453 -13.091298 4294967295
38.975632 2.4140925 -12.779787 4294967295
38.979488 -2.5732594 -12.850465 4294967295
38.98344 -3.0567372 -12.780205 4294967295
38.985615 0.1636546 -13.136414 4294967295
38.986038 -2.2516634 -12.861204 4294967295
38.986408 -1.6075304 -12.932706 4294967295
38.989849 -2.7351196 -12.791516 4294967295
38.992348 0.0022501 -13.091746 4294967295
38.995815 0.64602971 -13.15106 4294967295
38.996319 0.4850083 -13.130861 4294967295
39.006607 -2.092144 -12.798647 4294967295
39.016087 -2.8982623 -12.670193 4294967295
39.017612 0.32275361 -13.029013 4294967295
39.023312 -0.4827573 -12.915444 4294967295
39.046749 -1.4507327 -12.713954 4294967295
39.054928 -0.3237102 -12.809537 4294967295
39.056465 -0.80704528 -12.748769 4294967295
39.057178 -0.96818012 -12.727715 4294967295
39.059925 -1.2905561 -12.680434 4294967295
39.061943 0.96436238 -12.927914 4294967295
39.067112 -0.1633967 -12.779927 4294967295
39.072586 2.8962326 -13.104992 4294967295
39.075832 1.7688693 -12.964592 4294967295
39.08239 2.090637 -12.975324 4294967295
39.095417 -2.8957582 -13.009565 4294967295
39.099003 1.60664 -12.855392 4294967295
39.109646 -1.4477906 -13.117785 4294967295
39.111351 3.2166684 -12.989332 4294967295
39.118546 2.5721259 -12.888133 4294967295
39.12394 1.9275545 -12.793997 4294967295
39.127148 -2.4151528 -12.939736 4294967295
39.135307 -3.0599709 -12.834785 4294967295
39.137543 2.732358 -12.831812 4294967295
39.140419 -2.0940771 -12.924119 4294967295
39.144112 2.409879 -12.769554 4294967295
39.148338 0.1596394 -13.148269 4294967295
39.150375 -0.48450381 -13.067369 4294967295
39.152119 -1.772849 -12.91468 4294967295
39.161987 2.2479379 -12.68114 4294967295
39.16502 -0.64647162 -12.99168 4294967295
39.19062 0.47916949 -13.018886 4294967295
39.193043 -0.80935639 -12.863517 4294967295
39.194691 -1.9370084 -12.729391 4294967295
39.197819 -1.6150573 -12.753586 4294967295
39.200569 1.6057874 -13.107474 4294967295
39.211903 0.31687999 -12.917175 4294967295
39.212021 1.283143 -13.026109 4294967295
39.21225 1.9272375 -13.09813 4294967295
39.218483 -2.7443669 -12.544815 4294967295
39.219913 1.4437644 -13.013378 4294967295
39.220562 -0.97226769 -12.737317 4294967295
39.223568 -2.2613668 -12.579586 4294967295
39.232471 0.95994252 -12.909435 4294967295
39.241623 1.1205082 -12.891782 4294967295
39.26067 2.7301586 -12.99944 4294967295
39.26236 3.3742585 -13.065734 4294967295
39.274754 3.5348103 -13.035389 4294967295
39.277107 -2.7403266 -12.965222 4294967295
39.286419 -0.80881631 -13.147388 4294967295
39.288483 2.4067738 -12.853921 4294967295
39.289616 2.5678058 -12.867716 4294967295
39.298611 -1.7757475 -12.990271 4294967295
39.311108 3.2112246 -12.8564 4294967295
39.312969 -1.6157379 -12.952211 4294967295
39.322422 0.4769583 -13.152078 4294967295
39.322937 -1.4553953 -12.931372 4294967295
39.323589 2.0829122 -12.679786 4294967295
39.328636 -0.97264647 -12.963718 4294967295
39.338615 -2.5840387 -12.742308 4294967295
39.345821 -0.65168422 -12.932815 4294967295
39.36277 -0.33065271 -12.902845 4294967295
39.366707 2.7287087 -13.233704 4294967295
39.370045 1.6014698 -13.093067 4294967295
39.370491 -3.0698812 -12.56264 4294967295
39.370522 -2.908752 -12.580748 4294967295
39.372536 0.79615301 -12.992176 4294967295
39.378178 -1.1370642 -12.751311 4294967295
39.380516 0.31252369 -12.906221 4294967295
39.396519 -0.1716845 -12.788832 4294967295
39.399246 -0.49405369 -12.74168 4294967295
39.401691 0.15018471 -12.805028 4294967295
39.403992 -2.1056268 -12.540722 4294967295
39.406784 0.95531487 -12.876223 4294967295
39.420219 1.4378335 -12.878279 4294967295
39.428978 3.3701797 -13.062708 4294967295
39.438374 3.5308566 -13.044136 4294967295
39.439953 1.9200915 -12.855675 4294967295
39.453609 -1.4572098 -13.068904 4294967295
39.457153 0.63028032 -12.64241 4294967295
39.459641 2.402437 -12.833245 4294967295
39.463375 1.2744648 -12.690985 4294967295
39.466228 -3.0686183 -12.837276 4294967295
39.468361 1.757581 -12.726155 4294967295
39.476486 -2.4251444 -12.869988 4294967295
39.482094 2.0791574 -12.70883 4294967295
39.482521 -2.2645326 -12.864591 4294967295
39.486271 2.240087 -12.71071 4294967295
39.487015 0.1508155 -13.120281 4294967295
39.492794 -1.9431525 -12.860806 4294967295
39.498085 2.8840623 -12.737376 4294967295
39.499165 0.31111521 -13.090945 4294967295
39.504272 -0.65544242 -12.961637 4294967295
39.508648 3.0447426 -12.714247 4294967295
39.518326 -2.7505507 -12.669683 4294967295
39.529186 -0.0127761 -12.936997 4294967295
39.540653 1.1139625 -13.01965 4294967295
39.549152 2.4018507 -13.13215 4294967295
39.549286 -0.17508809 -12.840088 4294967295
39.550663 -2.9142249 -12.524814 4294967295
39.550678 -1.6251279 -12.670594 4294967295
39.55188 -1.302973 -12.702351 4294967295
39.554138 -2.592196 -12.547667 4294967295
39.559269 3.2065327 -13.183658 4294967295
39.562733 -2.1094046 -12.568705 4294967295
39.56535 -0.98165041 -12.686066 4294967295
39.568493 2.8840892 -13.111137 4294967295
39.569672 -1.1430687 -12.650917 4294967295
39.578011 2.7226324 -13.055673 4294967295
39.580772 1.7561276 -12.935534 4294967295
39.589294 0.4669143 -12.756378 4294967295
39.59219 2.2388003 -12.945527 4294967295
39.593872 0.62776488 -12.756691 4294967295
39.595139 0.94991642 -12.788194 4294967295
39.595821 2.5607805 -12.967762 4294967295
39.59668 1.9164224 -12.891515 4294967295
39.59877 1.5941337 -12.846886 4294967295
39.602604 -0.50068378 -12.594902 4294967295
39.603539 3.5268428 -13.046904 4294967295
39.611103 -2.9102385 -12.937367 4294967295
39.611309 0.78790128 -12.706673 4294967295
39.618607 -2.1055713 -12.999087 4294967295
39.623344 -2.7501416 -12.90769 4294967295
39.630489 1.4313872 -12.704531 4294967295
39.644707 -2.2685733 -12.878765 4294967295
39.645031 -0.49701709 -13.077858 4294967295
39.646702 2.0751097 -12.714002 4294967295
39.646896 -2.4298141 -12.851995 4294967295
39.651932 -2.5912824 -12.81407 4294967295
39.667767 -0.015322 -13.04359 4294967295
39.668041 -3.0758498 -12.696387 4294967295
39.691307 0.46643001 -13.006185 4294967295
39.69754 1.5934191 -13.109304 4294967295
39.697739 -1.3058614 -12.780629 4294967295
39.698982 -1.1448438 -12.793998 4294967295
39.700699 3.0395823 -12.61211 4294967295
39.71035 -1.7900971 -12.676646 4294967295
39.719601 -0.98512512 -12.731574 4294967295
39.728855 1.4307541 -12.968672 4294967295
39.729713 0.78638768 -12.892447 4294967295
39.730801 2.5580812 -13.088566 4294967295
39.731571 0.94737148 -12.903394 4294967295
39.732399 0.1418456 -12.809063 4294967295
39.738056 1.108106 -12.896266 4294967295
39.739147 -0.82529807 -12.673348 4294967295
39.743668 -1.6313365 -12.564544 4294967295
39.752724 2.2349489 -12.966445 4294967295
39.767567 0.30087611 -12.689774 4294967295
39.778214 2.8781359 -12.939686 4294967295
39.780537 1.7503109 -12.803066 4294967295
39.791714 1.2663528 -12.704699 4294967295
39.796871 1.9106268 -12.757443 4294967295
39.798916 3.5216541 -12.931651 4294967295
39.803871 -1.6281226 -12.977634 4294967295
39.807102 2.0712638 -12.73567 4294967295
39.811954 -0.66236091 -13.055294 4294967295
39.8293 3.3593459 -12.794688 4294967295
39.844631 -2.1143296 -12.763714 4294967295
39.845364 0.94606853 -13.106856 4294967295
39.846287 -1.7922347 -12.793675 4294967295
39.847172 -0.1814236 -12.972339 4294967295
39.854782 3.1971736 -12.67688 4294967295
39.858524 -2.2764833 -12.691215 4294967295
39.858963 -2.4376466 -12.671286 4294967295
39.865162 1.9112821 -13.138778 4294967295
39.867561 -3.0828934 -12.564801 4294967295
39.877953 0.78320342 -12.961369 4294967295
39.888416 1.1047873 -12.956924 4294967295
39.891747 0.62133878 -12.889276 4294967295
39.893337 -2.9237747 -12.482273 4294967295
39.897263 -0.023407601 -12.794881 4294967295
39.899906 -1.1514864 -12.657036 4294967295
39.901886 1.2651536 -12.922518 4294967295
39.903503 1.4261585 -12.934426 4294967295
39.90461 -0.82951587 -12.675087 4294967295
39.904842 -1.3129727 -12.619518 4294967295
39.908577 -1.9578851 -12.532042 4294967295
39.917038 1.5865562 -12.899774 4294967295
39.926945 0.2970674 -12.715364 4294967295
39.929802 2.3914161 -12.940991 4294967295
39.938843 2.8742895 -12.960327 4294967295
39.944054 2.2296534 -12.867128 4294967295
39.949581 2.7127259 -12.900193 4294967295
39.95647 1.7456852 -12.763996 4294967295
39.968803 -1.7934095 -12.962925 4294967295
39.98003 -1.3109922 -12.973706 4294967295
39.987682 -0.6672408 -13.016662 4294967295
39.988937 -2.9225717 -12.756885 4294967295
39.992153 -1.6339976 -12.889981 4294967295
39.996521 3.3552442 -12.789784 4294967295
39.996666 -2.1176138 -12.81775 4294967295
40.000469 2.0658388 -12.628616 4294967295
40.001698 -0.50707573 -12.980168 4294967295
40.00499 2.5491316 -12.665622 4294967295
40.005688 -2.6016374 -12.727899 4294967295
40.01284 0.45864841 -13.045897 4294967295
40.015587 -2.4412661 -12.707461 4294967295
40.021862 -2.7640235 -12.646538 4294967295
40.030357 3.0315452 -12.621238 4294967295
40.034649 -3.0873411 -12.560186 4294967295
40.036663 0.61835319 -12.971145 4294967295
40.037254 -1.1538097 -12.768552 4294967295
40.063725 0.29458889 -12.829135 4294967295
40.07272 -0.83390778 -12.666554 4294967295
40.076443 2.8714302 -13.070809 4294967295
40.082588 2.5490074 -13.010431 4294967295
40.085365 -1.4794253 -12.544343 4294967295
40.090645 -1.9633621 -12.469078 4294967295
40.097668 0.1314383 -12.678474 4294967295
40.103313 -0.99710703 -12.528939 4294967295
40.104397 3.19242 -12.998195 4294967295
40.113232 0.77515483 -12.690597 4294967295
40.115871 -0.1920034 -12.571001 4294967295
40.116333 1.5807241 -12.769545 4294967295
40.119827 3.5139935 -12.974427 4294967295
40.135574 0.93508148 -12.621634 4294967295
40.141407 -3.0869708 -12.790965 4294967295
40.143303 1.9016774 -12.700758 4294967295
40.151306 2.2236128 -12.705971 4294967295
40.157516 -2.2826591 -12.819133 4294967295
40.170471 2.7062337 -12.685853 4294967295
40.170753 3.0285497 -12.721178 4294967295
40.171581 3.3508301 -12.754376 4294967295
40.177124 2.3835859 -12.623466 4294967295
40.18074 -0.99544489 -12.874185 4294967295
40.181465 1.098561 -13.107944 4294967295
40.182209 -0.0289746 -12.977659 4294967295
40.182415 3.67272 -12.748557 4294967295
40.184696 -2.6069758 -12.676731 4294967295
40.188179 -0.51262331 -12.899792 4294967295
40.190411 -2.929724 -12.618021 4294967295
40.196632 -2.769052 -12.611963 4294967295
40.20171 1.4196184 -13.065434 4294967295
40.208366 -0.67503512 -12.802874 4294967295
40.209106 -1.1584756 -12.745379 4294967295
40.210194 -1.6419783 -12.68653 4294967295
40.211384 -0.19186451 -12.84572 4294967295
40.216179 0.93559819 -12.954445 4294967295
40.226158 0.61283243 -12.879144 4294967295
40.228004 -1.3209149 -12.653489 4294967295
40.23243 1.7402196 -12.982106 4294967295
40.235622 -0.35450611 -12.733026 4294967295
40.236988 0.128829 -12.782314 4294967295
40.239662 -0.83822232 -12.662651 4294967295
40.243889 -2.4503224 -12.464084 4294967295
40.254238 -1.4839081 -12.532981 4294967295
40.258823 2.2222462 -12.933844 4294967295
40.260849 1.5776793 -12.853139 4294967295
40.26469 -1.807044 -12.455808 4294967295
40.26844 3.510623 -13.041976 4294967295
40.27079 3.6716206 -13.051023 4294967295
40.272511 0.2878716 -12.662048 4294967295
40.291801 3.0263629 -12.896356 4294967295
40.300797 3.1871166 -12.879508 4294967295
40.305153 0.76953191 -12.589435 4294967295
40.308376 -1.9636518 -12.914066 4294967295
40.311928 -2.6083362 -12.827458 4294967295
40.312817 2.0585525 -12.705239 4294967295
40.314087 1.8973223 -12.682084 4294967295
40.323925 2.8638616 -12.752994 4294967295
40.327152 2.5413916 -12.703994 4294967295
40.332211 -0.19329511 -13.021347 4294967295
40.33773 -2.2880459 -12.763327 4294967295
40.341888 -2.7717826 -12.692531 4294967295
40.352501 3.3461826 -12.696269 4294967295
40.366261 -2.9348524 -12.579366 4294967295
40.375801 -1.0016483 -12.760596 4294967295
40.389469 -0.5191139 -12.761965 4294967295
40.39003 -1.486081 -12.65057 4294967295
40.390533 0.60874063 -12.885201 4294967295
40.390949 -1.6473141 -12.628787 4294967295
40.39344 0.28632441 -12.837483 4294967295
40.402119 -1.1645755 -12.639893 4294967295
40.409336 -0.68154693 -12.666383 4294967295
40.427193 -0.0379938 -12.669641 4294967295
40.427414 1.0900958 -12.79619 4294967295
40.428646 3.5068016 -13.064327 4294967295
40.433193 1.8954908 -12.864686 4294967295
40.440983 3.0229979 -12.961731 4294967295
40.442261 2.8618274 -12.938559 4294967295
40.444004 -0.84499711 -12.513158 4294967295
40.444386 1.2503421 -12.748306 4294967295
40.445324 0.1220903 -12.617245 4294967295
40.44902 1.5724151 -12.766672 4294967295
40.453735 3.183589 -12.930295 4294967295
40.454601 0.4439159 -12.617526 4294967295
40.467373 0.92675889 -12.622402 4294967295
40.490738 -2.2913973 -12.81356 4294967295
40.493122 -2.9361222 -12.731509 4294967295
40.49548 2.698374 -12.71321 4294967295
40.497971 -1.9696772 -12.82179 4294967295
40.500233 -0.35873449 -12.994877 4294967295
40.50124 3.3428178 -12.763598 4294967295
40.501484 2.0533547 -12.617021 4294967295
40.503212 -1.8089283 -12.819586 4294967295
40.509068 0.2850863 -13.033258 4294967295
40.513035 -1.1651096 -12.854127 4294967295
40.520649 3.6644089 -12.724457 4294967295
40.521378 -0.84341848 -12.858047 4294967295
40.525051 -1.6493468 -12.752791 4294967295
40.528851 -1.0050439 -12.810778 4294967295
40.530441 -2.6167057 -12.622645 4294967295
40.533871 0.1225153 -12.918576 4294967295
40.536171 -1.4889779 -12.727709 4294967295
40.559498 -0.52360779 -12.746112 4294967295
40.562973 -0.20151959 -12.768971 4294967295
40.563778 -0.040419001 -12.784035 4294967295
40.566532 0.60398889 -12.846096 4294967295
40.567505 -2.4583409 -12.496594 4294967295
40.572216 -1.3303043 -12.605643 4294967295
40.574665 1.0869441 -12.869034 4294967295
40.578339 2.3757257 -13.00027 4294967295
40.579227 -3.1041341 -12.378151 4294967295
40.592331 -2.1377649 -12.43637 4294967295
40.593758 1.8916339 -12.885738 4294967295
40.597267 1.7303232 -12.8539 4294967295
40.6003 3.0192084 -12.987624 4294967295
40.602146 2.8580127 -12.962255 4294967295
40.602699 0.44076079 -12.687208 4294967295
40.605728 3.5023253 -13.021086 4294967295
40.614666 -0.68833798 -12.513261 4294967295
40.638657 2.0506198 -12.729321 4294967295
40.644836 -2.9393508 -12.78678 4294967295
40.669899 2.6939223 -12.68061 4294967295
40.671623 3.6609399 -12.78309 4294967295
40.677044 -2.1360841 -12.752486 4294967295
40.679661 -2.6197543 -12.687757 4294967295
40.685982 -0.2030866 -12.935969 4294967295
40.687508 -1.3310934 -12.802739 4294967295
40.689266 1.085547 -13.068652 4294967295
40.689583 0.60224301 -13.012884 4294967295
40.694885 -1.8150686 -12.719497 4294967295
40.695915 -1.0093752 -12.806435 4294967295
40.696583 1.246249 -13.058409 4294967295
40.696621 0.1185025 -12.930991 4294967295
40.697372 -2.7822969 -12.6007 4294967295
40.698566 0.2795054 -12.941603 4294967295
40.707539 -0.84899682 -12.779437 4294967295
40.71014 -0.68801481 -12.78752 4294967295
40.710251 -0.043446399 -12.859837 4294967295
40.711357 0.76212829 -12.946452 4294967295
40.720078 1.8894473 -13.039854 4294967295
40.734612 -2.4627512 -12.492288 4294967295
40.737915 2.5330272 -13.043271 4294967295
40.740627 -1.9795575 -12.52348 4294967295
40.741322 1.5661571 -12.920952 4294967295
40.743008 -0.36778179 -12.69615 4294967295
40.74432 3.3382516 -13.109308 4294967295
40.756454 2.8544366 -13.00763 4294967295
40.758141 -0.52992457 -12.619141 4294967295
40.762959 -1.6587224 -12.47305 4294967295
40.769352 2.0481932 -12.866602 4294967295
40.775421 2.692488 -12.915766 4294967295
40.777729 3.0146618 -12.943175 4294967295
40.779911 0.4359237 -12.64368 4294967295
40.780708 2.2088075 -12.840665 4294967295
40.80756 3.1745765 -12.845488 4294967295
40.832027 3.495939 -12.786838 4294967295
40.834911 -1.8175048 -12.820258 4294967295
40.834953 -1.978653 -12.801913 4294967295
40.836506 -0.85081607 -12.923139 4294967295
40.85321 2.3666413 -12.577209 4294967295
40.853252 -0.52964449 -12.894466 4294967295
40.855854 -2.3025143 -12.684378 4294967295
40.856697 -0.2076 -12.917449 4294967295
40.870911 -1.1753975 -12.75318 4294967295
40.872974 -1.4978774 -12.708809 4294967295
40.879753 -2.9491231 -12.518806 4294967295
40.880051 -2.1431231 -12.608584 4294967295
40.892788 -1.3380661 -12.650047 4294967295
40.892883 -2.4664922 -12.522374 4294967295
40.892887 0.4347949 -12.849667 4294967295
40.893463 2.0460794 -13.029215 4294967295
40.903042 0.2730473 -12.792064 4294967295
40.904598 -1.6612878 -12.567811 4294967295
40.91164 -2.7903874 -12.413128 4294967295
40.918526 0.75565821 -12.786508 4294967295
40.921139 3.0115371 -13.030883 4294967295
40.921364 1.0778339 -12.811851 4294967295
40.92271 2.6892233 -12.988431 4294967295
40.927834 0.1104018 -12.677636 4294967295
40.937336 0.59342158 -12.695299 4294967295
40.946922 3.4938765 -12.985371 4294967295
