# .PCD v0.7 - Point Cloud Data file format
VERSION 0.7
FIELDS x y z rgb
SIZE 4 4 4 4
TYPE F F F U
COUNT 1 1 1 1
WIDTH 1106
HEIGHT 1
VIEWPOINT 0 0 0 1 0 0 0
POINTS 1106
DATA ascii
-2.1089151 -1.9295821 -16.890566 4294967295
-2.1071136 -3.5120749 -16.681185 4294967295
-2.1070821 -0.66424298 -17.040831 4294967295
-2.0873911 -2.7229264 -16.677538 4294967295
-2.0870285 -2.4064569 -16.71562 4294967295
-2.0706182 -0.82565612 -16.829353 4294967295
-2.0542669 -2.2515135 -16.563517 4294967295
-2.0356357 -1.1453155 -16.605644 4294967295
-2.0264003 -6.0384493 -16.782614 4294967295
-1.9756292 -1.6146895 -17.07552 4294967295
-1.9675142 -0.82463169 -17.132816 4294967295
-1.9426874 -4.1498013 -16.583006 4294967295
-1.9062518 -3.3624432 -16.491753 4294967295
-1.8748462 -6.9909892 -16.71174 4294967295
-1.8666233 -6.3591328 -16.748505 4294967295
-1.8630919 -6.676116 -16.690046 4294967295
-1.8589318 -7.3097792 -16.588339 4294967295
-1.8492118 -5.2537298 -16.79701 4294967295
-1.8313769 -5.0977187 -16.72349 4294967295
-1.8275946 -5.7312622 -16.62377 4294967295
-1.8247638 -2.8833163 -16.968393 4294967295
-1.8197052 -3.6749341 -16.842051 4294967295
-1.8192093 -3.200325 -16.899357 4294967295
-1.817842 -6.5240378 -16.472754 4294967295
-1.8169706 -0.98597348 -17.16712 4294967295
-1.8105283 -2.0937972 -16.993637 4294967295
-1.8088306 -3.0432258 -16.864943 4294967295
-1.8055459 -6.0507479 -16.46822 4294967295
-1.8053149 -4.6261196 -16.646801 4294967295
-1.8047312 -4.309648 -16.683691 4294967295
-1.8044096 -4.1514215 -16.701979 4294967295
-1.8003597 -4.9432888 -16.580877 4294967295
-1.7874662 -1.4632261 -16.952692 4294967295
-1.7820541 -3.5208974 -16.664719 4294967295
-1.7736133 -0.83166772 -16.960001 4294967295
-1.7557676 -1.7827108 -16.74671 4294967295
-1.7548453 -3.3656173 -16.542116 4294967295
-1.751863 -0.51713622 -16.886026 4294967295
-1.7502905 -2.5746212 -16.618141 4294967295
-1.7467121 -1.9418577 -16.679298 4294967295
-1.7376982 -1.626178 -16.672029 4294967295
-1.7269936 -7.1517982 -16.760122 4294967295
-1.7244178 -2.4189737 -16.502569 4294967295
-1.7101182 -5.7299619 -16.851381 4294967295
-1.7009766 -4.6235881 -16.943218 4294967295
-1.6922519 -0.68057078 -16.553862 4294967295
-1.658347 -5.2618122 -16.640228 4294967295
-1.6556817 -1.6228051 -17.085321 4294967295
-1.646167 -1.4655217 -17.055502 4294967295
-1.6176552 -2.2593815 -16.806561 4294967295
-1.6132863 -2.5763378 -16.743778 4294967295
-1.6058096 -3.0519493 -16.644766 4294967295
-1.5431241 -0.84193879 -16.596363 4294967295
-1.5279028 -4.9458084 -16.83972 4294967295
-1.5249802 -6.6871195 -16.604977 4294967295
-1.523314 -6.5290551 -16.616217 4294967295
-1.5211366 -7.4791989 -16.485096 4294967295
-1.5181366 -5.896605 -16.668959 4294967295
-1.5092398 -3.6821382 -16.901749 4294967295
-1.5033084 -4.632298 -16.751053 4294967295
-1.4961917 -2.8924396 -16.933294 4294967295
-1.4960362 -4.0001202 -16.792843 4294967295
-1.4852271 -7.1676469 -16.337206 4294967295
-1.4845223 -3.3684049 -16.812469 4294967295
-1.4697479 -0.52190852 -17.094311 4294967295
-1.4687569 -1.787649 -16.929577 4294967295
-1.4609374 -5.2707071 -16.44973 4294967295
-1.4583066 -3.5295687 -16.655512 4294967295
-1.4577534 -3.2130575 -16.69253 4294967295
-1.4547707 -0.99783599 -16.956249 4294967295
-1.4514219 -3.0554562 -16.679398 4294967295
-1.4436146 -1.3153187 -16.858078 4294967295
-1.441362 -4.1647367 -16.487123 4294967295
-1.4316962 -2.7409542 -16.616234 4294967295
-1.3993608 -0.68623441 -16.70673 4294967295
-1.3952665 -7.0037379 -16.728313 4294967295
-1.3951436 -2.2697392 -16.485123 4294967295
-1.3908349 -7.1626353 -16.685226 4294967295
-1.3820844 -1.162685 -16.556618 4294967295
-1.3444635 -5.5860162 -16.642496 4294967295
-1.319939 -4.6392789 -16.634127 4294967295
-1.3171737 -2.2655816 -16.918808 4294967295
-1.3149686 -5.1148148 -16.54834 4294967295
-1.3100036 -4.3238568 -16.622152 4294967295
-1.3097081 -6.8573403 -16.301418 4294967295
-1.2931548 -2.7428098 -16.733658 4294967295
-1.2892557 -2.426656 -16.753197 4294967295
-1.2839293 -6.0689168 -16.266569 4294967295
-1.2611345 -0.53009319 -16.845785 4294967295
-1.2601173 -1.9546963 -16.660994 4294967295
-1.2595706 -1.796451 -16.678087 4294967295
-1.2095481 -5.9035559 -16.738619 4294967295
-1.1984503 -7.013155 -16.54121 4294967295
-1.1883056 -6.8562403 -16.508236 4294967295
-1.1864884 -4.9568095 -16.737968 4294967295
-1.1854113 -6.2233348 -16.572886 4294967295
-1.1793162 -6.065824 -16.561037 4294967295
-1.1733772 -7.3333845 -16.370554 4294967295
-1.1588303 -5.4351716 -16.533962 4294967295
-1.1543932 -4.327497 -16.650379 4294967295
-1.1516476 -6.7029419 -16.336987 4294967295
-1.146171 -5.7534771 -16.428076 4294967295
-1.1254934 -3.2226112 -16.63929 4294967295
-1.1203824 -5.2816634 -16.353436 4294967295
-1.1182715 -2.115272 -16.741194 4294967295
-1.1130326 -2.4323869 -16.674028 4294967295
-1.1095749 -4.807868 -16.356918 4294967295
-1.108479 -2.9077969 -16.59049 4294967295
-1.104601 -1.9583217 -16.689898 4294967295
-1.1015943 -3.5418875 -16.474855 4294967295
-1.0991783 -4.0172362 -16.402437 4294967295
-1.0966047 -0.53449178 -16.827633 4294967295
-1.0910212 -4.1765528 -16.339973 4294967295
-1.0883584 -2.7515728 -16.505575 4294967295
-1.0754652 -1.8028287 -16.558027 4294967295
-1.0459493 -1.0138623 -16.503954 4294967295
-1.0446794 -1.1723301 -16.477398 4294967295
-1.0340506 -7.4930549 -16.463755 4294967295
-1.0254788 -4.6445518 -16.777748 4294967295
-0.9950394 -7.0234818 -16.320337 4294967295
-0.98996609 -2.7492499 -16.831934 4294967295
-0.97083938 -5.601285 -16.373697 4294967295
-0.9678216 -6.0768347 -16.298183 4294967295
-0.96249437 -6.3943496 -16.23057 4294967295
-0.95147699 -1.3285631 -16.810938 4294967295
-0.9475227 -1.4872137 -16.770443 4294967295
-0.90277821 -0.69971973 -16.637283 4294967295
-0.85254121 -4.8085747 -16.695814 4294967295
-0.84776872 -5.6007657 -16.571426 4294967295
-0.84470427 -6.8680081 -16.396143 4294967295
-0.84106958 -6.5517612 -16.417078 4294967295
-0.83943439 -7.3439021 -16.308966 4294967295
-0.83891147 -5.4435534 -16.545284 4294967295
-0.83626962 -2.9109592 -16.850157 4294967295
-0.83355129 -6.7111635 -16.358051 4294967295
-0.83276212 -2.1200063 -16.931467 4294967295
-0.83239621 -5.9194469 -16.451649 4294967295
-0.82509279 -4.3368969 -16.612848 4294967295
-0.81784701 -7.1885514 -16.216593 4294967295
-0.81072658 -6.3974686 -16.279182 4294967295
-0.80917001 -6.0808711 -16.310934 4294967295
-0.79719019 -3.7067463 -16.547462 4294967295
-0.79387212 -3.3904264 -16.570049 4294967295
-0.79160672 -5.7663493 -16.259445 4294967295
-0.79060769 -5.1328588 -16.33395 4294967295
-0.78377032 -5.2921124 -16.278473 4294967295
-0.77985787 -3.8670566 -16.437443 4294967295
-0.77238941 -3.0760443 -16.498226 4294967295
-0.76407558 -2.4434831 -16.534695 4294967295
-0.75952548 -3.5525677 -16.371595 4294967295
-0.75782698 -1.6523694 -16.601816 4294967295
-0.75447172 -2.7611964 -16.444941 4294967295
-0.74900371 -1.3365155 -16.595806 4294967295
-0.74884123 -3.2369485 -16.355907 4294967295
-0.7487945 -1.9699341 -16.515043 4294967295
-0.70812541 -1.0235025 -16.42326 4294967295
-0.70211983 -0.70726341 -16.431906 4294967295
-0.69189233 -4.4962125 -16.737659 4294967295
-0.67542797 -5.1314945 -16.572554 4294967295
-0.65184772 -2.7593231 -16.748701 4294967295
-0.6496169 -7.035531 -16.199558 4294967295
-0.61801958 -1.3378801 -16.75227 4294967295
-0.6139226 -0.70504087 -16.810621 4294967295
-0.5639143 -7.5044656 -16.531227 4294967295
-0.52388221 -6.0847363 -16.502628 4294967295
-0.51442772 -7.3531389 -16.294378 4294967295
-0.51007283 -4.0279632 -16.689661 4294967295
-0.50337642 -7.0378609 -16.276852 4294967295
-0.4958314 -5.1380963 -16.47654 4294967295
-0.48905879 -6.5645633 -16.262293 4294967295
-0.48892239 -4.5054541 -16.520309 4294967295
-0.48845541 -4.1887879 -16.557684 4294967295
-0.48781949 -1.9723119 -16.832903 4294967295
-0.48582831 -5.4561152 -16.384863 4294967295
-0.47930601 -2.7647171 -16.689316 4294967295
-0.47909811 -5.7737832 -16.310152 4294967295
-0.47444329 -1.0238322 -16.882923 4294967295
-0.4723191 -3.7155418 -16.533718 4294967295
-0.46607801 -3.082788 -16.580957 4294967295
-0.46536019 -4.8250413 -16.35833 4294967295
-0.4609285 -2.4499314 -16.633852 4294967295
-0.45975611 -5.3009758 -16.269554 4294967295
-0.4583638 -3.2419748 -16.52107 4294967295
-0.45360589 -6.4108934 -16.098297 4294967295
-0.45214891 -1.6591091 -16.68783 4294967295
-0.44994909 -4.9853315 -16.258509 4294967295
-0.44753629 -1.8178843 -16.64403 4294967295
-0.4459385 -1.184701 -16.71533 4294967295
-0.43687761 -0.5522117 -16.747957 4294967295
-0.40766481 -2.6137335 -16.337881 4294967295
-0.40467721 -0.71332413 -16.561228 4294967295
-0.39288989 -6.8768616 -16.559141 4294967295
-0.3711991 -5.6129313 -16.605864 4294967295
-0.36334369 -6.4057741 -16.46574 4294967295
-0.33679789 -2.766994 -16.785635 4294967295
-0.3309761 -2.292666 -16.815144 4294967295
-0.2978552 -1.6626176 -16.723251 4294967295
-0.25471121 -2.9339249 -16.340824 4294967295
-0.23835699 -0.87626249 -16.514793 4294967295
-0.21351901 -6.7253933 -16.484386 4294967295
-0.2006156 -4.8267012 -16.656157 4294967295
-0.1898338 -7.3623095 -16.282316 4294967295
-0.1762953 -6.5720415 -16.311689 4294967295
-0.1759368 -6.0968323 -16.369484 4294967295
-0.17554639 -4.9881039 -16.506628 4294967295
-0.17369279 -3.7214074 -16.656059 4294967295
-0.1678375 -4.5138907 -16.526398 4294967295
-0.165751 -2.2972603 -16.793859 4294967295
-0.16397239 -2.9307487 -16.705175 4294967295
-0.1634201 -4.0392823 -16.563189 4294967295
-0.16118599 -5.306664 -16.392595 4294967295
-0.16118421 -5.6234918 -16.352821 4294967295
-0.1597261 -3.4062424 -16.623598 4294967295
-0.158718 -4.1981969 -16.518997 4294967295
-0.1579926 -2.7730336 -16.694136 4294967295
-0.1579475 -6.2576294 -16.25654 4294967295
-0.15274949 -1.1903347 -16.865755 4294967295
-0.15255819 -5.4661617 -16.328087 4294967295
-0.1510966 -7.0508418 -16.121658 4294967295
-0.1466891 -1.5075105 -16.794695 4294967295
-0.137059 -0.71680927 -16.844284 4294967295
-0.13210741 -5.1518412 -16.262083 4294967295
-0.1298514 -7.2122974 -15.991843 4294967295
-0.12783571 -2.1426747 -16.617752 4294967295
-0.1130531 -1.9857498 -16.561222 4294967295
-0.1056317 -0.5611819 -16.701761 4294967295
-0.099779502 -4.3634577 -16.194336 4294967295
-0.099115498 -3.0959761 -16.35 4294967295
-0.096191801 -1.6705983 -16.513834 4294967295
-0.084598102 -1.3548932 -16.493677 4294967295
-0.084366597 -3.2559907 -16.253862 4294967295
-0.065678403 -7.0447264 -16.513254 4294967295
-0.045951601 -5.621995 -16.590137 4294967295
-0.034394901 -6.7322369 -16.391354 4294967295
0.0361658 -4.8401217 -16.265343 4294967295
0.093752302 -1.6774657 -16.36554 4294967295
0.1041147 -0.88626218 -16.411432 4294967295
0.1480028 -7.0564227 -16.242022 4294967295
0.1486582 -6.4227223 -16.3181 4294967295
0.15006199 -5.947608 -16.370447 4294967295
0.1601689 -3.572824 -16.616215 4294967295
0.1623639 -3.2563245 -16.644609 4294967295
0.16372439 -4.9987898 -16.419144 4294967295
0.16986901 -4.5242805 -16.447037 4294967295
0.17134111 -5.7919116 -16.280533 4294967295
0.175374 -7.2187138 -16.08091 4294967295
0.17755599 -5.1589108 -16.327934 4294967295
0.17833561 -1.9910909 -16.721106 4294967295
0.18045209 -5.4761643 -16.273264 4294967295
0.1824898 -4.0505018 -16.441532 4294967295
0.1867124 -6.5862923 -16.101887 4294967295
0.1867753 -2.7837713 -16.578314 4294967295
0.18732861 -0.88354051 -16.813723 4294967295
0.1897227 -7.5377622 -15.967119 4294967295
0.19704869 -3.1016374 -16.485626 4294967295
0.2140251 -1.0442485 -16.656279 4294967295
0.2151085 -3.737309 -16.313047 4294967295
0.2151636 -1.6778698 -16.570978 4294967295
0.2164824 -2.4700058 -16.464876 4294967295
0.21648289 -4.2128334 -16.246359 4294967295
0.2204853 -3.4210052 -16.325054 4294967295
0.2265531 -1.362144 -16.551991 4294967295
0.2276471 -1.8374538 -16.486769 4294967295
0.2333044 -2.6301386 -16.358286 4294967295
0.2451295 -0.57180703 -16.55555 4294967295
0.27711809 -6.2643352 -16.506634 4294967295
0.28345621 -6.8988361 -16.394575 4294967295
0.29331529 -5.3160357 -16.542274 4294967295
0.35863441 -4.5318141 -16.305067 4294967295
0.36148551 -3.1062026 -16.46907 4294967295
0.38508469 -3.9010026 -16.248268 4294967295
0.40543789 -2.1600862 -16.361893 4294967295
0.4215807 -1.5278289 -16.358215 4294967295
0.42507949 -7.3757954 -16.435717 4294967295
0.47988319 -5.9572806 -16.332272 4294967295
0.48205 -5.1653476 -16.420341 4294967295
0.48893341 -6.4338598 -16.226166 4294967295
0.49061599 -7.2265339 -16.118263 4294967295
0.4937804 -3.5825489 -16.558409 4294967295
0.49817869 -5.0088773 -16.35721 4294967295
0.50542313 -4.0590954 -16.439007 4294967295
0.50750309 -6.5948362 -16.110758 4294967295
0.51564193 -2.4760511 -16.584862 4294967295
0.52313411 -1.6848238 -16.645531 4294967295
0.52708918 -3.4277606 -16.406948 4294967295
0.53020161 -4.5373182 -16.25202 4294967295
0.53365892 -3.1115844 -16.412851 4294967295
0.53514349 -6.7570972 -15.948666 4294967295
0.53639942 -7.0743718 -15.902489 4294967295
0.54092842 -3.746186 -16.296083 4294967295
0.54857272 -2.7962534 -16.375851 4294967295
0.55208647 -2.6381638 -16.377626 4294967295
0.55253112 -1.2123398 -16.553926 4294967295
0.55620688 -1.0542592 -16.554871 4294967295
0.56473339 -2.956394 -16.272902 4294967295
0.56865811 -0.58010823 -16.550394 4294967295
0.56956851 -1.8476382 -16.386969 4294967295
0.57388842 -2.1649704 -16.325068 4294967295
0.57726759 -3.9087367 -16.089336 4294967295
0.61686218 -5.3248363 -16.536222 4294967295
0.66315317 -4.2214017 -16.437225 4294967295
0.67310917 -6.9168515 -16.048828 4294967295
0.67389733 -5.4903893 -16.223345 4294967295
0.70169932 -3.4334466 -16.338413 4294967295
0.77032548 -6.7540393 -16.397585 4294967295
0.80098403 -5.8073583 -16.359182 4294967295
0.82520461 -5.4934788 -16.274549 4294967295
0.82828653 -2.9586744 -16.575911 4294967295
0.82929909 -6.2864823 -16.154394 4294967295
0.83082241 -6.4451966 -16.126745 4294967295
0.83890432 -1.8509048 -16.660189 4294967295
0.84087288 -6.6050639 -16.05533 4294967295
0.84102899 -4.861486 -16.272665 4294967295
0.84476012 -3.4357162 -16.431955 4294967295
0.84549308 -6.1300855 -16.091118 4294967295
0.84903258 -4.5454655 -16.271259 4294967295
0.85251999 -2.8027589 -16.471449 4294967295
0.85376358 -3.7536187 -16.346125 4294967295
0.85915363 -1.6944127 -16.576181 4294967295
0.86102271 -3.2790084 -16.368368 4294967295
0.86258811 -2.1700194 -16.499107 4294967295
0.86671722 -0.90304643 -16.636499 4294967295
0.88952827 -2.4896026 -16.321308 4294967295
0.8918215 -4.7090273 -16.031904 4294967295
0.89747071 -3.1243939 -16.20126 4294967295
0.90910262 -1.2236763 -16.379559 4294967295
0.91164953 -0.5900563 -16.445803 4294967295
0.91960788 -1.3831055 -16.30587 4294967295
0.92659581 -2.3347979 -16.151054 4294967295
0.93541968 -6.44205 -16.417404 4294967295
0.93747813 -1.5432483 -16.194418 4294967295
0.95377117 -5.6521759 -16.422415 4294967295
0.95408088 -5.9691267 -16.381201 4294967295
0.99302971 -3.7554371 -16.459023 4294967295
0.99933821 -3.9145932 -16.406891 4294967295
1.0077397 -4.2324853 -16.324219 4294967295
1.0305105 -6.2961044 -15.949851 4294967295
1.0316648 -6.1376886 -15.963762 4294967295
1.0454156 -5.5051804 -15.972601 4294967295
1.0510838 -5.8230438 -15.903897 4294967295
1.057843 -4.0796828 -16.087357 4294967295
1.0808661 -1.8627453 -16.246952 4294967295
1.0985832 -1.0718359 -16.255339 4294967295
1.1435114 -4.5507593 -16.415306 4294967295
1.1596217 -2.9680293 -16.530914 4294967295
1.1601638 -3.7603405 -16.429129 4294967295
1.1658239 -4.7118659 -16.281332 4294967295
1.1669635 -5.5045485 -16.176453 4294967295
1.1707239 -5.6635461 -16.137396 4294967295
1.1711627 -1.0681105 -16.70948 4294967295
1.1829027 -5.9821835 -16.035439 4294967295
1.1862092 -3.2877522 -16.355305 4294967295
1.1885223 -3.9219773 -16.26424 4294967295
1.1904613 -5.0318484 -16.115641 4294967295
1.1922498 -5.8248219 -16.007416 4294967295
1.2032435 -1.7047499 -16.466236 4294967295
1.2086827 -6.3026886 -15.863853 4294967295
1.2105216 -2.4978318 -16.329985 4294967295
1.2107794 -2.1808834 -16.36828 4294967295
1.2156438 -4.2420979 -16.085857 4294967295
1.2219783 -1.2310752 -16.42985 4294967295
1.2242223 -4.4016409 -16.02215 4294967295
1.2295649 -2.0242119 -16.292017 4294967295
1.2321447 -4.0854192 -16.021248 4294967295
1.2374232 -3.6103222 -16.053694 4294967295
1.2461746 -0.75776452 -16.365551 4294967295
1.2499971 -3.1359932 -16.04882 4294967295
1.25117 -0.91669011 -16.320202 4294967295
1.2519231 -1.3922751 -16.256922 4294967295
1.2768071 -1.5530896 -16.109863 4294967295
1.2942979 -6.1386189 -16.271084 4294967295
1.3022006 -6.2981601 -16.21089 4294967295
1.374846 -1.8683552 -16.394058 4294967295
1.380643 -5.0396481 -15.968394 4294967295
1.4983381 -6.3070984 -16.033215 4294967295
1.5076896 -4.5642042 -16.203211 4294967295
1.5083042 -3.2961621 -16.358391 4294967295
1.5092345 -6.1499457 -15.997385 4294967295
1.5093672 -5.1985712 -16.115479 4294967295
1.5096474 -2.9793184 -16.391111 4294967295
1.5146013 -0.6029138 -16.662588 4294967295
1.5202292 -3.6144638 -16.257971 4294967295
1.5277301 -2.1886919 -16.397802 4294967295
1.5295331 -4.0910969 -16.151121 4294967295
1.5311766 -4.2498331 -16.122942 4294967295
1.535827 -2.0309825 -16.376289 4294967295
1.5383216 -5.0435166 -15.987498 4294967295
1.5384392 -5.8365116 -15.887902 4294967295
1.5450252 -1.7148607 -16.368948 4294967295
1.5543275 -2.6668749 -16.202759 4294967295
1.5557705 -2.8255627 -16.175604 4294967295
1.5600513 -1.3992392 -16.33189 4294967295
1.5952293 -0.7682569 -16.231659 4294967295
1.6004925 -1.0858032 -16.165232 4294967295
1.6382898 -4.0894327 -16.419439 4294967295
1.6437387 -6.1508303 -16.134539 4294967295
1.6439394 -5.8337626 -16.17308 4294967295
1.6565256 -4.8840914 -16.227612 4294967295
1.6724299 -1.5573902 -16.561886 4294967295
1.673676 -1.0821491 -16.614855 4294967295
1.6748941 -2.6669507 -16.410913 4294967295
1.691542 -1.8761239 -16.424988 4294967295
1.7008866 -1.2430332 -16.456497 4294967295
1.7472502 -2.3571098 -16.081865 4294967295
1.8271931 -3.4627357 -16.358313 4294967295
1.831984 -6.0000892 -16.017565 4294967295
1.8379678 -5.5250883 -16.046432 4294967295
1.8453419 -3.6232233 -16.246189 4294967295
1.8455216 -4.0988779 -16.185957 4294967295
1.8464906 -1.8796862 -16.4578 4294967295
1.8539385 -5.0512843 -16.024466 4294967295
1.8592041 -1.2469004 -16.472193 4294967295
1.8603135 -0.93002957 -16.506081 4294967295
1.8614321 -2.515173 -16.302715 4294967295
1.8664492 -5.3700123 -15.921222 4294967295
1.8708502 -0.61396593 -16.492022 4294967295
1.879149 -1.5657216 -16.331205 4294967295
1.8925155 -5.8491855 -15.729172 4294967295
1.8940095 -0.77443552 -16.354469 4294967295
1.8952332 -4.5803494 -15.873613 4294967295
1.8981237 -1.408923 -16.254459 4294967295
1.9004836 -2.3604946 -16.123808 4294967295
1.9063063 -2.9954271 -16.015072 4294967295
1.938576 -2.0470111 -15.969575 4294967295
1.9420598 -1.7301189 -15.991414 4294967295
1.9503107 -1.0964478 -16.028566 4294967295
1.9869401 -3.1497834 -16.406223 4294967295
1.9931082 -5.2114954 -16.117977 4294967295
2.0180068 -4.2629757 -16.110003 4294967295
2.0242155 -2.9951401 -16.236565 4294967295
2.0554039 -1.8883507 -16.21644 4294967295
2.0563145 -4.4259677 -15.895521 4294967295
2.0982847 -1.099393 -16.097437 4294967295
2.1357617 -4.8964396 -16.252863 4294967295
2.1789269 -2.8401225 -16.290539 4294967295
2.1829185 -1.096765 -16.487522 4294967295
2.1845205 -5.2194662 -15.965806 4294967295
2.1850526 -5.060914 -15.982864 4294967295
2.1908896 -3.6341972 -16.131058 4294967295
2.1910994 -0.78047442 -16.485516 4294967295
2.1917005 -1.7316164 -16.363977 4294967295
2.1948769 -4.7448492 -15.972509 4294967295
2.1950636 -3.4760659 -16.129629 4294967295
2.1979036 -3.9521499 -16.055941 4294967295
2.2059276 -1.8914911 -16.272043 4294967295
2.2074013 -4.4290624 -15.948452 4294967295
2.2146878 -2.2094531 -16.188087 4294967295
2.2209513 -2.6858208 -16.097034 4294967295
2.2249165 -3.1620369 -16.017637 4294967295
2.2273417 -1.2592335 -16.242414 4294967295
2.2399657 -3.0049841 -15.961023 4294967295
2.2505465 -0.6269784 -16.20372 4294967295
2.280648 -1.4226257 -15.952223 4294967295
2.302784 -5.5356989 -16.145519 4294967295
2.3329718 -1.416894 -16.50576 4294967295
2.4240661 -1.5837587 -16.024471 4294967295
2.4919481 -4.4332314 -16.143372 4294967295
2.5032218 -1.7388906 -16.421764 4294967295
2.5105512 -3.9595444 -16.108398 4294967295
2.5137959 -2.2155204 -16.309061 4294967295
2.5143571 -3.4841697 -16.148344 4294967295
2.5147078 -5.0703597 -15.949176 4294967295
2.5300314 -3.0100315 -16.128216 4294967295
2.534698 -2.0589645 -16.223017 4294967295
2.5450821 -1.1084902 -16.288877 4294967295
2.5542238 -4.1230507 -15.86756 4294967295
2.5553834 -3.1712832 -15.980152 4294967295
2.5574856 -4.5994344 -15.791807 4294967295
2.557965 -1.268205 -16.203959 4294967295
2.572417 -0.63511401 -16.209784 4294967295
2.5961607 -1.9061832 -15.931722 4294967295
2.5979497 -2.3823364 -15.863432 4294967295
2.5990357 -2.5411148 -15.838187 4294967295
2.6539791 -4.2789912 -16.160389 4294967295
2.6551514 -3.6447783 -16.233362 4294967295
2.6780467 -0.95159119 -16.452915 4294967295
2.6928382 -4.4420452 -15.944174 4294967295
2.7090411 -2.6988158 -16.079308 4294967295
2.7261136 -1.5901525 -16.131128 4294967295
2.7333908 -3.8119318 -15.818079 4294967295
2.8400695 -2.3827958 -16.272873 4294967295
2.850446 -2.7010052 -16.181063 4294967295
2.8584073 -1.5916365 -16.278891 4294967295
2.8669915 -3.1785553 -16.038378 4294967295
2.869833 -3.8134453 -15.945141 4294967295
2.8705399 -4.765553 -15.823217 4294967295
2.882724 -3.9735327 -15.860326 4294967295
2.8875403 -3.0220397 -15.954361 4294967295
2.8877361 -1.9115649 -16.091431 4294967295
2.8887696 -1.2771875 -16.165092 4294967295
2.9020839 -0.64390111 -16.176777 4294967295
2.9103506 -4.1353087 -15.701099 4294967295
2.9158576 -1.1209555 -16.048111 4294967295
2.9283676 -1.4393733 -15.945531 4294967295
2.9467404 -0.4889819 -15.971168 4294967295
2.9888659 -3.3372488 -16.218857 4294967295
2.9915037 -4.6064706 -16.047886 4294967295
3.0161326 -3.49876 -16.061665 4294967295
3.0165958 -2.8642988 -16.13817 4294967295
3.0433798 -2.7083716 -16.022848 4294967295
3.0652816 -4.2975607 -15.71524 4294967295
3.06568 -4.4563298 -15.69351 4294967295
3.0678077 -1.9174819 -15.998272 4294967295
3.0822775 -1.7601687 -15.94505 4294967295
3.087172 -3.665077 -15.683742 4294967295
3.1201379 -1.1288365 -15.833097 4294967295
3.1809058 -4.137979 -15.966775 4294967295
3.1907473 -2.8698001 -16.074841 4294967295
3.1939144 -2.7114782 -16.078596 4294967295
3.200413 -0.80865461 -16.28227 4294967295
3.2047975 -4.4580517 -15.807031 4294967295
3.2069013 -0.49200639 -16.289007 4294967295
3.2098186 -3.3477571 -15.919698 4294967295
3.2144353 -1.7616106 -16.093496 4294967295
3.2152166 -3.0309618 -15.931931 4294967295
3.2185855 -3.5073748 -15.855844 4294967295
3.2381334 -4.3031192 -15.658844 4294967295
3.2446671 -1.1297293 -16.020132 4294967295
3.2468874 -1.605937 -15.94984 4294967295
3.2484388 -2.240834 -15.8632 4294967295
3.3383727 -3.6658189 -16.046682 4294967295
3.343643 -2.2386241 -16.197399 4294967295
3.3845477 -2.5599208 -15.952342 4294967295
3.3952582 -4.1481552 -15.701479 4294967295
3.3979528 -1.2918025 -16.042509 4294967295
3.4057024 -2.0859089 -15.905069 4294967295
3.4201386 -0.65904331 -16.009769 4294967295
3.4205995 -3.5159333 -15.652843 4294967295
3.4231551 -0.81797463 -15.974912 4294967295
3.4277785 -3.1991806 -15.656151 4294967295
3.4374492 -2.7239063 -15.666636 4294967295
3.5169289 -3.8305922 -15.941887 4294967295
3.5226252 -0.49961841 -16.326597 4294967295
3.5241332 -2.8792806 -16.023817 4294967295
3.5269961 -2.7208998 -16.029125 4294967295
3.5270386 -1.1344411 -16.225731 4294967295
3.5307019 -3.1973112 -15.951458 4294967295
3.5323024 -2.0867653 -16.081215 4294967295
3.5560489 -3.5173934 -15.784774 4294967295
3.5632632 -2.4071105 -15.886377 4294967295
3.5704947 -1.6142962 -15.94851 4294967295
3.5845995 -1.2981701 -15.917073 4294967295
3.6000018 -0.6646859 -15.918508 4294967295
3.6791615 -2.2481987 -16.135715 4294967295
3.73195 -3.5231616 -15.713529 4294967295
3.7389898 -0.98428559 -15.993123 4294967295
3.7552557 -3.8432164 -15.557246 4294967295
3.7669163 -2.0978818 -15.715324 4294967295
3.768683 -3.3682721 -15.548963 4294967295
3.8526635 -2.7295735 -16.017351 4294967295
3.8587065 -2.095438 -16.065748 4294967295
3.8722408 -3.525141 -15.820937 4294967295
3.875613 -1.6209693 -16.040077 4294967295
3.8786912 -3.0496221 -15.84764 4294967295
3.8854885 -0.82844132 -16.088957 4294967295
3.8880117 -3.8443332 -15.70258 4294967295
3.8920424 -1.1463703 -16.016808 4294967295
3.8950317 -3.6863282 -15.687087 4294967295
3.8953135 -3.3688331 -15.725027 4294967295
3.914 -2.2594309 -15.769152 4294967295
3.9176233 -3.2123919 -15.632946 4294967295
3.9237769 -0.67296278 -15.91692 4294967295
3.9324377 -1.7849008 -15.73584 4294967295
3.9530311 -0.99292278 -15.731099 4294967295
4.0175743 -2.2580438 -16.060179 4294967295
4.033721 -0.67277181 -16.175976 4294967295
4.0344095 -1.1488316 -16.113571 4294967295
4.0661988 -2.1039696 -15.836629 4294967295
4.2078719 -2.106261 -15.936963 4294967295
4.210022 -3.0589004 -15.808306 4294967295
4.2178488 -0.52007067 -16.083622 4294967295
4.2200642 -1.155064 -15.993964 4294967295
4.2213578 -0.99646533 -16.007154 4294967295
4.2338657 -2.7437823 -15.728492 4294967295
4.2444267 -2.9036255 -15.656071 4294967295
4.2448926 -2.4273152 -15.71272 4294967295
4.2536922 -1.6342753 -15.76705 4294967295
4.2653871 -2.5881147 -15.590676 4294967295
4.2733703 -3.2242153 -15.472139 4294967295
4.2807894 -0.68400431 -15.74966 4294967295
4.3534884 -1.7915173 -16.056715 4294967295
4.4279437 -1.9571687 -15.665647 4294967295
4.5364962 -1.0040311 -16.048906 4294967295
4.5502372 -2.2751935 -15.823388 4294967295
4.5573092 -2.1170979 -15.807788 4294967295
4.5622811 -2.9115076 -15.684821 4294967295
4.5624347 -1.48251 -15.860794 4294967295
4.5737009 -2.4362383 -15.686837 4294967295
4.5807962 -2.754554 -15.612201 4294967295
4.6160102 -0.69322252 -15.692105 4294967295
4.621357 -1.964301 -15.508325 4294967295
4.6890063 -2.7534444 -15.87914 4294967295
4.6931438 -1.166451 -16.054779 4294967295
4.7097282 -0.85042149 -16.011515 4294967295
4.7536278 -1.3304996 -15.734239 4294967295
4.7599058 -1.4898621 -15.683372 4294967295
4.8779864 -1.4901201 -15.90097 4294967295
4.8809376 -1.0141017 -15.945152 4294967295
4.8809481 -0.69660378 -15.984327 4294967295
4.8844552 -2.2846117 -15.770738 4294967295
4.8883357 -2.6025891 -15.712211 4294967295
4.9007068 -1.8097417 -15.748835 4294967295
4.9050527 -2.7630603 -15.609504 4294967295
4.9117332 -2.4460497 -15.615549 4294967295
4.9187446 -2.1290543 -15.619952 4294967295
4.9258785 -1.653222 -15.643372 4294967295
4.934792 -0.85988623 -15.697198 4294967295
4.9622731 -0.54450548 -15.599916 4294967295
5.1029482 -1.1822258 -15.62691 4294967295
5.2178349 -1.341099 -15.840418 4294967295
5.2249823 -0.70655042 -15.883393 4294967295
5.235043 -1.8190778 -15.696326 4294967295
5.2877383 -1.5061247 -15.474363 4294967295
5.2881627 -0.87065011 -15.5507 4294967295
5.3084588 -1.6668861 -15.352055 4294967295
5.4223857 -1.1901529 -15.648808 4294967295
5.4453039 -0.71551782 -15.59417 4294967295
5.5464082 -2.143971 -15.71878 4294967295
5.5640602 -1.5102297 -15.709851 4294967295
5.5662804 -1.6692734 -15.679291 4294967295
5.5665154 -1.1927683 -15.736884 4294967295
5.5951262 -1.8307625 -15.517097 4294967295
5.603498 -0.56047332 -15.63243 4294967295
5.6219397 -1.0386567 -15.482505 4294967295
5.8012347 -1.5210868 -15.338408 4294967295
5.8810377 -1.3591123 -15.763534 4294967295
5.8821607 -1.5180569 -15.73843 4294967295
5.9143972 -1.0442725 -15.638187 4294967295
5.9244928 -1.6807196 -15.510122 4294967295
6.1098156 -1.3691207 -15.434497 4294967295
6.1260853 -0.73476338 -15.43265 4294967295
6.1498461 -0.57775903 -15.335227 4294967295
6.1516142 -1.0548139 -15.267806 4294967295
6.2567921 -1.2130498 -15.528236 4294967295
6.2942753 -0.89835852 -15.383015 4294967295
6.3016572 -0.5810551 -15.385834 4294967295
6.3040347 -0.74020922 -15.354583 4294967295
6.4841647 -0.90482712 -15.246525 4294967295
6.5578551 -0.58380842 -15.719497 4294967295
6.5686169 -1.0613977 -15.60811 4294967295
6.7883959 -0.75246269 -15.364444 4294967295
6.8259645 -0.59652269 -15.199942 4294967295
6.9229898 -0.59538722 -15.518796 4294967295
-7.7615123 2.7961199 -17.643393 4294967295
-7.2879949 2.4692228 -17.643595 4294967295
-7.1512136 2.7823126 -17.81324 4294967295
-7.1280098 2.9386842 -17.706436 4294967295
-6.9635525 2.6189134 -17.643414 4294967295
-6.8210111 3.247216 -17.821899 4294967295
-6.8008361 2.7726495 -17.6509 4294967295
-6.7975726 3.0880783 -17.673622 4294967295
-6.7940698 3.4034925 -17.695034 4294967295
-6.785892 2.1403611 -17.488169 4294967295
-6.7793541 2.4556429 -17.493013 4294967295
-6.6579509 2.7697878 -17.746387 4294967295
-6.497829 2.450258 -17.707314 4294967295
-6.4932556 1.9764855 -17.621647 4294967295
-6.489202 2.6075325 -17.680569 4294967295
-6.36274 2.2901349 -17.824762 4294967295
-6.3293543 1.6565813 -17.562191 4294967295
-6.3127055 1.4975271 -17.45137 4294967295
-6.1935749 1.6543356 -17.696152 4294967295
-6.1594882 1.4940579 -17.490734 4294967295
-6.1575809 2.4411371 -17.601767 4294967295
-6.1548834 1.1779431 -17.425247 4294967295
-6.1546106 1.9673498 -17.524937 4294967295
-6.1419821 4.3343177 -17.75979 4294967295
-6.1368456 2.9134493 -17.549835 4294967295
-6.1303086 1.8077971 -17.372683 4294967295
-6.1169062 3.7016881 -17.542709 4294967295
-5.9814029 0.69918293 -17.294016 4294967295
-5.9747219 1.1724734 -17.318451 4294967295
-5.9738007 4.0144153 -17.677467 4294967295
-5.9558754 4.644969 -17.661146 4294967295
-5.8715615 1.6462917 -17.689852 4294967295
-5.8696618 1.0147276 -17.598732 4294967295
-5.8625689 1.9613661 -17.681549 4294967295
-5.8498211 2.5919304 -17.693319 4294967295
-5.8407254 3.0649219 -17.704672 4294967295
-5.838675 0.69655138 -17.390408 4294967295
-5.8257766 0.85347372 -17.340734 4294967295
-5.8166766 1.3265846 -17.352079 4294967295
-5.8031683 1.1676472 -17.258675 4294967295
-5.7986226 2.2729115 -17.375572 4294967295
-5.6880665 1.3249137 -17.524775 4294967295
-5.6856503 3.2191598 -17.754068 4294967295
-5.685359 -0.25449821 -17.308088 4294967295
-5.660675 0.0593119 -17.214918 4294967295
-5.6481023 0.5321961 -17.207514 4294967295
-5.6476579 3.6906676 -17.60919 4294967295
-5.5645108 0.69216722 -17.643646 4294967295
-5.561903 0.060431901 -17.548805 4294967295
-5.5572715 0.53371811 -17.584341 4294967295
-5.5561123 2.270082 -17.800102 4294967295
-5.5559835 2.1122377 -17.779224 4294967295
-5.5441604 -0.2568979 -17.412537 4294967295
-5.5403657 -0.41515991 -17.371836 4294967295
-5.5272884 1.7945783 -17.583841 4294967295
-5.5165534 3.3726201 -17.727713 4294967295
-5.5155406 1.9516714 -17.540567 4294967295
-5.5122547 1.1618752 -17.421858 4294967295
-5.5089436 1.4774827 -17.444355 4294967295
-5.5080128 2.898531 -17.621029 4294967295
-5.5074201 4.3192306 -17.79948 4294967295
-5.4977255 3.6873333 -17.666401 4294967295
-5.4969201 2.4241669 -17.500549 4294967295
-5.4880762 1.3180379 -17.311419 4294967295
-5.479856 4.475812 -17.670835 4294967295
-5.4785552 0.36944911 -17.138783 4294967295
-5.4645281 4.1593213 -17.547699 4294967295
-5.459928 5.2643356 -17.664171 4294967295
-5.4561234 5.4220653 -17.663818 4294967295
-5.4442201 6.3688798 -17.720673 4294967295
-5.3728256 1.3173369 -17.555933 4294967295
-5.3625326 0.211069 -17.359129 4294967295
-5.3400593 3.5257177 -17.661654 4294967295
-5.3386517 0.99894512 -17.331186 4294967295
-5.3373628 0.68292117 -17.283863 4294967295
-5.334197 3.2096207 -17.589689 4294967295
-5.3206859 1.629475 -17.314997 4294967295
-5.3199949 2.1032946 -17.371822 4294967295
-5.297327 5.7340713 -17.713688 4294967295
-5.2395587 -0.42154351 -17.480961 4294967295
-5.2319722 -0.1063523 -17.480412 4294967295
-5.1998801 1.312434 -17.489002 4294967295
-5.1952944 3.3648002 -17.72645 4294967295
-5.1918616 0.2061847 -17.30459 4294967295
-5.1915388 2.417263 -17.585238 4294967295
-5.1891484 1.1537116 -17.411009 4294967295
-5.1836581 -0.2684522 -17.199848 4294967295
-5.1829729 3.0483413 -17.619762 4294967295
-5.1753769 2.8899949 -17.558683 4294967295
-5.1748676 2.1003492 -17.455095 4294967295
-5.1739864 1.7844092 -17.410007 4294967295
-5.1739726 0.99461991 -17.309069 4294967295
-5.172657 0.83654678 -17.281803 4294967295
-5.1557398 3.8363721 -17.573929 4294967295
-5.154129 0.3610976 -17.121428 4294967295
-5.1453118 2.2563739 -17.316057 4294967295
-5.1434278 4.3095002 -17.56813 4294967295
-5.1295915 5.8879132 -17.695286 4294967295
-5.1249504 5.2561669 -17.589645 4294967295
-5.1243706 4.7823977 -17.526022 4294967295
-5.1186543 5.4138379 -17.575916 4294967295
-5.045064 0.67711598 -17.439241 4294967295
-5.0196838 1.307006 -17.383322 4294967295
-4.9996405 1.7794861 -17.335972 4294967295
-4.9789596 2.8839507 -17.365868 4294967295
-4.9739666 4.1472907 -17.500298 4294967295
-4.9200363 0.3600463 -17.589943 4294967295
-4.9059682 1.464308 -17.655354 4294967295
-4.9048343 1.7800156 -17.689545 4294967295
-4.9040537 0.83253348 -17.564491 4294967295
-4.9024119 1.1482406 -17.595957 4294967295
-4.8996172 0.0425089 -17.439915 4294967295
-4.8926435 -0.27399939 -17.362133 4294967295
-4.8831258 3.5153491 -17.794474 4294967295
-4.869174 0.1979547 -17.296455 4294967295
-4.8609304 3.0404484 -17.614845 4294967295
-4.8608589 0.51325577 -17.29208 4294967295
-4.8542428 1.9345047 -17.437895 4294967295
-4.8424616 2.8814454 -17.495501 4294967295
-4.8416495 3.9868758 -17.632158 4294967295
-4.8409724 5.5657015 -17.829924 4294967295
-4.8361678 1.3013401 -17.260178 4294967295
-4.8346744 5.4076023 -17.775976 4294967295
-4.8266039 4.3019805 -17.591656 4294967295
-4.820539 2.4062178 -17.317295 4294967295
-4.8136854 3.669589 -17.441696 4294967295
-4.8064995 2.7213314 -17.282188 4294967295
-4.8055139 4.7748184 -17.538851 4294967295
-4.7810583 6.0373611 -17.568731 4294967295
-4.7554674 -0.43400359 -17.46764 4294967295
-4.7087035 3.5107088 -17.720081 4294967295
-4.7033253 2.2470679 -17.530169 4294967295
-4.6650834 1.7706139 -17.264591 4294967295
-4.6594272 1.9282362 -17.254393 4294967295
-4.6465192 1.1371864 -17.084402 4294967295
-4.6388259 5.5604076 -17.607109 4294967295
-4.5724487 2.5608227 -17.729683 4294967295
-4.5666957 0.98119748 -17.497635 4294967295
-4.5631995 0.3490746 -17.39839 4294967295
-4.554112 2.8755243 -17.6717 4294967295
-4.5528741 0.19025131 -17.322924 4294967295
-4.5526009 3.349153 -17.723965 4294967295
-4.5484629 -0.44214511 -17.218748 4294967295
-4.5411968 1.2952414 -17.40126 4294967295
-4.5356464 2.2426546 -17.492292 4294967295
-4.5347719 4.9271674 -17.829666 4294967295
-4.5342245 3.8218951 -17.685909 4294967295
-4.5326624 3.0321984 -17.576933 4294967295
-4.5127153 0.5030449 -17.147976 4294967295
-4.512116 1.9251573 -17.325974 4294967295
-4.5096869 5.0840392 -17.715477 4294967295
-4.5056405 4.1363311 -17.573082 4294967295
-4.5056005 0.81856728 -17.150122 4294967295
-4.5040407 2.3986168 -17.343107 4294967295
-4.5003405 1.766353 -17.242756 4294967295
-4.4962263 4.7676468 -17.603167 4294967295
-4.4891109 3.1876843 -17.363792 4294967295
-4.4871655 6.0306664 -17.715628 4294967295
-4.4855952 1.1331576 -17.083202 4294967295
-4.4816713 1.4489813 -17.102455 4294967295
-4.4753089 4.292851 -17.430786 4294967295
-4.4661374 5.5561709 -17.542694 4294967295
-4.4282308 -0.44270009 -17.435083 4294967295
-4.4006691 0.81880498 -17.448511 4294967295
-4.3835053 2.5551331 -17.577948 4294967295
-4.3748593 1.7647765 -17.431116 4294967295
-4.3391838 2.8683975 -17.381098 4294967295
-4.3318238 0.023163101 -16.97945 4294967295
-4.3191009 3.3412511 -17.334038 4294967295
-4.2959452 5.8679538 -17.53211 4294967295
-4.258739 0.0263892 -17.44792 4294967295
-4.2527938 3.0267317 -17.798071 4294967295
-4.2490187 2.7107074 -17.737713 4294967295
-4.2428994 1.7627538 -17.584423 4294967295
-4.241024 -0.44910461 -17.292908 4294967295
-4.2305493 1.2880036 -17.458122 4294967295
-4.2286706 2.8674169 -17.649118 4294967295
-4.2284808 2.5515332 -17.607903 4294967295
-4.2264743 0.65574467 -17.355913 4294967295
-4.2262311 3.1831329 -17.676287 4294967295
-4.2205539 3.6565914 -17.706263 4294967295
-4.2102866 2.0764956 -17.450392 4294967295
-4.1985126 4.2871995 -17.668949 4294967295
-4.198472 1.4436998 -17.306835 4294967295
-4.1915488 4.1289339 -17.611662 4294967295
-4.1909595 5.7081118 -17.809498 4294967295
-4.1881485 2.3910539 -17.372339 4294967295
-4.1837831 1.9167395 -17.288687 4294967295
-4.182272 5.2340651 -17.702826 4294967295
-4.1821728 4.7602706 -17.641998 4294967295
-4.181457 3.338604 -17.457243 4294967295
-4.1748047 5.549634 -17.703157 4294967295
-4.1713762 1.5998251 -17.182171 4294967295
-4.1711946 0.49336809 -17.04038 4294967295
-4.1692801 0.1770419 -16.989906 4294967295
-4.1654902 6.1810064 -17.733826 4294967295
-4.1616163 0.96686792 -17.049551 4294967295
-4.1411085 6.0223131 -17.583572 4294967295
-4.1364412 6.3380775 -17.598864 4294967295
-4.1207519 -0.44966969 -17.508492 4294967295
-4.1059146 0.1809451 -17.50967 4294967295
-4.0686545 0.80993319 -17.391201 4294967295
-4.0620084 0.019326299 -17.255234 4294967295
-4.0521908 0.33459091 -17.243038 4294967295
-4.043788 4.7573757 -17.760857 4294967295
-4.0212851 2.7027347 -17.379641 4294967295
-4.0117393 0.96366167 -17.10758 4294967295
-3.9686778 5.8601751 -17.50103 4294967295
-3.95716 6.6497259 -17.540104 4294967295
-3.9331903 -0.45610049 -17.364872 4294967295
-3.9241283 3.0184591 -17.758385 4294967295
-3.910574 4.1231232 -17.826714 4294967295
-3.9091837 3.4913964 -17.73901 4294967295
-3.9040105 1.4376123 -17.450397 4294967295
-3.9030309 3.1751933 -17.666082 4294967295
-3.9019015 2.5433171 -17.579744 4294967295
-3.8968403 1.7530998 -17.452364 4294967295
-3.8965347 1.1210672 -17.370386 4294967295
-3.893877 3.6485229 -17.677561 4294967295
-3.8837161 0.64601368 -17.241806 4294967295
-3.8793759 2.8579104 -17.499914 4294967295
-3.8714168 4.2792006 -17.63826 4294967295
-3.8707843 5.3847237 -17.775433 4294967295
-3.8599193 2.3827169 -17.336004 4294967295
-3.859479 0.16988119 -17.052345 4294967295
-3.8435133 6.1734328 -17.730629 4294967295
-3.8372662 2.6973946 -17.255507 4294967295
-3.8275433 6.0149913 -17.625534 4294967295
-3.8267615 3.3289633 -17.279915 4294967295
-3.8178236 5.0667658 -17.453289 4294967295
-3.8139148 3.9604542 -17.291857 4294967295
-3.8137968 5.5406017 -17.492104 4294967295
-3.8052456 5.8562927 -17.486748 4294967295
-3.7784314 0.48829851 -17.51679 4294967295
-3.7684846 0.64550579 -17.483925 4294967295
-3.7509303 3.6455483 -17.771849 4294967295
-3.7481997 2.2238679 -17.57671 4294967295
-3.7381165 -0.30511841 -17.20182 4294967295
-3.727829 0.3262541 -17.227392 4294967295
-3.7277551 3.4863873 -17.628513 4294967295
-3.7214077 1.4320619 -17.33378 4294967295
-3.7063692 1.9051257 -17.313999 4294967295
-3.6932354 3.1685259 -17.404753 4294967295
-3.6837678 3.9580793 -17.454777 4294967295
-3.6775625 6.3274398 -17.722843 4294967295
-3.637886 4.4299989 -17.271002 4294967295
-3.6377056 6.6422653 -17.551111 4294967295
-3.6347344 4.9040055 -17.314484 4294967295
-3.5695193 -0.30987221 -17.160006 4294967295
-3.5613515 3.0082347 -17.538027 4294967295
-3.5609095 3.9560614 -17.65604 4294967295
-3.5574484 5.2194662 -17.798107 4294967295
-3.5524657 4.7454495 -17.711483 4294967295
-3.5447094 0.63658142 -17.148579 4294967295
-3.5446508 2.2171621 -17.348976 4294967295
-3.5439579 0.47843781 -17.124508 4294967295
-3.54372 -0.1539706 -17.04294 4294967295
-3.5423117 1.2686988 -17.216127 4294967295
-3.5363464 1.1101919 -17.164354 4294967295
-3.5328536 3.3226471 -17.426771 4294967295
-3.528019 5.6922169 -17.702015 4294967295
-3.5228925 0.1605356 -16.972389 4294967295
-3.521878 4.4281607 -17.508928 4294967295
-3.5167322 5.059916 -17.561852 4294967295
-3.5151291 6.0077052 -17.673695 4294967295
-3.5130761 6.4815111 -17.722965 4294967295
-3.5120976 3.7956302 -17.376724 4294967295
-3.5115848 2.8473253 -17.253584 4294967295
-3.5114243 1.7407746 -17.112219 4294967295
-3.5034072 5.3753872 -17.531221 4294967295
-3.5026939 1.4239597 -17.025673 4294967295
-3.491488 6.6388903 -17.628426 4294967295
-3.4405727 1.4269347 -17.549471 4294967295
-3.4391048 0.1627485 -17.381252 4294967295
-3.4234633 1.1096908 -17.418568 4294967295
-3.4219079 2.6895819 -17.610836 4294967295
-3.4045155 4.4262586 -17.739101 4294967295
-3.3886545 3.7936254 -17.574787 4294967295
-3.351861 6.6356883 -17.740545 4294967295
-3.3515275 2.5272899 -17.217386 4294967295
-3.3421266 3.4751627 -17.28788 4294967295
-3.3395782 3.1588895 -17.23424 4294967295
-3.3261724 4.5807734 -17.343674 4294967295
-3.3190477 5.054616 -17.366064 4294967295
-3.3117244 5.3704238 -17.367346 4294967295
-3.3111839 4.896246 -17.304306 4294967295
-3.272377 0.79034108 -17.429611 4294967295
-3.2713027 2.2123129 -17.604294 4294967295
-3.255017 3.9490609 -17.738424 4294967295
-3.250798 2.3690124 -17.515692 4294967295
-3.2460563 1.5785869 -17.390347 4294967295
-3.2356279 -0.0028856001 -17.134579 4294967295
-3.2321379 5.369616 -17.797564 4294967295
-3.2313218 1.2614421 -17.272167 4294967295
-3.228375 0.94507933 -17.21645 4294967295
-3.2262435 2.8415768 -17.445726 4294967295
-3.2241623 -0.1619502 -17.053745 4294967295
-3.2173779 5.6849856 -17.759478 4294967295
-3.2102911 -0.32125589 -16.960152 4294967295
-3.2096434 0.15309601 -17.016893 4294967295
-3.2010729 5.2104774 -17.613031 4294967295
-3.1999068 2.5239017 -17.2661 4294967295
-3.1995502 4.736423 -17.544847 4294967295
-3.1931431 4.5781345 -17.490875 4294967295
-3.1835256 1.890488 -17.099092 4294967295
-3.1828759 5.8417969 -17.596834 4294967295
-3.1806636 2.6808183 -17.184198 4294967295
-3.1792319 6.473639 -17.657696 4294967295
-3.172724 4.261138 -17.342642 4294967295
-3.1678517 2.047575 -17.036097 4294967295
-3.1569829 4.8926773 -17.339466 4294967295
-3.1469519 4.4180288 -17.226196 4294967295
-3.1428297 5.5243669 -17.344711 4294967295
-3.1116109 0.78630888 -17.429474 4294967295
-3.1035123 0.46959701 -17.346537 4294967295
-3.1022203 2.5238128 -17.600126 4294967295
-3.0906413 3.1551044 -17.618979 4294967295
-3.0902853 1.5749387 -17.416782 4294967295
-3.0845578 3.6287401 -17.646879 4294967295
-3.0815506 3.9445522 -17.671028 4294967295
-3.0523734 2.0465598 -17.276272 4294967295
-3.0500629 3.4689202 -17.444376 4294967295
-3.0413706 3.3104088 -17.378359 4294967295
-3.0346043 0.62232292 -17.001842 4294967295
-3.025774 5.5221181 -17.576328 4294967295
-3.0165007 6.1538267 -17.607412 4294967295
-2.9301531 0.78070742 -17.320047 4294967295
-2.8977325 3.6234922 -17.509171 4294967295
-2.8975649 2.6752365 -17.388145 4294967295
-2.896343 3.4653893 -17.48181 4294967295
-2.8949168 1.4104571 -17.213926 4294967295
-2.8929117 2.2007525 -17.303478 4294967295
-2.8923008 2.3587875 -17.320278 4294967295
-2.8894324 4.0971556 -17.525391 4294967295
-2.8888643 5.5191593 -17.702553 4294967295
-2.887857 0.93562078 -17.116518 4294967295
-2.8859093 -0.1714967 -16.965969 4294967295
-2.8808436 5.8348498 -17.700232 4294967295
-2.880554 0.46066639 -17.017811 4294967295
-2.8650079 5.9923296 -17.636633 4294967295
-2.8574131 4.5698061 -17.416338 4294967295
-2.8553057 6.6240368 -17.665476 4294967295
-2.8397677 3.1461575 -17.14287 4294967295
-2.8369613 5.0431309 -17.368402 4294967295
-2.8368721 3.7784483 -17.207701 4294967295
-2.8233979 2.9871018 -17.03635 4294967295
-2.820555 4.41009 -17.201639 4294967295
-2.815527 4.8841825 -17.235176 4294967295
-2.8051229 6.3065839 -17.360491 4294967295
-2.7798228 -0.17098249 -17.255199 4294967295
-2.7732282 -0.0134396 -17.240402 4294967295
-2.7650478 0.46017751 -17.257277 4294967295
-2.7648904 0.77633679 -17.296482 4294967295
-2.7573647 1.8822901 -17.396873 4294967295
-2.7551425 2.3563056 -17.445189 4294967295
-2.7307167 4.7254534 -17.616489 4294967295
-2.7043195 1.0880606 -17.016813 4294967295
-2.703387 1.7205713 -17.091995 4294967295
-2.7004409 0.61328191 -16.936258 4294967295
-2.7003486 5.0402579 -17.496346 4294967295
-2.6948223 3.9335861 -17.327097 4294967295
-2.6400633 6.1445999 -17.318542 4294967295
-2.6122255 1.2471328 -17.399481 4294967295
-2.6001854 2.9848614 -17.556051 4294967295
-2.5570173 2.3500192 -17.248569 4294967295
-2.5552814 4.4049029 -17.499491 4294967295
-2.5543571 5.9850969 -17.694605 4294967295
-2.5524147 0.92654687 -17.044201 4294967295
-2.552295 6.3010283 -17.723736 4294967295
-2.5492423 4.7207298 -17.507685 4294967295
-2.5487142 5.3528504 -17.584902 4294967295
-2.5471432 2.6656294 -17.236559 4294967295
-2.5443327 0.76777971 -16.981583 4294967295
-2.5429845 1.8747532 -17.114584 4294967295
-2.5418997 3.139641 -17.268957 4294967295
-2.5401199 2.190836 -17.139515 4294967295
-2.5391204 3.2975888 -17.274323 4294967295
-2.5330617 3.9296556 -17.322435 4294967295
-2.5270755 4.2455478 -17.330914 4294967295
-2.5127199 5.8257213 -17.455355 4294967295
-2.5031114 5.6673288 -17.384752 4294967295
-2.4919834 6.1412039 -17.386169 4294967295
-2.4788265 5.0340161 -17.176825 4294967295
-2.4462988 0.61040789 -17.292603 4294967295
-2.439358 1.2422582 -17.336052 4294967295
-2.437907 2.6647637 -17.508356 4294967295
-2.4356804 2.1904609 -17.436665 4294967295
-2.4282074 0.45089221 -17.177362 4294967295
-2.4256108 -0.34001219 -17.063681 4294967295
-2.4170783 -0.0244203 -17.058764 4294967295
-2.4139991 1.0823179 -17.182573 4294967295
-2.4073851 4.0855398 -17.527683 4294967295
-2.4030018 3.6111567 -17.444649 4294967295
-2.3950391 5.0332375 -17.582678 4294967295
-2.3844051 -0.18531039 -16.86673 4294967295
-2.3677673 4.3998389 -17.359262 4294967295
-2.366724 0.1296524 -16.813662 4294967295
-2.3578677 4.8736782 -17.367178 4294967295
-2.3198042 3.7650335 -17.026945 4294967295
-2.2421658 0.4448728 -17.045048 4294967295
-2.2202611 1.866725 -17.10985 4294967295
-2.2200251 3.6061132 -17.328497 4294967295
-2.2174602 2.6572647 -17.195087 4294967295
-2.2165689 5.3448229 -17.530153 4294967295
-2.216171 2.02461 -17.108345 4294967295
-2.2149026 4.3963342 -17.40151 4294967295
-2.2147267 6.1349831 -17.620371 4294967295
-2.2061861 1.0748749 -16.935888 4294967295
-2.2061405 2.9728777 -17.175587 4294967295
-2.2033041 5.0281782 -17.420521 4294967295
-2.1951571 4.0792136 -17.257809 4294967295
-2.1877577 2.339139 -16.99901 4294967295
-2.1865001 4.7112942 -17.292284 4294967295
-2.1849201 5.6598382 -17.4039 4294967295
-2.181922 6.4501352 -17.488068 4294967295
-2.1803222 5.1853776 -17.319796 4294967295
-2.1624687 3.4449618 -17.0061 4294967295
-2.1513267 6.2911782 -17.307426 4294967295
-2.1471152 6.607285 -17.325285 4294967295
-2.1446223 5.8165951 -17.212255 4294967295
-2.1148531 0.75969708 -17.261463 4294967295
-2.1077206 1.5497429 -17.323906 4294967295
-2.1050708 2.9723504 -17.489761 4294967295
-2.1007347 0.28419629 -17.127401 4294967295
-2.0942035 2.8136485 -17.412762 4294967295
-2.0709112 1.072724 -17.070744 4294967295
-2.0658069 4.8672075 -17.523407 4294967295
-2.0595663 -0.1937184 -16.851282 4294967295
-2.0589628 -0.35199249 -16.828121 4294967295
-2.0551624 3.4438891 -17.2878 4294967295
-2.0534647 2.4949868 -17.159014 4294967295
-2.0455854 -0.036649201 -16.797863 4294967295
-2.027853 4.3912926 -17.264387 4294967295
-2.0197895 0.4360165 -16.722403 4294967295
-2.0075932 1.3846058 -16.778341 4294967295
-2.0053971 2.6502709 -16.926743 4294967295
-1.9980178 5.4970074 -17.247738 4294967295
-1.9613239 -0.0344241 -17.200207 4294967295
-1.9438608 -0.1940233 -17.088663 4294967295
-1.8856316 1.5415323 -17.003096 4294967295
-1.8783766 1.0664015 -16.90513 4294967295
-1.8727577 4.7039323 -17.335052 4294967295
-1.8705086 1.8569101 -16.963778 4294967295
-1.8702441 4.5457029 -17.30192 4294967295
-1.869638 2.8060033 -17.079069 4294967295
-1.8681099 6.600884 -17.550257 4294967295
-1.8617527 0.59045148 -16.758034 4294967295
-1.8614762 3.7545762 -17.156137 4294967295
-1.8602409 6.2845116 -17.46913 4294967295
-1.8566036 5.4938865 -17.350262 4294967295
-1.8532515 5.651885 -17.352671 4294967295
-1.8521153 2.0139201 -16.887348 4294967295
-1.8510592 3.4376948 -17.061607 4294967295
-1.8418442 4.0699544 -17.093222 4294967295
-1.8299804 4.227581 -17.051039 4294967295
-1.8246919 6.4416142 -17.302929 4294967295
-1.8162676 5.0179219 -17.079073 4294967295
-1.8138336 3.9104054 -16.926489 4294967295
-1.7971574 0.59380329 -17.262953 4294967295
-1.7865412 1.0674086 -17.267242 4294967295
-1.7468846 3.7530057 -17.398926 4294967295
-1.7448038 -0.20128299 -16.888996 4294967295
-1.7403821 0.1148019 -16.905781 4294967295
