# .PCD v0.7 - Point Cloud Data file format
VERSION 0.7
FIELDS x y z rgb
SIZE 4 4 4 4
TYPE F F F U
COUNT 1 1 1 1
WIDTH 1120
HEIGHT 1
VIEWPOINT 0 0 0 1 0 0 0
POINTS 1120
DATA ascii
-60.521385 27.489868 -25.363577 4294967295
-60.457989 22.405584 -25.398003 4294967295
-60.445484 21.948135 -25.19001 4294967295
-60.445335 22.101534 -25.215405 4294967295
-60.443161 23.328686 -25.408379 4294967295
-60.442886 22.562115 -25.271166 4294967295
-60.440121 22.25598 -25.189236 4294967295
-60.437481 24.403008 -25.538752 4294967295
-60.435966 22.716951 -25.227602 4294967295
-60.435352 23.48377 -25.355803 4294967295
-60.435009 22.870512 -25.244757 4294967295
-60.431343 23.944632 -25.395662 4294967295
-60.428574 25.171503 -25.582506 4294967295
-60.426483 23.639132 -25.292454 4294967295
-60.4202 24.100586 -25.309185 4294967295
-60.418003 23.794437 -25.233046 4294967295
-60.416401 26.247349 -25.64677 4294967295
-60.410023 24.869654 -25.340075 4294967295
-60.407158 26.096634 -25.525951 4294967295
-60.405888 25.790457 -25.459278 4294967295
-60.39436 26.559917 -25.476435 4294967295
-60.388088 26.714935 -25.439543 4294967295
-60.379547 27.330423 -25.460184 4294967295
-60.374645 27.791618 -25.490952 4294967295
-60.313732 21.940771 -25.415262 4294967295
-60.307995 23.015108 -25.544943 4294967295
-60.304607 23.782207 -25.644722 4294967295
-60.304222 22.096041 -25.345539 4294967295
-60.303646 23.47591 -25.581324 4294967295
-60.301891 22.709841 -25.429268 4294967295
-60.301582 22.403261 -25.372438 4294967295
-60.288723 24.092468 -25.537203 4294967295
-60.287148 22.866358 -25.306444 4294967295
-60.283817 22.560364 -25.218925 4294967295
-60.281467 23.174294 -25.302498 4294967295
-60.281406 25.167057 -25.650812 4294967295
-60.277111 24.401821 -25.473051 4294967295
-60.276611 24.24865 -25.441137 4294967295
-60.273872 24.862457 -25.520679 4294967295
-60.273647 25.475534 -25.625725 4294967295
-60.273277 25.628866 -25.648821 4294967295
-60.27285 24.709435 -25.483507 4294967295
-60.267181 23.944258 -25.291746 4294967295
-60.266178 25.783979 -25.603624 4294967295
-60.265587 25.017818 -25.463478 4294967295
-60.246548 26.249029 -25.485029 4294967295
-60.234268 27.32527 -25.548304 4294967295
-60.229263 27.479973 -25.524414 4294967295
-60.171055 21.935635 -25.528868 4294967295
-60.166763 22.39641 -25.56583 4294967295
-60.161152 22.550886 -25.535778 4294967295
-60.156185 22.245304 -25.431875 4294967295
-60.155457 22.7054 -25.504904 4294967295
-60.149921 23.166502 -25.529282 4294967295
-60.14962 23.626413 -25.606646 4294967295
-60.138554 22.095577 -25.226498 4294967295
-60.129375 24.39756 -25.535694 4294967295
-60.12891 24.857479 -25.611376 4294967295
-60.127796 24.244656 -25.492908 4294967295
-60.125034 23.018667 -25.250488 4294967295
-60.122475 25.472113 -25.653414 4294967295
-60.119415 25.319654 -25.595675 4294967295
-60.11903 24.553368 -25.457808 4294967295
-60.115063 23.941044 -25.310402 4294967295
-60.11388 24.09466 -25.325251 4294967295
-60.106861 23.482849 -25.146936 4294967295
-60.093643 25.786213 -25.4153 4294967295
-60.093239 25.173063 -25.303999 4294967295
-60.089611 26.247164 -25.454926 4294967295
-60.088474 25.634268 -25.336208 4294967295
-60.085426 27.474386 -25.626913 4294967295
-60.084316 26.708458 -25.481722 4294967295
-60.08213 27.168863 -25.539984 4294967295
-60.08049 27.629068 -25.60376 4294967295
-60.012234 21.933758 -25.478937 4294967295
-60.00919 22.394331 -25.528498 4294967295
-59.999069 22.856409 -25.506559 4294967295
-59.995731 22.55048 -25.419291 4294967295
-59.991421 22.244684 -25.322218 4294967295
-59.987934 22.705477 -25.36731 4294967295
-59.981865 23.013479 -25.359554 4294967295
-59.980988 23.933605 -25.511316 4294967295
-59.98053 22.093538 -25.185396 4294967295
-59.969437 23.782976 -25.367897 4294967295
-59.966637 23.170191 -25.232527 4294967295
-59.965088 24.243984 -25.404325 4294967295
-59.964363 24.550789 -25.450535 4294967295
-59.964268 23.630821 -25.288935 4294967295
-59.962547 24.091261 -25.351885 4294967295
-59.96043 25.011663 -25.491125 4294967295
-59.960228 24.858418 -25.462315 4294967295
-59.959999 25.931391 -25.647301 4294967295
-59.958237 24.705603 -25.415438 4294967295
-59.954594 25.166437 -25.458961 4294967295
-59.946491 25.321812 -25.403925 4294967295
-59.941658 26.089569 -25.488987 4294967295
-59.936962 27.163702 -25.62887 4294967295
-59.936081 26.39765 -25.4862 4294967295
-59.935204 26.55117 -25.504112 4294967295
-59.925716 27.473444 -25.568909 4294967295
-59.914864 27.016741 -25.379196 4294967295
-59.856102 22.237991 -25.509953 4294967295
-59.846436 22.393322 -25.439274 4294967295
-59.843788 22.700546 -25.466085 4294967295
-59.842518 23.620665 -25.613628 4294967295
-59.841568 22.854351 -25.470427 4294967295
-59.832191 22.089523 -25.242281 4294967295
-59.830467 23.930025 -25.545702 4294967295
-59.829872 23.010225 -25.379339 4294967295
-59.827591 23.164072 -25.383093 4294967295
-59.821381 22.551935 -25.213589 4294967295
-59.820023 23.319103 -25.333605 4294967295
-59.811596 25.467474 -25.622879 4294967295
-59.81068 24.547966 -25.453367 4294967295
-59.808079 24.241941 -25.373695 4294967295
-59.802902 23.783087 -25.241337 4294967295
-59.795467 25.624941 -25.487259 4294967295
-59.793144 24.705589 -25.303503 4294967295
-59.793102 24.398882 -25.249609 4294967295
-59.791504 26.085857 -25.527504 4294967295
-59.790291 26.852507 -25.648888 4294967295
-59.778595 27.315578 -25.611313 4294967295
-59.777561 27.622366 -25.654327 4294967295
-59.775715 27.009878 -25.528927 4294967295
-59.75996 27.474247 -25.450529 4294967295
-59.705605 22.387747 -25.571022 4294967295
-59.704056 21.92808 -25.475378 4294967295
-59.693844 22.083487 -25.399414 4294967295
-59.692139 22.697222 -25.489061 4294967295
-59.687485 23.464823 -25.575768 4294967295
-59.682198 22.545975 -25.362471 4294967295
-59.676262 24.2339 -25.596447 4294967295
-59.675686 23.007448 -25.377127 4294967295
-59.673893 23.314543 -25.412508 4294967295
-59.671291 24.081776 -25.519827 4294967295
-59.660938 24.850792 -25.549265 4294967295
-59.657505 23.624947 -25.301214 4294967295
-59.656727 22.244457 -25.053062 4294967295
-59.655083 25.312138 -25.570494 4294967295
-59.654457 24.545755 -25.430798 4294967295
-59.647552 25.620653 -25.548244 4294967295
-59.647202 23.780684 -25.224407 4294967295
-59.64431 24.394861 -25.302166 4294967295
-59.643761 26.234772 -25.616879 4294967295
-59.639091 26.08275 -25.543331 4294967295
-59.638432 25.469711 -25.429981 4294967295
-59.635399 24.703754 -25.266062 4294967295
-59.632484 26.697666 -25.583723 4294967295
-59.62429 26.393343 -25.448105 4294967295
-59.622032 27.466949 -25.612179 4294967295
-59.620419 26.854313 -25.489285 4294967295
-59.619705 27.161085 -25.535482 4294967295
-59.609463 26.550728 -25.32592 4294967295
-59.608391 27.777473 -25.528618 4294967295
-59.604828 27.31864 -25.412821 4294967295
-59.531734 23.309107 -25.530945 4294967295
-59.530899 22.542568 -25.389282 4294967295
-59.52557 24.077066 -25.602413 4294967295
-59.52079 23.158184 -25.394581 4294967295
-59.518856 23.465317 -25.428528 4294967295
-59.518147 22.391838 -25.234793 4294967295
-59.512787 24.233389 -25.50099 4294967295
-59.512371 25.000002 -25.630066 4294967295
-59.50811 23.621101 -25.347479 4294967295
-59.506859 24.388128 -25.468218 4294967295
-59.506615 22.854492 -25.199173 4294967295
-59.506111 24.694952 -25.514042 4294967295
-59.505417 23.92844 -25.373835 4294967295
-59.501369 22.70219 -25.119925 4294967295
-59.479317 24.854881 -25.272255 4294967295
-59.478962 26.235008 -25.508558 4294967295
-59.478638 24.548283 -25.212133 4294967295
-59.47612 27.002216 -25.613319 4294967295
-59.472698 26.390009 -25.47249 4294967295
-59.472691 26.543316 -25.499041 4294967295
-59.468765 25.31765 -25.246525 4294967295
-59.459286 27.466858 -25.524702 4294967295
-59.384624 21.924629 -25.359867 4294967295
-59.384247 22.538187 -25.462597 4294967295
-59.376007 22.079748 -25.30032 4294967295
-59.364773 23.002432 -25.347712 4294967295
-59.360256 23.923607 -25.462301 4294967295
-59.358791 24.230621 -25.500887 4294967295
-59.349686 25.459337 -25.622791 4294967295
-59.349346 22.85235 -25.166857 4294967295
-59.348576 23.46616 -25.265675 4294967295
-59.345909 23.620155 -25.265654 4294967295
-59.343231 23.774158 -25.265482 4294967295
-59.340645 24.695 -25.399393 4294967295
-59.339943 22.700909 -25.046175 4294967295
-59.338306 24.54221 -25.349396 4294967295
-59.33493 25.923058 -25.555195 4294967295
-59.330692 26.230783 -25.566053 4294967295
-59.326145 24.391747 -25.201221 4294967295
-59.324753 26.385685 -25.533318 4294967295
-59.323307 25.006001 -25.279348 4294967295
-59.321514 26.846458 -25.580791 4294967295
-59.320553 25.31344 -25.305069 4294967295
-59.320324 24.853354 -25.222923 4294967295
-59.320229 25.160149 -25.275221 4294967295
-59.318401 25.620718 -25.336802 4294967295
-59.315605 26.541487 -25.46855 4294967295
-59.304024 26.698 -25.379477 4294967295
-59.29945 27.465906 -25.466869 4294967295
-59.298882 27.312757 -25.434563 4294967295
-59.290958 27.621685 -25.408667 4294967295
-59.223194 23.303616 -25.524933 4294967295
-59.217598 23.151493 -25.442558 4294967295
-59.216888 22.231321 -25.275913 4294967295
-59.213543 23.459108 -25.455284 4294967295
-59.212353 21.925383 -25.1775 4294967295
-59.205643 23.00071 -25.296711 4294967295
-59.201469 22.541344 -25.175322 4294967295
-59.197861 24.689514 -25.511555 4294967295
-59.197254 23.616138 -25.319408 4294967295
-59.196735 22.081957 -25.048285 4294967295
-59.194454 24.230289 -25.397827 4294967295
-59.190517 25.304634 -25.544628 4294967295
-59.187046 22.697817 -25.058035 4294967295
-59.185867 26.225637 -25.657721 4294967295
-59.185226 25.152637 -25.465342 4294967295
-59.182945 23.926203 -25.229916 4294967295
-59.175865 24.541475 -25.265663 4294967295
-59.171501 25.92284 -25.461424 4294967295
-59.170048 24.082615 -25.127922 4294967295
-59.168991 26.843388 -25.59581 4294967295
-59.168667 25.616892 -25.380013 4294967295
-59.167637 25.463795 -25.343172 4294967295
-59.166451 24.390322 -25.145212 4294967295
-59.163841 26.078203 -25.411669 4294967295
-59.16272 24.851475 -25.187824 4294967295
-59.151443 27.614834 -25.553865 4294967295
-59.15115 27.768211 -25.577482 4294967295
-59.149509 25.775236 -25.215652 4294967295
-59.148617 27.309038 -25.472569 4294967295
-59.146347 26.696331 -25.343632 4294967295
-59.144703 27.463478 -25.460127 4294967295
-59.141953 27.157602 -25.37958 4294967295
-59.141628 27.004349 -25.349794 4294967295
-59.072861 21.919622 -25.322382 4294967295
-59.070957 22.073412 -25.329987 4294967295
-59.067806 22.534254 -25.378315 4294967295
-59.062965 22.381853 -25.303579 4294967295
-59.058289 23.303207 -25.416374 4294967295
-59.055706 24.070583 -25.523392 4294967295
-59.052105 24.224768 -25.514118 4294967295
-59.049847 22.231098 -25.146484 4294967295
-59.049717 22.998287 -25.277975 4294967295
-59.046055 23.766083 -25.374292 4294967295
-59.040306 22.693426 -25.131212 4294967295
-59.039753 25.147768 -25.55052 4294967295
-59.039402 22.847067 -25.148781 4294967295
-59.037479 24.534948 -25.421757 4294967295
-59.033051 23.4622 -25.191839 4294967295
-59.031612 24.68973 -25.389961 4294967295
-59.02565 25.764669 -25.516462 4294967295
-59.025429 26.224676 -25.593882 4294967295
-59.023281 23.157454 -25.041544 4294967295
-59.021854 24.385296 -25.239813 4294967295
-59.021191 23.925184 -25.153542 4294967295
-59.020294 24.999254 -25.330507 4294967295
-59.01952 24.84606 -25.296259 4294967295
-59.016071 25.46044 -25.368137 4294967295
-59.006454 25.309496 -25.245977 4294967295
-58.997829 27.458782 -25.531839 4294967295
-58.995716 26.385994 -25.325083 4294967295
-58.995399 26.846157 -25.401525 4294967295
-58.992813 26.693516 -25.349283 4294967295
-58.992462 27.613642 -25.505035 4294967295
-58.991745 26.540442 -25.312141 4294967295
-58.98177 27.310041 -25.345711 4294967295
-58.920918 22.683302 -25.475668 4294967295
-58.920715 22.376579 -25.420645 4294967295
-58.92049 22.223232 -25.39189 4294967295
-58.911037 21.918285 -25.245012 4294967295
-58.910114 22.071903 -25.262362 4294967295
-58.904438 22.993572 -25.365158 4294967295
-58.903423 23.147188 -25.381601 4294967295
-58.897034 24.528933 -25.556757 4294967295
-58.895878 23.609026 -25.38625 4294967295
-58.894993 22.535299 -25.191856 4294967295
-58.893749 24.069647 -25.444653 4294967295
-58.891758 24.99021 -25.58395 4294967295
-58.885872 24.684965 -25.472542 4294967295
-58.885742 23.764711 -25.31221 4294967295
-58.883503 23.304953 -25.210432 4294967295
-58.88343 24.225431 -25.368805 4294967295
-58.882751 22.844772 -25.123405 4294967295
-58.882408 25.145863 -25.517694 4294967295
-58.880829 23.919241 -25.289972 4294967295
-58.879757 24.379686 -25.358868 4294967295
-58.878052 25.760294 -25.580503 4294967295
-58.869347 23.461529 -25.096464 4294967295
-58.861626 25.611187 -25.391088 4294967295
-58.857029 26.072472 -25.425045 4294967295
-58.852654 24.846437 -25.169558 4294967295
-58.851517 25.30698 -25.237806 4294967295
-58.850567 26.840939 -25.493477 4294967295
-58.849705 26.227777 -25.378914 4294967295
-58.845623 27.762228 -25.603434 4294967295
-58.842625 26.536417 -25.36171 4294967295
-58.842548 27.303177 -25.493481 4294967295
-58.840649 25.923399 -25.236113 4294967295
-58.839027 25.463562 -25.140457 4294967295
-58.831932 27.152832 -25.361746 4294967295
-58.830448 27.459967 -25.40004 4294967295
-58.82798 27.00057 -25.296047 4294967295
-58.815086 27.61775 -25.274282 4294967295
-58.759666 22.835369 -25.430569 4294967295
-58.754147 22.529711 -25.322947 4294967295
-58.75272 22.990244 -25.388279 4294967295
-58.749245 21.916929 -25.16847 4294967295
-58.74313 23.912701 -25.452175 4294967295
-58.742405 22.685585 -25.233175 4294967295
-58.734367 23.147615 -25.233076 4294967295
-58.732254 23.608368 -25.291574 4294967295
-58.728912 22.381441 -25.0466 4294967295
-58.727573 24.223076 -25.351187 4294967295
-58.725464 23.303001 -25.171415 4294967295
-58.725136 24.377047 -25.353537 4294967295
-58.724899 22.228756 -24.980392 4294967295
-58.723049 22.075611 -24.935568 4294967295
-58.721142 25.451645 -25.499308 4294967295
-58.720047 24.991825 -25.409077 4294967295
-58.719292 25.298754 -25.45455 4294967295
-58.717094 25.60603 -25.485722 4294967295
-58.717083 25.912722 -25.538565 4294967295
-58.707634 26.375233 -25.524496 4294967295
-58.705948 27.14229 -25.64012 4294967295
-58.705677 23.460833 -25.002028 4294967295
-58.704254 25.149126 -25.279295 4294967295
-58.703201 24.84255 -25.215912 4294967295
-58.700157 26.223881 -25.424068 4294967295
-58.685287 27.301439 -25.46228 4294967295
-58.684704 26.841532 -25.377092 4294967295
-58.678261 25.769417 -25.128061 4294967295
-58.674038 27.764704 -25.430449 4294967295
-58.665798 27.613726 -25.322491 4294967295
-58.663155 27.461102 -25.269888 4294967295
-58.612137 22.370972 -25.415607 4294967295
-58.602268 22.526409 -25.344584 4294967295
-58.591221 21.91482 -25.129683 4294967295
-58.586578 24.217247 -25.480509 4294967295
-58.584824 22.68347 -25.198753 4294967295
-58.579998 22.991402 -25.203999 4294967295
-58.579807 23.605198 -25.307901 4294967295
-58.576687 24.066153 -25.356398 4294967295
-58.575603 22.838869 -25.134159 4294967295
-58.569901 23.760855 -25.236546 4294967295
-58.568333 24.681726 -25.379692 4294967295
-58.565563 25.29594 -25.458111 4294967295
-58.562695 23.14859 -25.059578 4294967295
-58.560204 24.530264 -25.273024 4294967295
-58.557388 26.371529 -25.562456 4294967295
-58.55714 24.837839 -25.295664 4294967295
-58.556614 25.758324 -25.449106 4294967295
-58.555237 24.378006 -25.197538 4294967295
-58.548473 24.99338 -25.236561 4294967295
-58.544113 27.295147 -25.590044 4294967295
-58.544022 25.147907 -25.21909 4294967295
-58.541077 25.455502 -25.242907 4294967295
-58.540306 25.915936 -25.3146 4294967295
-58.537804 26.223385 -25.342781 4294967295
-58.536133 26.070429 -25.299875 4294967295
-58.528313 25.612181 -25.143387 4294967295
-58.527405 26.839748 -25.34593 4294967295
-58.525986 27.606981 -25.464087 4294967295
-58.525784 26.5334 -25.277081 4294967295
-58.522591 27.454596 -25.404184 4294967295
-58.51067 26.997772 -25.20731 4294967295
-58.503242 27.766918 -25.266216 4294967295
-58.436821 21.911997 -25.126907 4294967295
-58.435986 22.21913 -25.171526 4294967295
-58.434082 23.447113 -25.364075 4294967295
-58.431335 23.601141 -25.363419 4294967295
-58.430954 22.680573 -25.201208 4294967295
-58.429436 22.834356 -25.212631 4294967295
-58.42511 22.374813 -25.090759 4294967295
-58.421223 24.370506 -25.395824 4294967295
-58.421177 23.143042 -25.184124 4294967295
-58.420238 22.989773 -25.148447 4294967295
-58.414639 25.445789 -25.515787 4294967295
-58.410671 24.833235 -25.371168 4294967295
-58.400642 24.528793 -25.219589 4294967295
-58.399441 25.142807 -25.313389 4294967295
-58.394096 26.217939 -25.445587 4294967295
-58.393192 24.070137 -25.067007 4294967295
-58.392952 24.68408 -25.170286 4294967295
-58.391201 23.763596 -24.994555 4294967295
-58.387848 24.224863 -25.040789 4294967295
-58.384472 26.680643 -25.430037 4294967295
-58.383137 25.607172 -25.232103 4294967295
-58.379261 26.068451 -25.273149 4294967295
-58.375439 26.376291 -25.288355 4294967295
-58.372345 27.450857 -25.442698 4294967295
-58.371807 26.837486 -25.331827 4294967295
-58.37072 26.530972 -25.268305 4294967295
-58.368599 25.917797 -25.141804 4294967295
-58.365627 27.299383 -25.350189 4294967295
-58.35714 27.148361 -25.240267 4294967295
-58.345963 27.765196 -25.235905 4294967295
-58.283596 22.215916 -25.188608 4294967295
-58.282326 22.062683 -25.149734 4294967295
-58.271893 23.292631 -25.258255 4294967295
-58.270069 22.986095 -25.187588 4294967295
-58.263081 22.834084 -25.092541 4294967295
-58.262794 22.527128 -25.036955 4294967295
-58.26215 23.141268 -25.136147 4294967295
-58.261585 21.913237 -24.919506 4294967295
-58.261532 24.062181 -25.288353 4294967295
-58.258171 23.449099 -25.149807 4294967295
-58.253876 22.375416 -24.922907 4294967295
-58.250992 23.60417 -25.10564 4294967295
-58.249111 24.371958 -25.219067 4294967295
-58.247658 23.91189 -25.125645 4294967295
-58.247608 25.599724 -25.415245 4294967295
-58.247604 24.218849 -25.177887 4294967295
-58.247292 24.832726 -25.280331 4294967295
-58.243797 23.759272 -25.06135 4294967295
-58.239651 25.448326 -25.310755 4294967295
-58.237247 24.528221 -25.128895 4294967295
-58.22995 26.217899 -25.347309 4294967295
-58.228539 25.911436 -25.280724 4294967295
-58.224411 27.293106 -25.47747 4294967295
-58.223289 25.759352 -25.202822 4294967295
-58.223141 26.986712 -25.412292 4294967295
-58.220779 27.754211 -25.520878 4294967295
-58.220089 25.299774 -25.092295 4294967295
-58.219139 26.834419 -25.346651 4294967295
-58.213161 26.682634 -25.261608 4294967295
-58.212955 26.529263 -25.2332 4294967295
-58.21106 26.376331 -25.188234 4294967295
-58.206554 27.451527 -25.328583 4294967295
-58.192326 27.148674 -25.136173 4294967295
-58.126724 22.060097 -25.135477 4294967295
-58.123245 23.288624 -25.312128 4294967295
-58.120552 23.749538 -25.364756 4294967295
-58.118828 23.596485 -25.32152 4294967295
-58.115005 22.676472 -25.12598 4294967295
-58.110203 22.370426 -25.02618 4294967295
-58.106991 22.831646 -25.073759 4294967295
-58.106197 23.906218 -25.250397 4294967295
-58.103798 21.911055 -24.884336 4294967295
-58.097874 23.14061 -25.037086 4294967295
-58.097713 24.675436 -25.298958 4294967295
-58.091591 24.523439 -25.212635 4294967295
-58.090923 24.983955 -25.28507 4294967295
-58.090565 23.449232 -25.018141 4294967295
-58.090286 25.444403 -25.357834 4294967295
-58.089989 25.137623 -25.302275 4294967295
-58.082573 24.218586 -25.07156 4294967295
-58.079422 26.060846 -25.356731 4294967295
-58.079304 24.372847 -25.065872 4294967295
-58.07756 25.601042 -25.259516 4294967295
-58.076935 27.595293 -25.595619 4294967295
-58.073326 26.215858 -25.323378 4294967295
-58.06612 27.291628 -25.437075 4294967295
-58.06395 25.911425 -25.178854 4294967295
-58.063236 25.297701 -25.066534 4294967295
-58.061733 26.525791 -25.262495 4294967295
-58.060463 27.139812 -25.35537 4294967295
-58.057091 26.833908 -25.269701 4294967295
-58.044506 27.451117 -25.251793 4294967295
-58.041851 27.75872 -25.278456 4294967295
-58.041698 26.684639 -25.092632 4294967295
-58.035042 26.993404 -25.080141 4294967295
-57.978771 22.056002 -25.19622 4294967295
-57.974304 22.363878 -25.20516 4294967295
-57.965343 22.826187 -25.196472 4294967295
-57.957626 22.981304 -25.147301 4294967295
-57.955795 21.906963 -24.945189 4294967295
-57.950542 23.596807 -25.183277 4294967295
-57.933521 23.139952 -24.93791 4294967295
-57.93243 25.135717 -25.269278 4294967295
-57.930775 24.52224 -25.147875 4294967295
-57.930325 23.447737 -24.959293 4294967295
-57.929436 23.294382 -24.924269 4294967295
-57.926453 24.369757 -25.079332 4294967295
-57.926254 24.216293 -25.051062 4294967295
-57.926037 23.9093 -24.996332 4294967295
-57.925022 26.51844 -25.43355 4294967295
-57.924339 24.984228 -25.163912 4294967295
-57.924194 24.83078 -25.136177 4294967295
-57.920612 23.756979 -24.91696 4294967295
-57.920425 25.44561 -25.204546 4294967295
-57.914543 26.060934 -25.252281 4294967295
-57.913395 25.754316 -25.188452 4294967295
-57.909782 26.215628 -25.23205 4294967295
-57.909111 25.908882 -25.172915 4294967295
-57.906757 25.602524 -25.097309 4294967295
-57.904461 26.370485 -25.206364 4294967295
-57.896069 27.293427 -25.282171 4294967295
-57.8932 27.447662 -25.280441 4294967295
-57.893108 26.680445 -25.148077 4294967295
-57.892826 27.75461 -25.329384 4294967295
-57.882984 26.836664 -25.075489 4294967295
-57.881084 26.990667 -25.083218 4294967295
-57.82626 22.052803 -25.212358 4294967295
-57.811985 22.516172 -25.151901 4294967295
-57.809193 22.209688 -25.072121 4294967295
-57.805336 23.592022 -25.270958 4294967295
-57.802536 22.364555 -25.033436 4294967295
-57.802109 24.206589 -25.344557 4294967295
-57.799004 23.900377 -25.261732 4294967295
-57.794174 23.440979 -25.13583 4294967295
-57.79216 22.673759 -24.984795 4294967295
-57.788601 24.516645 -25.265358 4294967295
-57.786839 22.828415 -24.959145 4294967295
-57.785076 24.824406 -25.283545 4294967295
-57.782349 24.364632 -25.178118 4294967295
-57.781326 23.750841 -25.063065 4294967295
-57.779217 23.290693 -24.963661 4294967295
-57.776199 23.137781 -24.907936 4294967295
-57.77248 24.980913 -25.186981 4294967295
-57.771545 24.674158 -25.125353 4294967295
-57.767807 26.363159 -25.377804 4294967295
-57.767513 25.902935 -25.29616 4294967295
-57.763077 26.057528 -25.279179 4294967295
-57.761486 25.751019 -25.211142 4294967295
-57.760845 25.290735 -25.126106 4294967295
-57.759789 26.518715 -25.325933 4294967295
-57.756386 26.673061 -25.319006 4294967295
-57.753902 27.44083 -25.426094 4294967295
-57.750446 25.600328 -25.077293 4294967295
-57.749424 26.981819 -25.303688 4294967295
-57.745369 25.44809 -25.001509 4294967295
-57.741787 26.830454 -25.203022 4294967295
-57.730339 27.754356 -25.249029 4294967295
-57.723709 27.602791 -25.15818 4294967295
-57.677071 22.048954 -25.260866 4294967295
-57.666908 22.204458 -25.188187 4294967295
-57.651615 22.361032 -25.065578 4294967295
-57.650406 23.58938 -25.263735 4294967295
-57.641472 22.977268 -25.071875 4294967295
-57.640476 22.823936 -25.035925 4294967295
-57.639275 22.517075 -24.971733 4294967295
-57.638401 22.670813 -24.989479 4294967295
-57.637615 25.126928 -25.401613 4294967295
-57.633549 23.43956 -25.073513 4294967295
-57.63097 24.668163 -25.258314 4294967295
-57.628078 23.287203 -24.99403 4294967295
-57.628002 24.361889 -25.176975 4294967295
-57.624996 25.28347 -25.305147 4294967295
-57.62278 25.74437 -25.36224 4294967295
-57.621014 24.517019 -25.135248 4294967295
-57.619095 25.591852 -25.300205 4294967295
-57.609608 26.514967 -25.365303 4294967295
-57.606495 24.82749 -25.04649 4294967295
-57.606144 24.059845 -24.911854 4294967295
-57.605759 27.743267 -25.537628 4294967295
-57.604309 26.056009 -25.235111 4294967295
-57.601765 26.6705 -25.315287 4294967295
-57.5952 26.211851 -25.172792 4294967295
-57.594601 25.905024 -25.114504 4294967295
-57.57737 26.984035 -25.130598 4294967295
-57.573772 26.83152 -25.069387 4294967295
-57.569557 27.600126 -25.159601 4294967295
-57.511658 22.201797 -25.177971 4294967295
-57.500381 22.51111 -25.120901 4294967295
-57.496292 23.740042 -25.290813 4294967295
-57.496235 23.893532 -25.316463 4294967295
-57.494198 22.819445 -25.113283 4294967295
-57.493401 23.280182 -25.184174 4294967295
-57.489311 22.973999 -25.092039 4294967295
-57.489067 22.052679 -24.932405 4294967295
-57.487392 23.127939 -25.099632 4294967295
-57.483047 22.66819 -24.978815 4294967295
-57.482605 22.361126 -24.922104 4294967295
-57.47855 23.436911 -25.066231 4294967295
-57.474545 25.126354 -25.315569 4294967295
-57.474533 24.66593 -25.23686 4294967295
-57.473377 25.280102 -25.330418 4294967295
-57.469059 26.201838 -25.445673 4294967295
-57.46883 25.741592 -25.364912 4294967295
-57.46751 24.360565 -25.116339 4294967295
-57.465771 25.588911 -25.309023 4294967295
-57.46484 24.514706 -25.116627 4294967295
-57.462528 23.59396 -24.936935 4294967295
-57.456409 24.056025 -24.956188 4294967295
-57.454601 24.209997 -24.964849 4294967295
-57.452713 26.359552 -25.313314 4294967295
-57.45018 26.513674 -25.314951 4294967295
-57.4408 25.902199 -25.119219 4294967295
-57.439888 27.130249 -25.319923 4294967295
-57.439335 25.442011 -25.026375 4294967295
-57.436497 27.284632 -25.313232 4294967295
-57.430832 27.439659 -25.284479 4294967295
-57.429169 27.747021 -25.320728 4294967295
-57.409657 27.599083 -25.105368 4294967295
-57.354992 22.045874 -25.128027 4294967295
-57.346298 22.968817 -25.200855 4294967295
-57.343468 22.201683 -25.042587 4294967295
-57.340733 23.123507 -25.173147 4294967295
-57.340424 23.430607 -25.222473 4294967295
-57.337563 22.663548 -25.063923 4294967295
-57.327648 22.51199 -24.941717 4294967295
-57.324821 22.358961 -24.888166 4294967295
-57.32431 24.508738 -25.249662 4294967295
-57.317177 26.045116 -25.442175 4294967295
-57.314556 24.664524 -25.181408 4294967295
-57.313168 23.282923 -24.932407 4294967295
-57.312172 24.818598 -25.184502 4294967295
-57.306358 23.591562 -24.918837 4294967295
-57.305454 24.052483 -24.988617 4294967295
-57.301388 25.128214 -25.132458 4294967295
-57.296722 26.971128 -25.401215 4294967295
-57.293304 26.511694 -25.2897 4294967295
-57.292393 24.209024 -24.88834 4294967295
-57.291893 26.665533 -25.302174 4294967295
-57.284382 27.58828 -25.386454 4294967295
-57.284016 27.281498 -25.330614 4294967295
-57.283539 26.207281 -25.142868 4294967295
-57.283482 27.435093 -25.351591 4294967295
-57.279686 26.361794 -25.131758 4294967295
-57.273682 25.902767 -24.995188 4294967295
-57.251137 27.13706 -24.986427 4294967295
-57.19622 22.043877 -25.084232 4294967295
-57.192123 23.426512 -25.279871 4294967295
-57.183857 22.353445 -25.017056 4294967295
-57.183441 22.660669 -25.065325 4294967295
-57.174549 23.890903 -25.188528 4294967295
-57.173717 22.201857 -24.892931 4294967295
-57.17326 24.505228 -25.28059 4294967295
-57.172798 22.816422 -24.98864 4294967295
-57.169453 25.120062 -25.348331 4294967295
-57.160519 23.740473 -25.026884 4294967295
-57.160412 22.972582 -24.895126 4294967295
-57.160202 25.275793 -25.285151 4294967295
-57.158169 25.583258 -25.317753 4294967295
-57.156918 24.201948 -25.070511 4294967295
-57.154015 24.816769 -25.147007 4294967295
-57.153053 25.431042 -25.242275 4294967295
-57.152786 24.970585 -25.161304 4294967295
-57.150646 24.049809 -24.983805 4294967295
-57.149609 25.892368 -25.287373 4294967295
-57.146255 24.665064 -25.045961 4294967295
-57.136066 27.430552 -25.417883 4294967295
-57.128246 27.586178 -25.368536 4294967295
-57.124672 26.205774 -25.098961 4294967295
-57.122597 27.12735 -25.235685 4294967295
-57.122009 26.052929 -25.047102 4294967295
-57.118607 26.360882 -25.066534 4294967295
-57.116684 27.742893 -25.283113 4294967295
-57.111652 26.823309 -25.077814 4294967295
-57.105492 27.285549 -25.096748 4294967295
-57.029537 23.886053 -25.277746 4294967295
-57.026836 23.118986 -25.12121 4294967295
-57.024532 22.965908 -25.072924 4294967295
-57.019497 23.427656 -25.102707 4294967295
-57.017056 22.199446 -24.870302 4294967295
-57.012352 22.04673 -24.79883 4294967295
-57.008984 22.508297 -24.844734 4294967295
-57.007954 26.039919 -25.435093 4294967295
-57.006855 24.505281 -25.163607 4294967295
-57.005077 23.277164 -24.937656 4294967295
-57.002483 24.045637 -25.043207 4294967295
-57.001385 26.348516 -25.424023 4294967295
-56.995972 24.814905 -25.110983 4294967295
-56.995354 25.582668 -25.235493 4294967295
-56.993198 24.969105 -25.110373 4294967295
-56.992947 25.89027 -25.264502 4294967295
-56.991745 25.276525 -25.148561 4294967295
-56.988316 23.74161 -24.854456 4294967295
-56.987511 26.659088 -25.342594 4294967295
-56.983097 26.506777 -25.274046 4294967295
-56.982887 24.664427 -24.958838 4294967295
-56.982449 26.199955 -25.215611 4294967295
-56.976826 26.815414 -25.265842 4294967295
-56.970928 27.5844 -25.339493 4294967295
-56.969009 27.7384 -25.347092 4294967295
-56.966427 25.12911 -24.878626 4294967295
-56.966297 27.43222 -25.268831 4294967295
-56.965855 25.43643 -24.925308 4294967295
-56.96442 25.743938 -24.963707 4294967295
-56.961449 27.126568 -25.16997 4294967295
-56.881443 22.500074 -25.102428 4294967295
-56.88134 22.039347 -25.023232 4294967295
-56.876465 23.115337 -25.158865 4294967295
-56.871262 22.809286 -25.056694 4294967295
-56.87104 23.423588 -25.158873 4294967295
-56.862717 23.886045 -25.157045 4294967295
-56.861759 24.039803 -25.173901 4294967295
-56.857525 22.96571 -24.950703 4294967295
-56.856842 22.197725 -24.813726 4294967295
-56.849735 24.349619 -25.110491 4294967295
-56.848473 22.353022 -24.759354 4294967295
-56.848221 23.582085 -24.965578 4294967295
-56.847408 25.578375 -25.296606 4294967295
-56.840309 26.040642 -25.306581 4294967295
-56.839493 24.198383 -24.985989 4294967295
-56.838776 23.276882 -24.822624 4294967295
-56.836124 24.967018 -25.083952 4294967295
-56.824795 24.50894 -24.896881 4294967295
-56.823608 23.741077 -24.755079 4294967295
-56.822617 25.430965 -25.032385 4294967295
-56.822109 24.816769 -24.923225 4294967295
-56.822079 25.123953 -24.975096 4294967295
-56.822037 25.27754 -25.000753 4294967295
-56.821983 24.663198 -24.895931 4294967295
-56.821087 26.352608 -25.174067 4294967295
-56.820518 26.199228 -25.142563 4294967295
-56.815559 25.739847 -25.016708 4294967295
-56.814907 26.66127 -25.166851 4294967295
-56.811348 25.894474 -25.002317 4294967295
-56.809879 26.969652 -25.170647 4294967295
-56.808857 26.509335 -25.082653 4294967295
-56.805443 27.431395 -25.206219 4294967295
-56.799629 27.740025 -25.202522 4294967295
-56.799286 27.586615 -25.173166 4294967295
-56.78677 26.822308 -24.922665 4294967295
-56.786404 27.283113 -24.997366 4294967295
-56.720608 23.266396 -25.169903 4294967295
-56.718876 23.573864 -25.205362 4294967295
-56.707214 22.347567 -24.885214 4294967295
-56.701412 25.266617 -25.324242 4294967295
-56.6987 22.195589 -24.777477 4294967295
-56.69788 22.810343 -24.873798 4294967295
-56.697121 22.042229 -24.736258 4294967295
-56.693668 23.73292 -24.989695 4294967295
-56.692451 23.425972 -24.925943 4294967295
-56.692158 24.501154 -25.105366 4294967295
-56.689671 24.808847 -25.133589 4294967295
-56.688419 24.348442 -25.043509 4294967295
-56.68602 27.879364 -25.618948 4294967295
-56.68589 22.505455 -24.706703 4294967295
-56.685303 24.041969 -24.961542 4294967295
-56.681324 25.578573 -25.18375 4294967295
-56.679714 26.807018 -25.376488 4294967295
-56.679291 22.660461 -24.669479 4294967295
-56.675514 25.733555 -25.154099 4294967295
-56.675369 27.728947 -25.490934 4294967295
-56.674137 23.890835 -24.828447 4294967295
-56.669144 26.3493 -25.19717 4294967295
-56.665234 27.271372 -25.31583 4294967295
-56.663651 25.429369 -24.988323 4294967295
-56.661598 24.661837 -24.838457 4294967295
-56.659073 24.969675 -24.866354 4294967295
-56.653267 27.581661 -25.253206 4294967295
-56.653244 25.892708 -24.966726 4294967295
-56.64949 27.122154 -25.138975 4294967295
-56.644615 26.048487 -24.910072 4294967295
-56.642056 27.431255 -25.119812 4294967295
-56.630386 26.973759 -24.929953 4294967295
-56.566708 22.802767 -25.095795 4294967295
-56.559872 22.343321 -24.952372 4294967295
-56.558472 22.036325 -24.886934 4294967295
-56.55064 24.64897 -25.254063 4294967295
-56.547871 22.960234 -24.941572 4294967295
-56.543236 22.192926 -24.767151 4294967295
-56.540977 24.958309 -25.213669 4294967295
-56.53788 23.115938 -24.872009 4294967295
-56.534031 25.881149 -25.303173 4294967295
-56.533813 24.192135 -25.015152 4294967295
-56.532261 23.27076 -24.844267 4294967295
-56.53083 25.267828 -25.168608 4294967295
-56.524986 23.425953 -24.800673 4294967295
-56.518856 22.658823 -24.611925 4294967295
-56.516975 24.042292 -24.82811 4294967295
-56.516846 23.888676 -24.800825 4294967295
-56.515224 24.34996 -24.863388 4294967295
-56.514481 26.653746 -25.246256 4294967295
-56.513741 25.425549 -25.031204 4294967295
-56.512093 25.579531 -25.041464 4294967295
-56.511387 26.040405 -25.112694 4294967295
-56.509502 23.736626 -24.704569 4294967295
-56.508289 26.808907 -25.213036 4294967295
-56.506721 24.812815 -24.860092 4294967295
-56.50568 26.963125 -25.214092 4294967295
-56.500179 27.57868 -25.265472 4294967295
-56.499352 27.271883 -25.205591 4294967295
-56.498291 27.73271 -25.273403 4294967295
-56.498215 25.736563 -24.934786 4294967295
-56.494915 26.198179 -24.981232 4294967295
-56.493908 26.352022 -24.997597 4294967295
-56.493824 27.426924 -25.178751 4294967295
-56.492134 26.506062 -25.006666 4294967295
-56.481377 27.123222 -25.007835 4294967295
-56.416779 22.031017 -25.007957 4294967295
-56.408066 22.647194 -25.028658 4294967295
-56.402306 23.10919 -25.051609 4294967295
-56.394634 24.3395 -25.186142 4294967295
-56.393192 22.342875 -24.834719 4294967295
-56.392033 22.189434 -24.797676 4294967295
-56.39109 25.108042 -25.282141 4294967295
-56.388226 25.262257 -25.280754 4294967295
-56.388046 24.033833 -25.071352 4294967295
-56.386749 22.958786 -24.877161 4294967295
-56.38232 26.031292 -25.35421 4294967295
-56.382019 23.267059 -24.883978 4294967295
-56.379055 23.882219 -24.959574 4294967295
-56.375397 23.575754 -24.872734 4294967295
-56.369041 24.806137 -25.019863 4294967295
-56.368912 24.191721 -24.914749 4294967295
-56.366554 26.342352 -25.255779 4294967295
-56.361675 24.500622 -24.897642 4294967295
-56.361317 26.190163 -25.179865 4294967295
-56.360504 26.650976 -25.249968 4294967295
-56.360031 25.883381 -25.115679 4294967295
-56.35957 25.576353 -25.059334 4294967295
-56.357502 22.811085 -24.572001 4294967295
-56.355488 27.726854 -25.383804 4294967295
-56.353649 24.963373 -24.898989 4294967295
-56.349319 26.807463 -25.169291 4294967295
-56.347824 27.268463 -25.232912 4294967295
-56.347359 25.732964 -24.968838 4294967295
-56.340477 25.427425 -24.851267 4294967295
-56.331879 27.579912 -25.132792 4294967295
-56.306858 12.640397 -23.847033 4294967295
-56.25489 9.5557327 -24.304554 4294967295
-56.244827 14.184266 -23.515001 4294967295
-56.242699 14.338479 -23.520695 4294967295
-56.240768 14.646734 -23.554312 4294967295
-56.235596 9.7096481 -24.146528 4294967295
-56.228481 10.941128 -24.286434 4294967295
-56.226589 10.787252 -24.242464 4294967295
-56.226223 14.801933 -23.441521 4294967295
-56.219299 11.71084 -24.328753 4294967295
-56.219219 9.8636398 -24.016401 4294967295
-56.21917 10.171584 -24.067846 4294967295
-56.218212 14.494359 -23.313007 4294967295
-56.217972 14.032005 -23.232599 4294967295
-56.216652 9.0936232 -23.862038 4294967295
-56.215542 9.2476358 -23.87742 4294967295
-56.21302 11.249296 -24.191042 4294967295
-56.212498 9.401638 -23.874353 4294967295
-56.208523 13.261754 -23.012222 4294967295
-56.207203 11.557301 -24.187531 4294967295
-56.206337 10.325673 -23.971502 4294967295
-56.200184 12.173204 -24.224491 4294967295
-56.195221 13.879343 -22.98942 4294967295
-56.195087 12.019475 -24.149982 4294967295
-56.194984 10.017743 -23.811325 4294967295
-56.194027 11.403724 -24.035992 4294967295
-56.193546 13.725246 -22.947378 4294967295
-56.189285 11.095887 -23.938871 4294967295
-56.188606 13.417098 -22.848122 4294967295
-56.181072 12.481836 -24.094337 4294967295
-56.179367 11.866074 -23.974236 4294967295
-56.157894 12.328841 -23.847578 4294967295
-56.099449 14.642494 -23.680622 4294967295
-56.086002 14.335392 -23.500618 4294967295
-56.084656 9.3982906 -24.127174 4294967295
-56.08173 13.565184 -23.329956 4294967295
-56.080101 10.937623 -24.343163 4294967295
-56.078354 13.719513 -23.323799 4294967295
-56.077839 10.168059 -24.192009 4294967295
-56.077713 14.18189 -23.395683 4294967295
-56.076111 9.8601685 -24.123693 4294967295
-56.076092 14.027894 -23.354265 4294967295
-56.074627 10.475965 -24.213322 4294967295
-56.073799 9.5522289 -24.049837 4294967295
-56.073181 8.9362373 -23.940205 4294967295
-56.072731 14.490446 -23.400263 4294967295
-56.066193 14.799143 -23.389982 4294967295
-56.065548 13.257817 -23.123827 4294967295
-56.061077 9.7062111 -23.954765 4294967295
-56.06068 13.874775 -23.181519 4294967295
-56.055851 11.245988 -24.164448 4294967295
-56.051693 11.400033 -24.150852 4294967295
-56.050537 11.09216 -24.087999 4294967295
-56.049088 9.2440863 -23.762886 4294967295
-56.047775 11.708023 -24.165504 4294967295
-56.03698 12.950891 -22.799698 4294967295
-56.034306 12.016364 -24.089331 4294967295
-56.032238 10.784538 -23.862131 4294967295
-56.028629 11.554638 -23.957537 4294967295
-56.020866 12.170829 -23.987522 4294967295
-55.989552 12.326078 -23.715843 4294967295
-55.953663 14.176526 -23.686214 4294967295
-55.947342 14.331011 -23.652105 4294967295
-55.946259 14.48513 -23.667776 4294967295
-55.942173 14.639476 -23.654926 4294967295
-55.937431 13.715392 -23.454144 4294967295
-55.917187 9.3947725 -24.002871 4294967295
-55.914467 9.086731 -23.925226 4294967295
-55.914127 9.2407475 -23.947929 4294967295
-55.912697 9.5487604 -23.986172 4294967295
-55.912159 13.5628 -23.188059 4294967295
-55.910614 13.40872 -23.147425 4294967295
-55.909195 11.396349 -24.263769 4294967295
-55.907852 10.318732 -24.069725 4294967295
-55.90667 10.16476 -24.032604 4294967295
-55.906338 14.796334 -23.3405 4294967295
-55.903988 14.025807 -23.188332 4294967295
-55.900097 13.871893 -23.125416 4294967295
-55.898956 11.55056 -24.192558 4294967295
-55.89872 10.780784 -24.06081 4294967295
-55.896515 13.101094 -22.961477 4294967295
-55.895126 13.255392 -22.974281 4294967295
-55.894825 10.010829 -23.894302 4294967295
-55.888962 9.7027693 -23.78684 4294967295
-55.883636 11.24304 -23.995468 4294967295
-55.881561 10.627054 -23.872124 4294967295
-55.880405 11.859041 -24.068428 4294967295
-55.879856 12.947703 -22.777189 4294967295
-55.876934 11.70518 -24.009611 4294967295
-55.874779 11.089239 -23.885555 4294967295
-55.873684 12.013245 -24.030622 4294967295
-55.863316 12.167611 -23.958178 4294967295
-55.794132 14.789782 -23.742891 4294967295
-55.792473 13.249245 -23.467957 4294967295
-55.790245 14.17389 -23.602385 4294967295
-55.789848 13.865772 -23.546768 4294967295
-55.789188 14.482081 -23.644192 4294967295
-55.781872 13.403952 -23.393415 4294967295
-55.779648 13.558204 -23.398235 4294967295
-55.773731 9.0833788 -24.054867 4294967295
-55.773148 13.096149 -23.258821 4294967295
-55.772243 10.007233 -24.195999 4294967295
-55.770966 9.2373543 -24.054548 4294967295
-55.766068 9.391325 -24.034035 4294967295
-55.760868 10.931046 -24.243551 4294967295
-55.760006 8.9292202 -23.899046 4294967295
-55.759155 10.315256 -24.123861 4294967295
-55.756012 10.161304 -24.068228 4294967295
-55.753986 9.5452967 -23.945559 4294967295
-55.752144 14.638949 -23.319086 4294967295
-55.750076 10.777287 -24.115559 4294967295
-55.748188 11.701025 -24.252882 4294967295
-55.747524 9.8533411 -23.936161 4294967295
-55.746868 12.634832 -22.931852 4294967295
-55.746647 9.699316 -23.901943 4294967295
-55.745312 10.469391 -24.018713 4294967295
-55.744316 12.789194 -22.933634 4294967295
-55.744141 11.239304 -24.136972 4294967295
-55.741302 10.623442 -24.006628 4294967295
-55.738789 11.085454 -24.060488 4294967295
-55.735817 11.393479 -24.08408 4294967295
-55.735405 11.855376 -24.157812 4294967295
-55.72435 12.009719 -24.079084 4294967295
-55.715305 11.548036 -23.915884 4294967295
-55.639885 13.708132 -23.564878 4294967295
-55.638882 14.786615 -23.73661 4294967295
-55.63792 14.324549 -23.649864 4294967295
-55.635296 13.862507 -23.547373 4294967295
-55.633938 14.478897 -23.638094 4294967295
-55.628086 9.233963 -24.163483 4294967295
-55.626183 13.554857 -23.409418 4294967295
-55.622719 12.938471 -23.273079 4294967295
-55.621223 9.3879042 -24.124504 4294967295
-55.618679 9.0798969 -24.048801 4294967295
-55.615215 9.8498402 -24.145262 4294967295
-55.614872 9.6958609 -24.116211 4294967295
-55.61272 13.247328 -23.230326 4294967295
-55.612709 9.5418673 -24.069921 4294967295
-55.612022 10.311766 -24.192638 4294967295
-55.609249 8.9257784 -23.933874 4294967295
-55.60429 10.927695 -24.222979 4294967295
-55.596306 11.081812 -24.17342 4294967295
-55.592453 12.785743 -22.960917 4294967295
-55.590088 11.235916 -24.140545 4294967295
-55.586082 12.477516 -22.848825 4294967295
-55.585999 11.543952 -24.153625 4294967295
-55.577297 10.466141 -23.890589 4294967295
-55.572754 10.004025 -23.77013 4294967295
-55.563763 10.774423 -23.814522 4294967295
-55.49828 13.704062 -23.687674 4294967295
-55.492802 14.782732 -23.816936 4294967295
-55.492718 14.012538 -23.68692 4294967295
-55.49054 14.628879 -23.769779 4294967295
-55.486267 13.858888 -23.600208 4294967295
-55.485332 14.1671 -23.643099 4294967295
-55.483681 14.321282 -23.653395 4294967295
-55.481525 12.472043 -23.32272 4294967295
-55.475906 12.934773 -23.347315 4294967295
-55.471279 12.626662 -23.251894 4294967295
-55.467175 13.089376 -23.290808 4294967295
-55.461617 9.6924114 -24.127159 4294967295
-55.461433 10.462264 -24.254471 4294967295
-55.461239 9.2304077 -24.04619 4294967295
-55.459499 9.538414 -24.081402 4294967295
-55.44902 12.319188 -22.990128 4294967295
-55.446495 12.782012 -23.043934 4294967295
-55.443817 10.154473 -24.036922 4294967295
-55.442814 10.616478 -24.104877 4294967295
-55.441429 10.924464 -24.143456 4294967295
-55.438442 9.8464565 -23.934656 4294967295
-55.434994 11.232553 -24.134455 4294967295
-55.427254 11.078739 -24.035738 4294967295
-55.418751 10.770864 -23.904034 4294967295
-55.413738 11.8491 -24.037506 4294967295
-55.399006 11.541513 -23.847164 4294967295
-55.398266 11.387484 -23.814383 4294967295
-55.334675 14.625749 -23.757898 4294967295
-55.334484 14.009522 -23.652859 4294967295
-55.334034 13.393188 -23.545321 4294967295
-55.330311 12.622726 -23.381134 4294967295
-55.323868 12.777181 -23.346306 4294967295
-55.323612 13.239642 -23.421417 4294967295
-55.320763 14.164533 -23.549532 4294967295
-55.315136 14.473128 -23.548252 4294967295
-55.313606 14.319135 -23.508039 4294967295
-55.305523 13.08644 -23.225306 4294967295
-55.300865 8.9188137 -23.938862 4294967295
-55.293419 9.6889648 -23.997801 4294967295
-55.292908 12.932873 -23.080721 4294967295
-55.290417 9.3808794 -23.917997 4294967295
-55.286011 10.92109 -24.134354 4294967295
-55.282764 11.075141 -24.129629 4294967295
-55.28199 10.767168 -24.07082 4294967295
-55.281353 9.2267628 -23.807005 4294967295
-55.280079 10.151112 -23.949747 4294967295
-55.276588 11.229268 -24.097372 4294967295
-55.276276 10.613243 -23.99135 4294967295
-55.275539 11.383284 -24.113291 4294967295
-55.272694 10.459259 -23.931885 4294967295
-55.262558 9.9971561 -23.759302 4294967295
-55.260475 10.305332 -23.791292 4294967295
-55.19273 14.775587 -23.902666 4294967295
-55.191238 14.313615 -23.81135 4294967295
-55.189411 14.467785 -23.819946 4294967295
-55.185314 13.389568 -23.601002 4294967295
-55.176899 13.54416 -23.547794 4294967295
-55.175011 14.622901 -23.710577 4294967295
-55.17469 13.852509 -23.57864 4294967295
-55.172775 12.927855 -23.405867 4294967295
-55.16534 14.161336 -23.542435 4294967295
-55.162243 12.46581 -23.229544 4294967295
-55.157494 12.157574 -23.133308 4294967295
-55.155399 12.774516 -23.216879 4294967295
-55.15514 13.237098 -23.291872 4294967295
-55.154785 9.069458 -24.043411 4294967295
-55.15406 13.082972 -23.255928 4294967295
-55.149681 9.8395195 -24.124256 4294967295
-55.145504 9.6855135 -24.059336 4294967295
-55.144371 10.301545 -24.151665 4294967295
-55.144188 12.312329 -23.034168 4294967295
-55.140369 10.147577 -24.088427 4294967295
-55.138985 10.455597 -24.126919 4294967295
-55.138405 14.008996 -23.263748 4294967295
-55.135807 9.5314684 -23.942667 4294967295
-55.121727 9.9936533 -23.887888 4294967295
-55.119774 11.379945 -24.101265 4294967295
-55.114845 10.763976 -23.952097 4294967295
-55.110554 10.918092 -23.937614 4294967295
-55.108162 11.226216 -23.966696 4294967295
-55.100605 11.534478 -23.94733 4294967295
-55.098572 10.610164 -23.773775 4294967295
-55.04084 14.310078 -23.850832 4294967295
-55.035999 13.540076 -23.676725 4294967295
-55.029755 11.999043 -23.360601 4294967295
-55.024395 11.845038 -23.284607 4294967295
-55.020702 12.461925 -23.353098 4294967295
-55.015545 12.616327 -23.330549 4294967295
-55.014927 13.078867 -23.402044 4294967295
-55.012028 14.157993 -23.555227 4294967295
-55.007053 13.387613 -23.379839 4294967295
-55.005524 12.925166 -23.288195 4294967295
-55.005463 14.466681 -23.545267 4294967295
-54.99947 9.0659714 -24.035473 4294967295
-54.998898 9.8360682 -24.158689 4294967295
-54.99815 8.9119148 -23.997404 4294967295
-54.995689 12.308743 -23.092924 4294967295
-54.994095 14.775772 -23.490309 4294967295
-54.990803 13.851095 -23.304893 4294967295
-54.990108 9.6820631 -24.050745 4294967295
-54.987759 12.771808 -23.095959 4294967295
-54.98587 9.5280199 -23.985369 4294967295
-54.985443 10.452171 -24.135662 4294967295
-54.984386 10.144158 -24.074356 4294967295
-54.981583 9.2198811 -23.893827 4294967295
-54.977398 9.37393 -23.880394 4294967295
-54.969162 9.9902058 -23.906221 4294967295
-54.964142 12.155682 -22.771523 4294967295
-54.963566 10.914556 -24.008181 4294967295
-54.959305 10.29841 -23.865448 4294967295
-54.95599 10.606585 -23.885885 4294967295
-54.941647 11.377179 -23.880341 4294967295
-54.935699 11.531403 -23.850426 4294967295
-54.882004 12.920327 -23.579952 4294967295
-54.871433 14.77008 -23.789822 4294967295
-54.871166 13.075005 -23.504385 4294967295
-54.870777 13.84564 -23.629375 4294967295
-54.870651 14.307928 -23.705351 4294967295
-54.869343 12.458456 -23.384388 4294967295
-54.856594 13.384089 -23.419647 4294967295
-54.854313 11.842185 -23.140907 4294967295
-54.85202 14.617469 -23.582722 4294967295
-54.847137 14.155436 -23.459938 4294967295
-54.847092 9.3705769 -24.106522 4294967295
-54.844116 13.693151 -23.354483 4294967295
-54.842098 12.305359 -23.103954 4294967295
-54.83884 14.00183 -23.356686 4294967295
-54.837666 8.9083586 -23.941488 4294967295
-54.833374 12.151435 -22.996653 4294967295
-54.830616 10.140723 -24.081133 4294967295
-54.829796 12.768641 -23.066204 4294967295
-54.824619 12.614614 -22.992062 4294967295
-54.822685 11.997531 -22.870955 4294967295
-54.819466 9.5245342 -23.874331 4294967295
-54.814743 10.602989 -24.010044 4294967295
-54.813164 9.9867754 -23.892584 4294967295
-54.80365 9.8327198 -23.778082 4294967295
-54.800678 10.757255 -23.904501 4294967295
-54.799408 10.449123 -23.841276 4294967295
-54.799267 11.0654 -23.942686 4294967295
-54.794006 11.219573 -23.919279 4294967295
-54.789295 11.373748 -23.901041 4294967295
-54.782688 10.295192 -23.659544 4294967295
-54.779331 10.911715 -23.731007 4294967295
-54.727776 13.071125 -23.609806 4294967295
-54.726269 12.762936 -23.544361 4294967295
-54.725758 14.458065 -23.822187 4294967295
-54.724838 12.4547 -23.479641 4294967295
-54.715633 13.225894 -23.522293 4294967295
-54.71516 14.766983 -23.774761 4294967295
-54.713863 13.688396 -23.582872 4294967295
-54.707939 13.534613 -23.501925 4294967295
-54.703987 12.609777 -23.310862 4294967295
-54.701351 12.918292 -23.337713 4294967295
-54.696106 14.61433 -23.571478 4294967295
-54.695168 13.381178 -23.357159 4294967295
-54.694336 14.152055 -23.477909 4294967295
-54.689888 12.30192 -23.127962 4294967295
-54.687332 13.844186 -23.361189 4294967295
-54.685318 9.6751604 -24.089952 4294967295
-54.684666 13.998534 -23.362034 4294967295
-54.682064 9.5211153 -24.033998 4294967295
-54.681381 12.147985 -23.02289 4294967295
-54.675369 14.307523 -23.326803 4294967295
