# .PCD v0.7 - Point Cloud Data file format
VERSION 0.7
FIELDS x y z rgb
SIZE 4 4 4 4
TYPE F F F U
COUNT 1 1 1 1
WIDTH 1148
HEIGHT 1
VIEWPOINT 0 0 0 1 0 0 0
POINTS 1148
DATA ascii
141.98788 97.495628 -17.810299 4294967295
141.99716 103.9743 -18.190271 4294967295
142.00378 97.159485 -17.752428 4294967295
142.00607 104.65874 -18.211878 4294967295
142.01544 104.32101 -18.169186 4294967295
142.02739 103.64327 -18.099321 4294967295
142.05283 105.0148 -18.125168 4294967295
142.08612 96.501968 -17.519993 4294967295
142.12372 96.854156 -17.454277 4294967295
142.13857 96.176369 -17.377699 4294967295
142.18069 99.152138 -18.325535 4294967295
142.19611 98.475418 -18.247768 4294967295
142.19998 101.20218 -18.407673 4294967295
142.21451 100.18461 -18.31089 4294967295
142.22772 95.861374 -17.150639 4294967295
142.23021 100.53019 -18.295803 4294967295
142.24174 95.524239 -17.097073 4294967295
142.24393 100.87519 -18.285315 4294967295
142.24983 101.89923 -18.334974 4294967295
142.26549 102.2449 -18.319998 4294967295
142.27007 98.156982 -18.056091 4294967295
142.27133 102.58749 -18.327633 4294967295
142.28076 102.93123 -18.327026 4294967295
142.28275 103.27259 -18.343578 4294967295
142.29674 97.824158 -17.973488 4294967295
142.30081 99.870468 -18.09079 4294967295
142.30312 103.61988 -18.31773 4294967295
142.32339 104.98946 -18.355398 4294967295
142.35379 104.31779 -18.243147 4294967295
142.35559 104.65918 -18.260094 4294967295
142.37016 97.505241 -17.783031 4294967295
142.39659 97.17215 -17.700918 4294967295
142.4081 96.834557 -17.653263 4294967295
142.46407 96.510056 -17.503027 4294967295
142.47986 96.173584 -17.44549 4294967295
142.49007 100.84315 -18.571396 4294967295
142.50749 101.87052 -18.594505 4294967295
142.52589 98.469391 -18.341156 4294967295
142.55229 101.54394 -18.470264 4294967295
142.5527 101.20335 -18.448277 4294967295
142.55391 102.22582 -18.508755 4294967295
142.55501 103.24821 -18.56951 4294967295
142.58568 102.57659 -18.456713 4294967295
142.58823 100.53295 -18.324238 4294967295
142.59053 98.829735 -18.213417 4294967295
142.60365 98.152069 -18.14098 4294967295
142.60979 99.176399 -18.190201 4294967295
142.61143 104.96987 -18.545101 4294967295
142.62938 102.93124 -18.377192 4294967295
142.63777 103.61545 -18.400091 4294967295
142.63873 104.29729 -18.440102 4294967295
142.64476 104.63999 -18.44735 4294967295
142.6458 97.823875 -18.022812 4294967295
142.64952 103.96001 -18.394159 4294967295
142.69429 97.497452 -17.889999 4294967295
142.7692 97.178772 -17.696308 4294967295
142.77689 96.839981 -17.657522 4294967295
142.78355 100.82591 -18.748047 4294967295
142.78928 101.1683 -18.755957 4294967295
142.81262 96.509445 -17.554037 4294967295
142.82118 100.49697 -18.640419 4294967295
142.82123 99.815659 -18.598181 4294967295
142.85458 101.52934 -18.626921 4294967295
142.8553 99.144699 -18.477634 4294967295
142.85718 102.89278 -18.705284 4294967295
142.86499 96.183678 -17.412285 4294967295
142.87061 99.490097 -18.463562 4294967295
142.87148 102.216 -18.630239 4294967295
142.90121 103.92887 -18.667353 4294967295
142.90584 103.58968 -18.635601 4294967295
142.90712 104.9528 -18.717062 4294967295
142.9075 103.24951 -18.610697 4294967295
142.9093 100.18347 -18.416746 4294967295
142.91803 101.88995 -18.502148 4294967295
142.91992 102.57203 -18.539963 4294967295
142.92499 98.484291 -18.275185 4294967295
142.9418 98.148537 -18.215382 4294967295
143.06902 97.163742 -17.859463 4294967295
143.07501 96.824478 -17.824554 4294967295
143.13211 100.14453 -18.755939 4294967295
143.13599 100.82697 -18.789206 4294967295
143.13829 96.50206 -17.657921 4294967295
143.14102 101.50979 -18.819777 4294967295
143.14885 99.809013 -18.696436 4294967295
143.15022 101.17205 -18.777607 4294967295
143.16399 102.19827 -18.809252 4294967295
143.1839 100.50117 -18.658094 4294967295
143.18956 99.140053 -18.560764 4294967295
143.2206 102.55682 -18.700317 4294967295
143.22453 103.23946 -18.733477 4294967295
143.22752 103.58111 -18.747671 4294967295
143.26353 98.821724 -18.369732 4294967295
143.27983 98.144943 -18.290186 4294967295
143.28136 102.91682 -18.581913 4294967295
143.28462 98.487259 -18.300238 4294967295
143.29424 104.284 -18.636692 4294967295
143.2946 103.94336 -18.614815 4294967295
143.32538 104.97564 -18.607412 4294967295
143.33757 104.63881 -18.558336 4294967295
143.35013 97.825111 -18.107609 4294967295
143.40662 97.159943 -17.935606 4294967295
143.46719 99.458862 -18.794912 4294967295
143.47961 100.82531 -18.850672 4294967295
143.50104 102.1946 -18.885862 4294967295
143.51369 103.22054 -18.920099 4294967295
143.51541 102.88044 -18.895027 4294967295
143.5303 100.50031 -18.713356 4294967295
143.53989 102.54752 -18.817877 4294967295
143.54303 98.459686 -18.557747 4294967295
143.55084 104.59509 -18.919197 4294967295
143.55225 103.9142 -18.873819 4294967295
143.56389 101.87366 -18.720634 4294967295
143.5731 104.94299 -18.889227 4294967295
143.57971 98.811562 -18.494677 4294967295
143.58864 104.26661 -18.811447 4294967295
143.60097 103.58911 -18.741009 4294967295
143.61964 99.164497 -18.424147 4294967295
143.6216 98.142479 -18.356419 4294967295
143.69029 97.822113 -18.177795 4294967295
143.72942 97.492767 -18.066967 4294967295
143.76814 97.163208 -17.957024 4294967295
143.80029 102.51964 -19.070175 4294967295
143.80061 103.20095 -19.111563 4294967295
143.80516 102.18055 -19.03793 4294967295
143.81474 100.13964 -18.88965 4294967295
143.82301 101.50487 -18.954954 4294967295
143.82692 100.48406 -18.882828 4294967295
143.83241 100.82645 -18.891302 4294967295
143.83688 101.84987 -18.944256 4294967295
143.84673 101.17158 -18.879599 4294967295
143.84863 98.787132 -18.727755 4294967295
143.86 96.507988 -17.704102 4294967295
143.86032 99.131416 -18.722042 4294967295
143.88396 103.90886 -18.962843 4294967295
143.89856 102.8914 -18.86622 4294967295
143.90283 98.462692 -18.582527 4294967295
143.92586 97.787895 -18.487688 4294967295
143.93813 104.26698 -18.859909 4294967295
143.93903 103.58577 -18.815704 4294967295
143.94965 98.135872 -18.454227 4294967295
143.95264 97.454987 -18.405247 4294967295
143.96872 104.61762 -18.810949 4294967295
143.97537 104.96056 -18.816803 4294967295
144.05045 100.44536 -19.219185 4294967295
144.05766 97.145149 -18.143545 4294967295
144.08302 101.47714 -19.207832 4294967295
144.10127 102.16402 -19.208199 4294967295
144.10373 99.09922 -19.013155 4294967295
144.11272 100.1239 -19.055733 4294967295
144.15558 99.455643 -18.915573 4294967295
144.16187 103.88628 -19.174931 4294967295
144.16292 101.16136 -19.004097 4294967295
144.16316 100.82076 -18.982502 4294967295
144.16878 101.84456 -19.032824 4294967295
144.18767 104.91648 -19.179132 4294967295
144.19069 98.784805 -18.793119 4294967295
144.1962 104.23795 -19.11751 4294967295
144.2045 99.811287 -18.824787 4294967295
144.21303 102.88057 -18.994766 4294967295
144.23495 103.56896 -18.986794 4294967295
144.26044 104.59934 -18.991678 4294967295
144.27574 97.787811 -18.535429 4294967295
144.28787 98.473228 -18.54982 4294967295
144.35735 98.153114 -18.369852 4294967295
144.38028 99.758293 -19.270031 4294967295
144.38705 100.44151 -19.296675 4294967295
144.38762 97.480118 -18.25841 4294967295
144.39293 100.78388 -19.30431 4294967295
144.40334 101.12769 -19.301577 4294967295
144.40488 101.80929 -19.340157 4294967295
144.42426 102.83708 -19.359032 4294967295
144.43707 101.47875 -19.245613 4294967295
144.44624 97.156387 -18.103195 4294967295
144.45081 102.50488 -19.277374 4294967295
144.45552 100.12189 -19.119295 4294967295
144.47746 105.23818 -19.384871 4294967295
144.52756 103.55113 -19.165258 4294967295
144.54776 104.57968 -19.182243 4294967295
144.54871 99.128082 -18.843279 4294967295
144.55605 104.92304 -19.184399 4294967295
144.56686 104.24511 -19.117624 4294967295
144.57043 98.452988 -18.751549 4294967295
144.57594 98.113792 -18.717896 4294967295
144.60718 98.804886 -18.688684 4294967295
144.6501 97.794998 -18.527412 4294967295
144.71487 97.473236 -18.358391 4294967295
144.73616 102.14439 -19.450901 4294967295
144.73958 99.761307 -19.295872 4294967295
144.7404 103.50794 -19.525368 4294967295
144.77864 102.49831 -19.375061 4294967295
144.78377 100.4561 -19.237181 4294967295
144.78386 101.47808 -19.300041 4294967295
144.78941 103.18294 -19.392582 4294967295
144.78979 104.88604 -19.496876 4294967295
144.80029 99.098419 -19.115284 4294967295
144.806 100.12225 -19.165382 4294967295
144.81201 104.5526 -19.425209 4294967295
144.81633 96.820946 -18.084452 4294967295
144.81633 100.80679 -19.183912 4294967295
144.81758 103.87314 -19.370441 4294967295
144.82414 105.23775 -19.439598 4294967295
144.83028 101.8332 -19.215237 4294967295
144.85588 104.22606 -19.304136 4294967295
144.88144 98.78212 -18.909161 4294967295
144.91873 98.452477 -18.803062 4294967295
145.01353 98.139893 -18.565702 4294967295
145.01559 100.42007 -19.553583 4294967295
145.03471 102.80972 -19.657223 4294967295
145.03917 97.806519 -18.486145 4294967295
145.03922 100.76788 -19.520889 4294967295
145.04259 97.466484 -18.457314 4294967295
145.05537 101.11345 -19.505051 4294967295
145.05896 99.752167 -19.412766 4294967295
145.06085 101.79629 -19.534605 4294967295
145.06624 101.45738 -19.501312 4294967295
145.08072 98.736855 -19.300156 4294967295
145.08885 102.48621 -19.512913 4294967295
145.09901 102.14879 -19.468754 4294967295
145.10698 100.10744 -19.324432 4294967295
145.12117 104.88062 -19.586498 4294967295
145.12381 99.431206 -19.244053 4294967295
145.13171 103.18094 -19.457392 4294967295
145.13579 97.152916 -18.223574 4294967295
145.17213 98.423546 -19.070864 4294967295
145.18188 103.53753 -19.364159 4294967295
145.21655 104.23 -19.327248 4294967295
145.24628 97.763992 -18.859854 4294967295
145.32439 100.06716 -19.673412 4294967295
145.32687 100.74895 -19.709801 4294967295
145.3363 98.131691 -18.675816 4294967295
145.34824 99.733887 -19.598166 4294967295
145.3492 97.453506 -18.604366 4294967295
145.35466 101.43861 -19.68861 4294967295
145.37682 101.78604 -19.659225 4294967295
145.37996 99.402931 -19.504936 4294967295
145.38617 99.064178 -19.469793 4294967295
145.39709 101.11116 -19.571079 4294967295
145.39871 98.72731 -19.420311 4294967295
145.42639 100.43893 -19.462431 4294967295
145.43617 102.14513 -19.545273 4294967295
145.45515 103.5136 -19.586143 4294967295
145.46648 104.19847 -19.602432 4294967295
145.46815 104.53963 -19.619654 4294967295
145.46989 104.8808 -19.636698 4294967295
145.47572 98.409676 -19.224049 4294967295
145.48299 103.86311 -19.543884 4294967295
145.4882 98.072655 -19.174614 4294967295
145.66695 101.76775 -19.842464 4294967295
145.67691 101.08978 -19.777794 4294967295
145.67709 100.40876 -19.735357 4294967295
145.67754 100.74944 -19.755373 4294967295
145.68069 97.788918 -18.715637 4294967295
145.69467 102.45746 -19.821507 4294967295
145.70186 101.43805 -19.742144 4294967295
145.71051 99.056557 -19.575428 4294967295
145.7184 103.146 -19.809626 4294967295
145.7245 97.460831 -18.594925 4294967295
145.72655 97.120338 -18.569229 4294967295
145.73035 103.49035 -19.803431 4294967295
145.73634 98.382996 -19.474737 4294967295
145.74727 102.13333 -19.681042 4294967295
145.75571 104.17955 -19.787922 4294967295
145.75589 98.729523 -19.451284 4294967295
145.76143 102.81899 -19.690893 4294967295
145.76686 104.52372 -19.783585 4294967295
145.77876 103.84631 -19.714546 4294967295
145.79228 104.87247 -19.746885 4294967295
145.80614 98.063072 -19.295135 4294967295
145.86494 105.23658 -19.602922 4294967295
145.94299 97.762817 -18.963163 4294967295
145.96344 101.75149 -20.011002 4294967295
145.96393 101.07068 -19.967901 4294967295
146.00005 103.1249 -20.011934 4294967295
146.00632 99.38092 -19.766766 4294967295
146.00766 101.42467 -19.889702 4294967295
146.01581 102.10828 -19.913212 4294967295
146.02625 102.45209 -19.910553 4294967295
146.03067 97.447708 -18.74287 4294967295
146.03792 103.47738 -19.947018 4294967295
146.04034 103.81868 -19.962555 4294967295
146.05768 99.055779 -19.629208 4294967295
146.06566 104.8484 -19.968122 4294967295
146.07164 97.118698 -18.628723 4294967295
146.07483 104.17022 -19.905375 4294967295
146.08466 104.51394 -19.904057 4294967295
146.09027 100.76894 -19.660307 4294967295
146.10938 98.049156 -19.448914 4294967295
146.11453 98.732147 -19.479206 4294967295
146.12219 98.3937 -19.440817 4294967295
146.16397 105.22069 -19.766247 4294967295
146.21271 97.738968 -19.193441 4294967295
146.29065 99.701767 -19.983885 4294967295
146.29745 100.72538 -20.031433 4294967295
146.3031 101.40813 -20.060591 4294967295
146.3107 101.06997 -20.022388 4294967295
146.31082 100.04842 -19.959106 4294967295
146.33202 102.09812 -20.037079 4294967295
146.33226 99.033195 -19.847614 4294967295
146.33403 103.12029 -20.095491 4294967295
146.3609 104.15036 -20.097584 4294967295
146.37909 98.706627 -19.720488 4294967295
146.38623 102.45559 -19.935278 4294967295
146.39334 104.8418 -20.066078 4294967295
146.39662 104.5023 -20.037674 4294967295
146.41521 102.80526 -19.890638 4294967295
146.47626 98.394897 -19.479347 4294967295
146.49117 105.2139 -19.865582 4294967295
146.57047 100.02117 -20.210936 4294967295
146.57544 98.083519 -19.233606 4294967295
146.57896 99.683281 -20.170721 4294967295
146.58824 101.04797 -20.23362 4294967295
146.60609 97.410713 -19.122097 4294967295
146.6203 100.37681 -20.119156 4294967295
146.62946 97.758568 -19.09016 4294967295
146.65448 101.40886 -20.104738 4294967295
146.67622 98.690865 -19.887705 4294967295
146.6765 103.4589 -20.180864 4294967295
146.67995 104.48153 -20.23597 4294967295
146.68425 99.03389 -19.890535 4294967295
146.68814 102.44094 -20.091564 4294967295
146.68828 103.80316 -20.17519 4294967295
146.69427 104.14558 -20.182549 4294967295
146.71017 102.78839 -20.062714 4294967295
146.71185 104.83228 -20.184801 4294967295
146.7252 105.1771 -20.1756 4294967295
146.72676 102.11238 -19.983231 4294967295
146.73537 98.367844 -19.732882 4294967295
146.79848 98.045837 -19.56909 4294967295
146.84879 97.719894 -19.434238 4294967295
146.91621 97.057892 -19.239655 4294967295
146.92003 99.68074 -20.238134 4294967295
146.9297 99.343155 -20.195345 4294967295
146.93411 100.02551 -20.227303 4294967295
146.94449 100.36916 -20.224815 4294967295
146.95503 101.0534 -20.242947 4294967295
146.95705 101.39453 -20.259373 4294967295
146.95911 97.411423 -19.163609 4294967295
146.96022 99.011787 -20.10537 4294967295
146.98094 102.42345 -20.268311 4294967295
146.98685 104.12782 -20.359846 4294967295
146.98938 101.74503 -20.2073 4294967295
146.99239 100.72431 -20.137589 4294967295
146.99446 102.08714 -20.216791 4294967295
147.01903 103.45699 -20.245182 4294967295
147.01942 98.688873 -19.950628 4294967295
147.04529 103.1247 -20.164904 4294967295
147.05005 103.80735 -20.196087 4294967295
147.05069 104.48869 -20.236618 4294967295
147.05159 102.78609 -20.129675 4294967295
147.07097 104.83575 -20.211754 4294967295
147.08186 105.17983 -20.208155 4294967295
147.12582 98.379829 -19.68924 4294967295
147.15364 98.047287 -19.60535 4294967295
147.22682 99.327393 -20.362057 4294967295
147.2332 97.729897 -19.404573 4294967295
147.23375 100.01044 -20.3883 4294967295
147.23877 97.39061 -19.370998 4294967295
147.26007 100.3589 -20.349886 4294967295
147.26079 97.056091 -19.300255 4294967295
147.26938 102.06419 -20.433689 4294967295
147.2695 100.70227 -20.349579 4294967295
147.27351 101.044 -20.361473 4294967295
147.2912 98.665604 -20.17485 4294967295
147.29352 101.73116 -20.358292 4294967295
147.29565 99.0075 -20.185741 4294967295
147.30135 101.39306 -20.319651 4294967295
147.30356 102.75581 -20.39851 4294967295
147.33049 103.44528 -20.379728 4294967295
147.3327 96.736038 -19.116699 4294967295
147.33643 102.42554 -20.303413 4294967295
147.34538 103.10944 -20.325136 4294967295
147.34911 99.704735 -20.107063 4294967295
147.35881 98.004417 -19.980297 4294967295
147.36475 98.346848 -19.987892 4294967295
147.36729 104.47857 -20.359583 4294967295
147.41533 104.15327 -20.230259 4294967295
147.42786 104.83849 -20.243935 4294967295
147.43723 97.686806 -19.782356 4294967295
147.43835 97.346367 -19.75881 4294967295
147.51831 100.33124 -20.604084 4294967295
147.53716 97.034409 -19.514904 4294967295
147.55283 100.68216 -20.547325 4294967295
147.57742 99.66819 -20.429008 4294967295
147.5818 98.307426 -20.335325 4294967295
147.58812 101.37389 -20.50968 4294967295
147.60329 103.42142 -20.601181 4294967295
147.60925 101.72089 -20.482969 4294967295
147.62862 102.06739 -20.46035 4294967295
147.63266 103.77117 -20.555964 4294967295
147.65546 102.7568 -20.441734 4294967295
147.65787 96.728546 -19.221447 4294967295
147.66272 101.05625 -20.320601 4294967295
147.66319 104.12134 -20.508179 4294967295
147.67819 98.676643 -20.139004 4294967295
147.67836 104.8072 -20.515919 4294967295
147.68037 103.10513 -20.406586 4294967295
147.68486 105.14981 -20.522224 4294967295
147.71101 98.00502 -20.023153 4294967295
147.78937 97.346527 -19.804602 4294967295
147.82416 96.67498 -19.684252 4294967295
147.85745 99.987717 -20.654911 4294967295
147.88077 100.33521 -20.62339 4294967295
147.88704 101.35849 -20.672102 4294967295
147.89972 99.319489 -20.517895 4294967295
147.90067 101.70313 -20.662411 4294967295
147.9106 103.40846 -20.744747 4294967295
147.92142 98.985458 -20.448154 4294967295
147.93158 102.05315 -20.613779 4294967295
147.94299 98.651321 -20.378633 4294967295
147.94382 104.4403 -20.732836 4294967295
147.9449 102.73827 -20.62571 4294967295
147.96266 103.76533 -20.648529 4294967295
147.96443 102.40383 -20.56085 4294967295
147.98912 98.324402 -20.253826 4294967295
148.00339 97.306641 -20.158875 4294967295
148.00894 105.14207 -20.628288 4294967295
148.01012 97.649277 -20.16468 4294967295
148.01414 103.10044 -20.490904 4294967295
148.0425 104.81226 -20.531828 4294967295
148.05951 98.004501 -20.074472 4294967295
148.10355 96.995094 -19.912477 4294967295
148.10693 96.655273 -19.883896 4294967295
148.1424 100.64902 -20.89043 4294967295
148.14369 100.30903 -20.866566 4294967295
148.14983 99.28968 -20.790009 4294967295
148.17818 95.994102 -19.681581 4294967295
148.17859 101.00045 -20.829994 4294967295
148.18146 98.277779 -20.656113 4294967295
148.18336 101.68272 -20.861168 4294967295
148.20514 98.965759 -20.644766 4294967295
148.21692 102.03349 -20.806675 4294967295
148.22034 99.991768 -20.673397 4294967295
148.23772 99.656502 -20.6134 4294967295
148.2496 96.355621 -19.541729 4294967295
148.2606 104.08982 -20.834137 4294967295
148.2704 102.731 -20.728397 4294967295
148.28064 102.39369 -20.684458 4294967295
148.28406 103.75677 -20.760509 4294967295
148.28641 97.627571 -20.378345 4294967295
148.29042 103.41826 -20.725292 4294967295
148.29655 97.971169 -20.376423 4294967295
148.29829 104.44225 -20.770439 4294967295
148.3082 105.12639 -20.790096 4294967295
148.30887 103.08353 -20.662899 4294967295
148.32521 96.957626 -20.249201 4294967295
148.3394 104.79585 -20.699022 4294967295
148.3535 96.62513 -20.164629 4294967295
148.41148 97.323456 -20.076206 4294967295
148.44188 96.309875 -19.94499 4294967295
148.45071 98.934746 -20.92675 4294967295
148.45869 99.617905 -20.950642 4294967295
148.47047 95.977242 -19.859793 4294967295
148.47498 100.98434 -20.997805 4294967295
148.506 99.972519 -20.865385 4294967295
148.51228 98.612595 -20.767595 4294967295
148.52246 99.296562 -20.78657 4294967295
148.53021 98.277428 -20.706425 4294967295
148.5405 97.599434 -20.641472 4294967295
148.54425 101.68637 -20.884193 4294967295
148.54459 103.04821 -20.967112 4294967295
148.54597 102.02735 -20.901234 4294967295
148.55583 101.34947 -20.837238 4294967295
148.56209 103.73457 -20.969707 4294967295
148.5782 104.08009 -20.954483 4294967295
148.58524 97.953094 -20.561974 4294967295
148.59515 102.38303 -20.811813 4294967295
148.60986 97.279121 -20.464792 4294967295
148.62086 102.73151 -20.775063 4294967295
148.62778 103.41471 -20.801428 4294967295
148.63161 104.77795 -20.87653 4294967295
148.64432 104.44148 -20.827114 4294967295
148.64796 96.608879 -20.337399 4294967295
148.66254 105.12833 -20.828106 4294967295
148.673 95.593964 -20.218403 4294967295
148.7213 96.289299 -20.151808 4294967295
148.76653 98.924675 -21.050756 4294967295
148.8149 99.279465 -20.96328 4294967295
148.82458 99.963226 -20.983368 4294967295
148.83194 98.263191 -20.862286 4294967295
148.83408 102.00858 -21.087601 4294967295
148.83546 100.64737 -21.000839 4294967295
148.84296 99.628304 -20.921265 4294967295
148.85956 103.03769 -21.093258 4294967295
148.87408 101.34 -20.956131 4294967295
148.88966 105.08965 -21.151321 4294967295
148.901 96.580704 -20.602879 4294967295
148.9019 101.00803 -20.872841 4294967295
148.90405 104.07294 -21.056326 4294967295
148.90446 102.37077 -20.950787 4294967295
148.90497 101.68995 -20.907814 4294967295
148.90829 98.626244 -20.712065 4294967295
148.91057 97.945793 -20.665119 4294967295
148.91403 103.39516 -20.992121 4294967295
148.91942 103.73731 -21.000996 4294967295
148.94858 96.935059 -20.517124 4294967295
148.9489 104.42759 -20.976774 4294967295
149.00124 104.78471 -20.880459 4294967295
149.033 95.596512 -20.24412 4294967295
149.06168 100.26975 -21.304665 4294967295
149.06708 96.287811 -20.209597 4294967295
149.09489 101.98145 -21.334812 4294967295
149.12563 99.267853 -21.098751 4294967295
149.12692 97.906555 -21.012222 4294967295
149.1279 102.33198 -21.281801 4294967295
149.12959 98.928619 -21.06897 4294967295
149.15352 101.31871 -21.161777 4294967295
149.15871 101.66071 -21.17104 4294967295
149.17619 100.64476 -21.06917 4294967295
149.17673 97.240143 -20.858934 4294967295
149.19203 104.39426 -21.263725 4294967295
149.19344 103.37349 -21.197863 4294967295
149.20122 103.0355 -21.159531 4294967295
149.2077 98.61129 -20.873188 4294967295
149.20802 100.99487 -21.018848 4294967295
149.23242 105.08791 -21.215197 4294967295
149.2383 97.598618 -20.741936 4294967295
149.23862 103.72809 -21.117706 4294967295
149.24998 102.7102 -21.029533 4294967295
149.25008 96.239624 -20.631945 4294967295
149.25052 104.0723 -21.112001 4294967295
149.25449 104.75447 -21.14496 4294967295
149.27724 95.566101 -20.529236 4294967295
149.38374 100.26154 -21.41444 4294967295
149.38712 98.560928 -21.302456 4294967295
149.39182 95.939507 -20.293623 4294967295
149.39627 97.882904 -21.240215 4294967295
149.40472 97.204605 -21.179482 4294967295
149.41167 100.61028 -21.372953 4294967295
149.42447 98.912338 -21.239826 4294967295
149.42824 97.551857 -21.147821 4294967295
149.43697 102.31969 -21.420889 4294967295
149.44203 99.257942 -21.221472 4294967295
149.44882 96.876961 -21.059967 4294967295
149.45436 100.96358 -21.298431 4294967295
149.46472 99.605118 -21.191666 4294967295
149.47202 96.543182 -20.987244 4294967295
149.47896 96.204681 -20.950806 4294967295
149.48349 101.31286 -21.254206 4294967295
149.4955 101.99734 -21.269161 4294967295
149.50043 104.04124 -21.383556 4294967295
149.50438 99.957436 -21.123909 4294967295
149.50684 104.38364 -21.390083 4294967295
149.52034 102.68585 -21.255453 4294967295
149.5318 101.66805 -21.167114 4294967295
149.53842 103.71278 -21.277721 4294967295
149.56726 95.889381 -20.732424 4294967295
149.58051 104.74739 -21.24641 4294967295
149.58357 95.553398 -20.675007 4294967295
149.61072 105.09747 -21.1998 4294967295
149.67346 98.201904 -21.47117 4294967295
149.67542 99.563629 -21.55035 4294967295
149.69699 97.868469 -21.397743 4294967295
149.70081 97.529236 -21.368353 4294967295
149.70251 98.89109 -21.44805 4294967295
149.70325 100.93314 -21.571747 4294967295
149.72871 100.26022 -21.473141 4294967295
149.75607 99.247337 -21.349388 4294967295
149.7578 102.99168 -21.575359 4294967295
149.78549 99.936905 -21.325497 4294967295
149.80275 96.87796 -21.098955 4294967295
149.8038 102.32523 -21.430878 4294967295
149.80765 100.6244 -21.317818 4294967295
149.81111 96.539871 -21.059389 4294967295
149.81587 101.64815 -21.362165 4294967295
149.82216 104.71356 -21.536146 4294967295
149.82239 101.3097 -21.326742 4294967295
149.82701 95.86338 -20.9821 4294967295
149.85493 104.04314 -21.421228 4294967295
149.85942 104.38496 -21.432125 4294967295
149.862 96.213936 -20.924841 4294967295
149.86526 102.00372 -21.272804 4294967295
149.87486 103.70896 -21.355865 4294967295
149.93294 95.552902 -20.724609 4294967295
149.93721 105.09052 -21.300318 4294967295
149.99419 96.491776 -21.47953 4294967295
149.99594 97.853546 -21.559164 4294967295
150.00719 99.898621 -21.659321 4294967295
150.02672 98.543205 -21.532249 4294967295
150.0295 98.20369 -21.505157 4294967295
150.02975 101.26655 -21.692511 4294967295
150.04129 99.568512 -21.562384 4294967295
150.04703 97.187714 -21.403431 4294967295
150.06071 96.85128 -21.352024 4294967295
150.06737 97.534004 -21.378994 4294967295
150.07117 95.833008 -21.266104 4294967295
150.07205 102.64069 -21.681742 4294967295
150.08708 96.178001 -21.251503 4294967295
150.10117 100.60752 -21.491549 4294967295
150.10545 102.99136 -21.628153 4294967295
150.11218 100.27045 -21.446133 4294967295
150.11281 101.63218 -21.528294 4294967295
150.11809 100.95303 -21.474724 4294967295
150.1297 95.509163 -21.114635 4294967295
150.13214 101.9785 -21.506046 4294967295
150.13651 104.70281 -21.663376 4294967295
150.15048 103.68611 -21.569599 4294967295
150.15991 104.02946 -21.569479 4294967295
150.17627 105.05578 -21.595675 4294967295
150.18646 102.33561 -21.405867 4294967295
150.19585 103.35986 -21.447592 4294967295
150.21886 104.38841 -21.458981 4294967295
150.28018 97.494087 -21.732199 4294967295
150.28845 98.517265 -21.776409 4294967295
150.30705 96.480972 -21.609814 4294967295
150.34195 101.25533 -21.824236 4294967295
150.34964 97.173904 -21.556698 4294967295
150.3575 96.835823 -21.518318 4294967295
150.36165 95.475456 -21.425604 4294967295
150.3708 95.818466 -21.426035 4294967295
150.3712 99.56263 -21.654789 4294967295
150.37167 100.24344 -21.69544 4294967295
150.37747 100.58549 -21.703423 4294967295
150.39328 96.165283 -21.396851 4294967295
150.39548 97.867966 -21.496378 4294967295
150.39716 100.93176 -21.680449 4294967295
150.41365 99.234894 -21.539366 4294967295
150.41949 104.00155 -21.818588 4294967295
150.42337 99.918556 -21.559517 4294967295
150.42659 101.62141 -21.656694 4294967295
150.42828 98.898811 -21.48596 4294967295
150.45395 102.65091 -21.658407 4294967295
150.457 101.97109 -21.609873 4294967295
150.45825 102.99262 -21.669685 4294967295
150.46681 103.67603 -21.692417 4294967295
150.47908 102.31826 -21.581608 4294967295
150.49686 104.36621 -21.667274 4294967295
150.56206 104.7272 -21.543066 4294967295
150.56851 96.455475 -21.854294 4294967295
150.56894 96.79583 -21.874224 4294967295
150.6234 97.151787 -21.773973 4294967295
150.65115 98.861343 -21.816483 4294967295
150.66901 99.206917 -21.797649 4294967295
150.67937 101.59206 -21.920645 4294967295
150.70854 97.516777 -21.605452 4294967295
150.70969 100.58033 -21.790686 4294967295
150.7233 95.478508 -21.447441 4294967295
150.74075 99.568542 -21.659044 4294967295
150.74174 102.29175 -21.823729 4294967295
150.75668 100.25408 -21.665348 4294967295
150.76151 103.65919 -21.863255 4294967295
150.76201 100.93647 -21.695221 4294967295
150.77162 99.918152 -21.611216 4294967295
150.82291 105.03992 -21.810261 4294967295
150.84105 104.02444 -21.707333 4294967295
150.8502 104.70816 -21.728729 4294967295
150.85396 104.36892 -21.69952 4294967295
150.8557 103.34813 -21.633055 4294967295
150.87344 97.122856 -22.043554 4294967295
150.87367 96.44252 -22.001354 4294967295
150.8997 97.470673 -22.006058 4294967295
150.93739 100.54373 -22.110008 4294967295
150.95853 96.807091 -21.833748 4294967295
150.96136 98.169106 -21.910851 4294967295
150.96449 98.510307 -21.924749 4294967295
150.96959 99.192368 -21.955114 4294967295
150.97163 99.87352 -21.9923 4294967295
151.00031 98.861137 -21.866093 4294967295
151.01962 101.58936 -21.990028 4294967295
151.02899 100.9116 -21.927492 4294967295
151.0585 102.62218 -21.96623 4294967295
151.10732 103.99866 -21.94133 4294967295
151.10959 101.27633 -21.769444 4294967295
151.11053 103.31895 -21.892464 4294967295
151.11539 102.98008 -21.860802 4294967295
151.12817 105.0263 -21.957581 4294967295
151.1302 104.68657 -21.932232 4294967295
151.13968 103.66839 -21.848635 4294967295
151.14287 104.35019 -21.883263 4294967295
151.14772 102.30922 -21.747334 4294967295
151.17714 95.748718 -22.110329 4294967295
151.20049 97.456375 -22.162769 4294967295
151.22281 99.163849 -22.217442 4294967295
151.23138 96.784836 -22.052534 4294967295
151.25761 98.493668 -22.09856 4294967295
151.2578 100.87527 -22.244038 4294967295
151.25859 97.132912 -22.013039 4294967295
151.27695 99.860344 -22.139076 4294967295
151.31447 97.829689 -21.930809 4294967295
151.31958 98.852127 -21.982006 4294967295
151.32832 101.91734 -22.150217 4294967295
151.32886 101.23697 -22.107336 4294967295
151.33597 100.21822 -22.029064 4294967295
151.34201 103.62284 -22.224131 4294967295
151.34808 102.60393 -22.148087 4294967295
151.38129 103.97535 -22.15786 4294967295
151.39667 103.29954 -22.082041 4294967295
151.41798 101.60432 -21.930557 4294967295
151.42108 102.28603 -21.965405 4294967295
151.42979 104.33086 -22.071163 4294967295
151.47021 97.433128 -22.38809 4294967295
151.47626 102.98378 -21.884789 4294967295
151.48534 104.68867 -21.968954 4294967295
151.49368 97.099747 -22.315285 4294967295
151.50391 98.123184 -22.355124 4294967295
151.52316 105.04104 -21.905935 4294967295
151.53561 98.812805 -22.326569 4294967295
151.54471 96.433983 -22.160553 4294967295
151.55128 96.776093 -22.166855 4294967295
151.55515 96.09671 -22.11661 4294967295
151.55998 99.500366 -22.31427 4294967295
151.59396 101.55173 -22.363981 4294967295
151.60091 95.769402 -21.994421 4294967295
151.6124 100.87687 -22.281467 4294967295
151.62709 102.24226 -22.332264 4294967295
151.63112 100.54225 -22.219166 4294967295
151.63477 100.20306 -22.190308 4294967295
151.64378 101.22659 -22.232841 4294967295
151.74031 102.9576 -22.123323 4294967295
151.74141 104.65961 -22.225052 4294967295
151.75517 105.00426 -22.215456 4294967295
151.75549 104.3237 -22.173082 4294967295
151.75946 103.98459 -22.143436 4294967295
151.78244 96.401817 -22.456684 4294967295
151.7827 97.422256 -22.518517 4294967295
151.79233 103.31405 -22.028992 4294967295
151.80357 96.067696 -22.389074 4294967295
151.83221 98.457039 -22.471416 4294967295
151.83792 98.118538 -22.437979 4294967295
151.84476 97.099983 -22.36046 4294967295
151.85426 98.803658 -22.443497 4294967295
151.89572 101.1972 -22.497553 4294967295
151.8987 95.754395 -22.157789 4294967295
151.9017 96.776077 -22.213614 4294967295
151.90565 99.499199 -22.371471 4294967295
151.90964 99.840584 -22.383465 4294967295
151.93953 102.23109 -22.463167 4294967295
151.96541 100.53772 -22.301798 4294967295
151.9742 100.88064 -22.30319 4294967295
151.97762 100.2011 -22.253952 4294967295
151.98236 99.181564 -22.180984 4294967295
151.98917 102.58652 -22.374256 4294967295
152.0294 103.61979 -22.347759 4294967295
152.07539 102.95335 -22.20442 4294967295
152.09006 104.65968 -22.276119 4294967295
152.09128 104.31972 -22.252617 4294967295
152.10292 105.00407 -22.268541 4294967295
152.14453 98.446068 -22.602289 4294967295
152.15352 97.088051 -22.499208 4294967295
152.16464 96.070663 -22.412136 4294967295
152.17204 96.753181 -22.437412 4294967295
152.18279 96.416016 -22.392868 4294967295
152.20065 98.122246 -22.457491 4294967295
152.20663 99.1446 -22.506716 4294967295
152.20808 97.443962 -22.399446 4294967295
152.24641 97.795273 -22.335575 4294967295
152.24854 98.816681 -22.393351 4294967295
152.31682 101.89946 -22.429928 4294967295
152.32603 102.24255 -22.430378 4294967295
152.34009 104.28852 -22.524277 4294967295
152.34601 102.58895 -22.407114 4294967295
152.35548 101.23055 -22.302834 4294967295
152.36166 104.63555 -22.49745 4294967295
152.38693 104.9838 -22.462469 4294967295
152.39243 97.056107 -22.792009 4294967295
152.46594 96.396866 -22.588112 4294967295
152.46893 98.778763 -22.727177 4294967295
152.47639 95.719444 -22.523481 4294967295
152.49463 98.446121 -22.649649 4294967295
152.49968 99.127922 -22.680119 4294967295
152.50653 97.769226 -22.581787 4294967295
152.51747 98.112579 -22.578499 4294967295
152.52177 96.75296 -22.485735 4294967295
152.52216 99.81488 -22.672197 4294967295
152.52293 97.433746 -22.524803 4294967295
152.54507 99.481476 -22.600817 4294967295
152.58313 100.85367 -22.600098 4294967295
152.59552 101.53786 -22.614397 4294967295
152.60953 101.20184 -22.562717 4294967295
152.62119 100.18452 -22.474529 4294967295
152.65855 104.95965 -22.683483 4294967295
152.66942 101.90051 -22.472218 4294967295
152.6732 102.24198 -22.484669 4294967295
152.6749 103.94398 -22.585043 4294967295
152.67665 100.54137 -22.373028 4294967295
152.67928 102.92445 -22.512924 4294967295
152.68457 104.28725 -22.584551 4294967295
152.69318 104.63024 -22.586346 4294967295
152.70309 103.27209 -22.481249 4294967295
152.71567 102.59528 -22.411869 4294967295
152.72079 103.6179 -22.463015 4294967295
152.72449 95.690544 -22.795788 4294967295
152.7339 96.373413 -22.816589 4294967295
152.77493 97.065346 -22.767805 4294967295
152.79927 97.75264 -22.755743 4294967295
152.81708 98.778267 -22.7789 4294967295
152.82079 99.119507 -22.791567 4294967295
152.82672 96.059547 -22.591284 4294967295
152.83035 98.101784 -22.708086 4294967295
152.842 99.465919 -22.765617 4294967295
152.87823 97.435181 -22.56098 4294967295
152.91467 98.46653 -22.543076 4294967295
152.91835 101.18966 -22.701418 4294967295
152.92561 101.87231 -22.727041 4294967295
152.92708 101.53252 -22.703045 4294967295
152.94243 104.25899 -22.835602 4294967295
152.9476 100.51791 -22.595396 4294967295
152.94855 103.58047 -22.780525 4294967295
152.95248 102.22072 -22.688665 4294967295
152.95911 100.18105 -22.549246 4294967295
152.99153 102.91319 -22.644283 4294967295
152.99829 95.668915 -23.011059 4294967295
153.0094 104.96042 -22.729755 4294967295
153.02359 103.94399 -22.636063 4294967295
153.0448 96.362175 -22.950275 4294967295
153.05814 97.386223 -22.983297 4294967295
153.06137 98.067307 -23.017715 4294967295
153.07257 98.410637 -23.013866 4294967295
153.09122 96.035194 -22.827347 4294967295
153.0918 97.055763 -22.888441 4294967295
153.09682 98.757782 -22.981279 4294967295
153.11086 96.721069 -22.825666 4294967295
153.11641 97.743095 -22.875885 4294967295
153.13551 99.109222 -22.916954 4294967295
153.18536 100.48459 -22.890472 4294967295
153.19997 99.468338 -22.795946 4294967295
153.20927 99.811295 -22.796289 4294967295
153.21812 100.83456 -22.839151 4294967295
153.25072 100.16382 -22.725891 4294967295
153.25679 102.88755 -22.878866 4294967295
153.26735 103.91143 -22.918056 4294967295
153.27335 101.53162 -22.759291 4294967295
153.28891 101.8766 -22.745855 4294967295
153.29266 103.57905 -22.841518 4294967295
153.29596 104.26055 -22.875906 4294967295
153.30788 102.22265 -22.724895 4294967295
153.30994 102.56355 -22.741198 4294967295
153.31207 104.94607 -22.882063 4294967295
153.32358 103.24831 -22.752829 4294967295
153.33704 104.61362 -22.80637 4294967295
153.36333 97.713356 -23.150162 4294967295
153.36842 96.694641 -23.076637 4294967295
153.3862 96.359589 -23.016773 4294967295
153.41451 95.687317 -22.913054 4294967295
153.44054 97.055305 -22.938946 4294967295
153.44716 97.397346 -22.945198 4294967295
153.45757 98.420807 -22.984648 4294967295
153.48895 99.110291 -22.957262 4294967295
153.49039 98.770531 -22.933331 4294967295
153.49263 100.81218 -23.05307 4294967295
153.49651 100.47318 -23.023781 4294967295
153.49869 98.092545 -22.873518 4294967295
153.51929 101.50049 -23.036076 4294967295
153.52705 100.14208 -22.935865 4294967295
153.55603 101.85176 -22.976131 4294967295
153.55727 104.23342 -23.118919 4294967295
153.56828 99.473785 -22.803764 4294967295
153.57585 102.87842 -22.994959 4294967295
153.58772 101.18086 -22.86495 4294967295
153.61487 103.23061 -22.930061 4294967295
153.64867 104.94235 -22.95981 4294967295
153.64868 102.2201 -22.793442 4294967295
153.651 95.995285 -23.23078 4294967295
153.6804 96.343643 -23.187046 4294967295
153.68315 104.61286 -22.863272 4294967295
153.68547 98.045341 -23.279751 4294967295
153.69043 96.686546 -23.185816 4294967295
153.70209 97.029938 -23.18096 4294967295
153.73811 97.380348 -23.122675 4294967295
153.76189 99.427902 -23.195093 4294967295
153.7838 98.754051 -23.105513 4294967295
153.82349 100.12633 -23.101528 4294967295
153.82648 100.80754 -23.136515 4294967295
153.84807 100.4738 -23.068356 4294967295
153.85075 101.15498 -23.104012 4294967295
153.87323 102.1823 -23.116982 4294967295
153.87595 102.86349 -23.152588 4294967295
153.87987 102.5245 -23.123249 4294967295
153.88808 101.50637 -23.042908 4294967295
153.89021 101.84724 -23.058981 4294967295
153.92339 104.23887 -23.131691 4294967295
153.94664 103.22536 -23.018339 4294967295
153.98238 104.59748 -23.023102 4294967295
153.98901 103.57867 -22.946152 4294967295
153.99509 104.94173 -23.015985 4294967295
154.02562 96.682213 -23.265987 4294967295
154.03665 96.005142 -23.200277 4294967295
154.05907 98.052147 -23.275705 4294967295
154.06032 97.032188 -23.210722 4294967295
154.06578 96.35347 -23.157225 4294967295
154.06589 99.754562 -23.364574 4294967295
154.07217 100.43655 -23.392359 4294967295
154.08929 98.741112 -23.251017 4294967295
154.09305 100.10265 -23.325825 4294967295
154.14684 99.438232 -23.166441 4294967295
154.16458 101.14433 -23.231407 4294967295
154.17203 102.50722 -23.298141 4294967295
154.1727 103.1877 -23.338194 4294967295
154.17938 102.1693 -23.261215 4294967295
154.1799 99.107704 -23.073189 4294967295
154.19821 101.8348 -23.199263 4294967295
154.2068 103.53834 -23.284246 4294967295
154.21738 101.50037 -23.136469 4294967295
154.23299 103.8866 -23.247641 4294967295
154.2849 104.24289 -23.154736 4294967295
154.2854 104.92353 -23.195194 4294967295
154.29449 95.639008 -23.429193 4294967295
154.31525 104.59259 -23.109051 4294967295
154.31931 96.326073 -23.416372 4294967295
154.33626 97.351028 -23.441534 4294967295
154.35751 97.017021 -23.374222 4294967295
154.36218 95.998055 -23.301767 4294967295
154.37358 97.70179 -23.380592 4294967295
154.38272 96.684074 -23.298321 4294967295
154.40201 100.77081 -23.505114 4294967295
154.4055 99.411507 -23.414482 4294967295
154.41187 98.052902 -23.317535 4294967295
154.4265 99.757782 -23.38929 4294967295
154.43333 98.399254 -23.291279 4294967295
154.44591 101.4641 -23.450623 4294967295
154.46078 100.10802 -23.334995 4294967295
154.46646 99.089195 -23.260302 4294967295
154.49199 101.8181 -23.370529 4294967295
154.50458 102.50221 -23.384497 4294967295
154.50658 101.14213 -23.297077 4294967295
154.53473 103.19175 -23.360006 4294967295
154.5473 103.53578 -23.353281 4294967295
154.54854 102.17536 -23.267527 4294967295
154.55281 103.87768 -23.361996 4294967295
154.56221 102.85995 -23.279161 4294967295
154.5849 104.90823 -23.354092 4294967295
154.60468 95.967674 -23.584743 4294967295
154.62607 97.673775 -23.641695 4294967295
154.63318 96.315704 -23.543152 4294967295
154.64668 104.58723 -23.198181 4294967295
154.65262 98.361427 -23.625151 4294967295
154.66005 96.663338 -23.50519 4294967295
154.6806 97.349319 -23.501688 4294967295
154.68361 95.649704 -23.391479 4294967295
154.68532 97.010582 -23.470684 4294967295
154.69063 98.032349 -23.521273 4294967295
154.70837 98.717628 -23.524033 4294967295
154.7337 101.44569 -23.634548 4294967295
154.75143 100.09062 -23.512875 4294967295
154.75658 101.11244 -23.563923 4294967295
154.75967 99.75293 -23.474119 4294967295
154.77528 100.7779 -23.502256 4294967295
154.78441 100.44048 -23.46155 4294967295
154.82642 104.87489 -23.639517 4294967295
154.83192 103.17593 -23.523729 4294967295
154.83812 102.49752 -23.468678 4294967295
154.87411 103.52904 -23.452305 4294967295
154.87589 102.84917 -23.406952 4294967295
154.88148 102.17046 -23.353178 4294967295
154.91547 103.88197 -23.382725 4294967295
154.94553 104.23151 -23.337776 4294967295
154.9473 97.325478 -23.731544 4294967295
154.97495 96.993309 -23.65049 4294967295
154.98148 98.015305 -23.69846 4294967295
154.98705 95.636467 -23.54113 4294967295
154.99168 95.977844 -23.551735 4294967295
154.99716 98.69989 -23.705669 4294967295
154.99947 96.660194 -23.576227 4294967295
155.03474 99.050873 -23.644367 4294967295
155.04581 101.09452 -23.744602 4294967295
155.04738 100.07479 -23.67902 4294967295
155.05597 100.75748 -23.701735 4294967295
155.06757 99.400528 -23.593435 4294967295
155.09192 101.78847 -23.685513 4294967295
155.11331 100.43437 -23.555811 4294967295
155.11356 102.8153 -23.700506 4294967295
155.12709 104.17985 -23.75391 4294967295
155.15726 102.14828 -23.563658 4294967295
155.18916 102.49812 -23.514761 4294967295
155.1902 105.21983 -23.678429 4294967295
155.1964 96.276894 -23.937262 4294967295
155.20189 104.54314 -23.61141 4294967295
155.22046 96.963562 -23.926239 4294967295
155.22234 95.60424 -23.83926 4294967295
155.22475 103.18936 -23.478584 4294967295
155.26073 97.314972 -23.859142 4294967295
155.26776 97.996956 -23.885302 4294967295
155.27303 96.638451 -23.790899 4294967295
155.29185 98.34388 -23.853493 4294967295
155.31548 95.970291 -23.656885 4294967295
155.3479 100.74043 -23.876381 4294967295
155.35181 97.681 -23.681307 4294967295
155.35709 101.42322 -23.89781 4294967295
155.36249 100.06464 -23.803129 4294967295
155.38046 100.41001 -23.784698 4294967295
155.38423 99.050743 -23.693581 4294967295
155.39128 99.392906 -23.698946 4294967295
155.40613 102.11805 -23.83238 4294967295
155.40791 99.737885 -23.683414 4294967295
155.4081 101.09837 -23.765905 4294967295
155.43459 103.82708 -23.874054 4294967295
155.4352 104.16735 -23.893459 4294967295
155.44101 101.78844 -23.735693 4294967295
155.4455 102.81015 -23.788074 4294967295
155.46425 103.49609 -23.788677 4294967295
155.47855 102.48002 -23.695343 4294967295
155.48337 103.1618 -23.726318 4294967295
155.53123 96.272461 -24.018021 4294967295
155.53775 104.87939 -23.71146 4294967295
155.54427 105.2216 -23.718006 4294967295
155.54671 97.296677 -24.046471 4294967295
155.56456 96.961777 -23.986891 4294967295
155.57001 97.983231 -24.037186 4294967295
155.57137 104.54961 -23.617514 4294967295
155.6035 96.63279 -23.88139 4294967295
155.60521 95.953201 -23.836222 4294967295
155.61223 97.655319 -23.924557 4294967295
155.6254 95.618782 -23.771503 4294967295
155.6273 98.679703 -23.953854 4294967295
155.64751 99.025574 -23.930635 4294967295
155.67549 100.39391 -23.952543 4294967295
155.68535 99.716698 -23.889658 4294967295
155.71484 99.385239 -23.804729 4294967295
155.73775 101.0925 -23.85849 4294967295
155.748 104.15631 -24.022633 4294967295
155.75253 104.49777 -24.033524 4294967295
155.7648 104.84164 -24.027531 4294967295
155.76665 102.12148 -23.85778 4294967295
155.77586 102.46438 -23.858414 4294967295
155.77995 100.76491 -23.745867 4294967295
155.8019 103.83282 -23.884642 4294967295
155.8098 102.8148 -23.8053 4294967295
155.82249 105.19969 -23.922741 4294967295
155.85942 95.926216 -24.092587 4294967295
155.8856 96.273521 -24.056385 4294967295
155.91028 95.60041 -23.961298 4294967295
155.91306 97.641212 -24.079504 4294967295
155.91412 96.961525 -24.035793 4294967295
155.92693 96.62513 -23.987253 4294967295
155.95288 97.992599 -24.013607 4294967295
155.95981 97.314499 -23.957134 4294967295
155.98305 98.341309 -23.968721 4294967295
155.98528 100.38219 -24.088165 4294967295
155.99078 99.023651 -23.993328 4294967295
155.99472 98.684723 -23.964062 4294967295
155.99805 100.04591 -24.039684 4294967295
156.00201 101.0672 -24.093163 4294967295
156.00389 99.367516 -23.985548 4294967295
156.01978 103.11266 -24.17885 4294967295
156.03114 101.41591 -24.050575 4294967295
156.03149 102.43616 -24.111973 4294967295
156.0378 100.73775 -23.994717 4294967295
156.05348 99.722069 -23.898447 4294967295
156.05502 102.10319 -24.040096 4294967295
156.09203 103.47475 -24.042538 4294967295
156.09799 104.83691 -24.112432 4294967295
156.10144 101.77702 -23.918482 4294967295
156.10657 105.17964 -24.114523 4294967295
156.1153 102.8016 -23.950535 4294967295
156.1451 103.83111 -23.947891 4294967295
156.15375 95.910484 -24.261442 4294967295
156.16307 96.592926 -24.282581 4294967295
156.18854 104.18462 -23.874245 4294967295
156.20201 96.94384 -24.218697 4294967295
156.21796 104.53391 -23.831009 4294967295
156.22183 96.269455 -24.134266 4294967295
156.2511 97.297722 -24.132811 4294967295
156.27052 97.983292 -24.13201 4294967295
156.27466 97.644424 -24.102354 4294967295
156.28271 100.70683 -24.271135 4294967295
156.30089 98.67205 -24.107544 4294967295
156.30409 98.332932 -24.079836 4294967295
156.30736 100.3741 -24.196991 4294967295
156.32335 102.41891 -24.286461 4294967295
156.33083 101.06108 -24.187456 4294967295
156.34431 101.40514 -24.178846 4294967295
156.34515 100.04515 -24.094208 4294967295
156.34772 102.08624 -24.212868 4294967295
156.36929 99.712128 -24.021107 4294967295
156.3868 103.45824 -24.210857 4294967295
156.3876 103.79853 -24.229816 4294967295
156.39671 104.14137 -24.230801 4294967295
156.39978 104.48238 -24.244804 4294967295
156.40106 102.78243 -24.138468 4294967295
156.4375 95.891823 -24.453056 4294967295
156.44565 103.13606 -24.062431 4294967295
156.4489 95.555115 -24.407646 4294967295
156.4762 104.84612 -24.09968 4294967295
156.48894 96.246078 -24.36216 4294967295
156.49724 96.928253 -24.385525 4294967295
156.50935 97.271606 -24.379971 4294967295
156.52968 96.597435 -24.294497 4294967295
156.54782 105.20853 -23.964914 4294967295
156.56282 98.306702 -24.326061 4294967295
156.58459 97.632927 -24.237461 4294967295
156.6015 101.03775 -24.4077 4294967295
156.62932 99.685921 -24.264666 4294967295
156.63383 99.347221 -24.234118 4294967295
156.63536 99.007622 -24.210089 4294967295
156.63876 100.36875 -24.285538 4294967295
156.66165 100.03542 -24.215235 4294967295
156.6682 102.07763 -24.325205 4294967295
156.68315 101.402 -24.251429 4294967295
156.70445 103.44873 -24.329384 4294967295
156.70555 102.76897 -24.285618 4294967295
156.74173 102.4398 -24.186478 4294967295
156.743 104.14066 -24.287251 4294967295
156.75383 95.542381 -24.553169 4294967295
156.78484 103.81338 -24.175867 4294967295
156.79875 104.49792 -24.18713 4294967295
156.81039 104.84165 -24.182602 4294967295
156.82848 105.18742 -24.164101 4294967295
156.85426 96.930092 -24.41835 4294967295
156.87407 95.915688 -24.313364 4294967295
156.87914 97.617065 -24.405804 4294967295
156.88634 96.599129 -24.328165 4294967295
156.89723 96.262161 -24.283863 4294967295
156.8989 99.322594 -24.466442 4294967295
156.90623 97.964767 -24.36779 4294967295
156.91841 101.02813 -24.527586 4294967295
156.9198 98.988655 -24.40049 4294967295
156.93445 100.01292 -24.430798 4294967295
156.93744 99.673782 -24.40366 4294967295
156.95364 101.37856 -24.471996 4294967295
156.95517 100.699 -24.427349 4294967295
156.95711 100.35956 -24.402428 4294967295
156.96101 102.06074 -24.497379 4294967295
156.98376 102.74758 -24.489532 4294967295
156.99733 101.73159 -24.39809 4294967295
157.01306 103.43649 -24.467499 4294967295
157.01607 103.77743 -24.481668 4294967295
157.03612 103.10345 -24.396881 4294967295
157.06117 102.43086 -24.301228 4294967295
157.0647 95.871162 -24.706383 4294967295
157.0898 104.82027 -24.38414 4294967295
157.09155 104.48071 -24.359669 4294967295
157.09912 104.14293 -24.322561 4294967295
157.12277 105.17059 -24.333471 4294967295
157.14391 97.592766 -24.638371 4294967295
157.1615 96.917908 -24.558992 4294967295
157.1682 96.579826 -24.523834 4294967295
157.19392 98.28688 -24.571552 4294967295
157.20718 100.67029 -24.687576 4294967295
157.22678 98.636269 -24.521189 4294967295
157.24454 97.961342 -24.441406 4294967295
157.25966 100.00575 -24.532761 4294967295
157.27527 101.37033 -24.581696 4294967295
157.28345 99.332642 -24.439957 4294967295
157.29228 99.675255 -24.441488 4294967295
157.29376 101.0358 -24.521046 4294967295
157.31062 100.36069 -24.443218 4294967295
157.31796 101.72303 -24.510092 4294967295
157.35356 102.07372 -24.453793 4294967295
157.35829 102.4152 -24.464233 4294967295
157.37454 103.10026 -24.470484 4294967295
157.3862 104.80417 -24.548637 4294967295
157.39845 102.76739 -24.39809 4294967295
157.41335 103.45212 -24.407295 4294967295
157.41957 95.872307 -24.743757 4294967295
157.41986 96.891991 -24.805115 4294967295
157.42581 104.13617 -24.421675 4294967295
157.43034 96.555061 -24.761839 4294967295
157.43044 97.234818 -24.802967 4294967295
157.44229 103.80106 -24.365366 4294967295
