# .PCD v0.7 - Point Cloud Data file format
VERSION 0.7
FIELDS x y z rgb
SIZE 4 4 4 4
TYPE F F F U
COUNT 1 1 1 1
WIDTH 1138
HEIGHT 1
VIEWPOINT 0 0 0 1 0 0 0
POINTS 1138
DATA ascii
219.87434 -0.0127268 -51.823265 4294967295
219.88876 -1.018779 -51.741508 4294967295
219.89252 -0.68383408 -51.754257 4294967295
219.90315 0.99126291 -51.831734 4294967295
219.91147 3.0015264 -51.932228 4294967295
219.92464 3.6712122 -51.94809 4294967295
219.93939 0.65449673 -51.75116 4294967295
219.94415 4.6758046 -51.972309 4294967295
219.95325 4.3403893 -51.937809 4294967295
219.96364 4.0049028 -51.901085 4294967295
219.99899 3.333302 -51.802963 4294967295
219.99976 2.6629248 -51.763451 4294967295
220.04495 -1.687295 -52.080181 4294967295
220.07393 5.341825 -51.790539 4294967295
220.0769 6.6825438 -51.861954 4294967295
220.09238 6.0116839 -51.797485 4294967295
220.09644 -2.3600559 -51.954777 4294967295
220.12279 -2.0264182 -51.929245 4294967295
220.12384 7.016458 -51.801495 4294967295
220.13062 -1.3567095 -51.954185 4294967295
220.13069 -0.68660259 -51.992229 4294967295
220.13173 -1.021708 -51.971363 4294967295
220.16719 7.3505492 -51.747162 4294967295
220.1739 -0.018568 -51.957195 4294967295
220.18869 0.31582639 -51.951202 4294967295
220.1976 2.9960313 -52.088875 4294967295
220.20688 0.65008259 -51.939552 4294967295
220.24896 0.98330742 -51.887341 4294967295
220.26233 1.9881368 -51.92202 4294967295
220.2767 1.652389 -51.878586 4294967295
220.28279 4.6683617 -52.040115 4294967295
220.31006 5.3376999 -52.032112 4294967295
220.31235 2.3212318 -51.856403 4294967295
220.35683 6.3417058 -52.010254 4294967295
220.36024 7.0119228 -52.042618 4294967295
220.36977 5.6709747 -51.950184 4294967295
220.37111 7.3467865 -52.043365 4294967295
220.38358 -1.0250883 -52.185909 4294967295
220.40364 6.0051332 -51.911919 4294967295
220.40578 6.6754827 -51.946453 4294967295
220.42841 -0.3572903 -52.148243 4294967295
220.43045 -0.6924141 -52.125702 4294967295
220.4592 -0.0237293 -52.115189 4294967295
220.4633 -1.3641658 -52.031918 4294967295
220.47388 0.31063321 -52.109421 4294967295
220.49976 0.97958231 -52.103851 4294967295
220.52606 1.9836717 -52.1166 4294967295
220.52983 1.6484318 -52.09108 4294967295
220.53433 2.9885707 -52.159866 4294967295
220.55193 1.3123741 -52.034679 4294967295
220.5549 3.9930282 -52.182358 4294967295
220.55846 0.64183861 -51.985428 4294967295
220.55936 2.3173971 -52.079353 4294967295
220.59735 4.6617303 -52.148712 4294967295
220.60303 4.9966531 -52.158222 4294967295
220.60757 5.6667161 -52.18869 4294967295
220.61028 3.3207703 -52.050507 4294967295
220.63829 3.6548758 -52.022179 4294967295
220.66248 -2.0347042 -52.297218 4294967295
220.66847 4.3241358 -52.009323 4294967295
220.66899 6.3351226 -52.122986 4294967295
220.67067 -2.37011 -52.264297 4294967295
220.68861 -1.7011075 -52.272137 4294967295
220.69832 7.0046167 -52.111599 4294967295
220.70537 7.3395958 -52.118771 4294967295
220.73294 5.9980426 -51.995781 4294967295
220.73753 -1.0336027 -52.227592 4294967295
220.73882 -1.3686936 -52.206356 4294967295
220.74203 6.6682091 -52.018581 4294967295
220.74457 1.3111138 -52.349236 4294967295
220.74864 -0.36411089 -52.246956 4294967295
220.75304 1.9807353 -52.373093 4294967295
220.75684 -0.69953972 -52.214035 4294967295
220.78819 0.97417879 -52.25642 4294967295
220.80588 2.6486096 -52.321915 4294967295
220.82578 2.9828672 -52.307396 4294967295
220.86351 0.30059049 -52.090973 4294967295
220.87791 2.3106465 -52.181129 4294967295
220.87819 3.3159299 -52.237923 4294967295
220.886 3.6507301 -52.243797 4294967295
220.90427 5.9957032 -52.346542 4294967295
220.90732 4.3201594 -52.245979 4294967295
220.9144 3.9848008 -52.214893 4294967295
220.96922 6.3288865 -52.255886 4294967295
220.96928 4.6531558 -52.160397 4294967295
220.97267 5.6585007 -52.211891 4294967295
220.97504 -2.3760757 -52.389729 4294967295
220.97516 5.3232727 -52.188599 4294967295
220.98022 -1.0365307 -52.457294 4294967295
220.98099 4.9879284 -52.159672 4294967295
221.01144 6.6628199 -52.20369 4294967295
221.03787 6.9972668 -52.17815 4294967295
221.03856 -2.0444913 -52.301563 4294967295
221.05484 0.2997551 -52.407574 4294967295
221.05904 -0.3704524 -52.362343 4294967295
221.06004 7.3318706 -52.159748 4294967295
221.07066 -1.7111473 -52.266422 4294967295
221.0899 1.9732237 -52.443741 4294967295
221.09219 -0.70710301 -52.287273 4294967295
221.09978 -0.037374001 -52.312592 4294967295
221.11232 -1.3782389 -52.21516 4294967295
221.1299 3.3116965 -52.452518 4294967295
221.15257 2.6407385 -52.376144 4294967295
221.16095 0.96502072 -52.266544 4294967295
221.16759 4.315433 -52.446136 4294967295
221.17905 2.9747663 -52.350479 4294967295
221.18152 3.6448212 -52.384464 4294967295
221.18227 0.62896299 -52.211502 4294967295
221.19713 5.3196011 -52.453545 4294967295
221.20255 3.9791327 -52.368057 4294967295
221.21538 2.3031259 -52.251003 4294967295
221.2462 7.3285732 -52.485203 4294967295
221.27075 5.6523695 -52.348354 4294967295
221.27487 -2.0468578 -52.541851 4294967295
221.28978 -1.7126975 -52.535763 4294967295
221.29837 5.986661 -52.320816 4294967295
221.30373 6.9919291 -52.369015 4294967295
221.30634 -2.3834934 -52.469711 4294967295
221.31429 4.9806743 -52.236767 4294967295
221.32101 -1.3793557 -52.502144 4294967295
221.32961 6.3208919 -52.287228 4294967295
221.33719 0.96460289 -52.608295 4294967295
221.35735 -0.37621689 -52.498062 4294967295
221.37009 -0.041829102 -52.495655 4294967295
221.39101 1.2972121 -52.536613 4294967295
221.40097 -1.0483999 -52.386353 4294967295
221.41151 0.62627459 -52.463913 4294967295
221.43468 -0.71501797 -52.348579 4294967295
221.44969 2.6348333 -52.513985 4294967295
221.45277 0.28933051 -52.375229 4294967295
221.47182 3.3040605 -52.514809 4294967295
221.48969 3.6384444 -52.503765 4294967295
221.5134 5.3129091 -52.559105 4294967295
221.53593 1.9611664 -52.33036 4294967295
221.53711 5.6472235 -52.538223 4294967295
221.54326 6.9873075 -52.604126 4294967295
221.55136 4.6415 -52.45694 4294967295
221.56787 6.3164635 -52.524521 4294967295
221.58307 -2.3879693 -52.64159 4294967295
221.58788 4.9753957 -52.414482 4294967295
221.60654 -1.7193391 -52.64019 4294967295
221.63216 5.9794321 -52.397099 4294967295
221.65231 -2.0567117 -52.543991 4294967295
221.65779 7.3193502 -52.430149 4294967295
221.66086 -0.047258399 -52.64402 4294967295
221.661 -1.0521977 -52.586536 4294967295
221.67247 -0.71778083 -52.586304 4294967295
221.68019 1.6267042 -52.706741 4294967295
221.71953 -0.38506219 -52.526085 4294967295
221.72153 2.6299319 -52.694305 4294967295
221.73924 1.9592109 -52.62632 4294967295
221.75893 2.2934279 -52.612236 4294967295
221.7722 0.2825518 -52.475487 4294967295
221.78302 1.2872686 -52.51442 4294967295
221.80327 0.95130301 -52.461288 4294967295
221.80449 2.961709 -52.573601 4294967295
221.81386 3.2964134 -52.576946 4294967295
221.81569 5.3066583 -52.688232 4294967295
221.82259 4.3012867 -52.619389 4294967295
221.82419 3.6310973 -52.578609 4294967295
221.84401 5.9758744 -52.678631 4294967295
221.84969 4.6354218 -52.592842 4294967295
221.85828 6.3105097 -52.673763 4294967295
221.86401 6.6454091 -52.683105 4294967295
221.87202 5.639946 -52.612427 4294967295
221.88899 4.9692039 -52.545742 4294967295
221.89584 -1.0547354 -52.828987 4294967295
221.89688 -2.3944468 -52.751003 4294967295
221.91177 -2.0603113 -52.744965 4294967295
221.93787 -1.7267435 -52.720123 4294967295
221.97406 0.61616611 -52.792595 4294967295
221.98798 1.9553642 -52.845387 4294967295
221.9903 -0.054515399 -52.727211 4294967295
222.0148 1.2842946 -52.762161 4294967295
222.02234 0.94897318 -52.730392 4294967295
222.02289 -0.72608763 -52.634186 4294967295
222.03391 -0.39159781 -52.634712 4294967295
222.04224 1.6181092 -52.735004 4294967295
222.07552 3.626812 -52.793404 4294967295
222.07838 0.276382 -52.598015 4294967295
222.08263 3.2915378 -52.76239 4294967295
222.09389 2.286005 -52.686272 4294967295
222.11041 2.955442 -52.696564 4294967295
222.11469 4.9654989 -52.803734 4294967295
222.12279 3.9601235 -52.732964 4294967295
222.13759 4.2946458 -52.727112 4294967295
222.16109 5.9691496 -52.782898 4294967295
222.16183 5.2990069 -52.743515 4294967295
222.19582 6.3031836 -52.743549 4294967295
222.19937 5.6329045 -52.699455 4294967295
222.2274 6.6373706 -52.709488 4294967295
222.22864 6.9724407 -52.726448 4294967295
222.23254 -1.7322311 -52.861698 4294967295
222.24779 -1.3980865 -52.855137 4294967295
222.25414 7.3068676 -52.702671 4294967295
222.25636 -2.0684268 -52.802624 4294967295
222.27879 -0.39478451 -52.860161 4294967295
222.31253 -1.0663972 -52.765308 4294967295
222.31253 1.9483628 -52.936798 4294967295
222.31512 1.6132975 -52.913353 4294967295
222.32857 0.94277573 -52.85268 4294967295
222.33923 -0.062690698 -52.77758 4294967295
222.34381 1.2770915 -52.846119 4294967295
222.36102 0.60632282 -52.77906 4294967295
222.38272 2.9504762 -52.875996 4294967295
222.39221 0.26985651 -52.707558 4294967295
222.40086 3.9548087 -52.902664 4294967295
222.40228 2.2796664 -52.805004 4294967295
222.41953 4.6241741 -52.909397 4294967295
222.43091 5.6288362 -52.947472 4294967295
222.44403 3.2831645 -52.791988 4294967295
222.44414 4.9583755 -52.887123 4294967295
222.45842 6.2980413 -52.939346 4294967295
222.47815 5.9624233 -52.887093 4294967295
222.48985 6.9672241 -52.924637 4294967295
222.50484 7.3018746 -52.918526 4294967295
222.53433 -1.7380977 -52.991261 4294967295
222.56784 -1.0699656 -52.973061 4294967295
222.57362 -0.73531479 -52.982391 4294967295
222.57506 -1.4052682 -52.941883 4294967295
222.58699 1.6085296 -53.093231 4294967295
222.60023 -0.40166661 -52.956745 4294967295
222.63716 1.9413548 -53.028099 4294967295
222.64009 -0.068596803 -52.908836 4294967295
222.65837 0.60053867 -52.916275 4294967295
222.67897 0.93461698 -52.900749 4294967295
222.67987 3.2795224 -53.032532 4294967295
222.69951 0.26363319 -52.828129 4294967295
222.70471 2.6085796 -52.952797 4294967295
222.70766 1.2683787 -52.871605 4294967295
222.71252 4.2832875 -53.034878 4294967295
222.7489 5.9570899 -53.069107 4294967295
222.75395 2.2715712 -52.85104 4294967295
222.75725 6.9618387 -53.112198 4294967295
222.76529 2.9412432 -52.870098 4294967295
222.77202 7.2964439 -53.106464 4294967295
222.77312 3.9461274 -52.91412 4294967295
222.78493 6.291038 -53.027657 4294967295
222.78708 3.6105542 -52.871658 4294967295
222.78745 5.2858419 -52.966297 4294967295
222.78951 4.9507279 -52.943771 4294967295
222.80287 6.6255574 -53.016575 4294967295
222.81042 4.6149588 -52.889637 4294967295
222.85574 -0.74026752 -53.144909 4294967295
222.86142 -2.0801961 -53.059269 4294967295
222.87572 -1.7460208 -53.054272 4294967295
222.89087 -1.4118681 -53.047878 4294967295
222.92917 -0.40890929 -53.040745 4294967295
222.94789 2.2698722 -53.161697 4294967295
222.96452 3.2740417 -53.190952 4294967295
222.96577 0.59429598 -53.036495 4294967295
222.96866 1.5990987 -53.088772 4294967295
222.98422 1.263454 -53.043659 4294967295
222.98744 0.92831713 -53.019192 4294967295
222.99725 1.9328818 -53.059849 4294967295
223.00729 0.25739101 -52.94783 4294967295
223.0148 3.607132 -53.125679 4294967295
223.01698 3.942039 -53.141068 4294967295
223.01959 2.9369745 -53.079548 4294967295
223.0248 2.6017661 -53.051727 4294967295
223.05309 4.2757592 -53.099571 4294967295
223.05791 4.6106052 -53.110535 4294967295
223.06412 6.620398 -53.21439 4294967295
223.06784 5.6153049 -53.150978 4294967295
223.08012 4.94488 -53.092316 4294967295
223.08118 6.9549198 -53.20483 4294967295
223.08316 7.2898602 -53.220543 4294967295
223.09233 6.2845883 -53.148064 4294967295
223.1358 -2.0845959 -53.234642 4294967295
223.16029 -1.4160988 -53.231636 4294967295
223.19133 -1.7526026 -53.160583 4294967295
223.20078 -0.4133887 -53.220886 4294967295
223.21376 -1.0838802 -53.161098 4294967295
223.23358 0.5898509 -53.223007 4294967295
223.24004 -0.080326103 -53.174126 4294967295
223.25337 2.2636495 -53.285034 4294967295
223.2618 0.92352962 -53.194798 4294967295
223.26814 2.9329195 -53.29842 4294967295
223.27625 0.2529445 -53.132511 4294967295
223.29062 1.5922055 -53.184566 4294967295
223.32523 3.2656951 -53.221806 4294967295
223.32635 4.2705755 -53.276993 4294967295
223.32922 4.9404006 -53.310322 4294967295
223.32979 4.6054168 -53.290344 4294967295
223.35686 2.5944767 -53.13073 4294967295
223.35718 1.9244156 -53.092117 4294967295
223.36095 6.6142378 -53.352379 4294967295
223.36577 6.27913 -53.325211 4294967295
223.39761 6.9481983 -53.309978 4294967295
223.41434 -1.4195471 -53.440971 4294967295
223.41705 5.2725482 -53.182255 4294967295
223.42409 7.2824965 -53.284706 4294967295
223.43254 -2.0901792 -53.372437 4294967295
223.46559 0.5870223 -53.469299 4294967295
223.47495 0.2517409 -53.434635 4294967295
223.47951 -1.7577608 -53.31282 4294967295
223.48001 -1.0880029 -53.350018 4294967295
223.49559 -0.0841012 -53.38105 4294967295
223.51947 -0.75505692 -53.303001 4294967295
223.54111 0.91852278 -53.361946 4294967295
223.56375 2.2572236 -53.400154 4294967295
223.59068 2.9260077 -53.39312 4294967295
223.59659 2.5908384 -53.364288 4294967295
223.59686 3.2607064 -53.401814 4294967295
223.61966 3.5947995 -53.382748 4294967295
223.62157 1.919908 -53.284409 4294967295
223.62892 4.5993109 -53.424377 4294967295
223.63676 3.9291368 -53.373188 4294967295
223.64447 4.2638264 -53.37928 4294967295
223.67499 5.2677174 -53.385323 4294967295
223.69118 -2.093745 -53.573856 4294967295
223.70036 4.9319024 -53.323807 4294967295
223.72357 -0.75618172 -53.595726 4294967295
223.72884 5.9360471 -53.333328 4294967295
223.74251 7.2757192 -53.386578 4294967295
223.76315 6.605104 -53.314003 4294967295
223.76654 6.9400535 -53.327339 4294967295
223.76964 -0.42359209 -53.537758 4294967295
223.77138 -1.7631121 -53.458775 4294967295
223.77884 6.269609 -53.268684 4294967295
223.78931 0.24518581 -53.542923 4294967295
223.7908 -1.4292338 -53.445312 4294967295
223.79817 -1.0947244 -53.451996 4294967295
223.81682 -0.0909696 -53.477898 4294967295
223.85664 0.91190672 -53.468365 4294967295
223.86572 1.5813365 -53.491249 4294967295
223.86827 0.5764699 -53.429855 4294967295
223.8931 2.9198713 -53.521587 4294967295
223.90572 2.5844593 -53.481464 4294967295
223.9335 1.9134316 -53.396942 4294967295
223.93684 4.2579751 -53.524601 4294967295
223.96765 3.2519774 -53.416004 4294967295
223.97253 6.2664671 -53.579075 4294967295
223.98607 5.2611909 -53.499382 4294967295
223.9982 4.9258175 -53.460129 4294967295
224.00656 6.935411 -53.560299 4294967295
224.01733 4.5901847 -53.409035 4294967295
224.02831 -2.1014671 -53.643944 4294967295
224.07074 7.2686877 -53.472084 4294967295
224.07156 -1.4340487 -53.609722 4294967295
224.07607 6.5984912 -53.425102 4294967295
224.09122 -0.095633999 -53.652946 4294967295
224.12697 0.2375603 -53.61227 4294967295
224.15266 2.9153919 -53.72147 4294967295
224.17039 -0.43428761 -53.501675 4294967295
224.17308 -0.769346 -53.478127 4294967295
224.17717 2.2446756 -53.642536 4294967295
224.19608 1.2391577 -53.553875 4294967295
224.21295 1.9082971 -53.563747 4294967295
224.22073 2.5778408 -53.588806 4294967295
224.22714 3.9172812 -53.654186 4294967295
224.23199 3.2472615 -53.608021 4294967295
224.24715 3.5816302 -53.601761 4294967295
224.25587 4.251194 -53.625248 4294967295
224.27 4.5856504 -53.620659 4294967295
224.28305 5.2551074 -53.636971 4294967295
224.31738 7.2637987 -53.69379 4294967295
224.32722 6.9285798 -53.658321 4294967295
224.32803 -2.1072083 -53.776516 4294967295
224.33182 5.9235253 -53.593575 4294967295
224.33627 4.9184113 -53.529049 4294967295
224.34175 -1.4383292 -53.791603 4294967295
224.34512 6.258121 -53.590401 4294967295
224.34772 5.5880508 -53.548004 4294967295
224.35184 -0.4344416 -53.83181 4294967295
224.36955 6.5924225 -53.568653 4294967295
224.39886 1.2374249 -53.848408 4294967295
224.41785 0.56693077 -53.77877 4294967295
224.42198 -0.1029558 -53.733795 4294967295
224.42424 1.5711589 -53.825134 4294967295
224.4306 -1.7777371 -53.62431 4294967295
224.46416 2.5740504 -53.815563 4294967295
224.46744 -1.1098089 -53.600918 4294967295
224.47565 2.9084601 -53.815399 4294967295
224.50667 1.9025731 -53.706619 4294967295
224.50693 0.2279782 -53.61105 4294967295
224.51787 0.89734131 -53.630875 4294967295
224.53499 3.5759974 -53.754448 4294967295
224.54405 2.2359638 -53.663265 4294967295
224.54672 3.910481 -53.753857 4294967295
224.5645 4.9146109 -53.781288 4294967295
224.57637 5.2491488 -53.780479 4294967295
224.58931 4.2439137 -53.701878 4294967295
224.61046 5.5830083 -53.742706 4294967295
224.61314 6.9226875 -53.814308 4294967295
224.63919 -1.4439955 -53.927956 4294967295
224.64394 6.2519207 -53.724911 4294967295
224.64993 6.5867209 -53.733932 4294967295
224.69063 -2.1162727 -53.804153 4294967295
224.69943 7.2553539 -53.689423 4294967295
224.70001 -0.44260791 -53.88361 4294967295
224.70399 -1.1124542 -53.83897 4294967295
224.73192 2.2344947 -53.982414 4294967295
224.74539 -0.1099253 -53.826965 4294967295
224.74832 1.8990016 -53.936104 4294967295
224.7597 1.2288413 -53.879158 4294967295
224.78348 0.89293808 -53.820469 4294967295
224.81325 3.5707126 -53.922993 4294967295
224.81435 0.55666113 -53.750027 4294967295
224.85371 3.9041309 -53.87458 4294967295
224.87366 5.5779533 -53.936405 4294967295
224.875 4.2382913 -53.858128 4294967295
224.89258 4.9075308 -53.866879 4294967295
224.90106 6.246932 -53.928749 4294967295
224.90207 6.9167171 -53.96508 4294967295
224.94186 -0.78041959 -54.093475 4294967295
224.94669 5.9106531 -53.833767 4294967295
224.95387 -2.1200933 -53.997459 4294967295
224.96533 -1.4511204 -54.016399 4294967295
224.97298 7.2497549 -53.86602 4294967295
224.98232 6.5795569 -53.812477 4294967295
224.9937 -1.7873781 -53.950157 4294967295
224.99883 -0.44840911 -54.017628 4294967295
225.03438 -1.119791 -53.920406 4294967295
225.03752 1.2238503 -54.048222 4294967295
225.05135 -0.1160793 -53.949177 4294967295
225.05984 1.8925395 -54.049084 4294967295
225.06654 0.88775629 -53.980911 4294967295
225.0999 2.5605917 -54.020428 4294967295
225.11267 3.2298021 -54.037102 4294967295
225.12163 4.2340245 -54.079208 4294967295
225.12486 1.5549645 -53.92181 4294967295
225.12915 2.8943138 -53.990692 4294967295
225.13277 3.5639153 -54.022697 4294967295
225.15993 3.89781 -53.996479 4294967295
225.18324 4.5667887 -53.995682 4294967295
225.19215 5.2362895 -54.018898 4294967295
225.20355 5.9057331 -54.03791 4294967295
225.21567 -1.4544003 -54.230934 4294967295
225.22157 4.9004207 -53.950901 4294967295
225.2235 5.5702147 -53.985725 4294967295
225.24046 6.2395554 -53.995514 4294967295
225.24738 -1.1212668 -54.197193 4294967295
225.24855 6.5742531 -54.001083 4294967295
225.24991 7.2440681 -54.036823 4294967295
225.2567 -2.1260049 -54.124725 4294967295
225.27136 -0.78770262 -54.176304 4294967295
225.30098 6.9077582 -53.932846 4294967295
225.30431 0.21503501 -54.178513 4294967295
225.35037 0.54773039 -54.120926 4294967295
225.35213 1.5520768 -54.174946 4294967295
225.36311 0.88197517 -54.118717 4294967295
225.36574 -0.1226301 -54.057346 4294967295
225.37666 -0.4579964 -54.020157 4294967295
225.39455 2.8896027 -54.180412 4294967295
225.3976 1.8849902 -54.118336 4294967295
225.40938 1.214797 -54.060757 4294967295
225.42821 2.5534492 -54.105392 4294967295
225.43532 3.5577393 -54.150574 4294967295
225.43839 3.8924775 -54.164501 4294967295
225.45155 4.5617175 -54.180592 4294967295
225.45412 3.2221818 -54.100334 4294967295
225.50485 6.234354 -54.187012 4294967295
225.52399 4.8941836 -54.079231 4294967295
225.5388 5.5635424 -54.092575 4294967295
225.53943 4.2238116 -54.015545 4294967295
225.54881 5.2283049 -54.056961 4294967295
225.5556 5.8979549 -54.08363 4294967295
225.57545 -0.79373878 -54.301388 4294967295
225.57988 7.2369924 -54.119354 4294967295
225.59283 -1.4641171 -54.234528 4294967295
225.59329 -2.1336927 -54.195786 4294967295
225.60944 -0.46062559 -54.263943 4294967295
225.61037 6.5662603 -54.030632 4294967295
225.62439 1.8820271 -54.371964 4294967295
225.6257 0.2081542 -54.274899 4294967295
225.63995 -1.1316977 -54.17522 4294967295
225.64909 -1.8018005 -54.122063 4294967295
225.6519 0.54174608 -54.25034 4294967295
225.68665 3.2186551 -54.344521 4294967295
225.70503 0.8741951 -54.181061 4294967295
225.71013 3.552577 -54.324512 4294967295
225.71242 -0.1306992 -54.11182 4294967295
225.71248 2.2132206 -54.24464 4294967295
225.71922 2.8826079 -54.271473 4294967295
225.73077 1.2079225 -54.157269 4294967295
225.7753 4.5547733 -54.273293 4294967295
225.7778 4.8895445 -54.288139 4294967295
225.79594 5.223814 -54.276985 4294967295
225.80908 4.2187457 -54.198193 4294967295
225.81697 -2.1354368 -54.454319 4294967295
225.82709 3.8832126 -54.149307 4294967295
225.83524 5.5574551 -54.23077 4294967295
225.83974 6.2271042 -54.261269 4294967295
225.84442 -1.4674597 -54.446701 4294967295
225.86099 7.2311959 -54.28294 4294967295
225.87491 6.5610046 -54.221855 4294967295
225.88977 5.8907146 -54.159206 4294967295
225.89146 -1.1351037 -54.387615 4294967295
225.89259 0.2037821 -54.461643 4294967295
225.89656 -0.1311283 -54.436066 4294967295
225.90047 0.87287658 -54.486572 4294967295
225.92596 -1.8063841 -54.292377 4294967295
225.92702 6.8945065 -54.154346 4294967295
225.96472 1.2048249 -54.398968 4294967295
225.97002 0.53501612 -54.352184 4294967295
225.97308 1.5392489 -54.404102 4294967295
225.98291 2.208406 -54.425682 4294967295
225.99025 1.8733177 -54.394554 4294967295
226.01816 2.8766046 -54.405197 4294967295
226.02638 3.5459008 -54.429546 4294967295
226.05095 2.5405049 -54.331833 4294967295
226.07938 4.5484982 -54.398624 4294967295
226.09334 4.8828769 -54.394424 4294967295
226.10472 4.2127748 -54.337551 4294967295
226.11438 5.5519047 -54.397469 4294967295
226.12784 6.890923 -54.451134 4294967295
226.13101 3.8769722 -54.274975 4294967295
226.1572 6.5552516 -54.383442 4294967295
226.17209 -1.4746661 -54.532547 4294967295
226.17328 -0.8053112 -54.568535 4294967295
226.17424 -0.4706569 -54.585899 4294967295
226.17911 5.884819 -54.309158 4294967295
226.18639 -1.8101249 -54.489868 4294967295
226.18817 -2.1449475 -54.467911 4294967295
226.23381 0.53073651 -54.544102 4294967295
226.24286 -0.13918211 -54.491119 4294967295
226.24355 1.1997848 -54.56591 4294967295
226.24567 2.2039027 -54.619316 4294967295
226.26942 7.2220635 -54.235294 4294967295
226.27094 0.1942835 -54.463619 4294967295
226.27946 -1.145304 -54.373505 4294967295
226.28207 1.8676691 -54.53997 4294967295
226.28868 2.5369296 -54.567017 4294967295
226.29071 2.8716121 -54.582668 4294967295
226.29356 1.5324125 -54.501995 4294967295
226.30049 0.86253363 -54.452515 4294967295
226.34073 3.2044902 -54.518715 4294967295
226.38181 3.8726234 -54.488647 4294967295
226.40422 5.2111912 -54.52742 4294967295
226.4361 4.5404429 -54.43663 4294967295
226.44398 4.8750515 -54.442524 4294967295
226.44849 5.8795199 -54.492023 4294967295
226.46809 6.8835588 -54.516506 4294967295
226.47231 6.5485697 -54.490547 4294967295
226.48317 7.2180319 -54.510483 4294967295
226.48578 6.2132998 -54.449226 4294967295
226.51004 -1.4823954 -54.601345 4294967295
226.51656 -1.817466 -54.571617 4294967295
226.53064 0.1902418 -54.662102 4294967295
226.53119 1.1943655 -54.718098 4294967295
226.54141 -0.14498851 -54.625309 4294967295
226.55174 0.524014 -54.646141 4294967295
226.56079 0.85835272 -54.650139 4294967295
226.57846 1.5270791 -54.658844 4294967295
226.58995 -0.48205811 -54.525955 4294967295
226.60231 2.5303669 -54.676231 4294967295
226.61017 2.8648176 -54.682236 4294967295
226.64368 2.1939354 -54.588814 4294967295
226.69785 4.5355916 -54.631935 4294967295
226.71176 3.8654532 -54.570976 4294967295
226.71664 5.8742599 -54.67675 4294967295
226.71753 4.2000904 -54.580433 4294967295
226.72163 5.2044621 -54.630573 4294967295
226.73708 4.8691216 -54.586021 4294967295
226.74333 5.5386171 -54.613602 4294967295
226.75053 -2.1545012 -54.793541 4294967295
226.76256 6.207737 -54.619732 4294967295
226.78166 -1.1520796 -54.798943 4294967295
226.79457 7.2114377 -54.62368 4294967295
226.8152 0.18505339 -54.819359 4294967295
226.8154 6.5411062 -54.551292 4294967295
226.84241 -1.4898367 -54.679482 4294967295
226.85246 -0.82085699 -54.700798 4294967295
226.85527 0.85266072 -54.791008 4294967295
226.86467 0.5175128 -54.756432 4294967295
226.87671 -0.152523 -54.698605 4294967295
226.89885 1.5202465 -54.756844 4294967295
226.93233 3.5274286 -54.815315 4294967295
226.9407 1.8532648 -54.7066 4294967295
226.9445 2.522676 -54.738216 4294967295
226.95581 2.8570137 -54.738506 4294967295
226.99722 4.1946726 -54.745903 4294967295
227.00859 4.5290918 -54.746082 4294967295
227.01341 3.1896377 -54.662231 4294967295
227.03421 5.1978812 -54.741703 4294967295
227.03627 7.2066712 -54.852108 4294967295
227.0571 6.8713088 -54.798729 4294967295
227.06564 6.5362487 -54.76561 4294967295
227.06888 4.861917 -54.665409 4294967295
227.07256 -1.8267629 -54.907639 4294967295
227.08409 -2.1620293 -54.86961 4294967295
227.08978 6.2007141 -54.70673 4294967295
227.0936 -0.82382822 -54.929771 4294967295
227.09846 5.8655901 -54.673397 4294967295
227.09904 5.530694 -54.653484 4294967295
227.09964 -1.4934735 -54.881809 4294967295
227.11649 -1.1596329 -54.872921 4294967295
227.15292 -0.4920001 -54.850674 4294967295
227.18314 -0.1587 -54.819679 4294967295
227.18881 0.17577501 -54.829292 4294967295
227.19292 0.84506321 -54.860416 4294967295
227.21964 3.8565254 -54.986961 4294967295
227.23413 2.5170527 -54.887119 4294967295
227.24135 3.5210128 -54.932125 4294967295
227.24417 1.5123606 -54.813652 4294967295
227.25412 1.8467212 -54.816204 4294967295
227.25618 3.1857142 -54.888668 4294967295
227.28619 2.8497972 -54.820072 4294967295
227.32381 4.1876283 -54.833847 4294967295
227.33299 4.5221276 -54.837639 4294967295
227.37379 4.8555989 -54.789204 4294967295
227.37575 -2.1673598 -55.01487 4294967295
227.39862 5.189652 -54.767189 4294967295
227.4057 5.5242939 -54.774494 4294967295
227.41478 -1.1653767 -55.007294 4294967295
227.4269 6.8631439 -54.815331 4294967295
227.43111 6.1932793 -54.770435 4294967295
227.43607 5.8582492 -54.743305 4294967295
227.43864 7.1976995 -54.81493 4294967295
227.43887 -0.1625066 -55.02441 4294967295
227.44176 0.84138203 -55.076466 4294967295
227.46693 6.5271497 -54.730267 4294967295
227.47209 -0.83349729 -54.931667 4294967295
227.48833 -0.49955559 -54.923805 4294967295
227.50468 0.1691456 -54.934719 4294967295
227.51312 2.8465567 -55.072449 4294967295
227.52435 2.5114098 -55.034981 4294967295
227.5295 1.172266 -54.950615 4294967295
227.53223 1.5068913 -54.965076 4294967295
227.58598 2.1742043 -54.914276 4294967295
227.60097 5.5213289 -55.079178 4294967295
227.60187 3.5127172 -54.963947 4294967295
227.6134 4.1818662 -54.982792 4294967295
227.61662 4.5165381 -54.996445 4294967295
227.63913 4.8505702 -54.978317 4294967295
227.65332 6.5240827 -55.049667 4294967295
227.67253 5.1843028 -54.942184 4294967295
227.69196 5.8533521 -54.947987 4294967295
227.69336 7.1925893 -55.021595 4294967295
227.70705 -2.1747737 -55.094673 4294967295
227.72319 -1.8409488 -55.086956 4294967295
227.731 -0.83733749 -55.130924 4294967295
227.73682 6.8566012 -54.930946 4294967295
227.73938 6.1868038 -54.888741 4294967295
227.75459 -0.50380468 -55.111 4294967295
227.75613 -1.1732535 -55.070545 4294967295
227.77 1.1688771 -55.180325 4294967295
227.77078 0.1648059 -55.122177 4294967295
227.77615 -1.5089622 -55.01857 4294967295
227.77661 2.5072598 -55.245216 4294967295
227.7847 1.5029235 -55.175064 4294967295
227.79338 -0.1709418 -55.06601 4294967295
227.81255 0.83232778 -55.091278 4294967295
227.81355 1.8364115 -55.146461 4294967295
227.82626 0.49699309 -55.049717 4294967295
227.8472 3.8433356 -55.204716 4294967295
227.86168 4.5122423 -55.218769 4294967295
227.86739 3.173162 -55.133553 4294967295
227.90286 2.1675119 -55.018169 4294967295
227.92046 3.5059538 -55.064968 4294967295
227.92926 4.8447366 -55.126339 4294967295
227.93517 5.5140762 -55.154503 4294967295
227.94127 4.174777 -55.068642 4294967295
227.9781 5.1779466 -55.064781 4294967295
227.98309 -2.1792881 -55.265556 4294967295
228.0067 -1.1766229 -55.283421 4294967295
228.02003 5.8462906 -55.033581 4294967295
228.02351 -1.512105 -55.236801 4294967295
228.03694 7.1851554 -55.081593 4294967295
228.04057 6.180532 -55.018692 4294967295
228.0676 -0.1756153 -55.239975 4294967295
228.07182 0.82818133 -55.289875 4294967295
228.08888 1.4967737 -55.299664 4294967295
228.09035 -0.84607172 -55.164608 4294967295
228.09505 0.15779109 -55.213696 4294967295
228.1244 2.8340268 -55.316978 4294967295
228.13083 2.499094 -55.287437 4294967295
228.13522 1.160109 -55.204369 4294967295
228.13667 3.1682444 -55.315643 4294967295
228.15472 1.8287225 -55.210182 4294967295
228.15755 4.1715522 -55.338184 4294967295
228.15939 3.8367982 -55.31612 4294967295
228.24243 6.8466115 -55.349953 4294967295
228.24916 6.5116882 -55.319988 4294967295
228.26399 4.8374386 -55.200806 4294967295
228.28053 4.5020971 -55.154613 4294967295
228.28357 -2.1850877 -55.396004 4294967295
228.30452 5.8405423 -55.190918 4294967295
228.31328 5.1706457 -55.138615 4294967295
228.31586 7.1794167 -55.248085 4294967295
228.32526 -1.1833706 -55.384182 4294967295
228.32553 -1.8526483 -55.345898 4294967295
228.3325 6.1745291 -55.163803 4294967295
228.36983 -1.5202534 -55.291916 4294967295
228.39226 0.4866848 -55.368645 4294967295
228.40048 1.8249598 -55.430889 4294967295
228.40341 1.4901829 -55.407173 4294967295
228.40894 1.1552835 -55.379135 4294967295
228.41206 -0.183578 -55.298183 4294967295
228.42589 0.81986672 -55.332291 4294967295
228.43626 2.1581697 -55.390995 4294967295
228.44109 3.1620083 -55.439926 4294967295
228.45343 2.4921746 -55.381699 4294967295
228.47284 3.8302131 -55.425529 4294967295
228.5015 2.8250175 -55.321609 4294967295
228.51352 5.8370466 -55.472332 4294967295
228.53255 4.4975719 -55.365257 4294967295
228.55315 4.1621199 -55.312378 4294967295
228.56339 6.1702971 -55.409237 4294967295
228.56866 -2.1900787 -55.551712 4294967295
228.62517 5.1640916 -55.250748 4294967295
228.62585 4.8292489 -55.230743 4294967295
228.64421 -1.1901381 -55.48436 4294967295
228.65019 0.4826546 -55.569191 4294967295
228.65466 7.1721082 -55.316017 4294967295
228.66936 -1.8606894 -55.405121 4294967295
228.68214 -1.5266824 -55.403034 4294967295
228.69339 0.1460667 -55.479256 4294967295
228.70306 -0.52370602 -55.425449 4294967295
228.71361 1.1491284 -55.502804 4294967295
228.71419 -0.1895628 -55.426117 4294967295
228.72015 -0.8592124 -55.378456 4294967295
228.7327 3.4908938 -55.604012 4294967295
228.73967 2.1520228 -55.51683 4294967295
228.74667 0.81301552 -55.429516 4294967295
228.76453 1.8163323 -55.457012 4294967295
228.79803 2.8191028 -55.458813 4294967295
228.80568 4.4923329 -55.540916 4294967295
228.80809 3.1534333 -55.461147 4294967295
228.82809 4.1568627 -55.485153 4294967295
228.85075 5.160275 -55.50473 4294967295
228.8618 3.8209467 -55.410854 4294967295
228.8716 6.1638198 -55.52734 4294967295
228.8972 -1.8627684 -55.654953 4294967295
228.90726 5.8280239 -55.449814 4294967295
228.93248 4.822875 -55.35149 4294967295
228.93388 -2.199266 -55.575737 4294967295
228.94043 5.4922271 -55.376328 4294967295
228.96823 -0.86252999 -55.595047 4294967295
228.98268 0.1406531 -55.628128 4294967295
228.98602 0.47512481 -55.64156 4294967295
229.00243 1.478272 -55.671463 4294967295
229.00845 6.8295593 -55.340401 4294967295
229.02185 -0.1958013 -55.544884 4294967295
229.04022 0.80735832 -55.571507 4294967295
229.04382 2.4804883 -55.660221 4294967295
229.05919 2.8145399 -55.654007 4294967295
229.08598 2.1441483 -55.572155 4294967295
229.08624 1.1400433 -55.51487 4294967295
229.10965 3.8166933 -55.627907 4294967295
229.16565 3.4799581 -55.517124 4294967295
229.16742 -1.8670321 -55.834854 4294967295
229.18326 5.1530623 -55.582859 4294967295
229.18771 4.483428 -55.537735 4294967295
229.19118 -2.2028005 -55.776943 4294967295
229.19839 4.1483059 -55.50119 4294967295
229.2149 5.4868178 -55.549835 4294967295
229.22304 6.4908471 -55.593338 4294967295
229.24608 -1.5364778 -55.724731 4294967295
229.26096 6.154995 -55.512169 4294967295
229.26509 -0.86822557 -55.731461 4294967295
229.27362 7.1590266 -55.548187 4294967295
229.27693 1.138783 -55.825504 4294967295
229.29825 -0.2005806 -55.714851 4294967295
229.30153 6.8234711 -55.483501 4294967295
229.30263 0.80307442 -55.764473 4294967295
229.32019 2.8099861 -55.849216 4294967295
229.3456 2.4743867 -55.788612 4294967295
229.36078 0.4658494 -55.650181 4294967295
229.36603 0.1309347 -55.622627 4294967295
229.41002 4.4798989 -55.796539 4294967295
229.41765 1.4674473 -55.613701 4294967295
229.42036 3.8102036 -55.741726 4294967295
229.43921 5.1482768 -55.786541 4294967295
229.45605 4.8130507 -55.73999 4294967295
229.46082 6.4863381 -55.826828 4294967295
229.48715 3.4730897 -55.613293 4294967295
229.50999 -1.5404716 -55.914986 4294967295
229.51738 7.1542006 -55.772003 4294967295
229.51933 -2.2100496 -55.861847 4294967295
229.52188 6.149889 -55.707779 4294967295
229.52852 5.4801946 -55.659107 4294967295
229.53558 -1.207197 -55.891956 4294967295
229.56165 -1.8776677 -55.811409 4294967295
229.56316 -0.87398082 -55.8657 4294967295
229.57596 -0.54000902 -55.863617 4294967295
229.58316 6.8176975 -55.64526 4294967295
229.61194 -0.20710661 -55.823647 4294967295
229.62312 0.46161559 -55.843128 4294967295
229.64842 0.1258402 -55.782742 4294967295
229.66957 2.4674134 -55.880554 4294967295
229.67809 0.7938199 -55.772038 4294967295
229.70395 1.7967243 -55.786381 4294967295
229.71095 1.4617558 -55.755993 4294967295
229.71129 1.1270533 -55.736526 4294967295
229.72571 2.799891 -55.807533 4294967295
229.72821 4.4731398 -55.898079 4294967295
229.72826 3.8038163 -55.860115 4294967295
229.74583 3.4685059 -55.812382 4294967295
229.75342 3.1335311 -55.781075 4294967295
229.75809 4.1374474 -55.830166 4294967295
229.75844 5.1414852 -55.886414 4294967295
229.7747 5.4756575 -55.878693 4294967295
229.80095 5.809557 -55.854618 4294967295
229.81172 7.1480565 -55.912682 4294967295
229.8159 6.1438236 -55.84906 4294967295
229.8308 -0.87825918 -56.049736 4294967295
229.83871 -1.2131882 -56.017838 4294967295
229.84003 6.8125896 -55.84742 4294967295
229.85289 6.477499 -55.807392 4294967295
229.86887 -1.5492504 -55.9496 4294967295
229.87648 -0.54590321 -55.993874 4294967295
229.87965 1.4612932 -56.102127 4294967295
229.88275 0.79206181 -56.059227 4294967295
229.89815 1.1259551 -56.052956 4294967295
229.90208 -1.8855395 -55.876297 4294967295
229.9061 0.1218724 -55.983208 4294967295
229.9259 -0.2136407 -55.931877 4294967295
229.93127 0.45532939 -55.960892 4294967295
229.96068 2.79633 -56.04525 4294967295
229.97415 2.1265802 -55.985321 4294967295
229.97963 3.1302185 -56.033112 4294967295
229.98338 4.8030968 -56.121536 4294967295
229.98373 3.4646769 -56.045307 4294967295
230.02222 4.1325607 -56.020184 4294967295
230.0441 2.4584541 -55.889816 4294967295
230.05447 5.1354284 -56.024162 4294967295
230.06682 3.7963381 -55.92828 4294967295
230.07718 6.1387057 -56.043758 4294967295
230.09494 5.4688306 -55.976841 4294967295
230.09842 6.8074403 -56.046913 4294967295
230.10204 -0.88271332 -56.227711 4294967295
230.1212 5.8027291 -55.952888 4294967295
230.12172 7.1414971 -56.027687 4294967295
230.13641 -2.2224965 -56.095833 4294967295
230.1506 0.1185026 -56.20496 4294967295
230.15242 6.4712548 -55.939629 4294967295
230.15857 0.78717798 -56.229774 4294967295
230.18216 1.7897348 -56.247944 4294967295
230.18585 0.4514403 -56.166229 4294967295
230.22121 -0.2193117 -56.070641 4294967295
230.26309 1.4518089 -56.096733 4294967295
230.27258 3.4589949 -56.19466 4294967295
230.27852 1.1165438 -56.052567 4294967295
230.28123 2.4548869 -56.123795 4294967295
230.33183 2.1182485 -56.022152 4294967295
230.33194 5.7991762 -56.230057 4294967295
230.34358 4.4603338 -56.135368 4294967295
230.35043 3.1215043 -56.048462 4294967295
230.35118 3.7907863 -56.085136 4294967295
230.39867 4.123796 -56.026413 4294967295
230.40288 -1.8920369 -56.300415 4294967295
230.40674 -0.888794 -56.350811 4294967295
230.423 -0.55509758 -56.343147 4294967295
230.43507 6.4654841 -56.099342 4294967295
230.44164 6.7999949 -56.107563 4294967295
230.45613 -1.2257149 -56.251225 4294967295
230.45905 -2.2294571 -56.18972 4294967295
230.4781 6.1295481 -56.010094 4294967295
230.4834 -0.2234349 -56.263355 4294967295
230.52927 1.4472537 -56.28299 4294967295
230.53069 0.1089354 -56.205051 4294967295
230.53082 0.44349959 -56.223755 4294967295
230.56352 2.1149716 -56.26487 4294967295
230.57921 1.1105499 -56.182549 4294967295
230.5873 1.7794194 -56.207153 4294967295
230.62663 3.4509344 -56.237469 4294967295
230.63126 4.1199965 -56.267731 4294967295
230.65439 4.453826 -56.248886 4294967295
230.65959 3.1150875 -56.164742 4294967295
230.66589 2.4455323 -56.116611 4294967295
230.66786 5.7918825 -56.30246 4294967295
230.67509 4.7877731 -56.233971 4294967295
230.68997 5.4565816 -56.247498 4294967295
230.70221 6.125505 -56.265339 4294967295
230.72469 -1.8989553 -56.395588 4294967295
230.73517 -1.230511 -56.416309 4294967295
230.73979 -1.565232 -56.389858 4294967295
230.7495 5.1200457 -56.131416 4294967295
230.74995 -0.22776461 -56.448841 4294967295
230.75555 6.7933445 -56.216099 4294967295
230.75685 7.1279922 -56.232872 4294967295
230.77463 0.77458429 -56.465294 4294967295
230.81856 -0.900069 -56.29908 4294967295
230.82541 0.1032701 -56.344646 4294967295
230.83707 1.4409409 -56.401161 4294967295
230.8703 3.112349 -56.441483 4294967295
230.90785 2.4417725 -56.342415 4294967295
230.91246 2.776186 -56.353802 4294967295
230.91685 3.7797861 -56.403366 4294967295
230.92244 2.1065912 -56.299713 4294967295
230.93706 4.1136651 -56.389301 4294967295
230.95305 4.4477239 -56.382141 4294967295
230.95352 1.7707067 -56.23011 4294967295
230.96153 5.785851 -56.443893 4294967295
230.97797 3.4429779 -56.28476 4294967295
230.97954 6.4545255 -56.452312 4294967295
230.98172 -2.2369804 -56.577469 4294967295
230.99649 4.7809081 -56.330166 4294967295
230.99944 5.1154556 -56.344307 4294967295
231.0014 5.4500251 -56.360001 4294967295
231.01079 6.1190176 -56.382454 4294967295
231.01801 -1.9044106 -56.537193 4294967295
231.02007 -1.2355983 -56.571636 4294967295
231.04683 6.7873025 -56.361523 4294967295
231.06189 -0.56869078 -56.541248 4294967295
231.06546 -0.9033494 -56.516518 4294967295
231.10272 0.7674098 -56.550247 4294967295
231.11395 7.1202064 -56.271011 4294967295
231.11432 0.097871304 -56.49353 4294967295
231.11778 2.4392643 -56.620136 4294967295
231.14963 1.434433 -56.511581 4294967295
231.15134 -0.23838 -56.414299 4294967295
231.16451 0.4301419 -56.430679 4294967295
231.2213 3.7735162 -56.527084 4294967295
231.22699 1.0965829 -56.366623 4294967295
231.2291 2.100306 -56.419891 4294967295
231.24959 5.1108489 -56.556561 4294967295
231.27248 3.437089 -56.424793 4294967295
231.27306 4.7755089 -56.499458 4294967295
231.2762 5.4446044 -56.532135 4294967295
231.30127 4.4399595 -56.434608 4294967295
231.31593 -1.5756674 -56.690109 4294967295
231.33154 0.095735997 -56.759125 4294967295
231.34097 7.1158185 -56.521133 4294967295
231.35051 6.7809277 -56.486664 4294967295
231.35362 -2.2465143 -56.591015 4294967295
231.35666 -0.57431698 -56.680473 4294967295
231.35716 6.4460979 -56.456936 4294967295
231.38573 -0.91018683 -56.61422 4294967295
231.3887 -1.9138315 -56.552742 4294967295
231.39551 -1.2451587 -56.579376 4294967295
231.42732 1.7638822 -56.697605 4294967295
231.43057 -0.2433024 -56.579002 4294967295
231.4561 0.42459539 -56.575199 4294967295
231.46216 1.4279289 -56.621994 4294967295
231.46289 1.0933671 -56.601959 4294967295
231.47343 2.0965185 -56.641445 4294967295
231.52785 2.7634897 -56.590649 4294967295
231.55986 5.1043386 -56.670746 4294967295
231.56966 3.4311018 -56.560406 4294967295
231.57677 6.7766471 -56.737705 4294967295
231.57932 6.442019 -56.714642 4294967295
231.58379 3.765193 -56.556313 4294967295
231.59198 4.0995169 -56.561836 4294967295
231.59276 4.4340973 -56.579468 4294967295
231.61749 5.7717376 -56.614822 4294967295
231.62152 -1.5817666 -56.811573 4294967295
231.62477 7.1099472 -56.678505 4294967295
231.65474 4.766674 -56.497517 4294967295
231.66034 -0.2459216 -56.823971 4294967295
231.66652 -1.918493 -56.719505 4294967295
231.67184 5.4354587 -56.507454 4294967295
231.67392 -0.91546702 -56.764091 4294967295
231.68146 -0.58136612 -56.770748 4294967295
231.69537 1.4247446 -56.861366 4294967295
231.72559 0.085537396 -56.736717 4294967295
231.75285 0.41881281 -56.711266 4294967295
231.76782 0.75267029 -56.705822 4294967295
231.78838 1.7553763 -56.729073 4294967295
231.80019 3.7620435 -56.823151 4294967295
231.812 4.7651677 -56.8606 4294967295
231.8246 2.0884528 -56.688995 4294967295
231.85423 2.7564273 -56.678596 4294967295
231.87029 4.0941334 -56.728088 4294967295
231.87183 5.7668805 -56.819977 4294967295
231.8741 5.0977049 -56.778488 4294967295
231.90044 5.4314494 -56.754623 4294967295
231.90523 7.1041622 -56.841255 4294967295
231.91608 4.427165 -56.672485 4294967295
231.92134 6.0999928 -56.758369 4294967295
231.94824 6.4338298 -56.733589 4294967295
231.96629 -2.258739 -56.831642 4294967295
231.97704 6.7676535 -56.705635 4294967295
232.02425 -0.58926958 -56.831821 4294967295
232.13972 1.4127126 -56.757492 4294967295
232.14159 2.7508545 -56.829983 4294967295
232.15677 3.419385 -56.84309 4294967295
232.23485 5.75878 -56.848488 4294967295
232.24139 4.4201713 -56.76228 4294967295
232.25676 6.427331 -56.850632 4294967295
232.28284 6.7612233 -56.827202 4294967295
207.57747 7.6158943 -46.715588 4294967295
207.5975 8.958703 -46.757446 4294967295
207.63266 10.637148 -46.791874 4294967295
207.71141 11.643482 -46.710369 4294967295
207.86682 7.9456859 -46.890076 4294967295
207.88577 8.2810078 -46.875885 4294967295
207.90898 8.6162615 -46.854118 4294967295
207.92038 9.2876482 -46.87262 4294967295
207.92441 9.6233845 -46.884846 4294967295
207.92876 8.9516373 -46.838455 4294967295
207.94577 10.630447 -46.905071 4294967295
207.97429 9.9582272 -46.81588 4294967295
208.02246 11.300898 -46.807922 4294967295
208.02695 10.293114 -46.742012 4294967295
208.03351 10.964821 -46.769016 4294967295
208.06734 11.972064 -46.767212 4294967295
208.10367 12.307533 -46.722206 4294967295
208.15625 7.6038904 -47.025665 4294967295
208.1927 8.6103001 -47.019207 4294967295
208.19829 9.2817364 -47.047939 4294967295
208.21704 8.2739182 -46.956833 4294967295
208.22049 9.9528484 -47.047398 4294967295
208.22296 8.9454002 -46.984974 4294967295
208.24226 9.6166096 -46.989544 4294967295
208.26355 10.623664 -47.009876 4294967295
208.2726 10.28767 -46.974571 4294967295
208.28375 10.95915 -46.993462 4294967295
208.29588 11.966475 -47.030022 4294967295
208.36536 11.629627 -46.887917 4294967295
208.37303 11.293598 -46.854939 4294967295
208.42334 12.300707 -46.82407 4294967295
208.48338 8.9399223 -47.191151 4294967295
208.48611 9.2756109 -47.205593 4294967295
208.4969 7.9323144 -47.109241 4294967295
208.50728 9.610918 -47.187607 4294967295
208.52286 9.946373 -47.179352 4294967295
208.55949 10.281463 -47.13398 4294967295
208.56348 7.5947704 -46.972282 4294967295
208.62225 10.952021 -47.061813 4294967295
208.62703 10.616079 -47.034016 4294967295
208.63927 11.959328 -47.089722 4294967295
208.66682 11.28718 -47.002396 4294967295
208.7549 12.293732 -46.904858 4294967295
208.76807 7.9267421 -47.296291 4294967295
208.79176 8.2618895 -47.273773 4294967295
208.83517 7.5892401 -47.158539 4294967295
208.83954 8.596508 -47.208752 4294967295
208.84497 9.9395142 -47.27647 4294967295
208.84828 10.610986 -47.309238 4294967295
208.85416 8.9319649 -47.202301 4294967295
208.90697 9.2666225 -47.12841 4294967295
208.91606 10.273964 -47.170311 4294967295
208.92206 11.953005 -47.256416 4294967295
208.93341 10.945344 -47.178379 4294967295
209.09839 8.9268532 -47.436737 4294967295
209.11241 8.5907993 -47.392681 4294967295
209.11952 7.9191298 -47.341515 4294967295
209.16447 7.582181 -47.242908 4294967295
209.1666 8.2537289 -47.277809 4294967295
209.19383 10.267927 -47.345699 4294967295
209.22505 9.2598476 -47.232735 4294967295
209.24892 11.274427 -47.306568 4294967295
209.29591 11.945452 -47.262409 4294967295
209.30655 10.937641 -47.185677 4294967295
209.37285 12.280352 -47.146175 4294967295
209.44571 7.912158 -47.431324 4294967295
209.45638 7.5761142 -47.393257 4294967295
209.46301 8.9190321 -47.458794 4294967295
209.47035 8.5830956 -47.426544 4294967295
209.47279 10.261866 -47.518837 4294967295
209.51747 9.5894346 -47.401566 4294967295
209.53052 10.596603 -47.436497 4294967295
209.56268 11.939343 -47.457157 4294967295
209.56856 10.931777 -47.388874 4294967295
209.59337 11.267225 -47.364479 4294967295
209.61745 12.274469 -47.380054 4294967295
209.75754 9.9199772 -47.662319 4294967295
209.77229 7.9051805 -47.520546 4294967295
209.77589 8.2408524 -47.533474 4294967295
209.79953 8.9118443 -47.530556 4294967295
209.84917 10.589806 -47.539772 4294967295
209.85606 10.925491 -47.546932 4294967295
209.86574 11.261143 -47.549259 4294967295
209.96696 11.931376 -47.409874 4294967295
209.99728 7.5651116 -47.768913 4294967295
210.01923 9.2429619 -47.826847 4294967295
210.02 7.9002066 -47.748268 4294967295
210.11775 8.5692921 -47.615177 4294967295
210.12004 8.2334499 -47.591858 4294967295
210.1237 9.5764866 -47.662617 4294967295
210.14572 10.91917 -47.701176 4294967295
210.15932 8.9041357 -47.561413 4294967295
210.16151 10.583117 -47.654083 4294967295
210.16887 11.25458 -47.679783 4294967295
210.22722 11.925359 -47.615913 4294967295
210.323 7.5581465 -47.85947 4294967295
210.40466 7.8917465 -47.735439 4294967295
210.41936 9.2344208 -47.786831 4294967295
210.42146 8.227088 -47.72525 4294967295
210.42213 9.905859 -47.820576 4294967295
210.43216 10.241415 -47.822243 4294967295
210.43279 9.5698929 -47.78257 4294967295
210.43468 8.8983212 -47.740677 4294967295
210.45607 11.919767 -47.876785 4294967295
210.46614 11.248108 -47.820526 4294967295
210.46884 10.576517 -47.777206 4294967295
210.46907 10.91229 -47.796059 4294967295
210.55717 11.582546 -47.680115 4294967295
210.59225 7.5526729 -48.049072 4294967295
210.65924 8.8936501 -48.008751 4294967295
210.66324 8.2221899 -47.963161 4294967295
210.68646 9.2287388 -47.980354 4294967295
210.69991 9.8998623 -47.995335 4294967295
210.70276 7.8854923 -47.874588 4294967295
210.73051 11.577858 -48.038109 4294967295
210.75752 8.5556641 -47.817184 4294967295
210.76056 10.234438 -47.908321 4294967295
210.76547 11.241605 -47.95755 4294967295
210.78926 10.905464 -47.896614 4294967295
210.82446 10.569071 -47.815609 4294967295
210.89713 8.5530834 -48.233845 4294967295
210.91791 11.911015 -47.729031 4294967295
210.98326 8.2153749 -48.063728 4294967295
210.98438 8.8867188 -48.100349 4294967295
210.9888 9.893652 -48.150436 4294967295
211.02063 7.8787313 -47.979027 4294967295
211.04051 10.228359 -48.079212 4294967295
211.048 9.2210293 -48.008175 4294967295
211.05246 11.235296 -48.116085 4294967295
211.09918 10.898809 -48.015038 4294967295
211.09969 9.555706 -47.937004 4294967295
211.18919 11.904852 -47.915268 4294967295
211.21213 7.5395823 -48.285233 4294967295
211.21753 7.8750496 -48.295059 4294967295
211.24997 8.8811255 -48.296104 4294967295
211.25839 8.5452976 -48.262142 4294967295
211.29196 9.551507 -48.26123 4294967295
211.30478 8.2085257 -48.16169 4294967295
211.31837 9.2152786 -48.19574 4294967295
211.36278 10.221497 -48.175926 4294967295
211.37529 11.228426 -48.211891 4294967295
211.39587 11.563839 -48.195137 4294967295
211.41817 10.556238 -48.098297 4294967295
211.43913 11.898977 -48.138779 4294967295
211.44472 10.891565 -48.071175 4294967295
211.5289 7.8684559 -48.410545 4294967295
211.55379 9.2102776 -48.444141 4294967295
211.58145 8.538414 -48.357254 4294967295
211.58995 9.5451374 -48.40028 4294967295
211.60498 10.551754 -48.431767 4294967295
211.60649 7.5308037 -48.255695 4294967295
211.67932 9.8790264 -48.263363 4294967295
211.71371 11.557045 -48.299637 4294967295
211.77263 10.884609 -48.158195 4294967295
211.82581 8.1978035 -48.57053 4294967295
211.83073 7.5265222 -48.523438 4294967295
211.84985 7.861618 -48.509354 4294967295
211.86057 9.2037458 -48.56768 4294967295
211.88374 8.5320129 -48.488674 4294967295
211.88483 9.8744421 -48.56385 4294967295
211.90735 9.538373 -48.505283 4294967295
211.91608 10.209463 -48.52858 4294967295
211.94443 8.8662672 -48.402046 4294967295
211.97058 10.879808 -48.471947 4294967295
211.99747 10.543663 -48.405769 4294967295
