# .PCD v0.7 - Point Cloud Data file format
VERSION 0.7
FIELDS x y z rgb
SIZE 4 4 4 4
TYPE F F F U
COUNT 1 1 1 1
WIDTH 1148
HEIGHT 1
VIEWPOINT 0 0 0 1 0 0 0
POINTS 1148
DATA ascii
63.301472 93.785126 -12.474415 4294967295
63.323288 92.329369 -12.241673 4294967295
63.345451 94.130905 -12.35954 4294967295
63.353436 93.157326 -12.226759 4294967295
63.369118 96.910194 -12.577767 4294967295
63.374641 93.004028 -12.136805 4294967295
63.391354 92.522804 -12.026991 4294967295
63.453697 94.017525 -11.972654 4294967295
63.457272 95.159782 -12.083637 4294967295
63.475433 92.810112 -12.355226 4294967295
63.529285 92.182739 -12.101273 4294967295
63.53936 96.096489 -12.488991 4294967295
63.545959 95.936722 -12.44893 4294967295
63.549992 94.146957 -12.241762 4294967295
63.550377 94.798691 -12.310786 4294967295
63.552456 92.030159 -12.00468 4294967295
63.562893 96.921814 -12.496718 4294967295
63.564247 95.782394 -12.369032 4294967295
63.564552 93.339043 -12.104173 4294967295
63.567638 93.503365 -12.111243 4294967295
63.585495 94.489044 -12.155921 4294967295
63.602818 97.103561 -12.378284 4294967295
63.609684 95.151894 -12.143849 4294967295
63.611477 94.663918 -12.084971 4294967295
63.617611 94.992622 -12.099249 4294967295
63.630829 95.324631 -12.089382 4294967295
63.634995 96.467117 -12.198318 4294967295
63.635681 96.793289 -12.231146 4294967295
63.637104 92.643692 -12.36593 4294967295
63.663757 92.329895 -12.239977 4294967295
63.667706 92.983208 -12.296859 4294967295
63.716919 96.751785 -12.533593 4294967295
63.752846 92.206787 -11.918915 4294967295
63.788971 93.526833 -11.936608 4294967295
63.814247 96.145882 -12.131968 4294967295
63.855412 93.154266 -12.254212 4294967295
63.881351 96.260941 -12.499908 4294967295
63.881474 93.328949 -12.183119 4294967295
63.897778 94.313873 -12.233128 4294967295
63.910351 94.1567 -12.17277 4294967295
63.917187 93.670998 -12.096762 4294967295
63.922459 95.465652 -12.27222 4294967295
63.92403 97.09539 -12.442621 4294967295
63.92482 96.118393 -12.334496 4294967295
63.926434 94.978722 -12.205955 4294967295
63.940964 96.777588 -12.349889 4294967295
63.946091 92.467285 -12.453742 4294967295
63.955574 94.503281 -12.05408 4294967295
63.959427 94.668015 -12.05855 4294967295
64.001022 96.479942 -12.110477 4294967295
64.007545 95.668098 -12.000394 4294967295
64.012482 95.996368 -12.018755 4294967295
64.044083 96.909309 -12.595015 4294967295
64.046188 92.837944 -12.148561 4294967295
64.072334 92.197845 -11.989347 4294967295
64.075195 93.339844 -12.102682 4294967295
64.092789 94.651405 -12.183507 4294967295
64.092827 92.695923 -11.972407 4294967295
64.111755 93.845291 -12.031147 4294967295
64.131332 95.646881 -12.15797 4294967295
64.135239 92.638885 -12.406233 4294967295
64.138443 94.835342 -12.045913 4294967295
64.169571 92.165543 -12.236889 4294967295
64.207741 93.648926 -12.26538 4294967295
64.221558 95.773026 -12.446835 4294967295
64.23391 94.312531 -12.246789 4294967295
64.241989 95.456696 -12.34235 4294967295
64.251198 93.505669 -12.100211 4294967295
64.265099 95.630333 -12.281451 4294967295
64.27726 95.147133 -12.18744 4294967295
64.278084 96.288101 -12.307659 4294967295
64.285286 94.824905 -12.12506 4294967295
64.286072 93.847412 -12.01694 4294967295
64.29493 93.36245 -11.934108 4294967295
64.294998 95.970108 -12.215096 4294967295
64.308601 92.803429 -12.412455 4294967295
64.330902 97.127632 -12.216207 4294967295
64.338112 93.468269 -12.382556 4294967295
64.375381 96.985611 -12.047646 4294967295
64.405907 93.010033 -12.099792 4294967295
64.4142 92.361847 -12.001369 4294967295
64.419716 92.52729 -12.00021 4294967295
64.479553 94.673248 -12.025649 4294967295
64.513626 93.63385 -12.381634 4294967295
64.549904 92.346664 -12.118118 4294967295
64.559654 96.750084 -12.559195 4294967295
64.560844 95.284523 -12.397179 4294967295
64.563751 95.611694 -12.422441 4294967295
64.570953 93.496826 -12.169729 4294967295
64.572594 94.964081 -12.322233 4294967295
64.573082 92.194 -12.021959 4294967295
64.593292 93.01796 -12.041286 4294967295
64.597191 96.604774 -12.414458 4294967295
64.602814 95.955666 -12.325187 4294967295
64.60508 94.816048 -12.194574 4294967295
64.610451 93.188667 -12.000681 4294967295
64.614937 97.101883 -12.407026 4294967295
64.623177 94.009399 -12.045403 4294967295
64.669876 92.650345 -12.323143 4294967295
64.68367 93.145294 -12.32908 4294967295
64.698112 95.510864 -11.949541 4294967295
64.730728 94.307114 -12.292622 4294967295
64.739044 92.518257 -12.07127 4294967295
64.746994 94.151566 -12.219966 4294967295
64.764214 96.277809 -12.389891 4294967295
64.76786 92.042061 -11.920948 4294967295
64.770393 93.510246 -12.070481 4294967295
64.821831 95.000679 -12.054347 4294967295
64.871719 96.653961 -12.06109 4294967295
64.880867 95.843048 -11.942279 4294967295
64.884254 97.148918 -12.071336 4294967295
64.902489 95.285759 -12.392443 4294967295
64.910896 92.519173 -12.06554 4294967295
64.911072 93.171204 -12.135183 4294967295
64.937408 94.161003 -12.151417 4294967295
64.937607 94.487061 -12.185863 4294967295
64.938995 96.117363 -12.356701 4294967295
64.943741 93.674889 -12.077304 4294967295
64.944283 92.860085 -11.987678 4294967295
64.951759 96.286255 -12.331073 4294967295
64.954391 94.983688 -12.181746 4294967295
64.956444 95.636559 -12.245019 4294967295
64.973991 96.785522 -12.308551 4294967295
64.981186 94.669952 -12.055974 4294967295
64.992317 93.370728 -11.87781 4294967295
65.008286 92.486938 -12.311666 4294967295
65.027451 96.48452 -12.092616 4294967295
65.027466 92.33252 -12.229243 4294967295
65.031075 95.834084 -12.010118 4294967295
65.047302 93.645042 -12.302587 4294967295
65.06617 96.991737 -12.014356 4294967295
65.07299 92.189735 -12.057757 4294967295
65.098694 94.646156 -12.234162 4294967295
65.114388 93.838318 -12.093343 4294967295
65.131523 96.942932 -12.368908 4294967295
65.172226 94.190575 -11.93292 4294967295
65.202057 96.649933 -12.095466 4294967295
65.241264 92.189034 -12.064199 4294967295
65.247337 94.799561 -12.324485 4294967295
65.251511 94.312546 -12.257747 4294967295
65.252373 93.82399 -12.202184 4294967295
65.260956 93.99086 -12.190749 4294967295
65.262711 95.947357 -12.395373 4294967295
65.269295 94.972572 -12.267873 4294967295
65.269913 92.527786 -12.002525 4294967295
65.278412 93.346703 -12.061591 4294967295
65.28688 93.513527 -12.050548 4294967295
65.296761 95.31115 -12.210208 4294967295
65.322334 92.877235 -11.860549 4294967295
65.331039 94.674759 -12.024276 4294967295
65.34507 96.800598 -12.205041 4294967295
65.347008 97.127525 -12.233606 4294967295
65.353607 95.663361 -12.053376 4294967295
65.368851 96.648674 -12.10722 4294967295
65.370186 93.14875 -12.308798 4294967295
65.374252 94.205215 -11.825666 4294967295
65.377754 96.489784 -12.059598 4294967295
65.388519 95.190231 -11.882819 4294967295
65.410194 92.025597 -12.050938 4294967295
65.411751 96.994835 -11.99748 4294967295
65.4133 96.180168 -11.904479 4294967295
65.432022 96.599113 -12.468502 4294967295
65.485535 96.29805 -12.252911 4294967295
65.523224 94.848076 -11.96787 4294967295
65.554352 93.155197 -12.261625 4294967295
65.567757 94.139114 -12.321667 4294967295
65.586731 93.658707 -12.205083 4294967295
65.590088 93.334198 -12.158661 4294967295
65.610771 92.854362 -12.036299 4294967295
65.619194 96.118431 -12.358722 4294967295
65.625244 92.534698 -11.952415 4294967295
65.637672 95.311943 -12.208757 4294967295
65.640587 94.498146 -12.111207 4294967295
65.643791 96.455826 -12.310897 4294967295
65.64772 94.012253 -12.034528 4294967295
65.647827 92.218559 -11.841152 4294967295
65.654419 96.786781 -12.310147 4294967295
65.678993 94.678665 -11.999285 4294967295
65.694359 94.848732 -11.96504 4294967295
65.709503 92.659714 -12.259706 4294967295
65.754715 93.005852 -12.142467 4294967295
65.767693 97.002731 -11.946001 4294967295
65.797638 93.351105 -12.032968 4294967295
65.812988 94.499367 -12.104039 4294967295
65.813629 96.945 -12.364898 4294967295
65.830421 93.691948 -11.957611 4294967295
65.844101 95.491867 -12.104492 4294967295
65.859039 95.661789 -12.071747 4294967295
65.893517 96.49308 -12.043346 4294967295
65.915398 93.653831 -12.244806 4294967295
65.924469 94.14695 -12.266872 4294967295
65.936485 92.685081 -12.068619 4294967295
65.947014 95.865402 -11.793051 4294967295
65.969681 93.352089 -12.027054 4294967295
65.977661 94.007919 -12.070346 4294967295
65.981033 94.661659 -12.129136 4294967295
65.997177 92.875122 -11.881875 4294967295
66.016045 95.49292 -12.099002 4294967295
66.022041 92.070549 -11.710459 4294967295
66.032791 94.358986 -11.919886 4294967295
66.038437 93.056595 -11.760566 4294967295
66.039001 95.666534 -12.039312 4294967295
66.042542 92.405869 -11.676558 4294967295
66.042953 95.015991 -11.955852 4294967295
66.048195 94.52906 -11.885613 4294967295
66.049675 96.486855 -12.091085 4294967295
66.054016 97.141151 -12.146624 4294967295
66.064072 96.819702 -12.077725 4294967295
66.071205 92.017357 -12.118076 4294967295
66.099236 94.878517 -11.748942 4294967295
66.101631 97.000298 -11.968939 4294967295
66.118988 95.376991 -11.735119 4294967295
66.166878 96.46257 -12.269701 4294967295
66.167892 95.158638 -12.126072 4294967295
66.172813 92.225189 -11.793878 4294967295
66.180008 95.816437 -12.155448 4294967295
66.189835 96.636261 -12.210088 4294967295
66.259476 94.05838 -11.695418 4294967295
66.259842 92.351685 -12.091387 4294967295
66.260185 96.179573 -11.921057 4294967295
66.275154 95.370766 -11.783052 4294967295
66.299866 92.53244 -11.974461 4294967295
66.302132 97.014709 -11.867772 4294967295
66.327187 94.664696 -12.110559 4294967295
66.334778 95.157356 -12.137622 4294967295
66.337685 96.952271 -12.320615 4294967295
66.343803 93.204338 -11.896967 4294967295
66.348267 95.000427 -12.074809 4294967295
66.357521 94.515358 -11.991136 4294967295
66.361664 95.985039 -12.134986 4294967295
66.368927 93.541801 -11.847624 4294967295
66.37014 93.868599 -11.878619 4294967295
66.371101 96.804764 -12.190912 4294967295
66.391388 94.367554 -11.859857 4294967295
66.40107 95.676956 -11.967596 4294967295
66.421387 96.501907 -11.987032 4294967295
66.446182 95.860802 -11.833646 4294967295
66.485184 96.694626 -11.790365 4294967295
66.518082 95.652802 -12.14671 4294967295
66.579247 92.41758 -11.590852 4294967295
66.581192 93.7239 -11.724621 4294967295
66.600845 94.711777 -11.763859 4294967295
66.611977 96.022148 -11.866758 4294967295
66.612511 97.001266 -11.970123 4294967295
66.623978 92.525444 -12.029995 4294967295
66.632133 95.378716 -11.728994 4294967295
66.643059 94.001701 -12.123705 4294967295
66.643517 93.349564 -12.052079 4294967295
66.65078 95.876808 -11.719054 4294967295
66.656364 95.552979 -11.665232 4294967295
66.667336 92.870834 -11.919647 4294967295
66.672638 94.667381 -12.094599 4294967295
66.676964 93.527596 -11.957448 4294967295
66.680511 93.855408 -11.980611 4294967295
66.682648 95.650459 -12.166171 4294967295
66.684799 95.488358 -12.141439 4294967295
66.717178 94.85067 -11.962812 4294967295
66.725159 94.201729 -11.86595 4294967295
66.733727 92.737068 -11.679469 4294967295
66.734489 97.14222 -12.150063 4294967295
66.743088 96.493767 -12.051169 4294967295
66.753113 92.419243 -11.579384 4294967295
66.758774 95.195854 -11.858411 4294967295
66.790527 93.088646 -11.524049 4294967295
66.829147 94.498276 -12.123559 4294967295
66.844368 96.37738 -11.694199 4294967295
66.853081 92.388367 -11.81561 4294967295
66.88166 96.479408 -12.157859 4294967295
66.904961 96.65329 -12.097332 4294967295
66.930328 93.72802 -11.697001 4294967295
66.938927 95.853233 -11.896011 4294967295
66.943871 96.344986 -11.932025 4294967295
66.950256 97.163704 -11.998229 4294967295
66.959038 93.904076 -11.618351 4294967295
66.961403 92.361206 -12.023506 4294967295
66.962364 94.231995 -11.642282 4294967295
66.98661 93.514122 -12.061718 4294967295
66.992844 92.864426 -11.970787 4294967295
67.025963 92.715919 -11.842417 4294967295
67.030914 95.00206 -12.071059 4294967295
67.043289 95.497047 -12.082172 4294967295
67.056107 93.871429 -11.864145 4294967295
67.0756 92.574631 -11.658713 4294967295
67.081032 94.535294 -11.85079 4294967295
67.082886 96.004555 -12.002246 4294967295
67.085526 93.39502 -11.713112 4294967295
67.108978 96.669174 -11.984989 4294967295
67.114517 96.834892 -11.983985 4294967295
67.157669 95.386002 -11.681954 4294967295
67.17057 95.718338 -11.673834 4294967295
67.180756 96.212692 -11.692316 4294967295
67.186852 97.031616 -11.759533 4294967295
67.198792 93.206627 -11.88694 4294967295
67.268738 93.727303 -11.705595 4294967295
67.273407 94.545418 -11.777568 4294967295
67.278603 96.832298 -12.005392 4294967295
67.283089 95.692154 -11.867795 4294967295
67.290337 94.063393 -11.6684 4294967295
67.2911 95.369423 -11.805988 4294967295
67.291832 93.411148 -11.593315 4294967295
67.301155 94.721146 -11.702298 4294967295
67.301674 92.272736 -11.437731 4294967295
67.323563 94.404778 -11.592353 4294967295
67.345726 96.373695 -11.728495 4294967295
67.347069 96.047852 -11.68896 4294967295
67.351028 97.029037 -11.780824 4294967295
67.368256 93.859024 -11.960293 4294967295
67.375755 95.081383 -11.487931 4294967295
67.385429 93.377174 -11.850379 4294967295
67.387001 93.051506 -11.810105 4294967295
67.417557 96.002342 -12.023188 4294967295
67.417999 94.860367 -11.89917 4294967295
67.418076 92.902039 -11.688759 4294967295
67.421539 92.08744 -11.589588 4294967295
67.467209 92.760475 -11.507066 4294967295
67.51741 95.231819 -11.602124 4294967295
67.546387 96.55114 -11.645489 4294967295
67.606789 93.399948 -11.680538 4294967295
67.609306 94.380409 -11.777201 4294967295
67.609573 95.359764 -11.881342 4294967295
67.611473 94.218163 -11.752454 4294967295
67.615707 96.504883 -11.983412 4294967295
67.618675 92.915489 -11.588312 4294967295
67.628105 96.673775 -11.959544 4294967295
67.632652 94.554123 -11.71679 4294967295
67.637596 92.597298 -11.490119 4294967295
67.640793 93.5783 -11.584542 4294967295
67.665291 93.915741 -11.537802 4294967295
67.66967 95.060547 -11.645768 4294967295
67.67569 96.04277 -11.730762 4294967295
67.685768 95.720879 -11.662106 4294967295
67.691811 97.029625 -11.782034 4294967295
67.724579 93.703148 -11.89147 4294967295
67.81263 96.027725 -11.842916 4294967295
67.832443 95.873543 -11.759374 4294967295
67.834465 95.38472 -11.700105 4294967295
67.854599 93.434402 -11.422844 4294967295
67.860207 96.702492 -11.754357 4294967295
67.893997 93.37648 -11.860112 4294967295
67.895523 94.595863 -11.408983 4294967295
67.953651 95.035271 -11.836367 4294967295
67.962326 94.223007 -11.719961 4294967295
67.963646 94.713318 -11.768077 4294967295
67.982101 92.762367 -11.49652 4294967295
67.987419 95.703506 -11.793871 4294967295
67.987473 96.029999 -11.828711 4294967295
67.991249 95.215508 -11.728629 4294967295
67.994255 92.441101 -11.420989 4294967295
68.002647 94.077759 -11.568113 4294967295
68.012543 92.939064 -11.412573 4294967295
68.016563 96.369797 -11.766827 4294967295
68.022278 93.596611 -11.450191 4294967295
68.029961 92.620071 -11.319514 4294967295
68.051956 97.039131 -11.718951 4294967295
68.055466 96.714203 -11.672252 4294967295
68.056129 93.774963 -11.354915 4294967295
68.065781 93.21402 -11.838443 4294967295
68.077644 94.437927 -11.353267 4294967295
68.083817 95.584045 -11.455289 4294967295
68.089043 93.713982 -11.813486 4294967295
68.089661 92.408363 -11.671441 4294967295
68.111908 95.356438 -11.912319 4294967295
68.180344 96.040497 -11.754584 4294967295
68.187645 96.860123 -11.817757 4294967295
68.271027 94.372215 -11.845466 4294967295
68.316017 94.718872 -11.730846 4294967295
68.328621 95.214348 -11.741424 4294967295
68.340347 92.606842 -11.422443 4294967295
68.345009 93.262177 -11.476934 4294967295
68.35627 96.206512 -11.754458 4294967295
68.363785 93.923767 -11.484489 4294967295
68.384796 95.892944 -11.62462 4294967295
68.38765 95.567627 -11.580147 4294967295
68.402153 93.450752 -11.30437 4294967295
68.413712 97.049316 -11.650985 4294967295
68.415024 96.55999 -11.594135 4294967295
68.426422 94.931808 -11.381217 4294967295
68.438881 92.738716 -11.679662 4294967295
68.458733 94.869865 -11.841058 4294967295
68.492744 93.088951 -11.535636 4294967295
68.494263 93.742828 -11.600574 4294967295
68.511612 94.240448 -11.5954 4294967295
68.529594 97.024445 -11.833021 4294967295
68.592201 95.74662 -11.485146 4294967295
68.613091 93.632126 -11.188204 4294967295
68.614655 95.920174 -11.428061 4294967295
68.618927 95.105255 -11.32636 4294967295
68.6371 92.750977 -11.587976 4294967295
68.637772 92.914566 -11.603248 4294967295
68.643051 93.896645 -11.69066 4294967295
68.644859 93.734161 -11.667166 4294967295
68.64975 94.389473 -11.72087 4294967295
68.656662 95.208954 -11.785354 4294967295
68.657211 92.269821 -11.468704 4294967295
68.668106 95.540672 -11.78234 4294967295
68.690781 92.447784 -11.374746 4294967295
68.692001 95.878067 -11.738023 4294967295
68.695656 97.022697 -11.848294 4294967295
68.703239 95.393257 -11.648264 4294967295
68.707977 93.272087 -11.405123 4294967295
68.737717 96.552124 -11.656253 4294967295
68.750069 95.741104 -11.527829 4294967295
68.752121 94.761917 -11.416031 4294967295
68.808945 96.911476 -11.454891 4294967295
68.853027 95.057518 -11.68262 4294967295
68.86702 93.10379 -11.426339 4294967295
68.907211 96.225266 -11.625338 4294967295
68.957947 97.065208 -11.544574 4294967295
68.968445 95.763 -11.369848 4294967295
68.978142 93.894333 -11.711289 4294967295
68.989517 94.225983 -11.708548 4294967295
68.998024 92.923218 -11.54048 4294967295
69.005562 96.596893 -11.33425 4294967295
69.020714 92.443085 -11.412835 4294967295
69.026497 93.425735 -11.498586 4294967295
69.028114 95.87632 -11.755459 4294967295
69.036835 96.533493 -11.796474 4294967295
69.037193 95.553818 -11.690409 4294967295
69.044266 95.230354 -11.63203 4294967295
69.049034 92.618797 -11.336433 4294967295
69.077103 93.61142 -11.348368 4294967295
69.080887 95.083481 -11.4932 4294967295
69.085129 94.758644 -11.444173 4294967295
69.08947 94.597206 -11.412299 4294967295
69.091743 96.23188 -11.579635 4294967295
69.12191 92.086365 -11.608133 4294967295
69.168083 96.920273 -11.396713 4294967295
69.169022 94.959618 -11.183714 4294967295
69.178253 96.434685 -11.310567 4294967295
69.201126 93.591011 -11.50312 4294967295
69.21122 93.105354 -11.417264 4294967295
69.246269 94.264473 -11.423606 4294967295
69.276962 96.728897 -11.58422 4294967295
69.288246 95.426979 -11.40703 4294967295
69.300064 95.595711 -11.385406 4294967295
69.300804 93.961845 -11.208083 4294967295
69.307785 93.801498 -11.16746 4294967295
69.312386 93.476624 -11.117263 4294967295
69.324226 92.26355 -11.520919 4294967295
69.326729 94.790573 -11.209685 4294967295
69.335197 93.24839 -11.589491 4294967295
69.351692 92.928917 -11.499967 4294967295
69.355141 97.091499 -11.360487 4294967295
69.367409 92.445663 -11.395517 4294967295
69.372711 95.55175 -11.710048 4294967295
69.390976 95.069939 -11.597219 4294967295
69.40258 92.787758 -11.314124 4294967295
69.406708 94.260117 -11.457806 4294967295
69.407295 96.547432 -11.700521 4294967295
69.408829 94.587822 -11.485747 4294967295
69.454376 95.425171 -11.422503 4294967295
69.458443 93.629364 -11.216745 4294967295
69.459793 94.937378 -11.352158 4294967295
69.463257 95.91938 -11.445574 4294967295
69.477303 96.415962 -11.451556 4294967295
69.4786 94.455482 -11.23749 4294967295
69.482567 92.585007 -11.596822 4294967295
69.492683 96.096123 -11.365755 4294967295
69.604576 95.2528 -11.473166 4294967295
69.624504 92.973671 -11.162591 4294967295
69.637787 95.757965 -11.415851 4294967295
69.658493 97.074677 -11.487247 4294967295
69.662598 93.807716 -11.124091 4294967295
69.663094 96.586533 -11.419631 4294967295
69.668205 96.42543 -11.385282 4294967295
69.683655 95.942116 -11.2818 4294967295
69.696327 94.400917 -11.646852 4294967295
69.698708 96.929657 -11.336946 4294967295
69.719299 93.267448 -11.448729 4294967295
69.775085 93.45533 -11.281968 4294967295
69.784866 94.11338 -11.319585 4294967295
69.785263 92.315598 -11.126011 4294967295
69.786087 96.565094 -11.577627 4294967295
69.792397 92.809097 -11.154894 4294967295
69.795326 96.079094 -11.494731 4294967295
69.796829 94.935852 -11.367452 4294967295
69.810043 93.14373 -11.131576 4294967295
69.822441 95.274185 -11.31786 4294967295
69.826637 92.497017 -11.006844 4294967295
69.838287 94.627434 -11.195619 4294967295
69.879189 93.099472 -11.467253 4294967295
69.901245 93.762741 -11.46434 4294967295
69.933365 95.411011 -11.533078 4294967295
69.970245 95.754425 -11.446355 4294967295
69.972305 93.467094 -11.194955 4294967295
69.975319 93.958809 -11.237458 4294967295
69.975754 92.814697 -11.11367 4294967295
69.985245 94.943962 -11.309545 4294967295
70.005699 94.626144 -11.207115 4294967295
70.005844 92.991295 -11.031881 4294967295
70.019455 95.286186 -11.231647 4294967295
70.020515 96.104004 -11.315511 4294967295
70.034073 94.148247 -11.061087 4294967295
70.042404 96.440857 -11.278275 4294967295
70.045181 96.932526 -11.321546 4294967295
70.074188 92.29306 -11.300165 4294967295
70.086601 94.259598 -11.468833 4294967295
70.092598 93.77198 -11.396688 4294967295
70.121078 96.399353 -11.582234 4294967295
70.125565 96.07457 -11.532536 4294967295
70.125977 92.642403 -11.164372 4294967295
70.144028 94.448471 -11.297047 4294967295
70.14579 95.756844 -11.430964 4294967295
70.186501 96.592484 -11.384149 4294967295
70.23056 93.267502 -11.452641 4294967295
70.231728 94.650879 -11.025469 4294967295
70.233368 94.739388 -11.600504 4294967295
70.248428 94.255852 -11.498548 4294967295
70.26342 94.099052 -11.431721 4294967295
70.305481 92.809784 -11.153482 4294967295
70.30986 93.95607 -11.261318 4294967295
70.310051 92.157768 -11.068538 4294967295
70.314362 93.794571 -11.229041 4294967295
70.319649 96.412254 -11.491025 4294967295
70.323128 96.7407 -11.514497 4294967295
70.32663 95.434715 -11.363283 4294967295
70.336845 95.11235 -11.294737 4294967295
70.345901 92.009682 -10.932968 4294967295
70.361412 94.469307 -11.143964 4294967295
70.366264 96.596855 -11.35505 4294967295
70.385239 96.932442 -11.327526 4294967295
70.387451 96.279488 -11.250381 4294967295
70.390755 93.42646 -11.50515 4294967295
70.399582 92.449738 -11.371359 4294967295
70.420769 94.747002 -11.546032 4294967295
70.443993 93.122826 -11.295054 4294967295
70.446793 93.287514 -11.303283 4294967295
70.473892 95.914757 -11.493463 4294967295
70.475212 95.425011 -11.436767 4294967295
70.512634 92.662148 -11.016758 4294967295
70.53833 96.107254 -11.298981 4294967295
70.55014 92.604553 -11.455581 4294967295
70.598068 94.259819 -11.472554 4294967295
70.622246 95.578064 -11.532711 4294967295
70.645103 92.318619 -11.108418 4294967295
70.647278 92.810097 -11.153663 4294967295
70.656403 96.900978 -11.560061 4294967295
70.657448 93.632042 -11.207532 4294967295
70.662865 93.470909 -11.17225 4294967295
70.667564 96.415695 -11.471035 4294967295
70.67131 94.619141 -11.266707 4294967295
70.683411 94.460991 -11.209482 4294967295
70.696815 93.322205 -11.04319 4294967295
70.700027 94.958893 -11.207251 4294967295
70.716629 97.091873 -11.379626 4294967295
70.732292 96.281464 -11.240885 4294967295
70.741196 93.594101 -11.493953 4294967295
70.74884 95.961868 -11.151591 4294967295
70.771904 92.953667 -11.323291 4294967295
70.772842 94.588669 -11.494712 4294967295
70.780724 96.63044 -11.11667 4294967295
70.832565 95.269051 -11.368406 4294967295
70.836624 96.742119 -11.512117 4294967295
70.861427 92.828972 -11.011766 4294967295
70.870888 93.977928 -11.10291 4294967295
70.893097 93.496994 -10.97757 4294967295
70.909584 93.831345 -10.958349 4294967295
70.919746 95.144379 -11.06466 4294967295
70.978027 95.421448 -11.469512 4294967295
70.989189 94.118523 -11.293307 4294967295
70.99292 94.937645 -11.368307 4294967295
70.994247 95.592171 -11.433738 4294967295
70.996742 93.794823 -11.233625 4294967295
71.007484 92.164162 -11.023805 4294967295
71.026085 93.153503 -11.067503 4294967295
71.033714 95.773331 -11.321711 4294967295
71.044121 96.268532 -11.339919 4294967295
71.049141 94.308434 -11.114029 4294967295
71.065575 93.988541 -11.025201 4294967295
71.089569 96.943176 -11.260656 4294967295
71.095154 95.310173 -11.067798 4294967295
71.098717 92.293564 -11.302873 4294967295
71.106133 94.258484 -11.487887 4294967295
71.118607 96.629242 -11.13051 4294967295
71.142235 95.255264 -11.47418 4294967295
71.155663 96.732475 -11.587118 4294967295
71.157654 93.300079 -11.214309 4294967295
71.160561 97.061607 -11.605965 4294967295
71.161896 95.427505 -11.427178 4294967295
71.167015 93.140625 -11.166163 4294967295
71.19381 94.624138 -11.235342 4294967295
71.227356 93.49398 -11.00321 4294967295
71.232773 93.005577 -10.933083 4294967295
71.258072 94.979691 -11.059589 4294967295
71.269806 95.639214 -11.090953 4294967295
71.30098 96.307533 -11.05857 4294967295
71.318069 96.642426 -11.037472 4294967295
71.329292 93.627609 -11.247073 4294967295
71.330818 95.099892 -11.399052 4294967295
71.353477 92.820396 -11.080625 4294967295
71.354462 95.437416 -11.356503 4294967295
71.360374 93.314064 -11.110368 4294967295
71.369148 93.154312 -11.064167 4294967295
71.372795 94.791451 -11.226693 4294967295
71.377174 97.082718 -11.456528 4294967295
71.38755 96.433357 -11.352809 4294967295
71.387634 95.94281 -11.300211 4294967295
71.388374 93.98053 -11.088437 4294967295
71.395798 92.511482 -10.907073 4294967295
71.40242 96.603592 -11.321563 4294967295
71.442879 93.602783 -11.435007 4294967295
71.449173 92.78804 -11.327242 4294967295
71.44957 94.661797 -10.957796 4294967295
71.476738 93.126991 -11.271893 4294967295
71.492676 96.153519 -10.973698 4294967295
71.520348 96.416481 -11.477913 4294967295
71.528458 92.331535 -11.015377 4294967295
71.551888 94.468155 -11.165471 4294967295
71.55471 95.777817 -11.295753 4294967295
71.556381 93.979416 -11.098433 4294967295
71.559196 93.81707 -11.071782 4294967295
71.615669 95.641472 -11.078865 4294967295
71.623207 94.335922 -10.914624 4294967295
71.634155 95.158867 -10.966059 4294967295
71.687279 93.962074 -11.229791 4294967295
71.688889 92.4907 -11.067571 4294967295
71.698914 94.948463 -11.296374 4294967295
71.702461 93.478012 -11.127831 4294967295
71.706375 95.278862 -11.30684 4294967295
71.714989 96.263924 -11.383302 4294967295
71.717422 94.465965 -11.183562 4294967295
71.718262 94.793465 -11.21569 4294967295
71.720421 93.322235 -11.051661 4294967295
71.747719 94.1521 -11.049619 4294967295
71.748932 97.096931 -11.359522 4294967295
71.763672 96.61293 -11.259045 4294967295
71.768677 93.0159 -10.858966 4294967295
71.770454 95.798088 -11.149696 4294967295
71.812447 95.162323 -10.942661 4294967295
71.825027 95.658821 -10.953856 4294967295
71.841072 93.62767 -11.251313 4294967295
71.841591 96.157143 -10.952046 4294967295
71.85601 93.143463 -11.15022 4294967295
71.865257 96.745483 -11.503485 4294967295
71.865585 96.418594 -11.467553 4294967295
71.919815 95.952271 -11.238184 4294967295
71.947739 94.655869 -11.007499 4294967295
71.964088 92.298752 -11.26872 4294967295
71.983826 92.797859 -11.256565 4294967295
72.021225 96.652222 -10.976751 4294967295
72.024765 92.161125 -11.053203 4294967295
72.027779 93.307526 -11.165382 4294967295
72.028481 94.616364 -11.302526 4294967295
72.034477 93.964737 -11.21324 4294967295
72.034889 94.292053 -11.246761 4294967295
72.036285 92.493248 -11.050459 4294967295
72.041435 92.986259 -11.085945 4294967295
72.060699 96.756836 -11.423923 4294967295
72.063255 93.813698 -11.101885 4294967295
72.074585 93.655029 -11.047462 4294967295
72.085907 94.150803 -11.062808 4294967295
72.089928 95.952141 -11.241428 4294967295
72.102043 95.793961 -11.184489 4294967295
72.108444 97.105522 -11.303013 4294967295
72.112518 93.18058 -10.87132 4294967295
72.133476 95.480721 -11.047053 4294967295
72.14267 96.139328 -11.086783 4294967295
72.14473 95.15844 -10.975449 4294967295
72.147194 94.83223 -10.932538 4294967295
72.148315 96.305481 -11.085793 4294967295
72.168564 92.640343 -11.194515 4294967295
72.202911 95.108772 -11.343876 4294967295
72.207909 95.274544 -11.345008 4294967295
72.215576 93.151344 -11.093472 4294967295
72.28688 96.291206 -11.192095 4294967295
72.336838 96.968155 -11.098973 4294967295
72.339981 92.804222 -11.210851 4294967295
72.341881 93.132195 -11.239526 4294967295
72.342415 96.80703 -11.063372 4294967295
72.348221 92.153397 -11.114316 4294967295
72.366493 96.49054 -10.950017 4294967295
72.369408 95.018669 -10.783583 4294967295
72.384422 92.332458 -11.013747 4294967295
72.407143 93.65123 -11.079127 4294967295
72.408501 92.506393 -10.952707 4294967295
72.413651 96.108101 -11.319269 4294967295
72.420639 96.274803 -11.313927 4294967295
72.438507 95.464767 -11.168627 4294967295
72.450859 96.779144 -11.267772 4294967295
72.460236 94.819855 -11.028132 4294967295
72.484032 94.502983 -10.915762 4294967295
72.485504 95.649254 -11.032964 4294967295
72.580215 94.306763 -11.142573 4294967295
72.597771 95.78701 -11.242218 4294967295
72.605942 94.154358 -11.041423 4294967295
72.635201 93.021378 -10.824168 4294967295
72.651047 93.191895 -10.790005 4294967295
72.672333 96.147499 -11.034416 4294967295
72.673561 93.856453 -10.786434 4294967295
72.676674 97.131378 -11.124824 4294967295
72.697357 95.176506 -10.848418 4294967295
72.703285 92.486374 -11.107427 4294967295
72.710083 96.655418 -10.963861 4294967295
72.723183 94.785484 -11.286523 4294967295
72.734146 96.09903 -11.390187 4294967295
72.736542 92.827873 -11.034085 4294967295
72.738594 95.119461 -11.271243 4294967295
72.740913 95.611282 -11.315951 4294967295
72.742653 93.648689 -11.101313 4294967295
72.758667 94.473816 -11.136314 4294967295
72.775162 92.680763 -10.891021 4294967295
72.788849 96.777901 -11.281985 4294967295
72.79364 93.507103 -10.918034 4294967295
72.800926 93.182877 -10.859486 4294967295
72.827042 96.304115 -11.105558 4294967295
72.829384 94.341057 -10.888904 4294967295
72.833511 95.324982 -10.980019 4294967295
72.87542 95.834625 -10.896026 4294967295
72.886093 96.985291 -10.983264 4294967295
72.915787 92.340508 -10.955631 4294967295
72.986549 92.043205 -10.690768 4294967295
73.011101 94.673279 -10.889737 4294967295
73.016678 95.330536 -10.941296 4294967295
73.017822 96.967873 -11.111749 4294967295
73.018677 93.858002 -10.77801 4294967295
73.04641 92.65065 -11.122256 4294967295
73.066933 96.335091 -10.882565 4294967295
73.068596 97.154411 -10.964261 4294967295
73.078964 95.937195 -11.364697 4294967295
73.090775 92.505936 -10.96077 4294967295
73.091949 95.615738 -11.287756 4294967295
73.092865 96.434204 -11.371792 4294967295
73.096825 94.963379 -11.202284 4294967295
73.11657 94.808395 -11.120795 4294967295
73.127968 93.503983 -10.944479 4294967295
73.136139 92.197853 -10.778612 4294967295
73.137558 95.308601 -11.104886 4294967295
73.166092 93.192993 -10.785847 4294967295
73.171783 94.505196 -10.90672 4294967295
73.187378 92.383385 -10.629612 4294967295
73.187691 96.803932 -11.098891 4294967295
73.199928 93.698792 -10.72824 4294967295
73.20063 93.371597 -10.691134 4294967295
73.229561 92.983215 -11.118241 4294967295
73.266907 96.675713 -10.8244 4294967295
73.336319 92.537766 -10.719625 4294967295
73.365639 93.860329 -10.763856 4294967295
73.371223 94.8452 -10.850241 4294967295
73.372238 96.482834 -11.021062 4294967295
73.387413 94.688538 -10.780311 4294967295
73.395546 94.200813 -10.701673 4294967295
73.407555 93.149956 -11.113675 4294967295
73.409561 96.990692 -10.952277 4294967295
73.413147 96.173615 -10.853588 4294967295
73.428574 93.322655 -11.06293 4294967295
73.432594 96.673538 -10.842765 4294967295
73.441078 93.655388 -11.057223 4294967295
73.441177 95.203415 -10.658187 4294967295
73.442818 96.929123 -11.399589 4294967295
73.44455 92.347351 -10.906712 4294967295
73.449936 92.840752 -10.941486 4294967295
73.464119 94.811142 -11.104393 4294967295
73.473206 92.686981 -10.84864 4294967295
73.493828 92.040794 -10.712128 4294967295
73.50222 93.518059 -10.841632 4294967295
73.526253 95.493225 -10.972671 4294967295
73.532036 94.185905 -10.814648 4294967295
73.541924 95.663864 -10.939294 4294967295
73.56881 93.874313 -10.660645 4294967295
73.624519 96.355515 -10.741337 4294967295
73.631073 94.973198 -11.135773 4294967295
73.650864 96.782333 -11.263056 4294967295
73.675835 92.700493 -10.747157 4294967295
73.694633 95.492226 -10.982193 4294967295
73.700447 94.676109 -10.876358 4294967295
73.70549 96.315628 -11.034054 4294967295
73.708443 92.550606 -10.624118 4294967295
73.713509 95.828011 -10.955892 4294967295
73.725044 95.996857 -10.935946 4294967295
73.725281 95.178223 -10.848167 4294967295
73.726097 96.979706 -11.03697 4294967295
73.735504 92.88974 -10.57131 4294967295
73.747002 94.532646 -10.7082 4294967295
73.749924 94.206337 -10.663917 4294967295
73.776947 92.670746 -10.97441 4294967295
73.786835 94.63932 -11.151185 4294967295
73.791023 93.658997 -11.033256 4294967295
73.797638 93.006996 -10.942259 4294967295
73.801147 95.300308 -11.174469 4294967295
73.803017 95.628487 -11.203194 4294967295
73.80867 93.175446 -10.923953 4294967295
73.812553 97.105721 -11.328883 4294967295
73.833855 92.03994 -10.720626 4294967295
73.83625 93.842224 -10.904331 4294967295
73.890968 94.029633 -10.744706 4294967295
73.912178 92.16449 -11.038823 4294967295
73.954887 96.842018 -10.833838 4294967295
73.96888 96.28109 -11.290326 4294967295
73.982445 94.486465 -11.055192 4294967295
74.015388 96.792847 -11.192205 4294967295
74.025963 94.669136 -10.931917 4294967295
74.028664 94.342812 -10.888391 4294967295
74.043167 93.857788 -10.789322 4294967295
74.054749 95.99173 -10.978059 4294967295
74.06913 95.179268 -10.844598 4294967295
74.071716 93.3787 -10.644821 4294967295
74.077797 95.674393 -10.868799 4294967295
74.101318 94.0467 -10.618744 4294967295
74.119026 97.002907 -10.87477 4294967295
74.127884 92.510872 -10.930095 4294967295
74.132881 95.534851 -10.673376 4294967295
74.147324 96.68795 -10.748544 4294967295
74.148193 96.284981 -11.264466 4294967295
74.159569 95.962639 -11.192951 4294967295
74.170746 92.365288 -10.774234 4294967295
74.17865 93.1875 -10.83569 4294967295
74.17971 96.953773 -11.232255 4294967295
74.182709 92.042778 -10.700788 4294967295
74.189522 93.028374 -10.783161 4294967295
74.207832 92.872391 -10.706634 4294967295
74.207932 92.217224 -10.636707 4294967295
74.208725 93.691719 -10.790735 4294967295
74.217712 96.80703 -11.092184 4294967295
74.243729 94.361992 -10.747283 4294967295
74.265343 94.535179 -10.694897 4294967295
74.270248 92.73513 -10.4876 4294967295
74.292389 95.202248 -10.677157 4294967295
74.308517 92.351212 -10.882689 4294967295
74.315407 96.195335 -10.707235 4294967295
74.372322 94.998741 -10.95505 4294967295
74.372856 93.033646 -10.744606 4294967295
74.375084 94.508652 -10.893951 4294967295
74.381432 93.528694 -10.769131 4294967295
74.388405 95.660828 -10.97272 4294967295
74.388565 94.02314 -10.798285 4294967295
74.392021 96.481209 -11.047982 4294967295
74.405403 96.978416 -11.056989 4294967295
74.431221 96.826172 -10.956341 4294967295
74.432846 94.697533 -10.724999 4294967295
74.468567 95.859917 -10.731524 4294967295
74.48838 92.68248 -10.890049 4294967295
74.49173 95.214729 -10.587212 4294967295
74.498329 92.850471 -10.875357 4294967295
74.500984 96.693436 -10.713941 4294967295
74.50576 96.947075 -11.285972 4294967295
74.516121 92.366676 -10.765804 4294967295
74.517776 95.553871 -10.537988 4294967295
74.532654 93.192657 -10.799463 4294967295
74.607536 95.518303 -10.801515 4294967295
74.607681 93.552391 -10.59234 4294967295
74.612778 94.209969 -10.645494 4294967295
74.624733 96.017311 -10.79826 4294967295
74.637802 93.401428 -10.477812 4294967295
74.716797 96.801392 -11.140871 4294967295
74.717087 94.836357 -10.931377 4294967295
74.724815 95.33107 -10.958635 4294967295
74.738495 92.879868 -10.653776 4294967295
74.748192 94.030815 -10.744266 4294967295
74.753731 96.654045 -11.004592 4294967295
74.754173 96.162895 -10.951013 4294967295
74.766777 95.840851 -10.875667 4294967295
74.785133 96.340378 -10.868704 4294967295
74.799004 94.21656 -10.597989 4294967295
74.809105 92.345924 -10.926291 4294967295
74.815926 95.207069 -10.647828 4294967295
74.831329 92.846649 -10.906884 4294967295
74.839142 92.522392 -10.846965 4294967295
74.861794 96.953735 -11.243254 4294967295
74.874931 92.209877 -10.696989 4294967295
74.907616 93.86203 -10.765643 4294967295
74.912125 93.208633 -10.681581 4294967295
74.912376 94.355545 -10.802466 4294967295
74.91761 95.176888 -10.872555 4294967295
74.925095 97.145714 -11.05701 4294967295
74.968422 93.724274 -10.552549 4294967295
74.97242 94.545357 -10.626636 4294967295
74.990211 95.536293 -10.673701 4294967295
74.990692 92.750389 -10.376515 4294967295
74.992226 96.356453 -10.754169 4294967295
75.001228 95.868851 -10.673033 4294967295
75.005753 94.887566 -10.554165 4294967295
75.038628 93.189667 -10.82624 4294967295
75.056229 96.964348 -11.16926 4294967295
75.063927 95.166199 -10.953424 4294967295
75.081772 92.061035 -10.56581 4294967295
75.084976 92.22625 -10.572886 4294967295
75.086929 93.537926 -10.70568 4294967295
75.092369 95.506233 -10.89674 4294967295
75.102692 94.363922 -10.741897 4294967295
75.103012 96.002342 -10.914649 4294967295
75.104935 94.692574 -10.769439 4294967295
75.109108 93.055809 -10.58219 4294967295
75.118141 96.336647 -10.900783 4294967295
75.125412 92.734955 -10.494995 4294967295
75.137917 93.395836 -10.524326 4294967295
75.146133 92.415901 -10.393572 4294967295
75.150589 93.892929 -10.535748 4294967295
75.153397 96.18837 -10.770077 4294967295
75.154305 92.583267 -10.384686 4294967295
75.185204 95.382957 -10.580926 4294967295
75.189606 96.695969 -10.705836 4294967295
75.197464 95.880013 -10.593672 4294967295
75.201157 95.062103 -10.494864 4294967295
75.204636 92.859894 -10.80902 4294967295
75.206795 94.572784 -10.42458 4294967295
75.21347 93.518929 -10.850119 4294967295
75.303818 96.998573 -10.924778 4294967295
75.305336 95.524658 -10.763533 4294967295
75.369804 92.693565 -10.811888 4294967295
75.39534 92.212799 -10.677784 4294967295
75.400879 93.689758 -10.81635 4294967295
75.408531 96.881218 -10.571166 4294967295
75.409317 93.037979 -10.719768 4294967295
75.413666 94.51442 -10.862175 4294967295
75.415154 95.900558 -10.445596 4294967295
75.416328 96.556824 -10.511339 4294967295
75.430412 95.996124 -10.964761 4294967295
75.438232 93.869598 -10.713817 4294967295
75.44854 93.382385 -10.628603 4294967295
75.46302 93.552437 -10.599515 4294967295
75.468887 94.210503 -10.650175 4294967295
75.479248 96.672989 -10.87753 4294967295
75.487129 96.512627 -10.834875 4294967295
75.48951 94.71106 -10.636113 4294967295
75.516792 95.214584 -10.60069 4294967295
75.54837 94.900452 -10.464595 4294967295
75.550392 94.4095 -10.405947 4294967295
75.556252 92.700043 -10.763889 4294967295
75.57399 95.567368 -10.451894 4294967295
75.576408 95.076569 -10.391982 4294967295
75.603477 95.341797 -10.890328 4294967295
75.612839 96.240227 -10.396785 4294967295
75.650215 92.575783 -10.445107 4294967295
75.700974 96.531631 -10.699345 4294967295
75.733437 95.726288 -10.508404 4294967295
75.74012 96.384979 -10.556467 4294967295
75.742828 96.877975 -10.599903 4294967295
75.758003 93.04071 -10.701735 4294967295
75.770256 94.02916 -10.766679 4294967295
75.774925 93.539536 -10.6996 4294967295
75.776642 94.19577 -10.763576 4294967295
75.780602 94.852943 -10.820357 4294967295
75.786552 96.733376 -10.442378 4294967295
75.823227 96.510208 -10.857448 4294967295
75.83728 93.893959 -10.534527 4294967295
75.840599 96.026207 -10.749709 4294967295
75.859856 95.378998 -10.618558 4294967295
75.897621 94.739609 -10.428078 4294967295
75.900047 95.068581 -10.455047 4294967295
75.931305 96.88578 -10.546023 4294967295
75.9571 92.724724 -10.578799 4294967295
75.96032 94.528969 -10.759535 4294967295
75.969597 95.188507 -10.799281 4294967295
75.971947 92.075249 -10.461796 4294967295
75.976074 92.240913 -10.46593 4294967295
75.983597 96.014 -10.841267 4294967295
76.012383 94.387459 -10.575498 4294967295
76.056763 96.701775 -10.676575 4294967295
76.07235 95.56102 -10.505122 4294967295
69.455269 74.857849 -10.362984 4294967295
69.606178 74.032814 -10.340922 4294967295
69.986938 75.516579 -10.368434 4294967295
70.299934 74.197021 -10.322573 4294967295
70.31884 74.857674 -10.330191 4294967295
70.459686 74.192566 -10.358894 4294967295
70.460381 73.865669 -10.32163 4294967295
70.569313 77.174736 -10.312514 4294967295
70.571693 77.666351 -10.357147 4294967295
70.664452 74.694031 -10.299452 4294967295
70.695427 75.522568 -10.284911 4294967295
70.843239 74.205185 -10.220798 4294967295
70.859291 75.028671 -10.255426 4294967295
70.904396 76.843971 -10.299403 4294967295
70.934952 77.181938 -10.233905 4294967295
71.004837 74.201332 -10.251191 4294967295
71.019569 74.860756 -10.272706 4294967295
71.07003 76.514282 -10.281692 4294967295
71.111328 77.674187 -10.268376 4294967295
71.196381 75.516541 -10.323085 4294967295
71.214508 75.031845 -10.211145 4294967295
71.217209 76.014557 -10.307117 4294967295
71.231041 76.673836 -10.331615 4294967295
71.259087 77.17453 -10.291991 4294967295
71.333672 74.849976 -10.363387 4294967295
71.393799 75.688583 -10.253503 4294967295
71.413673 76.186363 -10.240739 4294967295
71.43856 76.685951 -10.211542 4294967295
71.505592 74.358757 -10.30754 4294967295
71.520409 75.345497 -10.363799 4294967295
71.539001 73.87899 -10.145643 4294967295
71.609406 76.521622 -10.194434 4294967295
71.619194 77.17971 -10.232243 4294967295
71.666473 74.35466 -10.340347 4294967295
71.696449 75.346558 -10.34696 4294967295
71.707283 75.022964 -10.276559 4294967295
71.727669 74.211502 -10.122474 4294967295
71.747169 76.673134 -10.320595 4294967295
71.777794 77.502113 -10.307668 4294967295
71.811005 77.186401 -10.164044 4294967295
71.812408 73.527451 -10.334749 4294967295
71.841698 73.700798 -10.256357 4294967295
71.90593 74.704269 -10.150965 4294967295
71.909691 76.014954 -10.278357 4294967295
72.021156 74.684792 -10.3332 4294967295
72.046982 74.03878 -10.178957 4294967295
72.052002 75.349838 -10.302198 4294967295
72.052261 75.022598 -10.266439 4294967295
72.070633 73.555542 -10.04923 4294967295
72.076881 75.849327 -10.273252 4294967295
72.090233 76.344933 -10.28199 4294967295
72.090828 76.999809 -10.349865 4294967295
72.109581 76.678986 -10.253668 4294967295
72.111633 74.87896 -10.054913 4294967295
72.345413 77.519508 -10.12933 4294967295
72.377663 74.360893 -10.250663 4294967295
72.436295 75.526535 -10.181504 4294967295
72.438995 76.345978 -10.259942 4294967295
72.464775 77.009705 -10.245631 4294967295
72.480209 75.868965 -10.073125 4294967295
72.520195 74.186989 -10.325991 4294967295
72.549141 73.869232 -10.196724 4294967295
72.590942 76.011391 -10.287246 4294967295
72.618652 74.874763 -10.074796 4294967295
72.634964 74.552742 -9.9867001 4294967295
72.668289 73.523956 -10.330812 4294967295
72.727951 74.853287 -10.275972 4294967295
72.738693 74.365768 -10.188648 4294967295
72.742088 75.512848 -10.2997 4294967295
72.768402 73.720695 -10.022084 4294967295
72.784981 74.053696 -10.002986 4294967295
72.796303 76.677376 -10.24523 4294967295
72.817078 76.520813 -10.160148 4294967295
72.822121 75.867546 -10.073953 4294967295
72.841896 76.365601 -10.061893 4294967295
72.899567 73.870483 -10.169434 4294967295
72.956985 75.854523 -10.191867 4294967295
72.974792 74.222931 -9.9594717 4294967295
73.014748 76.365555 -10.056246 4294967295
73.017677 77.512932 -10.1688 4294967295
73.052727 73.863808 -10.22762 4294967295
73.060715 77.200378 -9.9939318 4294967295
73.079689 74.200188 -10.17482 4294967295
73.080284 75.019028 -10.260045 4294967295
73.087799 76.167557 -10.357647 4294967295
73.093529 75.350937 -10.251871 4294967295
73.097656 73.714897 -10.064075 4294967295
73.134125 77.656975 -10.363964 4294967295
73.149185 75.697289 -10.105797 4294967295
73.162254 76.520569 -10.150489 4294967295
73.168861 74.393616 -9.9022942 4294967295
73.172089 74.886108 -9.9441252 4294967295
73.195992 75.549385 -9.9361906 4294967295
73.253113 74.855179 -10.236897 4294967295
73.353004 76.199104 -10.051914 4294967295
73.357094 75.545296 -9.9688692 4294967295
73.369148 73.526367 -10.276193 4294967295
73.390999 74.843346 -10.344679 4294967295
73.41394 75.669647 -10.357338 4294967295
73.449928 73.716667 -10.031376 4294967295
73.453079 76.501633 -10.317451 4294967295
73.475174 75.035316 -10.088904 4294967295
73.478935 75.527924 -10.128984 4294967295
73.490288 76.186874 -10.161861 4294967295
73.513039 76.849785 -10.157767 4294967295
73.524757 74.560486 -9.8756628 4294967295
73.534607 77.021019 -10.105219 4294967295
73.535873 73.687889 -10.307692 4294967295
73.544693 77.352112 -10.107339 4294967295
73.548782 75.223877 -9.8674402 4294967295
73.560158 77.521294 -10.074594 4294967295
73.576469 77.199326 -9.9868269 4294967295
73.612869 76.16964 -10.319347 4294967295
73.688911 77.01458 -10.159931 4294967295
73.702316 74.07032 -9.8027191 4294967295
73.712852 74.016518 -10.323401 4294967295
73.723373 75.224312 -9.8564787 4294967295
73.738235 76.540123 -9.9477434 4294967295
73.754791 74.685394 -10.257196 4294967295
73.774651 73.873138 -10.105721 4294967295
73.776932 75.347832 -10.25514 4294967295
73.779076 75.021027 -10.213357 4294967295
73.78138 75.676849 -10.275576 4294967295
73.78717 73.71347 -10.047732 4294967295
73.801521 76.502487 -10.297421 4294967295
73.818787 76.017082 -10.189218 4294967295
73.828064 74.218376 -9.9675007 4294967295
73.84552 75.534752 -10.050358 4294967295
73.846786 77.336937 -10.237902 4294967295
73.915421 77.688416 -10.050455 4294967295
73.916321 77.524895 -10.030128 4294967295
73.982368 74.703484 -10.074446 4294967295
73.990135 77.654205 -10.362819 4294967295
74.038788 74.558426 -9.8743868 4294967295
74.04409 75.215614 -9.9269247 4294967295
74.074646 76.045204 -9.9151545 4294967295
74.100403 76.873329 -9.9189072 4294967295
74.132301 74.695679 -10.143228 4294967295
74.136589 74.205688 -10.077095 4294967295
74.142502 73.552353 -9.9883032 4294967295
74.144531 75.027359 -10.138502 4294967295
74.160583 77.653374 -10.365174 4294967295
74.183777 76.351067 -10.150904 4294967295
74.192833 74.551979 -9.9300108 4294967295
74.200127 76.684288 -10.132881 4294967295
74.252716 76.538467 -9.9454069 4294967295
74.286156 73.870193 -10.112196 4294967295
74.303154 74.367226 -10.109485 4294967295
74.363396 76.517113 -10.141209 4294967295
74.36454 74.059807 -9.8762836 4294967295
74.366379 74.715874 -9.9400024 4294967295
74.377945 74.228104 -9.8503628 4294967295
74.380516 77.014465 -10.138127 4294967295
74.381851 75.868042 -10.011938 4294967295
74.384705 75.213577 -9.9330339 4294967295
74.388672 76.853432 -10.094383 4294967295
74.389153 76.198227 -10.02317 4294967295
74.389893 76.362328 -10.038181 4294967295
74.396706 76.692345 -10.051013 4294967295
74.414627 73.52784 -10.215363 4294967295
74.428024 77.686264 -10.054321 4294967295
74.439087 73.699631 -10.153766 4294967295
74.461105 77.206108 -9.8952293 4294967295
74.502769 77.488358 -10.348503 4294967295
74.518234 75.69175 -10.107124 4294967295
74.579971 75.384804 -9.873003 4294967295
74.583443 77.352463 -10.070744 4294967295
74.605927 74.737839 -9.7195349 4294967295
74.660904 75.189972 -10.147132 4294967295
74.70726 76.516304 -10.13686 4294967295
74.713593 77.50148 -10.220852 4294967295
74.729782 76.032402 -10.011993 4294967295
74.732887 75.869576 -9.9845676 4294967295
74.733994 76.689285 -10.06805 4294967295
74.737541 75.543388 -9.9347525 4294967295
74.741226 77.183342 -10.096932 4294967295
74.750282 74.236412 -9.7543478 4294967295
74.755821 74.729996 -9.7887259 4294967295
74.759796 74.895233 -9.7933149 4294967295
74.767845 74.078262 -9.680253 4294967295
74.78334 74.411255 -9.6651125 4294967295
74.785553 77.690285 -10.006227 4294967295
74.789749 73.536957 -10.109789 4294967295
74.79335 76.381767 -9.841814 4294967295
74.803497 73.86911 -10.100289 4294967295
74.856842 76.835922 -10.241577 4294967295
74.862007 75.526962 -10.085734 4294967295
74.871605 77.660126 -10.281007 4294967295
74.883369 73.731369 -9.8254004 4294967295
74.940331 77.028419 -9.9899836 4294967295
74.942123 74.570297 -9.723074 4294967295
74.955704 75.066628 -9.7315474 4294967295
74.98259 74.36245 -10.127216 4294967295
75.035072 73.888092 -9.906003 4294967295
75.03878 74.217094 -9.9288654 4294967295
75.053108 76.516144 -10.126337 4294967295
75.070671 75.374931 -9.9479923 4294967295
75.078102 73.574303 -9.7326031 4294967295
75.079994 75.869751 -9.97019 4294967295
