# .PCD v0.7 - Point Cloud Data file format
VERSION 0.7
FIELDS x y z rgb
SIZE 4 4 4 4
TYPE F F F U
COUNT 1 1 1 1
WIDTH 1148
HEIGHT 1
VIEWPOINT 0 0 0 1 0 0 0
POINTS 1148
DATA ascii
30.410173 106.96368 -19.13571 4294967295
30.421055 107.44949 -19.145977 4294967295
30.422924 107.61029 -19.156622 4294967295
30.429335 112.19278 -18.9634 4294967295
30.460096 108.59208 -19.113853 4294967295
30.461901 109.71049 -19.234707 4294967295
30.469181 113.33767 -18.928009 4294967295
30.472288 108.44041 -19.045446 4294967295
30.475649 109.40035 -19.141598 4294967295
30.485701 110.84344 -19.265221 4294967295
30.492157 110.04971 -19.147095 4294967295
30.494518 110.37051 -19.174044 4294967295
30.495993 112.12704 -19.369509 4294967295
30.503553 111.49379 -19.265196 4294967295
30.509508 109.26299 -18.984194 4294967295
30.509714 109.90171 -19.056656 4294967295
30.515793 108.78812 -18.903389 4294967295
30.516735 106.87244 -18.679485 4294967295
30.517693 107.35218 -18.730564 4294967295
30.529758 110.55358 -19.047651 4294967295
30.530766 112.62938 -19.281717 4294967295
30.532774 112.31153 -19.236832 4294967295
30.535629 109.59951 -18.913561 4294967295
30.53779 108.00401 -18.72134 4294967295
30.547291 111.36354 -19.067293 4294967295
30.550316 113.44073 -19.293062 4294967295
30.557106 107.8568 -18.623642 4294967295
30.570803 111.05996 -18.934093 4294967295
30.572876 109.14492 -18.705574 4294967295
30.586637 112.98666 -19.089014 4294967295
30.588907 107.93078 -19.191061 4294967295
30.59033 111.23272 -18.872238 4294967295
30.594381 111.87421 -18.92893 4294967295
30.626329 108.2743 -19.074125 4294967295
30.632423 107.32037 -18.939175 4294967295
30.644348 107.80705 -18.94521 4294967295
30.68771 109.11265 -18.913872 4294967295
30.708147 110.88254 -19.031584 4294967295
30.740629 109.4668 -18.733391 4294967295
30.752232 112.02982 -18.979025 4294967295
30.753788 112.66959 -19.045925 4294967295
30.76615 112.51829 -18.976919 4294967295
30.803516 107.32489 -18.916302 4294967295
30.810387 110.52222 -19.254429 4294967295
30.817053 108.77065 -19.025679 4294967295
30.824488 107.97713 -18.903608 4294967295
30.827576 110.05474 -19.129061 4294967295
30.82999 107.66131 -18.844406 4294967295
30.84054 112.77691 -19.387196 4294967295
30.841286 111.66016 -19.255993 4294967295
30.84478 111.02399 -19.168436 4294967295
30.862787 112.31315 -19.241146 4294967295
30.866764 108.48367 -18.785269 4294967295
30.873178 109.12669 -18.83227 4294967295
30.883028 111.52854 -19.066669 4294967295
30.890862 113.29001 -19.23601 4294967295
30.900093 111.85934 -19.033388 4294967295
30.911707 109.63116 -18.729326 4294967295
30.916536 110.27328 -18.782833 4294967295
30.923544 109.47919 -18.662485 4294967295
30.926563 112.995 -19.053164 4294967295
30.926895 110.91908 -18.813667 4294967295
30.935703 107.94294 -19.126129 4294967295
30.951574 108.2725 -19.097757 4294967295
30.966934 107.16477 -18.90667 4294967295
30.979803 109.72773 -19.146942 4294967295
31.008728 109.42742 -18.991911 4294967295
31.014584 112.94349 -19.370649 4294967295
31.028103 109.91921 -18.967524 4294967295
31.030622 107.68486 -18.70079 4294967295
31.061319 109.62166 -18.79492 4294967295
31.07819 110.7509 -18.854069 4294967295
31.085577 112.67234 -19.043573 4294967295
31.0938 112.03909 -18.936686 4294967295
31.127033 110.46381 -18.617512 4294967295
31.132959 113.34336 -18.922958 4294967295
31.137686 107.80778 -18.958628 4294967295
31.138914 108.92628 -19.081738 4294967295
31.141172 110.20495 -19.218906 4294967295
31.16935 108.62674 -18.920643 4294967295
31.176105 109.58931 -19.002855 4294967295
31.190048 109.43877 -18.927526 4294967295
31.197296 107.36697 -18.659834 4294967295
31.198776 111.20112 -19.09318 4294967295
31.200533 111.6813 -19.1409 4294967295
31.20808 106.73479 -18.542442 4294967295
31.210361 110.41037 -18.954302 4294967295
31.211195 108.33446 -18.712866 4294967295
31.219221 110.57594 -18.93638 4294967295
31.219294 111.53419 -19.04591 4294967295
31.221323 112.65331 -19.16572 4294967295
31.233912 112.98118 -19.150869 4294967295
31.237133 108.19149 -18.588457 4294967295
31.248592 112.03294 -18.981054 4294967295
31.249762 109.31814 -18.665014 4294967295
31.251478 109.15948 -18.639679 4294967295
31.251816 108.84015 -18.601664 4294967295
31.26664 111.08664 -18.797434 4294967295
31.26959 106.98871 -19.0047 4294967295
31.275364 110.77292 -18.725143 4294967295
31.285769 113.33582 -18.97554 4294967295
31.286219 110.9399 -18.699072 4294967295
31.320509 112.56063 -18.742022 4294967295
31.320742 111.49242 -19.307968 4294967295
31.328913 107.50581 -18.817175 4294967295
31.34239 108.47285 -18.871925 4294967295
31.347281 113.53747 -18.742474 4294967295
31.356905 109.91973 -18.977331 4294967295
31.359766 112.31683 -19.240068 4294967295
31.378626 113.44717 -19.291105 4294967295
31.453926 113.01924 -18.928827 4294967295
31.466501 111.27027 -18.676147 4294967295
31.477655 111.7571 -18.685516 4294967295
31.480499 110.53181 -19.22197 4294967295
31.50713 107.03557 -18.710819 4294967295
31.524004 108.48418 -18.80665 4294967295
31.527037 109.12511 -18.867456 4294967295
31.532187 108.80898 -18.809851 4294967295
31.536739 108.01315 -18.699762 4294967295
31.544205 112.8097 -19.218109 4294967295
31.544867 110.41465 -18.941071 4294967295
31.5459 110.09588 -18.900267 4294967295
31.554632 109.78214 -18.828041 4294967295
31.556173 107.38649 -18.547216 4294967295
31.560772 111.54327 -19.004234 4294967295
31.564455 112.98308 -19.153816 4294967295
31.566082 109.47012 -18.744719 4294967295
31.572823 108.35601 -18.589094 4294967295
31.574793 113.46917 -19.166517 4294967295
31.576323 111.71338 -18.959095 4294967295
31.578241 106.76129 -18.383892 4294967295
31.581076 112.5152 -19.031164 4294967295
31.589561 111.08323 -18.831913 4294967295
31.591913 109.32722 -18.621008 4294967295
31.597668 109.97016 -18.670744 4294967295
31.599415 109.01249 -18.553787 4294967295
31.606092 112.21255 -18.892555 4294967295
31.606632 113.3311 -19.0184 4294967295
31.618793 110.94286 -18.694357 4294967295
31.622213 110.78533 -18.662104 4294967295
31.625523 106.84663 -18.885239 4294967295
31.647179 107.33963 -18.851799 4294967295
31.650002 113.20078 -18.823252 4294967295
31.658209 111.01991 -19.227407 4294967295
31.660175 107.66743 -18.835388 4294967295
31.661753 112.72937 -18.72044 4294967295
31.672825 107.99505 -18.820396 4294967295
31.705921 110.57242 -18.978119 4294967295
31.722237 108.82581 -18.710413 4294967295
31.74757 112.83636 -19.064415 4294967295
31.791456 109.66998 -18.519741 4294967295
31.806702 110.31933 -18.530804 4294967295
31.815102 107.18227 -18.82419 4294967295
31.817532 112.0846 -18.687944 4294967295
31.819016 110.96682 -18.553814 4294967295
31.825872 107.6684 -18.835178 4294967295
31.827768 111.45214 -18.57305 4294967295
31.82975 113.05167 -18.747931 4294967295
31.831976 112.73356 -18.702278 4294967295
31.834143 107.03465 -18.728338 4294967295
31.856203 109.44523 -18.912785 4294967295
31.860731 110.56633 -19.022322 4294967295
31.861048 108.80937 -18.81992 4294967295
31.866005 109.93087 -18.927725 4294967295
31.867729 108.49416 -18.75614 4294967295
31.868246 111.05047 -19.046564 4294967295
31.868425 109.77271 -18.899586 4294967295
31.869902 112.16954 -19.167763 4294967295
31.87019 108.17619 -18.709534 4294967295
31.872679 108.97668 -18.790842 4294967295
31.880968 111.69781 -19.067896 4294967295
31.887358 107.38819 -18.548149 4294967295
31.887383 111.38263 -19.005232 4294967295
31.888746 112.34189 -19.109348 4294967295
31.916164 112.04081 -18.961206 4294967295
31.931961 108.37583 -18.476255 4294967295
31.937933 110.77708 -18.726328 4294967295
31.94582 109.18404 -18.511293 4294967295
31.947107 109.66439 -18.560938 4294967295
31.963379 113.3507 -18.915321 4294967295
31.977816 112.72131 -18.783445 4294967295
31.988943 107.02863 -18.772585 4294967295
31.998415 112.57536 -18.681326 4294967295
32.011124 111.19617 -19.157534 4294967295
32.044453 111.85721 -19.095104 4294967295
32.056408 112.82354 -19.156122 4294967295
32.066555 113.14983 -19.151421 4294967295
32.069416 113.31148 -19.158056 4294967295
32.105316 109.98015 -18.628275 4294967295
32.106537 108.06275 -18.403839 4294967295
32.124828 112.55007 -18.841455 4294967295
32.130646 111.75494 -18.726402 4294967295
32.154358 106.8696 -18.755379 4294967295
32.158737 111.61382 -18.59391 4294967295
32.159145 108.78982 -18.955215 4294967295
32.164291 108.15412 -18.861219 4294967295
32.178341 107.04462 -18.676184 4294967295
32.198864 109.45464 -18.866905 4294967295
32.199898 110.09437 -18.935801 4294967295
32.204239 110.57649 -18.97298 4294967295
32.204327 111.37527 -19.063955 4294967295
32.207607 112.17611 -19.141954 4294967295
32.221573 111.22697 -18.975637 4294967295
32.228119 110.43244 -18.857697 4294967295
32.229847 111.71173 -18.996838 4294967295
32.232552 109.63638 -18.748318 4294967295
32.254284 109.9702 -18.696571 4294967295
32.260868 110.29415 -18.706385 4294967295
32.262268 109.8156 -18.645859 4294967295
32.268974 113.17582 -19.002363 4294967295
32.273869 112.06065 -18.854603 4294967295
32.281727 112.70508 -18.895777 4294967295
32.295673 110.9564 -18.638105 4294967295
32.305248 113.51991 -18.891624 4294967295
32.312504 110.80766 -18.55147 4294967295
32.315453 107.82623 -18.883678 4294967295
32.317535 112.56931 -18.732096 4294967295
32.320938 109.74673 -19.080574 4294967295
32.33429 110.87355 -19.154219 4294967295
32.34441 108.48392 -18.839197 4294967295
32.35891 108.01385 -18.725531 4294967295
32.363316 107.69705 -18.671103 4294967295
32.369446 113.40353 -18.612707 4294967295
32.383953 109.14865 -18.751764 4294967295
32.385418 108.98979 -18.727545 4294967295
32.396618 112.67209 -19.1022 4294967295
32.400845 107.24146 -18.463892 4294967295
32.416473 109.48942 -18.656322 4294967295
32.420502 113.32718 -19.07836 4294967295
32.445103 112.38505 -18.869007 4294967295
32.457047 111.27425 -18.692667 4294967295
32.506683 110.2401 -19.054028 4294967295
32.506794 108.32295 -18.834486 4294967295
32.515926 107.52979 -18.706116 4294967295
32.51717 109.92745 -18.975008 4294967295
32.521107 108.01254 -18.739912 4294967295
32.523327 108.81298 -18.822224 4294967295
32.525227 109.29359 -18.869308 4294967295
32.536377 107.86249 -18.659714 4294967295
32.541538 106.90672 -18.529167 4294967295
32.5453 109.1468 -18.769667 4294967295
32.547573 110.58646 -18.924791 4294967295
32.549805 112.82459 -19.171322 4294967295
32.550999 108.99067 -18.728298 4294967295
32.557526 110.91258 -18.920982 4294967295
32.568974 108.20306 -18.564072 4294967295
32.570709 111.56045 -18.940575 4294967295
32.575317 112.52219 -19.031441 4294967295
32.575893 112.68235 -19.047363 4294967295
32.581051 109.48965 -18.661245 4294967295
32.586033 107.41458 -18.403517 4294967295
32.587868 107.25585 -18.377802 4294967295
32.590981 111.89351 -18.894939 4294967295
32.600758 110.14188 -18.654428 4294967295
32.62112 109.83546 -18.535336 4294967295
32.63525 113.04182 -18.843384 4294967295
32.640518 107.18494 -18.836365 4294967295
32.646412 106.70928 -18.757713 4294967295
32.649578 111.29303 -18.584417 4294967295
32.654964 112.41567 -18.690458 4294967295
32.660316 112.09952 -18.632231 4294967295
32.682518 107.8509 -18.739256 4294967295
32.685226 111.36786 -19.12985 4294967295
32.722118 112.03138 -19.05349 4294967295
32.753483 110.29423 -18.725719 4294967295
32.7724 107.7484 -18.356867 4294967295
32.779686 108.55262 -18.418694 4294967295
32.780834 110.95157 -18.688015 4294967295
32.789005 113.51434 -18.947018 4294967295
32.825581 107.03829 -18.739876 4294967295
32.83194 110.82532 -18.46283 4294967295
32.846622 109.44887 -18.928482 4294967295
32.858444 110.73485 -19.02663 4294967295
32.864265 108.50139 -18.747602 4294967295
32.864532 109.9399 -18.91078 4294967295
32.8647 113.08577 -18.585907 4294967295
32.865532 109.1415 -18.815491 4294967295
32.8685 109.62286 -18.858229 4294967295
32.870678 108.34566 -18.703413 4294967295
32.892086 107.87979 -18.562002 4294967295
32.896603 106.92335 -18.43416 4294967295
32.897682 107.72348 -18.521103 4294967295
32.898411 113.15797 -19.138659 4294967295
32.905727 107.24892 -18.433758 4294967295
32.906075 111.08578 -18.870495 4294967295
32.917366 111.73251 -18.89782 4294967295
32.919918 110.29569 -18.723238 4294967295
32.92173 111.41576 -18.843666 4294967295
32.922417 112.0555 -18.913889 4294967295
32.927109 108.70164 -18.511587 4294967295
32.947884 109.83432 -18.555357 4294967295
32.949753 112.87285 -18.894592 4294967295
32.949966 112.55334 -18.857231 4294967295
32.960655 113.03999 -18.868759 4294967295
32.985657 111.29811 -18.5669 4294967295
32.986595 107.19602 -18.777342 4294967295
32.989548 113.53897 -18.806704 4294967295
33.001938 110.40179 -19.080166 4294967295
33.008045 111.95255 -18.549383 4294967295
33.011135 108.01075 -18.769369 4294967295
33.030224 111.69856 -19.111765 4294967295
33.036404 108.98595 -18.77672 4294967295
33.058613 112.83588 -19.12475 4294967295
33.063225 110.28204 -18.814297 4294967295
33.079853 109.49359 -18.655861 4294967295
33.084896 109.1771 -18.598978 4294967295
33.132545 110.1674 -18.515947 4294967295
33.140247 106.7098 -18.77158 4294967295
33.158386 112.74281 -18.70356 4294967295
33.181229 107.69476 -18.715532 4294967295
33.193192 108.82131 -18.794909 4294967295
33.198483 110.58279 -18.974152 4294967295
33.199928 112.45072 -18.499279 4294967295
33.205059 111.70569 -19.075243 4294967295
33.205235 109.14875 -18.782778 4294967295
33.212563 110.43217 -18.89909 4294967295
33.213264 111.55132 -19.023895 4294967295
33.213638 109.95338 -18.840038 4294967295
33.214413 113.26007 -18.532043 4294967295
33.227852 111.88058 -19.001499 4294967295
33.228096 112.20036 -19.036989 4294967295
33.231274 107.88647 -18.531689 4294967295
33.231503 109.32556 -18.694971 4294967295
33.235172 109.80753 -18.734882 4294967295
33.236622 110.92742 -18.856703 4294967295
33.247589 112.69276 -19.013033 4294967295
33.261486 108.54539 -18.4827 4294967295
33.263287 110.30544 -18.676128 4294967295
33.280045 111.11581 -18.699705 4294967295
33.283115 108.07943 -18.340614 4294967295
33.286259 107.4416 -18.254892 4294967295
33.290737 113.36098 -18.911898 4294967295
33.311108 112.09564 -18.683804 4294967295
33.316811 113.21863 -18.788481 4294967295
33.316925 111.45988 -18.587364 4294967295
33.345322 112.59811 -18.600494 4294967295
33.350735 108.17761 -18.755367 4294967295
33.354065 106.90078 -18.596033 4294967295
33.359188 107.22378 -18.611835 4294967295
33.361797 109.30363 -18.838383 4294967295
33.404621 109.8109 -18.7204 4294967295
33.413441 109.17706 -18.611893 4294967295
33.441151 112.55258 -18.883101 4294967295
33.456005 108.40475 -18.349009 4294967295
33.512371 109.29481 -18.899872 4294967295
33.513546 110.2545 -19.004475 4294967295
33.514584 108.33717 -18.781597 4294967295
33.5247 110.90103 -19.032434 4294967295
33.526413 113.08919 -18.594204 4294967295
33.527115 107.54578 -18.639942 4294967295
33.531902 108.18835 -18.693583 4294967295
33.533672 108.6691 -18.741148 4294967295
33.536495 106.91212 -18.5292 4294967295
33.537582 107.39251 -18.57954 4294967295
33.555943 112.20013 -19.052393 4294967295
33.569271 111.72947 -18.944059 4294967295
33.569996 111.41026 -18.904701 4294967295
33.57172 109.65285 -18.697256 4294967295
33.574932 111.0938 -18.848375 4294967295
33.57621 109.01616 -18.606236 4294967295
33.583584 109.50062 -18.631241 4294967295
33.603642 112.39163 -18.878582 4294967295
33.614948 113.51817 -18.960629 4294967295
33.618591 111.60213 -18.727255 4294967295
33.631966 112.73022 -18.800995 4294967295
33.636616 112.09374 -18.709364 4294967295
33.639709 113.21505 -18.824509 4294967295
33.645828 107.83657 -18.86619 4294967295
33.648815 107.19907 -18.781275 4294967295
33.691692 108.98479 -18.809153 4294967295
33.707108 109.79404 -18.838238 4294967295
33.738667 108.37527 -18.547218 4294967295
33.740433 108.69625 -18.576557 4294967295
33.785282 110.48436 -18.596615 4294967295
33.798969 110.97308 -18.596237 4294967295
33.803051 110.65588 -18.543356 4294967295
33.809338 110.02015 -18.445143 4294967295
33.826351 112.4305 -18.650137 4294967295
33.838604 107.8546 -18.757849 4294967295
33.838814 108.17448 -18.793438 4294967295
33.847454 110.84483 -18.382954 4294967295
33.850464 112.60645 -18.571388 4294967295
33.858921 110.74505 -19.004026 4294967295
33.862457 111.17462 -18.35907 4294967295
33.864437 113.41553 -18.606335 4294967295
33.865387 108.35127 -18.704821 4294967295
33.873234 107.39681 -18.563948 4294967295
33.878559 107.72002 -18.578991 4294967295
33.880283 112.3063 -18.415001 4294967295
33.888466 110.28472 -18.83066 4294967295
33.88871 112.20314 -19.048214 4294967295
33.895824 106.93121 -18.418434 4294967295
33.899696 109.81234 -18.730873 4294967295
33.903042 112.37247 -19.00885 4294967295
33.907028 107.09821 -18.391613 4294967295
33.916801 111.902 -18.898932 4294967295
33.928726 109.35131 -18.55953 4294967295
33.93185 110.15298 -18.638083 4294967295
33.944328 109.04144 -18.460365 4294967295
33.954262 108.08792 -18.311064 4294967295
33.95623 110.48868 -18.576544 4294967295
33.957787 111.76913 -18.716047 4294967295
33.961494 108.73248 -18.35491 4294967295
33.964115 112.89267 -18.81815 4294967295
33.965427 111.29437 -18.630705 4294967295
33.967041 112.09507 -18.715313 4294967295
33.986591 111.14829 -18.527441 4294967295
34.062035 107.892 -18.52669 4294967295
34.082336 108.86458 -18.554466 4294967295
34.094883 111.11166 -18.759085 4294967295
34.110958 108.40295 -18.384869 4294967295
34.11591 113.04433 -18.893211 4294967295
34.123051 107.2906 -18.20871 4294967295
34.160652 108.48985 -18.869654 4294967295
34.164551 110.83725 -18.44301 4294967295
34.183678 112.76956 -18.58486 4294967295
34.186115 107.06687 -18.603636 4294967295
34.200588 108.03554 -18.654823 4294967295
34.205254 110.11723 -18.872782 4294967295
34.212215 112.46852 -18.433905 4294967295
34.212658 109.48244 -18.770262 4294967295
34.222271 110.28813 -18.822739 4294967295
34.230133 108.69403 -18.609138 4294967295
34.238285 112.2172 -18.976936 4294967295
34.24041 113.44732 -18.430082 4294967295
34.24564 112.70168 -19.002052 4294967295
34.252026 107.42822 -18.375591 4294967295
34.253849 108.22926 -18.459349 4294967295
34.258648 107.75237 -18.38545 4294967295
34.290298 109.21239 -18.422434 4294967295
34.296124 113.37483 -18.872488 4294967295
34.306023 109.86246 -18.432234 4294967295
34.308914 110.50427 -18.493492 4294967295
34.32341 113.23312 -18.744928 4294967295
34.327766 109.71647 -18.326801 4294967295
34.327774 110.83651 -18.454281 4294967295
34.328072 111.15668 -18.489523 4294967295
34.330505 111.31826 -18.497969 4294967295
34.335487 108.01685 -18.779211 4294967295
34.337482 107.37849 -18.698402 4294967295
34.348984 108.665 -18.797916 4294967295
34.35635 111.65519 -18.430779 4294967295
34.361717 111.97873 -18.44569 4294967295
34.370457 111.07709 -18.984831 4294967295
34.372532 109.79937 -18.830954 4294967295
34.37458 113.10724 -18.521612 4294967295
34.404613 111.57907 -18.902603 4294967295
34.422958 109.19204 -18.55612 4294967295
34.461258 112.57586 -18.784946 4294967295
34.465054 110.17897 -18.496704 4294967295
34.500786 110.36209 -18.371756 4294967295
34.529648 106.91603 -18.538752 4294967295
34.531513 107.23711 -18.567686 4294967295
34.537861 109.95992 -18.851601 4294967295
34.548069 108.6871 -18.665201 4294967295
34.548958 109.00754 -18.698029 4294967295
34.560265 109.81444 -18.743748 4294967295
34.562176 110.29545 -18.79068 4294967295
34.563332 111.09576 -18.877014 4294967295
34.577641 107.90602 -18.455818 4294967295
34.582397 108.38898 -18.491383 4294967295
34.584068 107.59009 -18.393667 4294967295
34.585037 113.34855 -19.044813 4294967295
34.591202 109.35445 -18.565344 4294967295
34.592709 111.27484 -18.777668 4294967295
34.607937 108.24518 -18.370935 4294967295
34.616314 110.97034 -18.646833 4294967295
34.623035 107.45457 -18.219446 4294967295
34.635433 110.8228 -18.55213 4294967295
34.641399 112.1065 -18.673841 4294967295
34.646725 111.63008 -18.597946 4294967295
34.660381 112.27898 -18.616104 4294967295
34.662006 111.48009 -18.518606 4294967295
34.665913 107.5381 -18.730358 4294967295
34.666687 109.7229 -18.299637 4294967295
34.669376 112.76485 -18.634724 4294967295
34.679619 108.66619 -18.802868 4294967295
34.681477 110.53265 -18.331482 4294967295
34.696182 113.26261 -18.582092 4294967295
34.707088 106.9241 -18.492905 4294967295
34.712383 110.76604 -18.908289 4294967295
34.734077 112.64765 -18.35771 4294967295
34.738232 107.10355 -18.386528 4294967295
34.742119 112.97308 -18.361959 4294967295
34.745899 109.66816 -18.646992 4294967295
34.760063 112.0765 -18.863203 4294967295
34.782436 112.41109 -18.810171 4294967295
34.786385 112.73358 -18.83077 4294967295
34.794697 110.3395 -18.524693 4294967295
34.798195 110.18176 -18.49251 4294967295
34.801926 108.58392 -18.295614 4294967295
34.830402 109.24225 -18.254547 4294967295
34.842007 108.34507 -18.780777 4294967295
34.852127 113.41707 -18.640841 4294967295
34.873493 106.92525 -18.491302 4294967295
34.873817 113.11147 -18.517797 4294967295
34.876392 111.35271 -18.307335 4294967295
34.879131 107.56871 -18.541536 4294967295
34.879673 110.1283 -18.830328 4294967295
34.880367 111.67543 -18.327848 4294967295
34.881733 109.64983 -18.767561 4294967295
34.883076 109.17086 -18.707651 4294967295
34.885933 111.25179 -18.932577 4294967295
34.897495 107.90024 -18.504551 4294967295
34.899612 109.82126 -18.71434 4294967295
34.902912 110.62312 -18.792072 4294967295
34.913162 111.58939 -18.860228 4294967295
34.916473 108.8722 -18.537874 4294967295
34.918755 113.19224 -19.019665 4294967295
34.923595 111.11638 -18.764034 4294967295
34.938496 107.12585 -18.249763 4294967295
34.940044 112.72659 -18.880175 4294967295
34.943012 110.80906 -18.650145 4294967295
34.950871 111.77401 -18.727867 4294967295
34.957664 110.33857 -18.537071 4294967295
34.963223 112.58195 -18.769466 4294967295
34.96489 109.54314 -18.417273 4294967295
34.972965 112.10844 -18.676037 4294967295
34.976349 113.39043 -18.807991 4294967295
34.983593 112.4354 -18.669987 4294967295
34.99168 109.40023 -18.292076 4294967295
35.027431 106.75863 -18.521341 4294967295
35.036377 108.52396 -18.685635 4294967295
35.048256 107.2516 -18.492779 4294967295
35.111858 112.09176 -18.784456 4294967295
35.113232 110.97283 -18.651731 4294967295
35.159901 111.48321 -18.520138 4294967295
35.199959 107.24356 -18.549946 4294967295
35.205929 109.80684 -18.816923 4294967295
35.20969 112.79617 -18.467072 4294967295
35.210041 107.72985 -18.564285 4294967295
35.210274 109.00983 -18.708752 4294967295
35.210724 112.31668 -18.408386 4294967295
35.223473 113.12538 -18.448492 4294967295
35.224155 107.89872 -18.526188 4294967295
35.22456 109.33887 -18.688162 4294967295
35.232365 110.14372 -18.747927 4294967295
35.234055 111.58437 -18.904713 4294967295
35.234608 109.98519 -18.720816 4294967295
35.240685 110.62897 -18.769289 4294967295
35.246155 108.55263 -18.511209 4294967295
35.257469 108.23973 -18.429758 4294967295
35.276215 110.33192 -18.591372 4294967295
35.286686 111.45871 -18.676861 4294967295
35.288067 112.09956 -18.744049 4294967295
35.292336 108.74191 -18.345329 4294967295
35.299511 109.22663 -18.371271 4294967295
35.300602 108.90721 -18.330564 4294967295
35.303127 112.74939 -18.756746 4294967295
35.305519 110.99092 -18.547304 4294967295
35.316921 111.79844 -18.592762 4294967295
35.32114 109.72062 -18.339619 4294967295
35.339413 110.85283 -18.394083 4294967295
35.34684 108.35232 -18.753439 4294967295
35.349823 106.91441 -18.578032 4294967295
35.376369 113.43789 -18.537729 4294967295
35.382591 109.49476 -18.738262 4294967295
35.386875 106.77742 -18.412283 4294967295
35.422672 113.35965 -19.014624 4294967295
35.433167 108.24675 -18.391516 4294967295
35.436546 107.12842 -18.250814 4294967295
35.444603 109.69437 -18.509556 4294967295
35.446312 107.77482 -18.284645 4294967295
35.456547 107.94132 -18.262066 4294967295
35.457413 110.82278 -18.585768 4294967295
35.471321 112.11195 -18.675772 4294967295
35.504791 110.53326 -18.360849 4294967295
35.523289 111.66576 -18.414455 4294967295
35.545216 108.69367 -18.661095 4294967295
35.547466 109.49503 -18.742962 4294967295
35.554523 107.09937 -18.442408 4294967295
35.558838 107.26208 -18.443417 4294967295
35.560085 113.13058 -18.43162 4294967295
35.564831 110.14606 -18.74655 4294967295
35.566429 107.74694 -18.467726 4294967295
35.566528 106.94678 -18.376469 4294967295
35.568523 107.90829 -18.477554 4294967295
35.58519 109.83911 -18.629265 4294967295
35.595753 109.20576 -18.514597 4294967295
35.604988 111.7719 -18.76849 4294967295
35.613144 110.65714 -18.608932 4294967295
35.629673 112.74802 -18.779308 4294967295
35.629917 111.30808 -18.614893 4294967295
35.632065 108.42843 -18.279318 4294967295
35.632645 109.38927 -18.386047 4294967295
35.633163 108.10893 -18.2386 4294967295
35.63657 110.99233 -18.55212 4294967295
35.64035 110.03445 -18.428083 4294967295
35.641262 109.07459 -18.315434 4294967295
35.642624 111.95646 -18.637039 4294967295
35.652943 110.36267 -18.414356 4294967295
35.656467 112.4456 -18.636497 4294967295
35.665321 112.61144 -18.619471 4294967295
35.673298 110.53584 -18.351583 4294967295
35.685795 113.42513 -18.62892 4294967295
35.691174 111.668 -18.407705 4294967295
35.740959 107.27297 -18.379755 4294967295
35.746605 108.23684 -18.466301 4294967295
35.764214 109.52834 -18.541636 4294967295
35.768837 107.77059 -18.323469 4294967295
35.796154 108.58819 -18.305756 4294967295
35.876732 108.69524 -18.663694 4294967295
35.877323 107.57545 -18.534256 4294967295
35.884533 109.02019 -18.669025 4294967295
35.886951 107.26137 -18.45973 4294967295
35.894814 109.34673 -18.664528 4294967295
35.895012 107.10632 -18.409569 4294967295
35.901035 110.15075 -18.730597 4294967295
35.902428 112.33894 -18.301485 4294967295
35.909069 108.39555 -18.499031 4294967295
35.917366 110.96127 -18.756546 4294967295
35.917862 107.76083 -18.391489 4294967295
35.918148 106.80051 -18.281389 4294967295
35.920341 106.96195 -18.290848 4294967295
35.928413 110.32831 -18.640114 4294967295
35.930336 112.08968 -18.832113 4294967295
35.940224 112.73612 -18.865479 4294967295
35.948994 111.6218 -18.703659 4294967295
35.951836 112.26373 -18.76499 4294967295
35.95591 108.10482 -18.276777 4294967295
35.959839 111.14873 -18.606184 4294967295
35.960815 108.9084 -18.348114 4294967295
35.965897 109.55197 -18.4006 4294967295
35.980061 109.72108 -18.362541 4294967295
35.981766 108.60141 -18.228642 4294967295
35.98431 108.28276 -18.182213 4294967295
35.987457 111.48672 -18.532925 4294967295
35.99041 113.08915 -18.702742 4294967295
35.993702 110.85046 -18.435528 4294967295
35.996136 109.89143 -18.316916 4294967295
36.002842 113.41743 -18.689728 4294967295
36.014328 111.98441 -18.480797 4294967295
36.036858 110.71813 -18.246147 4294967295
36.039234 111.36018 -18.309372 4294967295
36.039597 112.64128 -18.453199 4294967295
36.050758 107.90104 -18.541553 4294967295
36.074482 111.43655 -18.846691 4294967295
36.143482 107.4786 -18.119375 4294967295
36.216423 108.86195 -18.652273 4294967295
36.217514 107.10207 -18.448376 4294967295
36.219437 111.85073 -18.308577 4294967295
36.230591 109.03093 -18.614302 4294967295
36.234318 107.59273 -18.436239 4294967295
36.240208 113.14537 -18.371504 4294967295
36.240932 107.27667 -18.373751 4294967295
36.252525 111.12534 -18.763271 4294967295
36.258739 110.96932 -18.720533 4294967295
36.270508 111.77708 -18.764624 4294967295
36.275772 108.41909 -18.362789 4294967295
36.283722 109.86494 -18.494625 4294967295
36.286301 107.94535 -18.26663 4294967295
36.288418 111.94875 -18.711876 4294967295
36.307606 110.36045 -18.454489 4294967295
36.308777 110.84147 -18.504284 4294967295
36.311455 108.76176 -18.257755 4294967295
36.311733 110.04288 -18.401857 4294967295
36.316563 112.44724 -18.654888 4294967295
36.318729 113.40897 -18.755136 4294967295
36.318836 109.40694 -18.301121 4294967295
36.321274 109.72874 -18.327782 4294967295
36.332119 111.49689 -18.484451 4294967295
36.337334 110.69971 -18.373083 4294967295
36.34457 112.78571 -18.58032 4294967295
36.35461 110.23038 -18.250229 4294967295
36.359936 113.11596 -18.555796 4294967295
36.36948 107.25425 -18.522701 4294967295
36.383553 113.2916 -18.480474 4294967295
36.384403 108.38396 -18.590614 4294967295
36.393154 112.65741 -18.369883 4294967295
36.39399 111.69708 -18.257681 4294967295
36.40049 107.11339 -18.381826 4294967295
36.454838 111.78999 -18.692848 4294967295
36.456062 108.90926 -18.361506 4294967295
36.537041 111.04256 -18.277073 4294967295
36.557983 112.01703 -18.303129 4294967295
36.563931 113.30207 -18.424759 4294967295
36.564301 108.07337 -18.500084 4294967295
36.568634 109.83682 -18.682396 4294967295
36.575111 107.11951 -18.348524 4294967295
36.580986 112.51249 -18.266607 4294967295
36.587433 109.52863 -18.571854 4294967295
36.587555 108.56819 -18.462561 4294967295
36.593616 107.93156 -18.366062 4294967295
36.5994 109.05593 -18.470158 4294967295
36.601665 107.45619 -18.279833 4294967295
36.602757 107.617 -18.293646 4294967295
36.60775 112.90276 -18.872246 4294967295
36.619888 110.66986 -18.570524 4294967295
36.638172 108.4398 -18.244366 4294967295
36.639603 111.32288 -18.565174 4294967295
36.643631 106.8415 -18.041338 4294967295
36.67498 110.06457 -18.280317 4294967295
36.678715 112.62904 -18.555721 4294967295
36.682922 109.26878 -18.158218 4294967295
36.684052 112.47241 -18.516527 4294967295
36.689423 107.08835 -18.553526 4294967295
36.694458 110.8778 -18.294056 4294967295
36.69558 111.99954 -18.41659 4294967295
36.70953 111.20781 -18.27079 4294967295
36.715069 111.85203 -18.321461 4294967295
36.737469 108.23877 -18.490696 4294967295
36.748341 113.47533 -18.371431 4294967295
36.754322 113.15893 -18.311543 4294967295
36.772312 110.02176 -18.552544 4294967295
36.77953 110.34654 -18.560305 4294967295
36.786076 111.15118 -18.625099 4294967295
36.78833 111.79294 -18.688692 4294967295
36.798237 108.59705 -18.287025 4294967295
36.838268 113.10613 -18.636648 4294967295
36.892136 112.34063 -18.333494 4294967295
36.894604 108.87441 -18.59902 4294967295
36.910866 109.3649 -18.589249 4294967295
36.91153 107.44403 -18.369152 4294967295
36.940613 106.98155 -18.200024 4294967295
36.949665 107.94812 -18.273111 4294967295
36.953178 109.07134 -18.386137 4294967295
36.956699 110.995 -18.589724 4294967295
36.959335 107.79398 -18.216822 4294967295
36.960293 108.27506 -18.267447 4294967295
36.965378 110.68034 -18.519268 4294967295
36.9697 110.52298 -18.484108 4294967295
36.970448 109.56266 -18.372419 4294967295
36.97319 111.48591 -18.579079 4294967295
36.973709 110.20528 -18.432056 4294967295
36.97435 113.08756 -18.75568 4294967295
36.976028 111.80795 -18.604128 4294967295
36.986664 111.97494 -18.580322 4294967295
36.986786 109.25266 -18.271732 4294967295
36.991692 110.37687 -18.379288 4294967295
36.993427 112.77985 -18.64426 4294967295
36.997868 110.06049 -18.318674 4294967295
37.029869 111.68259 -18.373774 4294967295
37.036446 111.3665 -18.3116 4294967295
37.03812 107.26033 -18.507328 4294967295
37.049545 107.10727 -18.444191 4294967295
37.049641 112.97669 -18.440844 4294967295
37.064407 113.46684 -18.437027 4294967295
37.08688 108.73164 -18.478262 4294967295
37.088455 108.41238 -18.43582 4294967295
37.092674 113.3252 -18.307508 4294967295
37.133232 112.92385 -18.766661 4294967295
37.17067 111.50711 -18.456238 4294967295
37.194687 112.32339 -18.452259 4294967295
37.208263 106.78331 -18.43759 4294967295
37.233517 107.59951 -18.428734 4294967295
37.237492 107.92223 -18.449318 4294967295
37.258362 113.48615 -18.328417 4294967295
37.261616 106.97623 -18.245649 4294967295
37.262508 108.09791 -18.368965 4294967295
37.266994 107.78039 -18.315073 4294967295
37.26709 108.74136 -18.423395 4294967295
37.268799 110.18358 -18.579672 4294967295
37.275642 110.66827 -18.607067 4294967295
37.275887 108.42655 -18.352539 4294967295
37.282074 112.11328 -18.744719 4294967295
37.286892 111.3159 -18.635244 4294967295
37.287037 112.27658 -18.743303 4294967295
37.299889 111.64449 -18.620329 4294967295
37.306458 111.0082 -18.522058 4294967295
37.307205 109.24699 -18.319872 4294967295
37.315239 107.32964 -18.070795 4294967295
37.330982 108.62113 -18.153811 4294967295
37.338505 112.47009 -18.558981 4294967295
37.344555 110.07149 -18.263483 4294967295
37.350723 109.59479 -18.184858 4294967295
37.355698 108.95704 -18.092785 4294967295
37.359051 112.00293 -18.423851 4294967295
37.378757 112.65639 -18.418791 4294967295
37.389282 113.30394 -18.449852 4294967295
37.390579 112.98444 -18.408514 4294967295
37.411797 113.15848 -18.343191 4294967295
37.426689 109.53883 -18.540266 4294967295
37.470051 110.52712 -18.478453 4294967295
37.498455 110.70538 -18.384932 4294967295
37.536144 111.69062 -18.34548 4294967295
37.543705 112.01588 -18.351986 4294967295
37.556202 112.34435 -18.339109 4294967295
37.559177 111.06454 -18.18252 4294967295
37.591747 110.82004 -18.689919 4294967295
37.593445 109.05972 -18.484175 4294967295
37.599918 107.3019 -18.259605 4294967295
37.601051 113.01435 -18.23535 4294967295
37.602146 108.74486 -18.413805 4294967295
37.609009 107.78807 -18.278212 4294967295
37.616711 108.11322 -18.28417 4294967295
37.619892 111.63863 -18.669901 4294967295
37.624603 106.99666 -18.126402 4294967295
37.632244 109.72475 -18.404219 4294967295
37.635216 112.60922 -18.718317 4294967295
37.643391 108.61041 -18.233715 4294967295
37.645836 109.41294 -18.314634 4294967295
37.651638 110.05735 -18.364283 4294967295
37.653049 113.2613 -18.720699 4294967295
37.654896 106.85499 -17.989275 4294967295
37.659874 110.38294 -18.368155 4294967295
37.669746 111.5105 -18.456108 4294967295
37.675102 109.59156 -18.217819 4294967295
37.676487 112.47585 -18.538246 4294967295
37.689465 111.04256 -18.324398 4294967295
37.694839 108.96301 -18.067877 4294967295
37.717117 113.46331 -18.487389 4294967295
37.749977 112.20297 -18.21361 4294967295
37.750107 109.5351 -18.576355 4294967295
37.817711 113.42153 -18.745401 4294967295
37.824402 111.02358 -18.447805 4294967295
37.826508 106.69879 -17.950727 4294967295
37.831051 107.34265 -18.005352 4294967295
37.907269 112.83915 -18.321953 4294967295
37.911198 106.9702 -18.307384 4294967295
37.919666 111.72544 -18.146622 4294967295
37.920681 108.09733 -18.396875 4294967295
37.939205 108.269 -18.342369 4294967295
37.945965 109.87502 -18.496794 4294967295
37.956818 107.79927 -18.219036 4294967295
37.963238 107.48277 -18.157677 4294967295
37.972324 110.21202 -18.429689 4294967295
37.974476 109.09198 -18.294605 4294967295
37.985073 110.70066 -18.434011 4294967295
37.989513 109.2616 -18.253769 4294967295
37.990719 111.345 -18.484257 4294967295
38.000755 111.03103 -18.408758 4294967295
38.002674 111.67303 -18.473598 4294967295
38.010914 110.8773 -18.350868 4294967295
38.016129 107.99616 -18.004648 4294967295
38.018284 111.20242 -18.358175 4294967295
38.030033 108.6459 -18.022566 4294967295
38.036694 110.41297 -18.195585 4294967295
38.044018 113.30167 -18.492569 4294967295
38.046638 112.66256 -18.409941 4294967295
38.056503 113.1496 -18.425592 4294967295
38.062012 112.51228 -18.33165 4294967295
38.076935 108.73272 -18.508762 4294967295
38.080292 112.04334 -18.205765 4294967295
38.099659 108.10609 -18.34746 4294967295
38.115753 113.50867 -18.229761 4294967295
38.122005 113.03193 -18.150974 4294967295
38.14196 110.53551 -18.453157 4294967295
38.152184 109.90116 -18.340805 4294967295
38.152565 108.61957 -18.194574 4294967295
38.158779 107.50161 -18.043573 4294967295
38.179363 112.32154 -18.505724 4294967295
38.199875 111.53366 -18.335037 4294967295
38.246456 108.25513 -18.442142 4294967295
38.252472 111.72759 -18.147308 4294967295
38.257744 106.98045 -18.253321 4294967295
38.260906 110.02608 -18.584496 4294967295
38.270096 108.91058 -18.42202 4294967295
38.273727 107.95158 -18.29932 4294967295
38.281086 113.34885 -18.216284 4294967295
38.284718 111.48262 -18.654076 4294967295
38.307861 109.09434 -18.292398 4294967295
38.311951 107.49438 -18.095528 4294967295
38.315796 111.98303 -18.586821 4294967295
38.322918 109.58446 -18.287773 4294967295
38.331333 111.192 -18.435692 4294967295
38.334961 111.83514 -18.493828 4294967295
38.336796 109.91365 -18.269678 4294967295
38.33865 107.19018 -17.954901 4294967295
38.347153 110.56114 -18.301531 4294967295
38.351204 110.88419 -18.32185 4294967295
38.357792 111.04862 -18.314173 4294967295
38.381607 113.30714 -18.47423 4294967295
38.383564 107.11677 -18.430002 4294967295
38.401703 113.15997 -18.377621 4294967295
38.401775 112.67928 -18.323092 4294967295
38.416039 112.52822 -18.249256 4294967295
38.434818 109.7115 -18.518934 4294967295
38.435143 108.2699 -18.354992 4294967295
38.436283 112.2207 -18.133959 4294967295
38.478653 107.816 -18.130739 4294967295
38.478844 108.77768 -18.238483 4294967295
38.499168 112.63584 -18.592909 4294967295
38.548012 109.3589 -18.690443 4294967295
38.553051 107.76035 -18.490124 4294967295
38.58326 112.049 -18.192274 4294967295
38.602013 107.14948 -18.226698 4294967295
38.602753 110.03388 -18.549101 4294967295
38.608707 108.59573 -18.36323 4294967295
38.611633 112.54813 -18.13574 4294967295
38.618584 108.12113 -18.270475 4294967295
38.634068 109.09219 -18.318476 4294967295
38.63604 113.36548 -18.130873 4294967295
38.637466 107.49169 -18.124456 4294967295
38.640827 110.53849 -18.454744 4294967295
38.645851 110.70188 -18.453201 4294967295
38.647556 111.18361 -18.500755 4294967295
38.65662 107.34313 -18.031601 4294967295
38.662178 112.95518 -18.642443 4294967295
38.668659 109.59454 -18.237717 4294967295
38.673698 110.23875 -18.290339 4294967295
38.674362 109.27756 -18.1793 4294967295
38.682884 111.52656 -18.399082 4294967295
38.683334 111.3666 -18.379255 4294967295
38.684917 109.92527 -18.210421 4294967295
38.693222 111.05238 -18.304533 4294967295
38.697437 112.01659 -18.396521 4294967295
38.697559 108.38853 -18.647678 4294967295
38.702007 108.87175 -18.684507 4294967295
38.711899 109.19821 -18.682064 4294967295
38.713108 107.11663 -18.442551 4294967295
38.715813 107.59888 -18.486204 4294967295
38.71957 112.67181 -18.382479 4294967295
38.722321 113.47482 -18.462093 4294967295
38.739624 109.69603 -18.628147 4294967295
38.739841 113.16569 -18.357628 4294967295
38.74197 107.93535 -18.420328 4294967295
38.755745 109.38573 -18.529186 4294967295
38.795837 111.81395 -18.643826 4294967295
38.824654 110.55053 -18.387039 4294967295
38.831322 110.71498 -18.379116 4294967295
38.894535 107.44714 -18.420143 4294967295
38.927738 110.19125 -18.597792 4294967295
38.928116 113.02066 -18.254889 4294967295
38.928619 112.54008 -18.198717 4294967295
38.933987 110.67576 -18.627628 4294967295
38.940796 108.91767 -18.402489 4294967295
38.945099 106.99723 -18.168974 4294967295
38.969784 108.1343 -18.199266 4294967295
38.971283 113.52956 -18.140928 4294967295
38.973129 107.65549 -18.132044 4294967295
38.9771 109.10047 -18.279169 4294967295
39.001049 109.75649 -18.25816 4294967295
39.003803 109.9185 -18.265499 4294967295
39.004539 110.39978 -18.316818 4294967295
39.007484 112.64512 -18.558168 4294967295
39.008209 110.8829 -18.356718 4294967295
39.0149 111.36792 -18.384848 4294967295
39.020771 111.21138 -18.343931 4294967295
39.021416 112.3336 -18.467833 4294967295
39.037926 111.86339 -18.349388 4294967295
39.05389 113.31604 -18.449795 4294967295
39.058819 113.15897 -18.41255 4294967295
39.066502 109.374 -18.615213 4294967295
39.068359 109.69554 -18.644085 4294967295
39.077221 112.85029 -18.304811 4294967295
39.07835 108.74054 -18.496918 4294967295
39.092716 110.35159 -18.621532 4294967295
39.124435 111.17265 -18.588406 4294967295
39.133209 111.49865 -18.590391 4294967295
39.146297 111.82742 -18.57559 4294967295
39.20834 112.02728 -18.352398 4294967295
39.268127 113.50842 -18.282452 4294967295
39.312237 110.38599 -18.415344 4294967295
39.33353 111.84177 -18.495049 4294967295
39.334122 112.0024 -18.510788 4294967295
39.33543 111.52247 -18.451571 4294967295
39.338745 110.88348 -18.36651 4294967295
39.345085 111.20805 -18.377977 4294967295
39.347946 111.37014 -18.384901 4294967295
39.388035 112.35741 -18.337484 4294967295
39.411919 113.17426 -18.334974 4294967295
39.425358 110.99438 -18.694784 4294967295
39.428795 112.70417 -18.215269 4294967295
39.432602 110.83875 -18.64863 4294967295
39.492191 112.47889 -18.597752 4294967295
39.50853 112.6496 -18.552401 4294967295
39.563587 112.20399 -18.284657 4294967295
39.566017 111.72456 -18.221079 4294967295
39.602489 113.03057 -18.223953 4294967295
39.606461 113.35381 -18.244642 4294967295
39.607059 111.00508 -18.635765 4294967295
39.633331 111.98312 -18.642109 4294967295
39.669865 111.36528 -18.428354 4294967295
39.692669 111.70032 -18.376019 4294967295
39.701908 112.66798 -18.448429 4294967295
39.715023 113.31756 -18.469755 4294967295
39.723 112.8418 -18.384733 4294967295
39.737751 112.20995 -18.255396 4294967295
39.739113 112.37115 -18.268158 4294967295
39.81382 113.06049 -18.050779 4294967295
39.846153 111.85342 -18.444836 4294967295
39.85746 112.3415 -18.455145 4294967295
39.965374 111.66425 -18.610077 4294967295
39.980972 113.06197 -18.049068 4294967295
39.9897 113.38839 -18.051367 4294967295
40.045765 113.31838 -18.479359 4294967295
40.050125 112.67992 -18.390402 4294967295
40.054329 113.00326 -18.410194 4294967295
40.083855 112.54115 -18.241911 4294967295
40.140491 113.21894 -18.09498 4294967295
40.147068 113.54398 -18.105619 4294967295
40.211887 112.197 -18.355198 4294967295
40.312275 113.3838 -18.093506 4294967295
40.317822 112.74567 -17.999952 4294967295
40.333256 113.23685 -17.994427 4294967295
40.347469 112.49903 -18.511194 4294967295
40.395275 112.36913 -18.308647 4294967295
40.581478 112.86385 -18.287449 4294967295
40.586708 113.18793 -18.30332 4294967295
40.618454 112.56663 -18.108843 4294967295
40.641453 113.38343 -18.110266 4294967295
40.665554 112.75707 -17.94525 4294967295
40.679443 113.08687 -17.927757 4294967295
40.727116 113.01194 -18.386683 4294967295
40.772881 112.88078 -18.192392 4294967295
40.982109 112.90902 -18.029003 4294967295
41.018288 113.41355 -17.943842 4294967295
41.071056 113.1814 -18.364342 4294967295
41.083763 113.51031 -18.351505 4294967295
41.113354 112.88756 -18.165777 4294967295
41.319332 113.23461 -18.051348 4294967295
29.467768 117.31445 -19.420494 4294967295
29.469713 117.63493 -19.449167 4294967295
29.476873 117.95914 -19.456284 4294967295
29.477684 119.87394 -19.673168 4294967295
29.477783 120.35249 -19.727806 4294967295
29.480782 119.39769 -19.605322 4294967295
29.488178 113.86411 -19.634256 4294967295
29.497288 118.77158 -19.463707 4294967295
29.500669 118.61449 -19.431377 4294967295
29.506516 118.14004 -19.352148 4294967295
29.508221 117.02422 -19.216576 4294967295
29.510267 114.19838 -19.579702 4294967295
29.514645 119.26283 -19.447058 4294967295
29.524509 118.47217 -19.314508 4294967295
29.538004 119.12026 -19.332193 4294967295
29.54814 118.96804 -19.27195 4294967295
29.5655 115.67249 -19.516701 4294967295
29.58441 114.72855 -19.328493 4294967295
29.595701 116.97001 -19.538774 4294967295
29.60865 119.85024 -19.815502 4294967295
29.623142 114.11716 -19.09507 4294967295
29.626896 116.03487 -19.29986 4294967295
29.6283 114.43996 -19.110487 4294967295
29.675943 114.35934 -19.596825 4294967295
29.686438 115.32358 -19.663561 4294967295
29.70545 116.29386 -19.695154 4294967295
29.711369 115.02203 -19.524023 4294967295
29.711588 119.60638 -19.354021 4294967295
29.718365 116.46249 -19.660221 4294967295
29.721714 120.25212 -19.385643 4294967295
29.785089 118.42426 -19.60512 4294967295
29.797119 118.11386 -19.518837 4294967295
29.807013 118.75916 -19.551413 4294967295
29.815022 116.21178 -19.22485 4294967295
29.816568 115.73405 -19.163416 4294967295
29.818562 117.65058 -19.375387 4294967295
29.822363 120.36562 -19.671522 4294967295
29.823862 115.2603 -19.078266 4294967295
29.828234 117.81709 -19.353851 4294967295
29.840851 116.70889 -19.17337 4294967295
29.844318 119.42442 -19.470974 4294967295
29.845091 113.88468 -19.526346 4294967295
29.854555 118.31477 -19.300352 4294967295
29.85977 119.91438 -19.462311 4294967295
29.866335 119.60002 -19.39856 4294967295
29.874956 118.96791 -19.289637 4294967295
29.875864 114.38456 -19.454519 4294967295
29.89661 114.71807 -19.405691 4294967295
29.897327 115.51629 -19.494427 4294967295
29.919535 114.25529 -19.256178 4294967295
29.921097 115.69252 -19.414816 4294967295
29.92947 117.77247 -19.618681 4294967295
29.949451 115.39326 -19.261284 4294967295
29.952822 116.83186 -19.41247 4294967295
29.953535 117.63016 -19.501221 4294967295
29.959473 117.15572 -19.421751 4294967295
29.959673 113.64455 -19.01734 4294967295
29.973089 119.23968 -19.604031 4294967295
29.984657 114.61971 -19.024462 4294967295
29.991037 115.1031 -19.053213 4294967295
30.065163 119.14686 -19.206528 4294967295
30.065948 114.56248 -19.371426 4294967295
30.071451 113.92798 -19.275421 4294967295
30.075066 120.27148 -19.294151 4294967295
30.123669 116.51785 -19.353844 4294967295
30.124773 113.64548 -19.019184 4294967295
30.128141 116.04222 -19.280426 4294967295
30.135799 117.32439 -19.395588 4294967295
30.140696 115.89144 -19.210415 4294967295
30.141321 114.77445 -19.079458 4294967295
30.142654 115.2543 -19.128996 4294967295
30.14452 118.60723 -19.506365 4294967295
30.147799 114.29999 -18.997751 4294967295
30.147863 117.49258 -19.364283 4294967295
30.14917 120.20612 -19.670511 4294967295
30.152073 118.29353 -19.438629 4294967295
30.166283 116.70761 -19.1968 4294967295
30.174681 113.88629 -19.531546 4294967295
30.179428 119.9091 -19.509409 4294967295
30.179482 118.15361 -19.307524 4294967295
30.18721 117.8399 -19.239052 4294967295
30.192106 120.39709 -19.512257 4294967295
30.198917 119.2849 -19.355917 4294967295
30.212952 114.07224 -19.392471 4294967295
30.213465 119.61469 -19.332747 4294967295
30.216135 115.3509 -19.525986 4294967295
30.219641 115.67244 -19.548214 4294967295
30.229939 115.20099 -19.450897 4294967295
30.241985 113.77309 -19.236391 4294967295
30.249449 116.6507 -19.535601 4294967295
30.250931 116.8113 -19.547834 4294967295
30.255501 116.17629 -19.455748 4294967295
30.256821 117.29412 -19.578592 4294967295
30.260551 117.45632 -19.581577 4294967295
30.274305 118.7425 -19.671608 4294967295
30.281521 117.94995 -19.550356 4294967295
30.284433 115.55824 -19.263479 4294967295
30.292675 119.23438 -19.651087 4294967295
30.295532 117.00249 -19.382811 4294967295
30.320532 114.78521 -19.023361 4294967295
30.32963 119.42072 -19.517563 4294967295
30.354416 113.57825 -19.436218 4294967295
30.377399 118.65719 -19.229631 4294967295
30.41188 119.7997 -19.216267 4294967295
30.437672 120.29749 -19.165308 4294967295
30.459475 114.12938 -19.059555 4294967295
30.461739 117.9619 -19.490049 4294967295
30.462973 115.8879 -19.246801 4294967295
30.46822 116.37047 -19.280222 4294967295
30.469351 119.24395 -19.605335 4294967295
30.470615 114.93539 -19.105438 4294967295
30.490141 118.78022 -19.465048 4294967295
30.495789 116.23023 -19.148682 4294967295
30.500656 119.58578 -19.513477 4294967295
30.500938 117.83029 -19.310799 4294967295
30.504782 114.63974 -18.928427 4294967295
30.530951 119.76737 -19.407467 4294967295
30.531296 118.17128 -19.222813 4294967295
30.534286 117.05575 -19.082239 4294967295
30.544147 117.38211 -19.078407 4294967295
30.55135 119.46291 -19.2871 4294967295
30.571819 116.48778 -19.552805 4294967295
30.575762 120.11926 -19.260201 4294967295
30.597595 114.27135 -19.190622 4294967295
30.60218 117.30711 -19.519825 4294967295
30.608494 113.7999 -19.090927 4294967295
30.610769 115.39792 -19.264809 4294967295
30.621525 117.64003 -19.477116 4294967295
30.62546 115.24851 -19.186213 4294967295
30.628532 118.60255 -19.558239 4294967295
30.636362 116.85252 -19.324684 4294967295
30.639791 120.04682 -19.676855 4294967295
30.646046 118.29594 -19.449806 4294967295
30.652767 114.14971 -18.945887 4294967295
30.668451 115.75751 -19.064795 4294967295
30.671129 120.38881 -19.585005 4294967295
30.68338 118.48232 -19.315018 4294967295
30.688564 119.76309 -19.440289 4294967295
30.696222 119.13012 -19.335634 4294967295
30.706717 118.81838 -19.255968 4294967295
30.766991 114.59453 -19.211611 4294967295
30.803465 116.53569 -19.281893 4294967295
30.80368 114.77957 -19.079538 4294967295
30.805967 115.26019 -19.125118 4294967295
30.80822 117.97572 -19.427198 4294967295
30.81394 117.022 -19.293907 4294967295
30.814741 118.77844 -19.492023 4294967295
