# .PCD v0.7 - Point Cloud Data file format
VERSION 0.7
FIELDS x y z rgb
SIZE 4 4 4 4
TYPE F F F U
COUNT 1 1 1 1
WIDTH 1140
HEIGHT 1
VIEWPOINT 0 0 0 1 0 0 0
POINTS 1140
DATA ascii
12.872229 28.385117 -17.030645 4294967295
12.872479 26.636755 -16.818529 4294967295
12.876143 27.43203 -16.897337 4294967295
12.876637 31.563391 -17.3934 4294967295
12.878897 32.040268 -17.440342 4294967295
12.882044 29.340002 -17.099901 4294967295
12.900048 32.520336 -17.399239 4294967295
12.901827 29.660751 -17.046003 4294967295
12.902983 27.91251 -16.829685 4294967295
12.911616 28.867489 -16.904486 4294967295
12.914276 28.549944 -16.853729 4294967295
12.925456 28.710493 -16.820772 4294967295
12.934571 29.983538 -16.931681 4294967295
12.935028 30.301502 -16.967897 4294967295
12.940108 31.891563 -17.13591 4294967295
12.961471 29.828619 -16.787092 4294967295
12.961956 30.782547 -16.899885 4294967295
12.988915 29.329063 -17.360622 4294967295
13.027469 27.745548 -16.989447 4294967295
13.068402 27.433071 -16.760408 4294967295
13.070865 28.069349 -16.825628 4294967295
13.088345 31.568707 -17.165842 4294967295
13.090482 30.933388 -17.07926 4294967295
13.133687 26.622871 -17.118952 4294967295
13.148436 31.419516 -16.866947 4294967295
13.152925 27.419893 -17.1252 4294967295
13.152931 32.374084 -16.961006 4294967295
13.159958 32.852158 -16.985786 4294967295
13.174576 30.600578 -17.407469 4294967295
13.175064 30.124088 -17.347765 4294967295
13.17675 29.329971 -17.244188 4294967295
13.176957 27.899855 -17.070852 4294967295
13.209256 29.016861 -17.054678 4294967295
13.211726 29.81184 -17.138954 4294967295
13.212672 32.830589 -17.498302 4294967295
13.21932 27.587631 -16.835419 4294967295
13.221251 29.972189 -17.113804 4294967295
13.222571 30.925844 -17.222567 4294967295
13.226212 26.793537 -16.707521 4294967295
13.228399 30.76786 -17.176319 4294967295
13.228884 32.039062 -17.327236 4294967295
13.232273 28.066332 -16.832644 4294967295
13.239231 31.405205 -17.202549 4294967295
13.241704 31.564508 -17.210199 4294967295
13.24287 32.51804 -17.319647 4294967295
13.248796 30.294241 -17.02401 4294967295
13.250799 27.114738 -16.631437 4294967295
13.252359 28.387087 -16.777517 4294967295
13.252377 31.725157 -17.179722 4294967295
13.271116 29.661739 -16.843569 4294967295
13.292506 32.208588 -17.050608 4294967295
13.292708 31.095898 -16.915585 4294967295
13.325908 26.941582 -17.020615 4294967295
13.345936 29.645937 -17.253025 4294967295
13.377019 28.537937 -16.974594 4294967295
13.390965 29.334713 -17.005543 4294967295
13.425943 29.180817 -16.823887 4294967295
13.467739 30.618132 -16.802114 4294967295
13.485605 28.368649 -17.207603 4294967295
13.488915 26.620829 -16.981697 4294967295
13.499543 29.959599 -17.334251 4294967295
13.50222 29.006622 -17.207039 4294967295
13.504332 30.278082 -17.350294 4294967295
13.511013 30.755739 -17.376684 4294967295
13.52133 27.260849 -16.907799 4294967295
13.525535 27.738331 -16.945715 4294967295
13.528098 27.102743 -16.857231 4294967295
13.531003 29.487558 -17.130882 4294967295
13.533125 29.805727 -17.159311 4294967295
13.539905 29.170975 -17.051302 4294967295
13.541367 27.581457 -16.853083 4294967295
13.547228 32.668072 -17.438219 4294967295
13.550609 31.39757 -17.269527 4294967295
13.551389 30.126335 -17.112844 4294967295
13.556586 28.537474 -16.89732 4294967295
13.558842 28.696775 -16.905998 4294967295
13.562144 31.081589 -17.177757 4294967295
13.56335 27.902407 -16.789343 4294967295
13.567102 28.061928 -16.791073 4294967295
13.575582 31.719446 -17.191961 4294967295
13.57588 28.858181 -16.846073 4294967295
13.576988 32.037518 -17.223696 4294967295
13.578541 31.243132 -17.120832 4294967295
13.580628 26.791409 -16.575068 4294967295
13.591748 32.198895 -17.174377 4294967295
13.595529 32.517384 -17.195108 4294967295
13.633655 27.410341 -17.16153 4294967295
13.681065 28.211407 -17.037397 4294967295
13.716068 30.282831 -17.123861 4294967295
13.746346 31.718082 -17.155724 4294967295
13.76308 29.335936 -16.791201 4294967295
13.765308 29.654305 -16.819149 4294967295
13.781217 32.836533 -17.128073 4294967295
13.788331 32.519825 -17.056871 4294967295
13.809991 32.364494 -16.937416 4294967295
13.826589 27.252472 -17.003212 4294967295
13.832253 29.637383 -17.263809 4294967295
13.83442 28.366243 -17.100824 4294967295
13.845682 28.208834 -17.029556 4294967295
13.851269 26.937672 -16.85066 4294967295
13.879459 29.167427 -16.987936 4294967295
13.880044 30.757114 -17.176449 4294967295
13.883968 31.234539 -17.215637 4294967295
13.886922 29.963398 -17.049015 4294967295
13.892406 27.897182 -16.774958 4294967295
13.893203 27.102077 -16.675594 4294967295
13.893835 27.420258 -16.710943 4294967295
13.898444 28.693132 -16.842667 4294967295
13.910436 31.874571 -17.169638 4294967295
13.913724 29.331385 -16.848452 4294967295
13.914568 28.536362 -16.748886 4294967295
13.919304 32.829681 -17.243301 4294967295
13.922581 29.809734 -16.864843 4294967295
13.923123 26.628643 -16.479607 4294967295
13.926525 31.08234 -16.999592 4294967295
13.92748 30.446512 -16.918678 4294967295
13.936445 32.037815 -17.068419 4294967295
13.937732 31.402102 -16.985983 4294967295
13.966311 30.929602 -16.796362 4294967295
13.991529 32.364983 -16.851826 4294967295
14.023352 31.704834 -17.381895 4294967295
14.026231 27.57242 -16.871653 4294967295
14.04302 28.051718 -16.851374 4294967295
14.04728 31.07299 -17.194881 4294967295
14.063693 32.029282 -17.233677 4294967295
14.100148 29.013912 -16.701956 4294967295
14.104644 30.127914 -16.815041 4294967295
14.109715 30.28772 -16.81072 4294967295
14.120519 30.766497 -16.818148 4294967295
14.130589 32.676353 -17.001013 4294967295
14.134525 32.518017 -16.963709 4294967295
14.154238 27.247002 -16.995012 4294967295
14.158194 32.20393 -16.816111 4294967295
14.175181 27.885731 -16.974709 4294967295
14.187272 30.589901 -17.243675 4294967295
14.188761 32.338196 -17.446857 4294967295
14.18902 27.092478 -16.815212 4294967295
14.190104 31.702812 -17.364285 4294967295
14.191575 31.38522 -17.319305 4294967295
14.19194 26.933813 -16.7826 4294967295
14.198085 30.90946 -17.231958 4294967295
14.198729 27.411804 -16.808598 4294967295
14.198995 29.796904 -17.09404 4294967295
14.205064 28.843851 -16.951363 4294967295
14.207315 29.162176 -16.979181 4294967295
14.216647 28.209379 -16.821407 4294967295
14.218387 30.276747 -17.061819 4294967295
14.223107 31.231312 -17.15465 4294967295
14.22354 27.733171 -16.732214 4294967295
14.227354 32.821438 -17.326033 4294967295
14.234674 28.529949 -16.776379 4294967295
14.235321 28.689085 -16.792511 4294967295
14.236918 30.756554 -17.033581 4294967295
14.250549 30.12261 -16.894215 4294967295
14.251675 32.189747 -17.137402 4294967295
14.256323 29.964449 -16.848442 4294967295
14.256613 31.077635 -16.980879 4294967295
14.292999 31.560503 -16.870243 4294967295
14.325739 31.883924 -16.757349 4294967295
14.332589 29.471914 -17.19141 4294967295
14.336473 28.200678 -17.020708 4294967295
14.338839 28.518982 -17.047997 4294967295
14.394515 29.321918 -16.886696 4294967295
14.448262 29.806957 -16.696133 4294967295
14.452775 31.55732 -16.885492 4294967295
14.469816 26.762966 -16.985472 4294967295
14.47191 27.558208 -17.071295 4294967295
14.47858 27.082087 -16.983278 4294967295
14.486729 31.721867 -16.74806 4294967295
14.505413 28.834677 -17.069666 4294967295
14.506127 29.947609 -17.200001 4294967295
14.509714 28.994276 -17.068943 4294967295
14.513565 32.173878 -17.432892 4294967295
14.516562 31.379753 -17.323694 4294967295
14.525407 31.699049 -17.321131 4294967295
14.527934 30.109848 -17.118645 4294967295
14.532422 27.248049 -16.754236 4294967295
14.534125 30.905674 -17.185566 4294967295
14.535898 29.793053 -17.043779 4294967295
14.537997 29.316336 -16.976833 4294967295
14.541825 28.36269 -16.844618 4294967295
14.543166 30.271135 -17.067574 4294967295
14.552912 30.749617 -17.07996 4294967295
14.566207 27.8888 -16.674963 4294967295
14.569295 32.660015 -17.233549 4294967295
14.580946 28.208973 -16.645262 4294967295
14.582028 29.640823 -16.812191 4294967295
14.586051 32.821827 -17.175491 4294967295
14.598 27.733929 -16.509354 4294967295
14.612431 30.440706 -16.767653 4294967295
14.618994 32.509396 -16.985659 4294967295
14.651187 29.783262 -17.263439 4294967295
14.654315 27.716938 -17.000975 4294967295
14.656804 28.353291 -17.065861 4294967295
14.668113 26.923574 -16.842012 4294967295
14.673993 30.422514 -17.234825 4294967295
14.687565 30.742531 -17.21055 4294967295
14.696025 28.199629 -16.866278 4294967295
14.712314 28.679026 -16.848591 4294967295
14.732157 31.703487 -17.119921 4294967295
14.787875 32.507759 -16.959093 4294967295
14.797399 27.552469 -17.073528 4294967295
14.805575 27.712551 -17.055019 4294967295
14.821811 26.919523 -16.884974 4294967295
14.823329 30.417728 -17.297661 4294967295
14.83698 28.034784 -16.948811 4294967295
14.839764 27.23992 -16.840601 4294967295
14.841608 29.466585 -17.099239 4294967295
14.848106 31.534275 -17.317291 4294967295
14.855258 28.673433 -16.94112 4294967295
14.855397 30.740587 -17.188459 4294967295
14.866259 32.332005 -17.329233 4294967295
14.869045 26.766396 -16.64871 4294967295
14.871778 28.993841 -16.903355 4294967295
14.873037 27.403303 -16.706715 4294967295
14.877858 28.835646 -16.856329 4294967295
14.879087 31.062262 -17.117764 4294967295
14.884081 29.949888 -16.961292 4294967295
14.888317 32.017708 -17.189787 4294967295
14.90695 31.384697 -17.027908 4294967295
14.908005 27.885233 -16.603235 4294967295
14.913249 29.158815 -16.73184 4294967295
14.915646 32.817234 -17.159613 4294967295
14.936772 31.86661 -16.948141 4294967295
14.941389 32.185459 -16.965088 4294967295
14.949924 29.641447 -16.62056 4294967295
14.951944 30.27821 -16.687628 4294967295
14.952386 30.596487 -16.723772 4294967295
14.991452 29.938881 -17.21701 4294967295
15.023026 30.261599 -17.110229 4294967295
15.026773 32.646877 -17.378935 4294967295
15.029716 28.035961 -16.812527 4294967295
15.030212 28.354172 -16.8484 4294967295
15.076271 29.474228 -16.770498 4294967295
15.098537 26.77183 -16.343826 4294967295
15.113799 28.683937 -16.502829 4294967295
15.116319 31.866642 -16.872831 4294967295
15.1221 32.344807 -16.903517 4294967295
15.145045 26.913424 -16.898144 4294967295
15.148376 28.186201 -17.035391 4294967295
15.149157 32.190201 -16.760324 4294967295
15.16695 26.757101 -16.778599 4294967295
15.17055 29.302477 -17.067146 4294967295
15.17063 28.666359 -16.990538 4294967295
15.183098 29.145241 -16.990561 4294967295
15.185761 31.848782 -17.302307 4294967295
15.18866 27.873503 -16.812529 4294967295
15.190196 32.485382 -17.358181 4294967295
15.201107 27.556957 -16.717302 4294967295
15.20475 27.080082 -16.643372 4294967295
15.216111 28.513586 -16.762924 4294967295
15.22034 32.013409 -17.162909 4294967295
15.224749 30.900925 -17.009306 4294967295
15.233091 30.425039 -16.913883 4294967295
15.237309 29.630266 -16.799219 4294967295
15.239475 31.380379 -16.998995 4294967295
15.24193 29.949131 -16.81617 4294967295
15.254229 30.269156 -16.797932 4294967295
15.255404 28.041552 -16.525524 4294967295
15.259744 27.405453 -16.429302 4294967295
15.263004 32.65659 -17.043644 4294967295
15.269154 29.475784 -16.634161 4294967295
15.28367 30.750965 -16.720186 4294967295
15.298141 27.704514 -17.039139 4294967295
15.299873 27.386663 -16.993088 4294967295
15.32079 32.82542 -16.797953 4294967295
15.328165 31.712767 -16.630686 4294967295
15.341755 30.891083 -17.22043 4294967295
15.349193 29.938118 -17.072088 4294967295
15.353071 31.210854 -17.20672 4294967295
15.377917 29.624235 -16.902456 4294967295
15.382856 32.80571 -17.260841 4294967295
15.409744 28.037544 -16.566072 4294967295
15.429123 27.085005 -16.362865 4294967295
15.436997 28.518742 -16.498461 4294967295
15.440658 31.542852 -16.84391 4294967295
15.444957 30.588852 -16.709877 4294967295
15.445882 30.270729 -16.667515 4294967295
15.453287 32.340374 -16.881386 4294967295
15.465855 32.50156 -16.842924 4294967295
15.485363 26.909464 -16.833363 4294967295
15.502419 28.502497 -16.94585 4294967295
15.516411 31.367233 -17.224646 4294967295
15.524656 27.710033 -16.748859 4294967295
15.526429 30.732712 -17.102682 4294967295
15.549692 26.75839 -16.519943 4294967295
15.550949 28.986521 -16.781021 4294967295
15.555616 28.350679 -16.683447 4294967295
15.565737 29.625084 -16.7896 4294967295
15.569317 28.034239 -16.582657 4294967295
15.577105 27.398581 -16.470774 4294967295
15.577562 29.308548 -16.697407 4294967295
15.584222 32.01429 -16.990803 4294967295
15.588625 28.196005 -16.513388 4294967295
15.590649 31.53809 -16.904289 4294967295
15.593909 29.947468 -16.698868 4294967295
15.598695 31.062059 -16.810358 4294967295
15.60589 32.81324 -16.986975 4294967295
15.610632 31.859495 -16.85103 4294967295
15.646004 32.183506 -16.727434 4294967295
15.668451 32.664665 -16.681982 4294967295
15.679887 29.774267 -17.032639 4294967295
15.684719 27.229418 -16.705858 4294967295
15.705008 29.937035 -16.936935 4294967295
15.709963 31.687481 -17.123701 4294967295
15.71259 28.665287 -16.749943 4294967295
15.758613 28.512478 -16.520622 4294967295
15.771008 27.877356 -16.387756 4294967295
15.778257 32.3349 -16.888023 4294967295
15.780637 31.062302 -16.724821 4294967295
15.790318 28.994474 -16.432941 4294967295
15.793798 32.019215 -16.778984 4294967295
15.801755 30.269714 -16.533133 4294967295
15.822787 27.223351 -16.820465 4294967295
15.823655 31.387384 -16.566471 4294967295
15.827718 32.820538 -16.719341 4294967295
15.829533 26.90597 -16.751591 4294967295
15.836608 28.65708 -16.928715 4294967295
15.842676 30.725792 -17.148417 4294967295
15.842829 28.339741 -16.862259 4294967295
15.843318 27.385107 -16.745789 4294967295
15.852859 27.863741 -16.759367 4294967295
15.859489 29.773939 -16.957542 4294967295
15.868018 28.820545 -16.80442 4294967295
15.872511 30.41221 -16.974266 4294967295
15.877964 29.617537 -16.854219 4294967295
15.880524 30.09523 -16.899647 4294967295
15.881231 31.845192 -17.10574 4294967295
15.885716 28.982151 -16.742699 4294967295
15.891153 26.754501 -16.451252 4294967295
15.895317 28.02854 -16.584631 4294967295
15.91165 29.304123 -16.662447 4294967295
15.914643 30.577705 -16.8011 4294967295
15.925417 28.191769 -16.466309 4294967295
15.932993 28.511206 -16.469831 4294967295
15.936777 32.649708 -16.947577 4294967295
15.93731 32.013371 -16.869024 4294967295
15.957556 29.469894 -16.472038 4294967295
15.961523 31.699013 -16.720531 4294967295
15.989731 32.340244 -16.668043 4294967295
16.057596 31.367426 -16.98863 4294967295
16.070824 28.345737 -16.56679 4294967295
16.077488 30.097523 -16.745789 4294967295
16.105114 29.783258 -16.581839 4294967295
16.107527 28.828388 -16.456612 4294967295
16.109713 32.489605 -16.884399 4294967295
16.109753 30.579851 -16.655872 4294967295
16.117914 31.85441 -16.770935 4294967295
16.120115 30.422241 -16.589628 4294967295
16.125448 31.05979 -16.641464 4294967295
16.128057 28.990486 -16.382082 4294967295
16.133055 31.538513 -16.663904 4294967295
16.149637 26.581163 -16.742027 4294967295
16.151443 32.019005 -16.637241 4294967295
16.156775 32.338238 -16.651018 4294967295
16.181715 27.699261 -16.729136 4294967295
16.187904 28.336668 -16.777054 4294967295
16.199968 26.746544 -16.531834 4294967295
16.201851 29.611677 -16.865747 4294967295
16.205967 27.065687 -16.542587 4294967295
16.227116 28.819525 -16.655624 4294967295
16.228069 29.456322 -16.727386 4294967295
16.235329 26.910164 -16.389837 4294967295
16.252977 27.549356 -16.385624 4294967295
16.275127 28.189251 -16.360912 4294967295
16.291878 32.808418 -16.836468 4294967295
16.293072 29.943342 -16.488605 4294967295
16.295702 29.784504 -16.4576 4294967295
16.302389 29.307756 -16.370064 4294967295
16.322756 31.221615 -16.505756 4294967295
16.340166 31.702044 -16.483629 4294967295
16.378283 30.565641 -16.919796 4294967295
16.384314 28.019972 -16.58812 4294967295
16.396885 28.97683 -16.645082 4294967295
16.416904 27.865074 -16.420879 4294967295
16.435555 30.733511 -16.678484 4294967295
16.436085 27.071253 -16.238493 4294967295
16.450817 31.054235 -16.647146 4294967295
16.452162 32.487015 -16.812162 4294967295
16.455791 28.825823 -16.358217 4294967295
16.462603 28.348955 -16.270153 4294967295
16.462744 31.374489 -16.630981 4294967295
16.464045 29.782494 -16.434856 4294967295
16.466686 31.852695 -16.670115 4294967295
16.474669 29.465527 -16.348499 4294967295
16.476061 29.943499 -16.399252 4294967295
16.485617 32.810932 -16.698179 4294967295
16.490503 30.423407 -16.39068 4294967295
16.508762 30.903963 -16.364765 4294967295
16.510778 32.178261 -16.507788 4294967295
16.513626 26.898382 -16.609337 4294967295
16.518845 28.968271 -16.832773 4294967295
16.528118 27.536999 -16.619558 4294967295
16.536383 28.811556 -16.734116 4294967295
16.537157 26.742096 -16.483412 4294967295
16.546877 28.494642 -16.64843 4294967295
16.552038 30.08709 -16.815083 4294967295
16.55809 29.292131 -16.692568 4294967295
16.566307 32.794476 -17.073311 4294967295
16.567051 28.019735 -16.499762 4294967295
16.573963 27.383684 -16.392279 4294967295
16.576405 32.47794 -16.989494 4294967295
16.595842 27.705034 -16.330938 4294967295
16.600883 30.253525 -16.612318 4294967295
16.610107 27.069727 -16.190035 4294967295
16.612511 32.165581 -16.787634 4294967295
16.645985 30.738005 -16.464594 4294967295
16.685549 27.215 -16.608093 4294967295
16.71188 30.561308 -16.88768 4294967295
16.720224 28.015564 -16.545807 4294967295
16.730093 31.041538 -16.862076 4294967295
16.784447 30.731508 -16.577621 4294967295
16.788889 32.165077 -16.728495 4294967295
16.79001 29.936152 -16.457355 4294967295
16.795334 30.414686 -16.490242 4294967295
16.810299 31.531664 -16.555426 4294967295
16.842339 27.688906 -16.694555 4294967295
16.849922 26.734621 -16.546196 4294967295
16.869543 29.602804 -16.799229 4294967295
16.871691 28.966387 -16.713526 4294967295
16.884409 28.331306 -16.57991 4294967295
16.892534 29.446918 -16.676083 4294967295
16.89814 28.014673 -16.479694 4294967295
16.899244 27.377796 -16.39867 4294967295
16.904154 31.995481 -16.927294 4294967295
16.904922 32.791294 -17.018732 4294967295
16.915476 30.405491 -16.686127 4294967295
16.919319 27.061779 -16.269669 4294967295
16.922173 30.088066 -16.617804 4294967295
16.923803 31.839481 -16.819334 4294967295
16.927544 29.13343 -16.479479 4294967295
16.940657 29.294538 -16.439077 4294967295
16.945847 32.479778 -16.795475 4294967295
16.94725 31.206398 -16.637188 4294967295
16.94783 26.906031 -16.121431 4294967295
16.948912 27.224825 -16.154562 4294967295
16.954384 29.774298 -16.433897 4294967295
16.957666 28.65979 -16.285984 4294967295
16.966478 30.731651 -16.493118 4294967295
16.967487 28.501827 -16.222479 4294967295
16.967676 31.050335 -16.525688 4294967295
16.991262 32.646503 -16.608847 4294967295
17.042135 28.168516 -16.586321 4294967295
17.042728 31.829725 -17.02025 4294967295
17.0441 26.894804 -16.425472 4294967295
17.053333 31.194817 -16.896381 4294967295
17.069862 28.809221 -16.536808 4294967295
17.07737 27.695396 -16.369858 4294967295
17.090891 29.289909 -16.498629 4294967295
17.096132 32.47501 -16.854637 4294967295
17.096876 29.131493 -16.452549 4294967295
17.097965 31.360964 -16.713484 4294967295
17.100697 29.769075 -16.511242 4294967295
17.101858 28.65436 -16.373014 4294967295
17.1033 30.247202 -16.556431 4294967295
17.108383 31.044147 -16.628386 4294967295
17.113512 32.637066 -16.795029 4294967295
17.114153 30.408066 -16.526323 4294967295
17.115307 32.159763 -16.729961 4294967295
17.117376 27.541271 -16.169775 4294967295
17.14514 30.890547 -16.443127 4294967295
17.1789 26.729139 -16.535643 4294967295
17.190668 26.889841 -16.501417 4294967295
17.194096 29.119436 -16.75169 4294967295
17.194574 32.809792 -16.447445 4294967295
17.207806 28.325243 -16.594818 4294967295
17.214071 30.07748 -16.775276 4294967295
17.2173 28.804235 -16.608845 4294967295
17.225269 27.053425 -16.363955 4294967295
17.232853 27.532246 -16.386644 4294967295
17.233492 27.69161 -16.402742 4294967295
17.235207 29.602917 -16.622829 4294967295
17.238911 28.170155 -16.435217 4294967295
17.242544 28.489187 -16.456768 4294967295
17.248247 30.719414 -16.696756 4294967295
17.262835 31.836161 -16.763687 4294967295
17.301498 29.931051 -16.361208 4294967295
17.303602 28.019432 -16.123774 4294967295
17.334358 32.006878 -16.459566 4294967295
17.374229 31.825212 -16.998312 4294967295
17.398016 32.30653 -16.947878 4294967295
17.423409 27.214233 -16.226059 4294967295
17.42609 28.648411 -16.384815 4294967295
17.426243 26.895914 -16.175278 4294967295
17.430243 32.470989 -16.821442 4294967295
17.433342 30.560753 -16.579824 4294967295
17.436609 29.605621 -16.451216 4294967295
17.437578 32.631401 -16.807314 4294967295
17.440517 29.128302 -16.376627 4294967295
17.444363 28.491587 -16.283335 4294967295
17.446262 29.447712 -16.388662 4294967295
17.447561 32.155384 -16.705374 4294967295
17.449961 30.244699 -16.466864 4294967295
17.459738 31.201828 -16.5366 4294967295
17.479403 30.726988 -16.390926 4294967295
17.486429 31.524555 -16.454109 4294967295
17.508457 31.687334 -16.373686 4294967295
17.539614 28.638802 -16.609928 4294967295
17.540291 31.027132 -16.89131 4294967295
17.557272 28.959738 -16.568241 4294967295
17.563452 27.686335 -16.388588 4294967295
17.565948 31.508698 -16.832541 4294967295
17.569057 28.005665 -16.401257 4294967295
17.578869 29.759098 -16.565699 4294967295
17.59078 31.671827 -16.739584 4294967295
17.599894 30.717779 -16.584726 4294967295
17.623491 28.172199 -16.174734 4294967295
17.632322 27.37649 -16.039991 4294967295
17.639526 27.058607 -15.969517 4294967295
17.641768 29.927519 -16.301094 4294967295
17.697691 32.804085 -16.390549 4294967295
-15.635767 33.027172 -19.970713 4294967295
-15.306936 33.024319 -19.913624 4294967295
-14.488822 33.95768 -19.921595 4294967295
-13.855749 33.946537 -19.955084 4294967295
-13.852813 33.005554 -19.813803 4294967295
-12.882742 33.149975 -19.769461 4294967295
-12.75378 33.140785 -19.946867 4294967295
-12.716125 33.620014 -19.792557 4294967295
-12.56938 33.45763 -19.847239 4294967295
-12.554325 33.774986 -19.802166 4294967295
-12.41571 32.982735 -19.820978 4294967295
-12.393368 33.301628 -19.734283 4294967295
-12.219968 33.144981 -19.636635 4294967295
-11.95158 33.128906 -19.930359 4294967295
-11.798008 33.125046 -19.966425 4294967295
-11.749763 33.29248 -19.712431 4294967295
-11.746931 33.921406 -19.778532 4294967295
-11.574276 33.293327 -19.624336 4294967295
-11.479362 32.962749 -19.952713 4294967295
-11.449276 33.597427 -19.864105 4294967295
-11.423994 33.131622 -19.659067 4294967295
-11.274972 33.755154 -19.803474 4294967295
-11.259738 32.972893 -19.614571 4294967295
-11.256132 33.445045 -19.655708 4294967295
-11.15223 33.430428 -19.97333 4294967295
-11.085563 34.073372 -19.678215 4294967295
-10.94135 33.910286 -19.74728 4294967295
-10.822452 33.741711 -19.958981 4294967295
-10.813107 33.115376 -19.824358 4294967295
-10.794184 34.062088 -19.840494 4294967295
-10.77745 33.594395 -19.684666 4294967295
-10.762335 33.283337 -19.558434 4294967295
-10.609553 33.43644 -19.620209 4294967295
-10.591196 33.754753 -19.557764 4294967295
-10.578675 34.071865 -19.528196 4294967295
-10.491515 33.424915 -19.856873 4294967295
-10.487467 33.582897 -19.854557 4294967295
-10.461854 33.116966 -19.64912 4294967295
-10.286627 33.432026 -19.605156 4294967295
-10.260142 34.066544 -19.538229 4294967295
-10.249122 33.911751 -19.455883 4294967295
-10.172091 33.105511 -19.820105 4294967295
-10.168774 33.734734 -19.883223 4294967295
-10.124306 33.587189 -19.613413 4294967295
-10.021795 33.415188 -19.915859 4294967295
-10.016975 34.044682 -19.970539 4294967295
-9.9501724 32.958805 -19.453465 4294967295
-9.9319592 33.906097 -19.474066 4294967295
-9.8596296 33.413136 -19.904308 4294967295
-9.8287373 34.048378 -19.813196 4294967295
-9.818943 32.95023 -19.615536 4294967295
-9.800518 33.740162 -19.614586 4294967295
-9.7671251 33.275604 -19.366592 4294967295
-9.6780748 33.886688 -19.845791 4294967295
-9.6309175 33.425251 -19.521273 4294967295
-9.602664 34.060329 -19.445148 4294967295
-9.5205507 33.726486 -19.840084 4294967295
-9.5142403 33.25631 -19.743738 4294967295
-9.5117073 33.571213 -19.770393 4294967295
-9.5013552 33.101826 -19.651497 4294967295
-9.4938354 34.046635 -19.731911 4294967295
-9.2059736 33.248753 -19.811119 4294967295
-9.1921492 32.937244 -19.693518 4294967295
-9.1865377 33.724461 -19.764151 4294967295
-9.1437883 34.048149 -19.567228 4294967295
-8.9760532 33.575481 -19.464737 4294967295
-8.9509287 33.266193 -19.28451 4294967295
-8.8565054 33.721546 -19.711052 4294967295
-8.8315611 34.041401 -19.613462 4294967295
-8.8232422 33.099541 -19.445242 4294967295
-8.790822 33.892929 -19.367281 4294967295
-8.7837791 33.579792 -19.287523 4294967295
-8.6265707 33.891293 -19.345711 4294967295
-8.6101246 33.108021 -19.152925 4294967295
-8.5475006 33.085175 -19.693542 4294967295
-8.5282726 33.246445 -19.607565 4294967295
-8.5220852 33.876804 -19.654654 4294967295
-8.4992437 32.937893 -19.406414 4294967295
-8.4868383 33.569756 -19.419159 4294967295
-8.3468981 33.248341 -19.491276 4294967295
-8.306242 33.728897 -19.327803 4294967295
-8.2932043 34.046398 -19.29648 4294967295
-8.2785664 33.577412 -19.154703 4294967295
-8.1912098 34.031326 -19.618521 4294967295
-8.1910582 33.244888 -19.516171 4294967295
-8.1719913 33.091534 -19.390747 4294967295
-8.1595421 33.408813 -19.362738 4294967295
-8.0535994 33.866699 -19.723413 4294967295
-7.9661155 34.042797 -19.262186 4294967295
-7.948936 33.416843 -19.086405 4294967295
-7.8704906 33.082516 -19.496847 4294967295
-7.8666506 33.555283 -19.536589 4294967295
-7.8549933 33.715069 -19.492796 4294967295
-7.8544545 33.400517 -19.449265 4294967295
-7.6242828 32.940247 -19.005493 4294967295
-7.5748262 33.544205 -19.695435 4294967295
-7.5609846 34.019024 -19.680334 4294967295
-7.5528388 32.919491 -19.493877 4294967295
-7.5427389 33.236263 -19.479036 4294967295
-7.4879522 33.877277 -19.2598 4294967295
-7.2357049 33.385723 -19.574966 4294967295
-7.2218747 33.073875 -19.458891 4294967295
-7.2124591 33.705292 -19.488386 4294967295
-7.20186 33.235378 -19.36973 4294967295
-6.9875436 33.24398 -19.075933 4294967295
-6.8957081 34.01416 -19.551735 4294967295
-6.8842854 32.914837 -19.347948 4294967295
-6.8538504 33.393364 -19.242723 4294967295
-6.8365898 33.554405 -19.168871 4294967295
-6.8365779 33.711864 -19.189035 4294967295
-6.804543 33.876095 -19.03467 4294967295
-6.6577682 33.555714 -19.06959 4294967295
-6.656292 33.870995 -19.101992 4294967295
-6.6520634 33.084385 -18.977873 4294967295
-6.551475 33.384476 -19.34466 4294967295
-6.5184202 33.863712 -19.225615 4294967295
-6.3494549 33.390533 -19.119638 4294967295
-6.2583756 33.845875 -19.557144 4294967295
-6.2220955 33.223705 -19.27981 4294967295
-6.2100382 33.541119 -19.254818 4294967295
-6.1474986 34.026737 -18.976437 4294967295
-6.0793409 34.004696 -19.477245 4294967295
-6.0334959 32.911896 -19.087934 4294967295
-6.031702 33.227283 -19.118574 4294967295
-5.9082103 33.847 -19.400103 4294967295
-5.9022598 33.218391 -19.287317 4294967295
-5.8613262 34.014339 -19.166885 4294967295
-5.8522911 33.701202 -19.07773 4294967295
-5.8510532 33.386395 -19.030708 4294967295
-5.6680522 34.018734 -18.990988 4294967295
-5.558044 33.533066 -19.203978 4294967295
-5.5495992 33.692326 -19.178602 4294967295
-5.5478225 33.220116 -19.108603 4294967295
-5.4996157 32.914722 -18.808464 4294967295
-5.4913821 33.862015 -18.884993 4294967295
-5.3488827 33.067776 -18.882689 4294967295
-5.2451901 33.526302 -19.249893 4294967295
-5.2258964 34.002872 -19.206551 4294967295
-5.2239032 33.373135 -19.115362 4294967295
-5.222815 33.68845 -19.149755 4294967295
-4.9988413 33.541393 -18.790245 4294967295
-4.9379988 33.360863 -19.306135 4294967295
-4.8955717 33.684647 -19.118927 4294967295
-4.8920074 33.212654 -19.03952 4294967295
-4.839386 33.538605 -18.797684 4294967295
-4.7737365 33.044006 -19.247015 4294967295
-4.7457762 33.679886 -19.177698 4294967295
-4.60953 33.042171 -19.228514 4294967295
-4.6062546 33.673012 -19.291302 4294967295
-4.587997 33.519207 -19.173641 4294967295
-4.5599413 33.209728 -18.983521 4294967295
-4.3894491 33.839653 -19.012241 4294967295
-4.3571186 33.373344 -18.779451 4294967295
-4.2703676 33.670963 -19.214821 4294967295
-4.2235818 33.365288 -18.925323 4294967295
-4.2007804 33.52758 -18.823851 4294967295
-4.1836147 33.846455 -18.77249 4294967295
-4.1791015 34.005074 -18.768501 4294967295
-4.0747595 33.833218 -19.049658 4294967295
-4.012753 33.530594 -18.679504 4294967295
-3.9301314 33.984985 -19.156036 4294967295
-3.9019611 33.833183 -18.986269 4294967295
-3.86217 33.05283 -18.674526 4294967295
-3.783694 33.506721 -19.172541 4294967295
-3.7572725 33.196793 -18.992228 4294967295
-3.7432368 33.357273 -18.93775 4294967295
-3.6059449 33.507637 -19.083035 4294967295
-3.5629551 33.831726 -18.895189 4294967295
-3.5598736 33.043861 -18.778732 4294967295
-3.5196309 33.998363 -18.68557 4294967295
-3.4064648 33.986 -18.938847 4294967295
-3.3828313 33.517719 -18.753704 4294967295
-3.3082776 33.655354 -19.230711 4294967295
-3.288274 33.028824 -19.044983 4294967295
-3.2219567 33.515186 -18.754383 4294967295
-3.1170535 33.974327 -19.110584 4294967295
-3.1160274 33.816883 -19.085182 4294967295
-2.9655786 33.812244 -19.140562 4294967295
-2.9417064 33.028637 -18.914822 4294967295
-2.9341936 33.976345 -18.995085 4294967295
-2.9283416 33.504433 -18.904299 4294967295
-2.891561 33.196312 -18.670412 4294967295
-2.8853106 33.670872 -18.697422 4294967295
-2.6300142 33.179245 -18.989027 4294967295
-2.5959949 33.028236 -18.790186 4294967295
-2.5833683 33.661777 -18.80365 4294967295
-2.551528 33.983799 -18.676182 4294967295
-2.5424755 33.35442 -18.54871 4294967295
-2.4330807 33.657093 -18.860256 4294967295
-2.3030729 33.806034 -19.043055 4294967295
-2.2648728 33.971546 -18.862707 4294967295
-2.2476983 33.186111 -18.672934 4294967295
-2.2460515 33.659824 -18.724138 4294967295
-2.1507926 33.170906 -19.009222 4294967295
-2.0802591 33.342644 -18.659796 4294967295
-1.9888638 33.168552 -19.004633 4294967295
-1.964901 33.962036 -18.978907 4294967295
-1.9504386 33.018337 -18.78376 4294967295
-1.9419917 33.49337 -18.799356 4294967295
-1.9303938 33.653484 -18.758631 4294967295
-1.8059576 33.801361 -18.970209 4294967295
-1.7286679 33.185532 -18.486927 4294967295
-1.6669844 33.163441 -19.006042 4294967295
-1.6377574 33.642525 -18.913307 4294967295
-1.6328851 34.116817 -18.947592 4294967295
-1.6172228 33.331032 -18.766415 4294967295
-1.6073122 33.964245 -18.79434 4294967295
-1.5940037 33.809124 -18.705036 4294967295
-1.4744611 33.324875 -18.862251 4294967295
-1.4627835 33.011559 -18.761642 4294967295
-1.3029861 33.79781 -18.868204 4294967295
-1.2840508 34.11726 -18.809488 4294967295
-1.2814903 33.644302 -18.736525 4294967295
-1.2747928 33.487797 -18.681805 4294967295
-1.2352976 33.179836 -18.436598 4294967295
-1.158308 33.318615 -18.894285 4294967295
-1.1082633 33.170605 -18.61446 4294967295
-0.99159467 33.632801 -18.905272 4294967295
-0.97948211 33.47739 -18.822584 4294967295
-0.96494079 33.953785 -18.806744 4294967295
-0.95066351 33.009483 -18.613495 4294967295
-0.81004012 34.107845 -18.859352 4294967295
-0.80853152 33.634644 -18.791985 4294967295
-0.76295573 33.01207 -18.476456 4294967295
-0.73744309 33.490856 -18.403881 4294967295
-0.67288959 33.627048 -18.924395 4294967295
-0.60896569 33.797649 -18.613558 4294967295
-0.60620052 33.9561 -18.619102 4294967295
-0.5929957 33.16914 -18.451538 4294967295
-0.59099311 33.485397 -18.480885 4294967295
-0.58054531 34.11919 -18.506245 4294967295
-0.45374659 33.004395 -18.545788 4294967295
-0.44859999 33.321232 -18.55888 4294967295
-0.31963411 33.943867 -18.805117 4294967295
-0.31533241 33.786858 -18.763102 4294967295
-0.26606429 33.006939 -18.409756 4294967295
-0.25993931 33.639961 -18.457491 4294967295
-0.25490931 34.114807 -18.491037 4294967295
-0.2504341 33.325909 -18.36878 4294967295
-0.1751577 33.464432 -18.832289 4294967295
-0.16982 33.781212 -18.84441 4294967295
-0.13777541 33.155949 -18.600039 4294967295
-0.0098382002 33.462704 -18.811525 4294967295
0.0041985 33.781239 -18.778906 4294967295
0.026607901 33.154003 -18.584368 4294967295
0.071580298 34.110577 -18.47183 4294967295
0.0810932 33.322556 -18.323807 4294967295
0.2208744 34.105648 -18.534061 4294967295
0.222583 33.790066 -18.48568 4294967295
0.32114279 33.459301 -18.768642 4294967295
0.32138169 33.775143 -18.806984 4294967295
0.37096351 33.942932 -18.572338 4294967295
0.40051329 33.000797 -18.30192 4294967295
0.54262531 33.468533 -18.460436 4294967295
0.54585689 33.943119 -18.503223 4294967295
0.55764931 33.787476 -18.423006 4294967295
0.65077323 33.29768 -18.713444 4294967295
0.67639512 33.934467 -18.661373 4294967295
0.68205112 33.777637 -18.612658 4294967295
0.7129072 33.151711 -18.375631 4294967295
0.72268409 34.101688 -18.444248 4294967295
0.73452759 33.629986 -18.324303 4294967295
0.86605662 33.463589 -18.457706 4294967295
0.99946189 33.297626 -18.581232 4294967295
1.0118361 33.616001 -18.557568 4294967295
1.0214307 33.14386 -18.449326 4294967295
1.0457184 33.938694 -18.424124 4294967295
1.0554115 33.466492 -18.315372 4294967295
1.1689007 33.138634 -18.520769 4294967295
1.1858872 34.089962 -18.552633 4294967295
1.1880058 33.774376 -18.502348 4294967295
1.3200834 32.976124 -18.553465 4294967295
1.3293668 33.293911 -18.545664 4294967295
1.3397216 34.085941 -18.59161 4294967295
1.3720829 33.144081 -18.308435 4294967295
1.3738588 33.460545 -18.338875 4294967295
1.3757656 33.618973 -18.348907 4294967295
1.3905058 33.937996 -18.313343 4294967295
1.6408998 33.28664 -18.603886 4294967295
1.6771007 33.609695 -18.459492 4294967295
1.6810633 32.978233 -18.360493 4294967295
1.698508 33.93 -18.390228 4294967295
1.6990217 33.455891 -18.328461 4294967295
1.9549639 33.279858 -18.649288 4294967295
1.96583 33.755993 -18.653334 4294967295
1.9828775 33.917355 -18.586695 4294967295
1.9890207 33.128326 -18.457102 4294967295
2.0086086 33.606289 -18.416994 4294967295
2.0233219 34.083393 -18.401581 4294967295
2.0649381 33.459084 -18.112009 4294967295
2.1194448 32.961838 -18.594971 4294967295
2.1506159 33.441914 -18.496361 4294967295
2.3404546 34.07719 -18.432358 4294967295
2.3412664 33.444977 -18.349535 4294967295
2.3462958 33.604053 -18.343813 4294967295
2.3470259 33.129856 -18.281073 4294967295
2.3745959 33.293243 -18.161489 4294967295
2.4463191 33.747646 -18.674307 4294967295
2.6128879 34.06218 -18.688452 4294967295
2.6359673 33.118263 -18.454241 4294967295
2.6487992 33.594994 -18.448572 4294967295
2.6589189 33.913151 -18.436913 4294967295
2.676404 33.442196 -18.289837 4294967295
2.7083778 32.973785 -18.069735 4294967295
2.7690306 33.110321 -18.597998 4294967295
2.781548 33.744961 -18.613602 4294967295
2.8753362 33.4468 -18.102415 4294967295
2.9373596 33.89938 -18.662422 4294967295
2.9718461 33.589901 -18.449863 4294967295
3.0263104 33.125832 -18.117239 4294967295
3.028111 33.442554 -18.147495 4294967295
3.1576722 33.117561 -18.269754 4294967295
3.16327 34.067543 -18.35948 4294967295
3.1653054 33.435329 -18.270723 4294967295
3.2904513 33.267696 -18.434467 4294967295
3.2984598 33.743607 -18.453201 4294967295
3.3096983 33.11319 -18.318373 4294967295
3.3353879 34.067078 -18.307388 4294967295
3.3545597 33.438049 -18.13279 4294967295
3.4474297 34.054852 -18.55617 4294967295
3.5203836 33.752712 -18.151814 4294967295
3.5255203 33.120808 -18.047604 4294967295
3.5804942 34.046757 -18.699306 4294967295
3.6213238 33.896599 -18.475628 4294967295
3.6249244 33.422863 -18.398817 4294967295
3.6289937 32.949142 -18.319651 4294967295
3.6328888 33.740692 -18.398218 4294967295
3.6819987 33.11726 -18.07428 4294967295
3.8392265 33.588535 -18.156038 4294967295
3.8785229 33.437775 -17.940252 4294967295
3.9809048 33.898563 -18.295675 4294967295
3.9939897 33.584663 -18.191254 4294967295
4.028388 33.274693 -17.980553 4294967295
4.040628 33.751846 -17.978329 4294967295
4.0438895 33.119316 -17.883657 4294967295
4.2816935 34.047314 -18.428867 4294967295
4.2893977 32.941383 -18.253557 4294967295
4.3202424 33.421856 -18.158886 4294967295
4.3397946 33.58382 -18.08123 4294967295
4.4587817 33.573135 -18.294313 4294967295
4.4961863 32.947147 -18.030264 4294967295
4.5002909 34.05582 -18.146866 4294967295
4.6519403 33.57655 -18.139029 4294967295
4.6765509 32.948002 -17.938702 4294967295
4.6914983 33.267422 -17.903687 4294967295
4.7051911 33.111641 -17.816196 4294967295
4.7562222 33.87949 -18.463562 4294967295
4.7816696 33.567921 -18.298424 4294967295
4.7856078 33.093933 -18.220274 4294967295
4.7923632 33.253448 -18.206356 4294967295
4.9221802 33.244911 -18.365082 4294967295
4.9669771 33.88636 -18.221601 4294967295
4.9749603 33.096478 -18.084404 4294967295
4.979713 33.572239 -18.119516 4294967295
4.9811788 33.414227 -18.092724 4294967295
4.9946218 34.049957 -18.104387 4294967295
5.1923242 33.104195 -17.810539 4294967295
5.2772589 33.245655 -18.210522 4294967295
5.2917719 34.039783 -18.236507 4294967295
5.3049626 32.934185 -18.034754 4294967295
5.3199177 33.728577 -18.058586 4294967295
5.4693818 33.881985 -18.139835 4294967295
5.4709463 33.407341 -18.073582 4294967295
5.5058784 32.938766 -17.842854 4294967295
5.6138625 33.401234 -18.167498 4294967295
5.6334777 33.563229 -18.090456 4294967295
5.6583066 33.092815 -17.909714 4294967295
5.9837985 33.087959 -17.902933 4294967295
5.9846525 33.880001 -17.996206 4294967295
5.999301 32.932404 -17.807322 4294967295
6.0258212 33.412563 -17.735611 4294967295
6.0258579 33.570995 -17.754929 4294967295
6.1053219 34.027935 -18.218674 4294967295
6.1119518 33.554207 -18.127735 4294967295
6.118691 33.397121 -18.075212 4294967295
6.2489223 33.705292 -18.269995 4294967295
6.2789855 33.394253 -18.083843 4294967295
6.2985573 33.873016 -18.046419 4294967295
6.337822 33.246761 -17.776239 4294967295
6.3391271 32.930119 -17.730885 4294967295
6.3459654 33.565147 -17.775322 4294967295
6.4257054 32.913799 -18.100534 4294967295
6.4379826 33.707855 -18.137794 4294967295
6.6023979 34.022484 -18.165279 4294967295
6.632658 33.394642 -17.939665 4294967295
6.6784 33.720051 -17.755161 4294967295
6.6802135 32.928036 -17.648975 4294967295
6.7531214 33.859459 -18.201292 4294967295
6.8946781 33.853065 -18.301348 4294967295
6.9077401 34.013878 -18.257145 4294967295
6.9269018 33.383999 -18.086058 4294967295
6.9950275 33.079647 -17.715242 4294967295
6.9953837 33.555138 -17.771847 4294967295
7.0909977 33.856995 -18.134773 4294967295
7.1638913 33.395283 -17.72179 4294967295
7.1709723 34.030544 -17.765085 4294967295
7.2226839 34.007095 -18.302183 4294967295
7.2414274 33.852268 -18.19169 4294967295
7.2608876 33.380703 -18.03887 4294967295
7.3006172 33.704952 -17.884636 4294967295
7.42381 34.011959 -18.112869 4294967295
7.4601197 33.226513 -17.839575 4294967295
7.4758625 33.0709 -17.743742 4294967295
7.5804415 33.533154 -18.081573 4294967295
7.6531067 33.70512 -17.748741 4294967295
7.6712999 33.232903 -17.602308 4294967295
7.7280874 33.844738 -18.190792 4294967295
7.9607677 33.696907 -17.830578 4294967295
7.9706149 33.381702 -17.744179 4294967295
8.0009899 34.021477 -17.674892 4294967295
8.0567541 33.682064 -18.150784 4294967295
8.2674246 33.847008 -17.936506 4294967295
8.2891846 33.692551 -17.812189 4294967295
8.2976789 33.535591 -17.751846 4294967295
8.4015017 33.522285 -18.033741 4294967295
8.594121 34.000851 -17.945858 4294967295
8.6152916 33.687748 -17.8053 4294967295
8.6279287 33.214401 -17.68642 4294967295
8.7364101 33.360596 -17.964785 4294967295
8.7517538 33.046337 -17.852356 4294967295
8.782608 34.003223 -17.820194 4294967295
8.8900013 33.356457 -18.00672 4294967295
8.9518871 33.684864 -17.748404 4294967295
9.1178513 33.365814 -17.692686 4294967295
9.2248554 33.987289 -18.035295 4294967295
9.239089 33.672874 -17.928528 4294967295
9.2448139 33.515377 -17.881804 4294967295
9.2852173 33.364159 -17.66906 4294967295
9.4432716 33.678013 -17.728724 4294967295
9.545577 33.188828 -17.958048 4294967295
9.5630913 33.509102 -17.913019 4294967295
9.6014338 33.357479 -17.710623 4294967295
9.6226664 33.044044 -17.570604 4294967295
9.7852182 33.676052 -17.647583 4294967295
9.906394 33.031555 -17.767302 4294967295
9.9138403 33.984509 -17.84757 4294967295
9.9381819 33.671768 -17.693052 4294967295
9.9495087 33.356544 -17.60051 4294967295
10.053729 33.184891 -17.858644 4294967295
10.073773 33.981514 -17.859686 4294967295
10.130523 33.357323 -17.512577 4294967295
10.24236 33.662888 -17.792183 4294967295
10.244948 33.504734 -17.760612 4294967295
10.250984 33.0299 -17.674101 4294967295
10.304524 33.832916 -17.516104 4294967295
10.328529 33.996044 -17.421333 4294967295
10.367118 33.494884 -17.952114 4294967295
10.378119 33.655472 -17.919165 4294967295
10.459041 33.987591 -17.573706 4294967295
10.537702 33.017967 -17.85598 4294967295
10.548339 33.178478 -17.824816 4294967295
10.592864 33.345097 -17.633028 4294967295
10.604921 33.981983 -17.652925 4294967295
10.644135 33.83049 -17.447813 4294967295
10.713128 33.493584 -17.852615 4294967295
10.738404 33.656799 -17.752213 4294967295
10.792925 33.031792 -17.417088 4294967295
10.908792 33.497005 -17.69603 4294967295
10.921341 33.023174 -17.578957 4294967295
10.922022 33.975441 -17.691208 4294967295
10.938772 33.184975 -17.515783 4294967295
10.974796 33.667652 -17.403208 4294967295
11.102193 33.658718 -17.569822 4294967295
11.108835 33.501194 -17.519218 4294967295
11.156834 33.827396 -17.331053 4294967295
11.251282 33.177578 -17.576103 4294967295
11.260216 33.020428 -17.514734 4294967295
11.263406 33.338459 -17.538149 4294967295
11.281757 33.500488 -17.470831 4294967295
11.311533 33.98217 -17.388105 4294967295
11.490171 33.664951 -17.274673 4294967295
11.586259 33.967838 -17.626772 4294967295
11.602493 33.335789 -17.473537 4294967295
11.626221 33.181221 -17.342678 4294967295
11.835373 33.186848 -17.124609 4294967295
11.893696 33.800781 -17.691856 4294967295
11.898807 33.166752 -17.591085 4294967295
11.920025 33.488029 -17.529896 4294967295
11.9387 33.967712 -17.499851 4294967295
11.940273 33.650436 -17.454067 4294967295
11.942238 33.33321 -17.406443 4294967295
11.944786 33.016056 -17.356073 4294967295
12.164572 33.500084 -17.146404 4294967295
12.171691 33.97797 -17.170643 4294967295
12.232779 33.956932 -17.647057 4294967295
12.252096 33.32531 -17.479891 4294967295
12.363892 33.472469 -17.737457 4294967295
12.419232 33.005898 -17.421144 4294967295
12.449886 33.646614 -17.354517 4294967295
12.486929 33.971001 -17.219679 4294967295
12.540423 33.948627 -17.730474 4294967295
12.583537 33.321224 -17.452459 4294967295
12.604754 33.801472 -17.410879 4294967295
12.61264 33.167511 -17.297358 4294967295
12.800243 33.010384 -17.162722 4294967295
12.802778 33.805264 -17.24674 4294967295
12.813487 33.96608 -17.21596 4294967295
12.860842 34.101395 -17.773407 4294967295
12.889313 33.630203 -17.583328 4294967295
12.929956 33.002037 -17.317345 4294967295
12.969775 33.485672 -17.189301 4294967295
13.006512 33.810062 -17.056475 4294967295
13.0547 33.469303 -17.552231 4294967295
13.064783 33.31226 -17.486166 4294967295
13.167068 33.171303 -16.991016 4294967295
13.22505 34.103363 -17.593845 4294967295
13.23578 33.152279 -17.429169 4294967295
13.243859 33.471401 -17.429892 4294967295
13.319999 33.802746 -17.114309 4294967295
13.3238 33.962364 -17.115791 4294967295
13.34335 33.330029 -16.948328 4294967295
13.41983 33.788902 -17.407406 4294967295
13.496029 33.325649 -16.996279 4294967295
13.560248 33.782337 -17.511696 4294967295
13.57138 32.989964 -17.364473 4294967295
13.583994 33.468819 -17.363356 4294967295
13.636953 34.113918 -17.194332 4294967295
13.641337 33.955776 -17.154877 4294967295
13.801719 33.634869 -17.128748 4294967295
13.81741 34.114552 -17.113457 4294967295
13.82707 33.162395 -16.953962 4294967295
13.877748 33.93462 -17.569258 4294967295
13.9019 33.780075 -17.438456 4294967295
13.924116 33.307289 -17.278376 4294967295
13.92725 34.102413 -17.35943 4294967295
13.929276 32.990326 -17.216286 4294967295
13.987218 33.47731 -17.005623 4294967295
14.032793 33.612968 -17.567448 4294967295
14.1348 34.107925 -17.153543 4294967295
14.161027 33.317623 -16.936836 4294967295
14.168975 33.00095 -16.861887 4294967295
14.226124 33.933582 -17.465355 4294967295
14.240194 33.459354 -17.343157 4294967295
14.279889 33.625286 -17.1791 4294967295
14.363461 33.132057 -17.488106 4294967295
14.514386 33.794392 -16.868917 4294967295
14.530399 33.28907 -17.488916 4294967295
14.551974 32.97496 -17.351446 4294967295
14.590025 33.776321 -17.27169 4294967295
14.59569 33.936291 -17.264696 4294967295
14.600825 33.460293 -17.183813 4294967295
14.601634 33.142467 -17.141924 4294967295
14.826814 33.945885 -16.951799 4294967295
14.865916 33.444508 -17.464237 4294967295
14.887353 33.130348 -17.327673 4294967295
14.909698 33.770088 -17.301317 4294967295
14.937229 33.933952 -17.19397 4294967295
14.951531 32.982365 -17.013876 4294967295
15.014675 34.106823 -16.857447 4294967295
15.13122 33.459774 -16.995153 4294967295
15.146055 33.780487 -16.965248 4294967295
15.248824 33.60828 -17.222927 4294967295
15.25351 33.132069 -17.144308 4294967295
15.3282 34.099453 -16.916496 4294967295
15.336017 32.987122 -16.747255 4294967295
15.343431 33.943073 -16.827675 4294967295
15.343771 33.784031 -16.807051 4294967295
15.44496 33.452454 -17.052849 4294967295
15.44543 34.088707 -17.126884 4294967295
15.448469 32.97588 -16.979641 4294967295
15.562182 33.918903 -17.319986 4294967295
15.573795 33.761955 -17.247887 4294967295
15.605045 33.608406 -17.08604 4294967295
15.644053 33.137917 -16.850641 4294967295
15.649333 33.297932 -16.845558 4294967295
15.77443 32.970631 -16.981644 4294967295
15.787393 33.291019 -16.960539 4294967295
15.789715 33.927753 -17.026079 4294967295
15.887782 33.436661 -17.266088 4294967295
15.894434 33.119747 -17.197718 4294967295
15.92987 33.762077 -17.112251 4294967295
15.981612 33.293777 -16.819267 4294967295
15.994012 33.614197 -16.800802 4294967295
16.105989 33.602703 -17.034491 4294967295
16.121952 33.923683 -16.999844 4294967295
16.13175 32.970684 -16.841103 4294967295
16.135576 33.2896 -16.861719 4294967295
16.151712 33.451519 -16.807266 4294967295
16.316309 33.767475 -16.839441 4294967295
16.319265 33.927139 -16.845009 4294967295
16.39588 32.954945 -17.124899 4294967295
16.452341 33.123631 -16.887384 4294967295
16.457758 34.079346 -16.976803 4294967295
16.50318 33.291477 -16.67543 4294967295
16.50548 33.76944 -16.722017 4294967295
16.571098 33.272568 -17.108549 4294967295
16.683111 33.132515 -16.581266 4294967295
16.727015 33.90506 -17.217827 4294967295
16.755096 33.750881 -17.071583 4294967295
16.793512 34.075882 -16.935461 4294967295
16.815304 33.12463 -16.722744 4294967295
16.90041 33.586098 -17.13405 4294967295
16.906181 33.109753 -17.050989 4294967295
16.927038 33.431568 -16.994535 4294967295
17.003542 34.081577 -16.72418 4294967295
17.094566 33.429718 -16.97558 4294967295
17.106846 33.113491 -16.882109 4294967295
17.121031 34.070942 -16.931828 4294967295
17.13426 32.958931 -16.739162 4294967295
17.145531 33.597672 -16.764126 4294967295
17.160496 33.281807 -16.658503 4294967295
17.299765 33.911915 -16.843536 4294967295
17.374437 33.606407 -16.468372 4294967295
17.428591 33.425827 -16.942665 4294967295
17.455505 33.908028 -16.878153 4294967295
17.456955 33.112263 -16.776794 4294967295
17.483974 34.07222 -16.768711 4294967295
17.488432 33.754547 -16.71068 4294967295
17.553671 33.606552 -16.39744 4294967295
17.58098 32.943855 -16.935402 4294967295
17.614698 33.745544 -16.878248 4294967295
17.642828 33.272709 -16.694645 4294967295
-6.9860559 19.98155 -18.242891 4278255360
-6.9761686 19.193954 -18.087446 4278255360
-6.9522038 18.249401 -17.834703 4278255360
-6.9349074 17.935095 -17.699539 4278255360
-6.9338155 19.670755 -17.916792 4278255360
-6.8682027 18.871124 -18.334063 4278255360
-6.8434877 19.188473 -18.239676 4278255360
-6.813221 18.560064 -17.993357 4278255360
-6.8013802 18.245459 -17.888155 4278255360
-6.7927313 18.719416 -17.901772 4278255360
-6.7764411 18.405119 -17.772272 4278255360
-6.6586185 18.398663 -18.005756 4278255360
-6.6577039 18.871944 -18.061562 4278255360
-6.6545787 19.503096 -18.12557 4278255360
-6.6517916 19.345612 -18.090118 4278255360
-6.6442108 18.241989 -17.906939 4278255360
-6.6091695 17.928957 -17.675335 4278255360
