# .PCD v0.7 - Point Cloud Data file format
VERSION 0.7
FIELDS x y z rgb
SIZE 4 4 4 4
TYPE F F F U
COUNT 1 1 1 1
WIDTH 1121
HEIGHT 1
VIEWPOINT 0 0 0 1 0 0 0
POINTS 1121
DATA ascii
-8.7342844 114.88673 -21.391287 4294967295
-8.7322588 115.67325 -21.481236 4294967295
-8.7287102 116.61802 -21.582989 4294967295
-8.7246161 115.36661 -21.398581 4294967295
-8.7222519 117.25174 -21.628214 4294967295
-8.7201824 114.11514 -21.212233 4294967295
-8.7136946 115.84772 -21.398958 4294967295
-8.7096395 114.43891 -21.194477 4294967295
-8.7070894 117.89385 -21.625402 4294967295
-8.6976337 116.80457 -21.431652 4294967295
-8.697073 118.21729 -21.610561 4294967295
-8.6849575 118.0721 -21.523474 4294967295
-8.6801615 117.76288 -21.456554 4294967295
-8.6801434 111.80785 -21.598478 4294967295
-8.680006 116.97833 -21.354565 4294967295
-8.6792765 116.19422 -21.249382 4294967295
-8.6684885 112.13223 -21.574594 4294967295
-8.6683102 118.55895 -21.49227 4294967295
-8.6612873 118.72269 -21.473738 4294967295
-8.6538 113.40073 -21.655258 4294967295
-8.6488047 117.47911 -21.243025 4294967295
-8.6460295 118.4236 -21.349087 4294967295
-8.6451626 117.63959 -21.243155 4294967295
-8.641572 113.09824 -21.547377 4294967295
-8.6334839 111.69335 -21.32078 4294967295
-8.6244984 114.21227 -21.594696 4294967295
-8.6231575 113.58593 -21.506441 4294967295
-8.6208868 112.96036 -21.413046 4294967295
-8.619401 112.49091 -21.344185 4294967295
-8.6178226 112.80624 -21.375921 4294967295
-8.6121349 114.06687 -21.506289 4294967295
-8.6011353 112.0367 -21.182724 4294967295
-8.6008511 115.48949 -21.625971 4294967295
-8.5903854 116.12691 -21.649105 4294967295
-8.5877371 115.34494 -21.533447 4294967295
-8.580759 116.29292 -21.616245 4294967295
-8.5655632 114.58104 -21.310083 4294967295
-8.5607862 115.99802 -21.465702 4294967295
-8.5596094 117.25443 -21.620911 4294967295
-8.5580502 115.68674 -21.410187 4294967295
-8.5578327 117.41302 -21.631327 4294967295
-8.551424 114.90819 -21.272549 4294967295
-8.548481 113.812 -21.11474 4294967295
-8.5472155 116.63861 -21.471743 4294967295
-8.5467548 115.06953 -21.267023 4294967295
-8.5439949 114.44418 -21.170908 4294967295
-8.5312862 116.81071 -21.404146 4294967295
-8.5287209 117.12705 -21.430437 4294967295
-8.5066767 118.40375 -21.470646 4294967295
-8.5012264 115.89735 -21.117098 4294967295
-8.5008535 117.93852 -21.377914 4294967295
-8.5007925 116.52578 -21.195602 4294967295
-8.4992647 118.09701 -21.38937 4294967295
-8.4835234 112.62578 -21.504507 4294967295
-8.4817581 117.79992 -21.252451 4294967295
-8.4761295 111.84788 -21.362726 4294967295
-8.4658108 113.11279 -21.467543 4294967295
-8.4654274 112.79928 -21.425018 4294967295
-8.4547625 112.966 -21.386473 4294967295
-8.451848 113.75336 -21.471453 4294967295
-8.4476166 118.77487 -21.185623 4294967295
-8.4475889 112.5017 -21.28632 4294967295
-8.4462166 113.9155 -21.46064 4294967295
-8.4410868 111.7227 -21.149414 4294967295
-8.4356852 114.39606 -21.463255 4294967295
-8.4330349 112.35801 -21.185915 4294967295
-8.4321575 112.04482 -21.140646 4294967295
-8.4316587 115.34135 -21.5623 4294967295
-8.4295025 111.57619 -21.065361 4294967295
-8.4232512 114.87846 -21.455393 4294967295
-8.4229546 115.82027 -21.574974 4294967295
-8.4068384 115.05076 -21.385221 4294967295
-8.4024773 116.93803 -21.603642 4294967295
-8.4011011 115.99781 -21.474861 4294967295
-8.3903751 114.12423 -21.173288 4294967295
-8.3899145 116.63615 -21.494087 4294967295
-8.3885937 115.69572 -21.365585 4294967295
-8.385932 114.59936 -21.209461 4294967295
-8.3746805 116.3367 -21.369816 4294967295
-8.3703985 116.49773 -21.366447 4294967295
-8.361784 117.44767 -21.440256 4294967295
-8.3612823 118.38977 -21.558697 4294967295
-8.3599939 116.82154 -21.349585 4294967295
-8.339344 117.31216 -21.296541 4294967295
-8.3344355 116.2178 -21.12804 4294967295
-8.3337193 117.7885 -21.326206 4294967295
-8.3320808 117.94705 -21.337391 4294967295
-8.3150282 112.00581 -21.384056 4294967295
-8.3091106 118.12614 -21.231188 4294967295
-8.3072805 118.5989 -21.28174 4294967295
-8.2961464 112.17993 -21.300367 4294967295
-8.295661 111.70943 -21.237085 4294967295
-8.2952099 112.65168 -21.355816 4294967295
-8.2951889 112.49474 -21.335499 4294967295
-8.2891302 118.77347 -21.202074 4294967295
-8.2848072 113.60295 -21.419777 4294967295
-8.2817583 117.68132 -21.020016 4294967295
-8.2737255 112.8283 -21.257822 4294967295
-8.2726545 114.86974 -21.514494 4294967295
-8.2722988 114.24232 -21.431761 4294967295
-8.2688713 113.14672 -21.271521 4294967295
-8.2684088 115.5014 -21.571909 4294967295
-8.2627783 114.09418 -21.359203 4294967295
-8.2609348 113.46799 -21.268267 4294967295
-8.2594624 114.7251 -21.421753 4294967295
-8.2570858 113.00054 -21.186485 4294967295
-8.2424326 113.95604 -21.227108 4294967295
-8.2380009 116.47163 -21.525871 4294967295
-8.2323179 113.80838 -21.151272 4294967295
-8.232255 114.59347 -21.251938 4294967295
-8.2306499 116.32165 -21.465273 4294967295
-8.228652 115.06779 -21.292721 4294967295
-8.2148256 115.86569 -21.317692 4294967295
-8.2090425 116.18511 -21.326292 4294967295
-8.1903524 115.41766 -21.122534 4294967295
-8.1874857 115.73441 -21.147181 4294967295
-8.1835165 117.30824 -21.327349 4294967295
-8.1789827 116.99857 -21.262039 4294967295
-8.1776695 117.78478 -21.355799 4294967295
-8.1691322 117.63596 -21.288689 4294967295
-8.1609211 118.74278 -21.384928 4294967295
-8.1517859 117.96661 -21.233747 4294967295
-8.1475124 116.71441 -21.048651 4294967295
-8.1432562 117.18961 -21.085869 4294967295
-8.1422901 118.60379 -21.262358 4294967295
-8.1420937 111.70355 -21.279856 4294967295
-8.1390886 117.50768 -21.103367 4294967295
-8.1374197 118.45147 -21.215399 4294967295
-8.1345215 112.80926 -21.37958 4294967295
-8.1321926 111.8695 -21.245647 4294967295
-8.1273813 114.07143 -21.501839 4294967295
-8.121089 118.31017 -21.105459 4294967295
-8.1171389 113.29608 -21.34466 4294967295
-8.1146154 118.15935 -21.049683 4294967295
-8.1105804 113.14512 -21.288441 4294967295
-8.109889 111.57564 -21.082703 4294967295
-8.1075544 112.20586 -21.150663 4294967295
-8.1026487 113.62337 -21.305441 4294967295
-8.1012325 115.50821 -21.539871 4294967295
-8.0977354 113.4709 -21.258268 4294967295
-8.0941267 112.53213 -21.117285 4294967295
-8.0815649 115.21272 -21.391523 4294967295
-8.0786781 115.37239 -21.395855 4294967295
-8.0777588 114.90231 -21.330252 4294967295
-8.0741892 115.06263 -21.330839 4294967295
-8.0719261 113.02351 -21.055914 4294967295
-8.0707874 114.59481 -21.251596 4294967295
-8.0643044 114.44382 -21.195807 4294967295
-8.0596771 115.86115 -21.352089 4294967295
-8.0422955 116.3485 -21.317226 4294967295
-8.0405169 114.77999 -21.105558 4294967295
-8.0346756 116.04168 -21.23502 4294967295
-8.0291824 117.1459 -21.346169 4294967295
-8.0280991 116.98993 -21.320042 4294967295
-8.0240231 116.67979 -21.257296 4294967295
-8.0126781 118.57454 -21.437239 4294967295
-8.0065174 116.53934 -21.141014 4294967295
-8.0051765 118.1108 -21.335529 4294967295
-7.9950347 111.84877 -21.378475 4294967295
-7.9757352 118.45313 -21.214344 4294967295
-7.9724512 117.98517 -21.135757 4294967295
-7.9702988 116.88777 -20.982594 4294967295
-7.9647474 113.91693 -21.474602 4294967295
-7.9583697 117.52744 -20.997902 4294967295
-7.9578729 112.66743 -21.27549 4294967295
-7.9529481 112.35789 -21.208111 4294967295
-7.9509521 113.45872 -21.338415 4294967295
-7.9469433 114.40427 -21.437479 4294967295
-7.9450922 113.1501 -21.265921 4294967295
-7.9383993 114.25521 -21.370451 4294967295
-7.9383183 118.80331 -21.049419 4294967295
-7.9279737 113.00874 -21.151838 4294967295
-7.9274368 114.73632 -21.370859 4294967295
-7.9263177 112.06798 -21.021641 4294967295
-7.9171252 113.80384 -21.193245 4294967295
-7.9165859 115.68832 -21.432404 4294967295
-7.9153533 112.86323 -21.062426 4294967295
-7.9029169 113.34577 -21.054766 4294967295
-7.8912425 115.24104 -21.232929 4294967295
-7.8901277 114.61396 -21.146097 4294967295
-7.8847961 115.09003 -21.177406 4294967295
-7.883368 116.1905 -21.31082 4294967295
-7.8782344 114.15381 -21.020325 4294967295
-7.8689027 115.89007 -21.191166 4294967295
-7.8611145 115.58328 -21.108109 4294967295
-7.855094 118.5723 -21.458435 4294967295
-7.8546643 116.37458 -21.173649 4294967295
-7.8461428 117.48187 -21.268183 4294967295
-7.8430352 116.07143 -21.069538 4294967295
-7.8413939 117.32937 -21.221983 4294967295
-7.8400788 117.17358 -21.194597 4294967295
-7.8289547 116.87004 -21.093267 4294967295
-7.817018 117.66669 -21.12875 4294967295
-7.8136692 111.86801 -21.268803 4294967295
-7.805057 112.03281 -21.241789 4294967295
-7.7996211 117.05493 -20.952675 4294967295
-7.7947679 111.57101 -21.124899 4294967295
-7.7889123 118.32186 -21.055456 4294967295
-7.7883463 112.20496 -21.170412 4294967295
-7.7864251 118.01008 -21.001463 4294967295
-7.7670126 118.49999 -20.955641 4294967295
-7.7593617 113.64468 -21.193184 4294967295
-7.7586861 118.82222 -20.950388 4294967295
-7.7575889 114.90246 -21.344812 4294967295
-7.7559633 115.21796 -21.376236 4294967295
-7.7543516 114.74846 -21.306921 4294967295
-7.7521892 115.53547 -21.395899 4294967295
-7.7499938 114.59548 -21.262894 4294967295
-7.7492208 113.18284 -21.077126 4294967295
-7.7471814 112.55641 -20.985249 4294967295
-7.7437215 115.38638 -21.329376 4294967295
-7.7409954 114.28975 -21.173283 4294967295
-7.7382469 112.87871 -20.976664 4294967295
-7.7373228 116.33437 -21.415321 4294967295
-7.7343168 114.45297 -21.156879 4294967295
-7.7204657 113.52332 -20.95998 4294967295
-7.7178736 113.3686 -20.925602 4294967295
-7.7134109 115.8858 -21.223934 4294967295
-7.7125502 113.84477 -20.956982 4294967295
-7.7118635 115.73022 -21.195295 4294967295
-7.6907005 118.5766 -21.4424 4294967295
-7.6905465 117.16364 -21.260109 4294967295
-7.6768494 117.33369 -21.205311 4294967295
-7.6754484 116.23557 -21.056461 4294967295
-7.6717243 116.55323 -21.076418 4294967295
-7.6679077 117.65629 -21.196709 4294967295
-7.6669207 116.87192 -21.090467 4294967295
-7.663949 117.50301 -21.154879 4294967295
-7.6638632 118.13129 -21.235075 4294967295
-7.6571269 117.03827 -21.057034 4294967295
-7.6439905 116.7365 -20.94479 4294967295
-7.6378198 118.78449 -21.173239 4294967295
-7.6372199 112.03979 -21.206585 4294967295
-7.6289735 114.24541 -21.443653 4294967295
-7.6259327 118.32468 -21.047695 4294967295
-7.6249313 111.57972 -21.078865 4294967295
-7.6226416 112.21001 -21.146992 4294967295
-7.620646 117.85844 -20.95825 4294967295
-7.61726 112.68602 -21.178036 4294967295
-7.6148901 118.49238 -21.007444 4294967295
-7.6104178 113.47744 -21.241407 4294967295
-7.5943174 115.21948 -21.375067 4294967295
-7.593998 113.96361 -21.212082 4294967295
-7.5899105 115.38059 -21.371124 4294967295
-7.5890913 113.3399 -21.104607 4294967295
-7.5880265 112.5555 -20.997959 4294967295
-7.5823369 113.03193 -21.027334 4294967295
-7.5807648 114.91805 -21.26066 4294967295
-7.5783386 114.76326 -21.227238 4294967295
-7.575922 114.45141 -21.173708 4294967295
-7.5704508 115.55576 -21.284891 4294967295
-7.5673957 117.12872 -21.469694 4294967295
-7.566524 115.08831 -21.202955 4294967295
-7.5644135 113.83374 -21.030128 4294967295
-7.5623612 115.72035 -21.260822 4294967295
-7.5594091 113.68124 -20.982595 4294967295
-7.5578036 116.9808 -21.397125 4294967295
-7.5547447 116.51265 -21.319954 4294967295
-7.5382619 114.17199 -20.927444 4294967295
-7.5263209 116.69648 -21.184752 4294967295
-7.5233955 116.8563 -21.188919 4294967295
-7.5163083 115.92051 -21.029224 4294967295
-7.5143838 117.65011 -21.240442 4294967295
-7.5119328 116.08171 -21.025469 4294967295
-7.5049901 111.70061 -21.325798 4294967295
-7.5001726 117.50656 -21.14263 4294967295
-7.4970007 117.98079 -21.185764 4294967295
-7.4964743 118.29541 -21.223196 4294967295
-7.491683 118.14293 -21.176863 4294967295
-7.4846296 112.03299 -21.254858 4294967295
-7.4784598 117.84139 -21.064291 4294967295
-7.4769902 112.19691 -21.233273 4294967295
-7.4724855 118.78961 -21.152594 4294967295
-7.4680214 114.40326 -21.466291 4294967295
-7.4673467 111.89152 -21.140289 4294967295
-7.4637465 118.48383 -21.064535 4294967295
-7.4541545 112.37461 -21.128675 4294967295
-7.4502087 118.65392 -21.010729 4294967295
-7.4482312 115.36352 -21.479067 4294967295
-7.4478116 113.32269 -21.214928 4294967295
-7.4451613 112.69688 -21.119852 4294967295
-7.4377098 115.68731 -21.461903 4294967295
-7.4375906 113.48908 -21.179251 4294967295
-7.4322624 113.96513 -21.210598 4294967295
-7.4313793 112.86648 -21.064724 4294967295
-7.429708 115.53777 -21.398085 4294967295
-7.4180255 115.8627 -21.374588 4294967295
-7.4148479 114.92348 -21.236385 4294967295
-7.4085011 116.34267 -21.383018 4294967295
-7.405993 114.77462 -21.167892 4294967295
-7.3968134 113.84058 -20.996861 4294967295
-7.3952947 117.2972 -21.431768 4294967295
-7.38344 116.83735 -21.306656 4294967295
-7.381259 115.26878 -21.093294 4294967295
-7.371398 114.33528 -20.918537 4294967295
-7.3709755 115.12124 -21.017002 4294967295
-7.3606787 117.80115 -21.303288 4294967295
-7.3528771 117.49446 -21.22043 4294967295
-7.3481421 116.71355 -21.093861 4294967295
-7.3410511 117.66276 -21.176043 4294967295
-7.3235579 118.30774 -21.161171 4294967295
-7.3223791 118.46595 -21.174883 4294967295
-7.3142896 118.63078 -21.150894 4294967295
-7.3076591 114.24657 -21.451946 4294967295
-7.3020997 111.73902 -21.099466 4294967295
-7.3014464 111.89668 -21.116043 4294967295
-7.3014398 118.80019 -21.100933 4294967295
-7.2978663 118.01806 -20.980694 4294967295
-7.2965178 113.15761 -21.250267 4294967295
-7.2960515 117.23409 -20.870026 4294967295
-7.2870979 113.48029 -21.239162 4294967295
-7.2869892 113.79448 -21.278839 4294967295
-7.2840862 112.8548 -21.142187 4294967295
-7.2826324 112.07069 -21.033548 4294967295
-7.2786489 118.19352 -20.895988 4294967295
-7.274776 114.5909 -21.312906 4294967295
-7.268538 114.75369 -21.299028 4294967295
-7.26828 113.02623 -21.076115 4294967295
-7.2622285 113.97423 -21.16395 4294967295
-7.2606635 115.38914 -21.336622 4294967295
-7.2546787 113.66698 -21.0825 4294967295
-7.2457376 115.24596 -21.235119 4294967295
-7.2449379 112.57607 -20.888363 4294967295
-7.2359629 115.09795 -21.161694 4294967295
-7.2323837 116.98592 -21.383768 4294967295
-7.2275414 114.16316 -20.994938 4294967295
-7.2225814 115.89577 -21.189425 4294967295
-7.2222104 114.48229 -21.006155 4294967295
-7.2076726 117.32335 -21.289362 4294967295
-7.205687 116.06864 -21.11747 4294967295
-7.2002778 114.97391 -20.947001 4294967295
-7.1817737 112.01733 -21.363907 4294967295
-7.1813087 117.50539 -21.165827 4294967295
-7.1770439 118.45189 -21.263384 4294967295
-7.1699529 118.61575 -21.244883 4294967295
-7.1699066 116.41637 -20.962723 4294967295
-7.1589384 112.35196 -21.27976 4294967295
-7.145174 111.57901 -21.104139 4294967295
-7.1359549 112.52977 -21.174692 4294967295
-7.1330848 118.33678 -21.00375 4294967295
-7.1245527 112.69715 -21.132715 4294967295
-7.1227503 112.22751 -21.062506 4294967295
-7.1226048 114.1125 -21.303234 4294967295
-7.1206212 113.01488 -21.151558 4294967295
-7.1192141 113.95856 -21.264648 4294967295
-7.1182079 113.48829 -21.198795 4294967295
-7.1124153 115.37817 -21.408714 4294967295
-7.1111555 114.59416 -21.30126 4294967295
-7.1106529 114.75167 -21.318642 4294967295
-7.109118 114.28193 -21.24992 4294967295
-7.1031957 111.93087 -20.915712 4294967295
-7.0960579 115.07925 -21.279425 4294967295
-7.0902476 115.5558 -21.308159 4294967295
-7.0887952 112.88663 -20.958084 4294967295
-7.084496 113.36191 -20.995071 4294967295
-7.0820413 113.20702 -20.961567 4294967295
-7.0805149 114.93656 -21.174683 4294967295
-7.0733852 115.88562 -21.256609 4294967295
-7.064671 116.52201 -21.289661 4294967295
-7.0586352 116.99886 -21.317173 4294967295
-7.0576291 116.21447 -21.211092 4294967295
-7.0559125 116.68729 -21.262115 4294967295
-7.055769 115.74496 -21.140594 4294967295
-7.0527887 116.37608 -21.20487 4294967295
-7.0493965 117.32169 -21.307133 4294967295
-7.0243258 116.08849 -21.009697 4294967295
-7.0152926 118.45354 -21.262407 4294967295
-7.0086513 116.88882 -21.025028 4294967295
-7.0070062 112.65863 -21.371805 4294967295
-7.0009232 117.68172 -21.083611 4294967295
-7.0001674 118.15378 -21.139872 4294967295
-6.9978933 118.31304 -21.147623 4294967295
-6.9973884 111.88205 -21.218924 4294967295
-6.9888892 113.61726 -21.39393 4294967295
-6.9828444 113.30869 -21.320839 4294967295
-6.9783092 118.64597 -21.081326 4294967295
-6.9767199 118.8046 -21.092802 4294967295
-6.976409 117.86211 -20.97035 4294967295
-6.9695902 112.06408 -21.087824 4294967295
-6.9681864 112.53662 -21.140545 4294967295
-6.9678826 114.57868 -21.400354 4294967295
-6.961247 113.01416 -21.163153 4294967295
-6.9597731 112.85841 -21.135017 4294967295
-6.9461184 111.77089 -20.919891 4294967295
-6.9447045 112.40069 -20.992697 4294967295
-6.9359965 113.97968 -21.146534 4294967295
-6.9274683 114.77295 -21.200737 4294967295
-6.9223413 113.52082 -21.011921 4294967295
-6.90903 116.51787 -21.32173 4294967295
-6.9019833 115.42487 -21.142647 4294967295
-6.8970537 114.32959 -20.975018 4294967295
-6.893404 116.06124 -21.17647 4294967295
-6.8926687 113.86216 -20.890806 4294967295
-6.8899088 117.47822 -21.338463 4294967295
-6.8887997 115.59422 -21.091097 4294967295
-6.8871551 115.75285 -21.102272 4294967295
-6.8866873 115.9104 -21.119844 4294967295
-6.8758235 116.23476 -21.101027 4294967295
-6.8680553 116.87048 -21.139267 4294967295
-6.8669066 117.81413 -21.253693 4294967295
-6.8664112 115.14355 -20.909029 4294967295
-6.8629985 115.30386 -20.910599 4294967295
-6.8611245 118.44794 -21.30271 4294967295
-6.8571815 111.70712 -21.314392 4294967295
-6.8519831 117.19982 -21.092152 4294967295
-6.8437276 111.87621 -21.261406 4294967295
-6.8424683 118.77991 -21.241575 4294967295
-6.8355565 112.98295 -21.357735 4294967295
-6.8327408 116.74649 -20.927229 4294967295
-6.8266659 112.51981 -21.249142 4294967295
-6.8266358 113.30513 -21.349485 4294967295
-6.813221 118.65073 -21.062578 4294967295
-6.8108754 112.37694 -21.143269 4294967295
-6.8098845 117.71101 -20.923746 4294967295
-6.8070731 113.47996 -21.26335 4294967295
-6.8058581 118.02915 -20.942108 4294967295
-6.8041158 118.18797 -20.952759 4294967295
-6.7995844 117.40639 -20.827534 4294967295
-6.7992973 111.60174 -20.979824 4294967295
-6.7961798 112.70438 -21.103662 4294967295
-6.7927136 113.65011 -21.205473 4294967295
-6.7901812 112.0813 -20.990639 4294967295
-6.7882452 113.18288 -21.120892 4294967295
-6.7814498 114.75996 -21.285028 4294967295
-6.7664323 114.93088 -21.223597 4294967295
-6.7613225 115.87807 -21.31646 4294967295
-6.7524447 114.00105 -21.027021 4294967295
-6.7441788 115.42271 -21.163099 4294967295
-6.7422328 115.26741 -21.132429 4294967295
-6.7412515 115.58253 -21.167311 4294967295
-6.7299294 114.49308 -20.965097 4294967295
-6.7251248 114.65465 -20.959122 4294967295
-6.7180638 117.01808 -21.222376 4294967295
-6.7169733 116.23356 -21.115946 4294967295
-6.7148914 115.13553 -20.963894 4294967295
-6.7104731 116.08249 -21.06056 4294967295
-6.7034521 116.56043 -21.082771 4294967295
-6.7028933 115.77525 -20.979202 4294967295
-6.6940565 116.8835 -21.071991 4294967295
-6.6886449 117.20285 -21.082834 4294967295
-6.6876664 117.51804 -21.117731 4294967295
-6.6778369 112.19547 -21.277695 4294967295
-6.6698136 117.69202 -21.040966 4294967295
-6.6681423 112.67539 -21.285385 4294967295
-6.6663733 112.04866 -21.195417 4294967295
-6.6635084 111.57992 -21.119591 4294967295
-6.6513996 111.74783 -21.073999 4294967295
-6.6492066 118.183 -20.989475 4294967295
-6.6464162 118.81428 -21.05476 4294967295
-6.6463184 116.77108 -20.79281 4294967295
-6.6447587 113.32484 -21.238935 4294967295
-6.627368 118.04654 -20.850882 4294967295
-6.6263914 111.92731 -20.958437 4294967295
-6.6256456 114.59892 -21.296021 4294967295
-6.6251674 114.44228 -21.273338 4294967295
-6.6239266 112.87236 -21.065672 4294967295
-6.6200876 113.19009 -21.085045 4294967295
-6.6186562 114.9195 -21.298306 4294967295
-6.6172695 114.13532 -21.190334 4294967295
-6.6118832 114.29735 -21.181221 4294967295
-6.610631 115.39813 -21.315065 4294967295
-6.6080451 113.67239 -21.08003 4294967295
-6.606884 113.98769 -21.113928 4294967295
-6.6016135 113.5211 -21.025055 4294967295
-6.6001601 115.5649 -21.278395 4294967295
-6.5966496 112.42547 -20.85742 4294967295
-6.5850201 116.05022 -21.256596 4294967295
-6.5763159 115.1156 -21.088861 4294967295
-6.5698366 115.27871 -21.073833 4294967295
-6.5617504 115.91473 -21.11038 4294967295
-6.556632 114.81941 -20.941956 4294967295
-6.5561986 116.86263 -21.200842 4294967295
-6.5387559 117.19323 -21.146502 4294967295
-6.5274734 117.67523 -21.145641 4294967295
-6.5218663 116.42329 -20.954496 4294967295
-6.5217414 117.05206 -21.034208 4294967295
-6.5095401 117.37784 -21.008282 4294967295
-6.509213 118.1639 -21.106981 4294967295
-6.5068569 112.83347 -21.306686 4294967295
-6.5028758 118.32706 -21.092739 4294967295
-6.5010266 116.59993 -20.861654 4294967295
-6.4981976 118.48865 -21.087486 4294967295
-6.4979048 118.64607 -21.105993 4294967295
-6.4959474 112.37201 -21.187351 4294967295
-6.4937749 112.53106 -21.195669 4294967295
-6.4908233 112.21949 -21.139511 4294967295
-6.4906435 111.74829 -21.078278 4294967295
-6.4905024 117.86729 -20.96542 4294967295
-6.4872556 111.90844 -21.080015 4294967295
-6.4869556 113.00851 -21.218985 4294967295
-6.484478 113.48203 -21.26581 4294967295
-6.4671769 114.28322 -21.272526 4294967295
-6.4662375 117.57581 -20.793745 4294967295
-6.4582486 118.05499 -20.810766 4294967295
-6.4574833 115.23462 -21.340513 4294967295
-6.4562564 111.62177 -20.871904 4294967295
-6.4496951 112.09916 -20.896645 4294967295
-6.4461384 113.83106 -21.098366 4294967295
-6.4341073 113.37054 -20.972954 4294967295
-6.4273467 114.00531 -21.016701 4294967295
-6.4236441 115.58006 -21.197495 4294967295
-6.420579 112.75403 -20.819315 4294967295
-6.4170132 116.21465 -21.241922 4294967295
-6.4136252 115.1179 -21.083014 4294967295
-6.4122348 114.64774 -21.015228 4294967295
-6.3998122 114.81629 -20.968061 4294967295
-6.3967681 115.76205 -21.072102 4294967295
-6.382823 116.87502 -21.137209 4294967295
-6.3791604 115.464 -20.936619 4294967295
-6.3665681 118.4616 -21.250046 4294967295
-6.3607264 117.36717 -21.077883 4294967295
-6.3567033 116.58511 -20.955687 4294967295
-6.3544087 111.56979 -21.195202 4294967295
-6.3500075 117.53442 -21.039968 4294967295
-6.349205 112.51703 -21.287487 4294967295
-6.3463011 116.43761 -20.879303 4294967295
-6.3388457 112.36922 -21.211384 4294967295
-6.3357983 117.23341 -20.922911 4294967295
-6.3350458 116.76251 -20.85857 4294967295
-6.3330984 111.74587 -21.099998 4294967295
-6.3323808 111.90364 -21.116192 4294967295
-6.3260674 113.16623 -21.242632 4294967295
-6.3176661 117.87925 -20.905153 4294967295
-6.3166418 112.23196 -21.071211 4294967295
-6.316 117.09476 -20.795687 4294967295
-6.2972269 117.74131 -20.774473 4294967295
-6.292346 118.21761 -20.80834 4294967295
-6.2870555 114.77279 -21.232389 4294967295
-6.279902 113.05074 -20.972895 4294967295
-6.2775149 113.68154 -21.040297 4294967295
-6.2660036 116.20617 -21.299204 4294967295
-6.2647605 114.32177 -21.051636 4294967295
-6.2589455 115.42712 -21.160713 4294967295
-6.2584319 112.75568 -20.816614 4294967295
-6.2569385 114.01456 -20.969189 4294967295
-6.2564263 112.91469 -20.825851 4294967295
-6.247231 114.49493 -20.976938 4294967295
-6.2313614 116.55264 -21.152119 4294967295
-6.2302632 116.71079 -21.166254 4294967295
-6.2283182 114.66942 -20.894768 4294967295
-6.2263589 117.18584 -21.205362 4294967295
-6.2258191 115.14329 -20.941494 4294967295
-6.2219486 115.30403 -20.940649 4294967295
-6.2203717 116.09138 -21.032509 4294967295
-6.2170987 116.88023 -21.115183 4294967295
-6.2136664 115.78323 -20.956114 4294967295
-6.1992936 117.83984 -21.139397 4294967295
-6.193181 117.68844 -21.0863 4294967295
-6.190752 118.79078 -21.213659 4294967295
-6.188251 112.04639 -21.230457 4294967295
-6.1867366 112.36195 -21.262396 4294967295
-6.1816993 118.01359 -21.064409 4294967295
-6.1769619 117.54652 -20.978594 4294967295
-6.1750131 115.97621 -20.767271 4294967295
-6.1676745 118.49837 -21.048859 4294967295
-6.1627216 118.34589 -21.002028 4294967295
-6.1617694 118.1896 -20.97681 4294967295
-6.1530519 117.41176 -20.829325 4294967295
-6.1493249 113.49539 -21.200773 4294967295
-6.1446471 117.10516 -20.743744 4294967295
-6.14118 111.61682 -20.915989 4294967295
-6.1397457 118.68206 -20.918058 4294967295
-6.1389303 113.66193 -21.164705 4294967295
-6.1379728 113.34852 -21.11941 4294967295
-6.1322117 113.03941 -21.048168 4294967295
-6.1260576 113.83073 -21.115259 4294967295
-6.1225038 112.26222 -20.895391 4294967295
-6.1199865 111.95006 -20.841648 4294967295
-6.1047974 115.26442 -21.18103 4294967295
-6.1016011 114.32443 -21.043402 4294967295
-6.1006908 115.42534 -21.178923 4294967295
-6.0993128 113.22622 -20.890572 4294967295
-6.0992098 112.59747 -20.809725 4294967295
-6.0987239 112.91234 -20.847246 4294967295
-6.0931606 114.64648 -21.037962 4294967295
-6.088665 114.17903 -20.953489 4294967295
-6.0846 114.81148 -21.011812 4294967295
-6.0763383 116.39071 -21.167839 4294967295
-6.0589666 114.04881 -20.773069 4294967295
-6.0523067 115.78428 -20.957888 4294967295
-6.0464091 115.16087 -20.845778 4294967295
-6.037262 111.88104 -21.267412 4294967295
-6.0330501 117.53123 -21.074669 4294967295
-6.0285435 115.64899 -20.809555 4294967295
-6.0250998 117.22432 -20.991644 4294967295
-6.0218096 115.96967 -20.813351 4294967295
-6.0180788 117.07368 -20.933693 4294967295
-6.0164886 116.13183 -20.804701 4294967295
-6.0089269 118.33985 -21.044825 4294967295
-6.0074053 118.1841 -21.016556 4294967295
-6.0042644 116.61489 -20.798943 4294967295
-6.0030675 118.03099 -20.973091 4294967295
-5.9989963 116.30528 -20.730366 4294967295
-5.9962087 116.93687 -20.79561 4294967295
-5.9917955 116.78374 -20.751724 4294967295
-5.9895334 117.41483 -20.819801 4294967295
-5.9800086 113.34646 -21.139082 4294967295
-5.979238 111.77544 -20.934364 4294967295
-5.977798 117.89757 -20.81669 4294967295
-5.9770007 112.87769 -21.062702 4294967295
-5.9751348 113.508 -21.132854 4294967295
-5.9723067 112.25319 -20.957157 4294967295
-5.9713912 113.98283 -21.172819 4294967295
-5.9711871 112.41137 -20.971176 4294967295
-5.9687204 114.1424 -21.178473 4294967295
-5.9622154 114.30546 -21.163448 4294967295
-5.9583802 113.20878 -21.002396 4294967295
-5.955152 115.41187 -21.265707 4294967295
-5.946651 114.7911 -21.139688 4294967295
-5.9447889 112.1205 -20.788668 4294967295
-5.9434252 115.2655 -21.182449 4294967295
-5.942771 113.69442 -20.978394 4294967295
-5.9382529 112.59802 -20.813606 4294967295
-5.9282122 114.49358 -21.000177 4294967295
-5.9267645 114.96645 -21.052534 4294967295
-5.9204388 112.77121 -20.737593 4294967295
-5.9202232 115.75832 -21.117535 4294967295
-5.916029 113.87582 -20.854256 4294967295
-5.9076209 117.02724 -21.210005 4294967295
-5.9071536 115.92754 -21.067142 4294967295
-5.904747 116.40129 -21.114326 4294967295
-5.8977613 116.09341 -21.036573 4294967295
-5.8904428 116.57174 -21.057289 4294967295
-5.8783054 111.72277 -21.261398 4294967295
-5.8724551 116.27402 -20.920242 4294967295
-5.8697777 118.47717 -21.186531 4294967295
-5.8627892 112.0508 -21.217899 4294967295
-5.8605886 117.69994 -21.036783 4294967295
-5.8601069 118.17195 -21.094337 4294967295
-5.8504605 117.55223 -20.962158 4294967295
-5.8463097 111.9083 -21.109091 4294967295
-5.8431916 117.24459 -20.882883 4294967295
-5.8425241 112.22598 -21.128788 4294967295
-5.8421865 112.38344 -21.147011 4294967295
-5.8417606 113.16952 -21.244917 4294967295
-5.8388972 117.87751 -20.939968 4294967295
-5.8378906 116.77781 -20.794142 4294967295
-5.8377738 112.70168 -21.163328 4294967295
-5.8305097 118.67149 -20.995049 4294967295
-5.8255825 112.55542 -21.077625 4294967295
-5.8216424 116.9502 -20.726645 4294967295
-5.8127255 118.37386 -20.859137 4294967295
-5.8060064 113.83034 -21.132547 4294967295
-5.7947435 115.0978 -21.232222 4294967295
-5.7946925 114.6264 -21.171831 4294967295
-5.7930193 113.68491 -21.042576 4294967295
-5.79287 113.37066 -21.00168 4294967295
-5.7818971 112.9089 -20.882444 4294967295
-5.7723045 114.80399 -21.071346 4294967295
-5.7696891 114.1776 -20.977091 4294967295
-5.7692637 114.49238 -21.014891 4294967295
-5.7679543 114.02197 -20.947704 4294967295
-5.7671113 113.07939 -20.822868 4294967295
-5.7647705 115.43959 -21.110956 4294967295
-5.7461386 115.61389 -21.030708 4294967295
-5.7458372 116.55726 -21.14933 4294967295
-5.7308936 114.99901 -20.868465 4294967295
-5.7268491 115.31718 -20.886787 4294967295
-5.7204838 117.05237 -21.073013 4294967295
-5.7150254 118.15774 -21.18391 4294967295
-5.710393 116.11847 -20.898449 4294967295
-5.7077765 118.79324 -21.225054 4294967295
-5.7058406 115.80819 -20.833853 4294967295
-5.7037005 112.04975 -21.231361 4294967295
-5.6999941 111.73875 -21.171364 4294967295
-5.691452 118.33713 -21.077129 4294967295
-5.6839185 116.92919 -20.856209 4294967295
-5.683877 117.40095 -20.916124 4294967295
-5.6830978 116.4582 -20.791649 4294967295
-5.6818891 118.03171 -20.985601 4294967295
-5.6797838 116.77579 -20.813911 4294967295
-5.6787467 117.56298 -20.908567 4294967295
-5.6770668 117.72179 -20.919571 4294967295
-5.6745791 118.51025 -21.006405 4294967295
-5.67276 116.3105 -20.715961 4294967295
-5.6643958 112.55621 -21.080053 4294967295
-5.6601558 112.71718 -21.07728 4294967295
-5.6533413 113.50916 -21.140795 4294967295
-5.644165 118.69621 -20.862839 4294967295
-5.6432462 111.94622 -20.886148 4294967295
-5.6333876 113.8415 -21.073565 4294967295
-5.6332102 114.62753 -21.172762 4294967295
-5.6217079 111.6508 -20.730204 4294967295
-5.6133318 114.96 -21.105957 4294967295
-5.6042652 114.02502 -20.937012 4294967295
-5.6015711 114.3419 -20.962599 4294967295
-5.5910625 113.40797 -20.785864 4294967295
-5.5876513 114.51176 -20.907799 4294967295
-5.5869141 113.09718 -20.723469 4294967295
-5.586782 114.827 -20.943199 4294967295
-5.5861111 113.25516 -20.739195 4294967295
-5.5741549 116.25349 -21.055622 4294967295
-5.5734258 115.46811 -20.951542 4294967295
-5.5596585 117.21013 -21.0979 4294967295
-5.5595794 115.16631 -20.83704 4294967295
-5.5580001 115.79673 -20.908701 4294967295
-5.5486102 117.53484 -21.078594 4294967295
-5.5358205 116.13165 -20.829565 4294967295
-5.534615 118.49116 -21.123573 4294967295
-5.5337815 115.34717 -20.718407 4294967295
-5.5295177 118.65316 -21.116219 4294967295
-5.5232325 115.98598 -20.741873 4294967295
-5.5219698 116.77349 -20.835281 4294967295
-5.5219183 112.38316 -21.163015 4294967295
-5.5207834 117.0891 -20.86898 4294967295
-5.5168405 112.85918 -21.195801 4294967295
-5.5117326 117.88379 -20.920525 4294967295
-5.5068312 116.94481 -20.77397 4294967295
-5.5063157 112.08266 -21.039167 4294967295
-5.5007076 113.34512 -21.169222 4294967295
-5.5005188 111.61617 -20.94795 4294967295
-5.4964094 118.21267 -20.878271 4294967295
-5.4959826 112.72063 -21.063765 4294967295
-5.4876857 113.67117 -21.139338 4294967295
-5.4849553 112.57326 -20.984514 4294967295
-5.4807711 118.38464 -20.814297 4294967295
-5.4802799 118.07055 -20.77158 4294967295
-5.4720588 114.78552 -21.195564 4294967295
-5.463789 113.06381 -20.930922 4294967295
-5.461277 114.63815 -21.117664 4294967295
-5.4538345 115.11649 -21.13777 4294967295
-5.4486275 114.33523 -21.00971 4294967295
-5.4419155 111.98248 -20.67322 4294967295
-5.438859 116.07331 -21.177492 4294967295
-5.4384804 114.18719 -20.935209 4294967295
-5.4303827 113.25098 -20.771555 4294967295
-5.4296813 113.88065 -20.84791 4294967295
-5.4236174 116.24454 -21.115709 4294967295
-5.396215 114.53999 -20.748348 4294967295
-5.3952913 116.74235 -21.023756 4294967295
-5.3913708 117.68925 -21.122829 4294967295
-5.3865476 115.96423 -20.876713 4294967295
-5.3845034 115.65159 -20.825686 4294967295
-5.3798218 118.80045 -21.200979 4294967295
-5.377707 115.02868 -20.709084 4294967295
-5.3768044 117.86008 -21.064697 4294967295
-5.3755932 118.17564 -21.098234 4294967295
-5.3706546 112.53228 -21.238689 4294967295
-5.3688054 111.74808 -21.128727 4294967295
-5.3659153 117.39857 -20.946211 4294967295
-5.3617625 112.69736 -21.211008 4294967295
-5.3615203 116.45909 -20.802477 4294967295
-5.3589401 118.03404 -20.988876 4294967295
-5.3583641 112.07168 -21.112741 4294967295
-5.3551817 117.56583 -20.908646 4294967295
-5.3495975 112.23664 -21.085732 4294967295
-5.3470263 116.62977 -20.744722 4294967295
-5.3460193 113.18293 -21.186604 4294967295
-5.3457603 117.1028 -20.798016 4294967295
-5.3427854 118.67818 -20.982296 4294967295
-5.3353677 118.52792 -20.922483 4294967295
-5.3346114 113.66468 -21.185453 4294967295
-5.3333483 117.27162 -20.751442 4294967295
-5.3114834 113.05662 -20.981388 4294967295
-5.3111367 112.428 -20.899464 4294967295
-5.3075991 111.64485 -20.780386 4294967295
-5.2939973 118.40955 -20.680529 4294967295
-5.292829 113.38779 -20.921383 4294967295
-5.2897778 114.96275 -21.10515 4294967295
-5.2896509 115.27726 -21.144487 4294967295
-5.2843895 114.02432 -20.956194 4294967295
-5.2832146 113.86814 -20.929878 4294967295
-5.2795148 114.81487 -21.030121 4294967295
-5.276803 115.91779 -21.155651 4294967295
-5.2704716 114.19413 -20.901585 4294967295
-5.2615476 116.08901 -21.093895 4294967295
-5.2594104 114.67589 -20.902332 4294967295
-5.2583332 116.56359 -21.13669 4294967295
-5.2389174 115.48083 -20.892553 4294967295
-5.2326336 116.27285 -20.958944 4294967295
-5.2317185 114.54373 -20.733856 4294967295
-5.2266684 117.69344 -21.107065 4294967295
-5.2212486 115.18241 -20.757811 4294967295
-5.2198386 118.17146 -21.130495 4294967295
-5.2148643 118.64775 -21.16386 4294967295
-5.2107863 117.86549 -21.041983 4294967295
-5.2076092 112.0632 -21.171179 4294967295
-5.2068844 117.39741 -20.961048 4294967295
-5.1978521 117.09129 -20.872623 4294967295
-5.1955891 117.56519 -20.920542 4294967295
-5.1932325 115.83722 -20.687723 4294967295
-5.1894946 118.5144 -21.007954 4294967295
-5.1864681 118.04548 -20.931709 4294967295
-5.1852655 117.26025 -20.825197 4294967295
-5.1781316 118.36781 -20.927074 4294967295
-5.1467991 113.53217 -21.025515 4294967295
-5.1464796 116.98161 -20.577326 4294967295
-5.144433 112.74811 -20.912821 4294967295
-5.1433144 112.59185 -20.886824 4294967295
-5.1410203 114.95227 -21.174568 4294967295
-5.1314731 113.70316 -20.963453 4294967295
-5.1239791 113.86714 -20.943331 4294967295
-5.1236229 114.65364 -21.041437 4294967295
-5.1234727 111.66571 -20.660475 4294967295
-5.1218071 112.29638 -20.731611 4294967295
-5.1110163 114.8223 -20.99395 4294967295
-5.1101885 115.13753 -21.02952 4294967295
-5.1065736 113.41096 -20.790108 4294967295
-5.1032691 116.08718 -21.112478 4294967295
-5.1000552 115.61846 -21.03528 4294967295
-5.0998964 113.25964 -20.734343 4294967295
-5.0908823 114.52603 -20.846153 4294967295
-5.0899115 113.11126 -20.660858 4294967295
-5.0877352 114.21432 -20.789286 4294967295
-5.0788198 116.89582 -21.081623 4294967295
-5.0710602 114.38667 -20.72002 4294967295
-5.0537519 115.97537 -20.827457 4294967295
-5.0518212 118.4932 -21.137131 4294967295
-5.0467386 117.55454 -20.989958 4294967295
-5.0323558 116.62421 -20.792976 4294967295
-5.0308752 115.83904 -20.685009 4294967295
-5.0285544 111.92252 -21.058172 4294967295
-5.0279446 118.67287 -21.029406 4294967295
-5.02595 118.04571 -20.93874 4294967295
-5.024271 117.26087 -20.829739 4294967295
-5.0182433 116.79455 -20.737465 4294967295
-5.0176044 112.87549 -21.119549 4294967295
-5.0078807 116.48946 -20.641989 4294967295
-5.0075994 117.11903 -20.720524 4294967295
-4.9993672 117.4413 -20.716494 4294967295
-4.999331 112.57728 -20.981836 4294967295
-4.9833055 118.24288 -20.730602 4294967295
-4.9805827 118.40276 -20.736044 4294967295
-4.9734068 114.64449 -21.103098 4294967295
-4.9615269 112.29623 -20.739647 4294967295
-4.96099 114.18401 -20.976746 4294967295
-4.9566112 113.87343 -20.913345 4294967295
-4.9518881 114.03494 -20.908087 4294967295
-4.9401956 115.61805 -21.045498 4294967295
-4.940135 113.73094 -20.80525 4294967295
-4.9366045 114.36325 -20.866362 4294967295
-4.9334507 113.26501 -20.709507 4294967295
-4.9325724 113.10848 -20.684805 4294967295
-4.9324036 114.83887 -20.903889 4294967295
-4.9287624 114.99944 -20.904419 4294967295
-4.9281077 114.52821 -20.840931 4294967295
-4.9186168 112.49155 -20.530146 4294967295
-4.9127021 113.59821 -20.638559 4294967295
-4.9087887 115.48945 -20.857634 4294967295
-4.9045343 116.90877 -21.014826 4294967295
-4.9023643 115.80988 -20.863287 4294967295
-4.9016166 118.16936 -21.159126 4294967295
-4.8980551 116.60022 -20.94022 4294967295
-4.896687 116.28693 -20.892925 4294967295
-4.8832264 115.1981 -20.681 4294967295
-4.8807578 115.35767 -20.687803 4294967295
-4.8775344 115.9899 -20.750572 4294967295
-4.8720026 117.2534 -20.880978 4294967295
-4.8714681 117.72575 -20.938095 4294967295
-4.8618898 116.47621 -20.726957 4294967295
-4.8615713 116.16185 -20.685257 4294967295
-4.8513002 117.90181 -20.850338 4294967295
-4.8397946 117.5979 -20.748875 4294967295
-4.8361845 112.89422 -21.014288 4294967295
-4.8312473 112.74136 -20.967936 4294967295
-4.8301272 112.11329 -20.882011 4294967295
-4.8290524 117.45054 -20.671482 4294967295
-4.8268213 116.8232 -20.579554 4294967295
-4.8251491 112.5895 -20.915382 4294967295
-4.8241973 113.06213 -20.970253 4294967295
-4.8215995 111.80624 -20.796484 4294967295
-4.8170176 117.14699 -20.567171 4294967295
-4.8133521 118.72387 -20.747587 4294967295
-4.8133416 114.01533 -21.032177 4294967295
-4.8103557 114.64697 -21.096149 4294967295
-4.8085399 113.39061 -20.926609 4294967295
-4.8038335 111.66454 -20.681589 4294967295
-4.7994733 113.87052 -20.938147 4294967295
-4.7970805 115.44514 -21.125172 4294967295
-4.7765498 113.73378 -20.795759 4294967295
-4.7760024 114.52073 -20.892767 4294967295
-4.7698336 115.78447 -21.019693 4294967295
-4.7695985 114.99835 -20.918531 4294967295
-4.7685041 112.48235 -20.592854 4294967295
-4.7661562 113.27112 -20.680288 4294967295
-4.7637973 113.58788 -20.707674 4294967295
-4.7608161 115.1636 -20.891634 4294967295
-4.7592707 112.01842 -20.483543 4294967295
-4.7589264 114.22152 -20.761627 4294967295
-4.7533131 112.33842 -20.49172 4294967295
-4.7510438 114.38593 -20.739531 4294967295
-4.736681 116.28662 -20.902697 4294967295
-4.7362022 115.34325 -20.780231 4294967295
-4.7107859 116.15305 -20.744509 4294967295
-4.7066259 115.99952 -20.70232 4294967295
-4.697238 116.63747 -20.732172 4294967295
-4.6942925 111.93437 -21.00038 4294967295
-4.691855 116.48508 -20.683456 4294967295
-4.686214 118.22086 -20.873199 4294967295
-4.6838493 117.12181 -20.720688 4294967295
-4.6701822 113.68543 -21.091473 4294967295
-4.6648021 117.76882 -20.699011 4294967295
-4.6568899 113.85457 -21.040565 4294967295
-4.6550541 117.30579 -20.587029 4294967295
-4.6547379 117.46346 -20.605333 4294967295
-4.6535077 117.62196 -20.618761 4294967295
-4.6514635 112.75852 -20.871819 4294967295
-4.6487064 112.44638 -20.81716 4294967295
-4.6425643 118.10423 -20.620346 4294967295
-4.642417 117.947 -20.599571 4294967295
-4.6411738 113.23952 -20.876871 4294967295
-4.6333952 111.67325 -20.63558 4294967295
-4.6311522 112.61921 -20.743513 4294967295
-4.6293135 115.29468 -21.073265 4294967295
-4.6279922 114.66684 -20.986347 4294967295
-4.6215253 118.59601 -20.568083 4294967295
-4.6158214 118.75874 -20.557648 4294967295
-4.6087666 113.11105 -20.684069 4294967295
-4.6085768 114.36977 -20.84289 4294967295
-4.6019316 116.1059 -21.027157 4294967295
-4.6005845 111.8594 -20.480543 4294967295
-4.5969658 113.43623 -20.661104 4294967295
-4.5952911 114.53904 -20.792034 4294967295
-4.5935225 114.06866 -20.72267 4294967295
-4.5891976 116.58938 -21.019197 4294967295
-4.5889907 115.64588 -20.898272 4294967295
-4.587997 113.60158 -20.633261 4294967295
-4.58744 116.90552 -21.049768 4294967295
-4.5823064 112.97719 -20.522974 4294967295
-4.5799394 114.86753 -20.750147 4294967295
-4.5788307 112.19331 -20.40449 4294967295
-4.5776482 114.24025 -20.65801 4294967295
-4.5718212 115.81882 -20.826733 4294967295
-4.5690298 115.19207 -20.731947 4294967295
-4.560605 115.98638 -20.786926 4294967295
-4.5600257 117.55994 -20.983562 4294967295
-4.5581055 115.04462 -20.653732 4294967295
-4.5579343 118.66276 -21.112183 4294967295
-4.5566673 117.24847 -20.925728 4294967295
-4.5512261 116.30961 -20.776892 4294967295
-4.548799 115.52512 -20.664066 4294967295
-4.539557 116.47764 -20.73468 4294967295
-4.5242829 118.22234 -20.873014 4294967295
-4.5234175 112.72986 -21.051594 4294967295
-4.514255 113.05248 -21.042717 4294967295
-4.5125208 117.1319 -20.670519 4294967295
-4.5118594 112.11098 -20.910183 4294967295
-4.5096107 117.92135 -20.7549 4294967295
-4.5078506 118.08033 -20.765497 4294967295
-4.5033965 112.43301 -20.905037 4294967295
-4.4915395 118.56757 -20.738529 4294967295
-4.4751811 112.30058 -20.734789 4294967295
-4.469347 113.56427 -20.863459 4294967295
-4.4679565 113.72282 -20.876022 4294967295
-4.4678898 113.88017 -20.89563 4294967295
-4.4617176 118.43806 -20.559685 4294967295
-4.4587379 111.68562 -20.567305 4294967295
-4.4563999 114.67695 -20.934271 4294967295
-4.4491367 113.42496 -20.735872 4294967295
-4.4467559 114.0564 -20.803066 4294967295
-4.4428773 115.6329 -20.982052 4294967295
-4.4411559 111.85841 -20.493624 4294967295
-4.4380932 114.85076 -20.856773 4294967295
-4.4267321 114.38902 -20.736389 4294967295
-4.4258819 115.49105 -20.871628 4294967295
-4.4241223 113.28986 -20.582693 4294967295
-4.4239154 116.59392 -21.000883 4294967295
-4.4205103 116.43975 -20.962805 4294967295
-4.412992 114.244 -20.643265 4294967295
-4.4044833 116.29712 -20.85755 4294967295
-4.3995576 115.3576 -20.711536 4294967295
-4.3995404 116.93089 -20.911091 4294967295
-4.3972111 112.05438 -20.279522 4294967295
-4.3943281 115.20499 -20.663731 4294967295
-4.3941321 115.83457 -20.742561 4294967295
-4.3880262 115.99748 -20.730028 4294967295
-4.3801718 118.04993 -20.947754 4294967295
-4.375967 118.68304 -21.005217 4294967295
-4.3732824 117.58439 -20.851217 4294967295
-4.3679218 116.80264 -20.72287 4294967295
-4.3585076 117.12601 -20.712709 4294967295
-4.3536978 116.18618 -20.567293 4294967295
-4.3527474 118.3901 -20.841778 4294967295
-4.3432426 113.06188 -20.993612 4294967295
-4.3395524 112.59329 -20.914129 4294967295
-4.3389645 117.45877 -20.648655 4294967295
-4.3363199 118.56276 -20.774349 4294967295
-4.3323426 113.85795 -21.0354 4294967295
-4.332232 112.44244 -20.85524 4294967295
-4.3242598 117.31496 -20.55044 4294967295
-4.3151312 117.7956 -20.561787 4294967295
-4.3122277 113.2467 -20.848629 4294967295
-4.3093057 115.13679 -21.072506 4294967295
-4.3031678 111.68126 -20.600836 4294967295
-4.2982659 118.28348 -20.531973 4294967295
-4.2968264 113.57503 -20.806641 4294967295
-4.294179 115.46503 -21.031992 4294967295
-4.2904315 112.79399 -20.672838 4294967295
-4.2852426 112.16909 -20.565382 4294967295
-4.2713785 111.86646 -20.4517 4294967295
-4.2691407 112.97019 -20.579569 4294967295
-4.2514701 113.7728 -20.585417 4294967295
-4.2479157 113.46118 -20.526588 4294967295
-4.2462234 115.03646 -20.717213 4294967295
-4.2444167 114.88073 -20.687647 4294967295
-4.243175 114.09498 -20.58124 4294967295
-4.2352905 117.09178 -20.918507 4294967295
-4.2345777 112.37104 -20.315865 4294967295
-4.2316656 116.93779 -20.879293 4294967295
-4.2296176 115.83829 -20.728729 4294967295
-4.2281041 115.6823 -20.700727 4294967295
-4.2234378 114.74225 -20.556156 4294967295
-4.2231255 117.41763 -20.893766 4294967295
-4.2220373 114.58611 -20.528746 4294967295
-4.2174153 116.32148 -20.723745 4294967295
-4.2070007 118.06184 -20.887896 4294967295
-4.1996632 116.80983 -20.689276 4294967295
-4.1996155 118.69801 -20.928459 4294967295
-4.1912808 116.18795 -20.564888 4294967295
-4.1868529 117.92319 -20.7609 4294967295
-4.1847615 117.6104 -20.709879 4294967295
-4.1805239 116.51258 -20.547642 4294967295
-4.1758571 113.22533 -20.983927 4294967295
-4.1718969 117.30751 -20.601604 4294967295
-4.1688681 112.91692 -20.906925 4294967295
-4.1677713 118.41301 -20.719391 4294967295
-4.1632662 113.3938 -20.937004 4294967295
-4.1574836 113.0843 -20.866409 4294967295
-4.1487617 112.62002 -20.76025 4294967295
-4.1434832 118.27821 -20.570402 4294967295
-4.1403279 114.82998 -20.994677 4294967295
-4.1392555 114.04442 -20.88928 4294967295
-4.1381197 113.88811 -20.863304 4294967295
-4.1353068 112.0024 -20.608974 4294967295
-4.1220574 115.31836 -20.957506 4294967295
-4.1217523 114.37473 -20.836231 4294967295
-4.1102448 113.59824 -20.675392 4294967295
-4.1057091 112.81535 -20.55154 4294967295
-4.1050291 114.54706 -20.767389 4294967295
-4.089798 114.71809 -20.706472 4294967295
-4.0840664 115.03799 -20.715942 4294967295
-4.0838523 115.19554 -20.734755 4294967295
-4.0756502 115.98975 -20.790943 4294967295
-4.0728736 116.779 -20.875921 4294967295
-4.0717525 114.26212 -20.550814 4294967295
-4.0698647 117.56838 -20.959656 4294967295
-4.0652156 112.22124 -20.256624 4294967295
-4.0613003 115.84543 -20.694834 4294967295
-4.0599165 117.42023 -20.886932 4294967295
-4.0538273 118.68444 -21.014128 4294967295
-4.0533719 116.48213 -20.732542 4294967295
-4.0530214 117.8986 -20.910166 4294967295
-4.0525899 111.60235 -20.109682 4294967295
-4.0472398 116.64511 -20.719944 4294967295
-4.0469174 112.39479 -20.179398 4294967295
-4.0349727 117.12848 -20.714684 4294967295
-4.0339174 116.18511 -20.589394 4294967295
-4.0283599 118.07878 -20.799263 4294967295
-4.0225563 116.98249 -20.628849 4294967295
-4.010582 117.78049 -20.665052 4294967295
-3.9989266 112.92528 -20.863968 4294967295
-3.9935203 113.71667 -20.934963 4294967295
-3.9926751 114.18935 -20.990273 4294967295
-3.9908116 112.7751 -20.800993 4294967295
-3.9888146 113.24888 -20.85021 4294967295
-3.9843807 118.59178 -20.625784 4294967295
-3.9787183 118.28222 -20.555845 4294967295
-3.973465 113.10511 -20.748871 4294967295
-3.9647999 118.45258 -20.501957 4294967295
-3.9448435 111.87111 -20.43751 4294967295
-3.942486 112.0306 -20.444954 4294967295
-3.9366431 116.28493 -20.952322 4294967295
-3.9360843 114.55465 -20.730095 4294967295
-3.932797 112.19652 -20.413507 4294967295
-3.9326556 112.51151 -20.452656 4294967295
-3.9260714 115.66519 -20.816563 4294967295
-3.9223614 113.93736 -20.577572 4294967295
-3.9131393 114.7326 -20.628386 4294967295
-3.9118774 117.09421 -20.920719 4294967295
-3.9115653 112.37257 -20.320841 4294967295
-3.9073079 113.47848 -20.437912 4294967295
-3.9070294 116.46927 -20.815302 4294967295
-3.906141 116.62743 -20.830528 4294967295
-3.9015238 114.11335 -20.487028 4294967295
-3.9005613 114.90131 -20.581644 4294967295
-3.89976 115.05943 -20.597336 4294967295
-3.899173 117.26321 -20.873327 4294967295
-3.8881736 115.22728 -20.555855 4294967295
-3.8789465 117.43917 -20.786083 4294967295
-3.8769763 116.81147 -20.695902 4294967295
-3.8692207 118.70704 -20.894003 4294967295
-3.86552 115.87745 -20.515545 4294967295
-3.859448 111.63058 -19.94458 4294967295
-3.8460975 118.4138 -20.731642 4294967295
-3.8419268 118.26028 -20.689611 4294967295
-3.8323894 114.0319 -20.978695 4294967295
-3.8305771 113.40422 -20.889416 4294967295
-3.828228 113.24896 -20.85705 4294967295
-3.8279204 114.66512 -21.034706 4294967295
-3.8264346 118.11722 -20.587597 4294967295
-3.7977922 115.16412 -20.934961 4294967295
-3.7967477 112.0176 -20.530874 4294967295
-3.7923028 112.65114 -20.587067 4294967295
-3.7912588 118.62217 -20.461063 4294967295
-3.7866318 113.60052 -20.676624 4294967295
-3.7834196 115.64909 -20.91864 4294967295
-3.783412 112.34411 -20.500105 4294967295
-3.7789106 114.3943 -20.73538 4294967295
-3.7757056 112.19342 -20.439346 4294967295
-3.77213 112.98372 -20.520094 4294967295
-3.770932 116.60442 -20.972055 4294967295
-3.7702618 115.97569 -20.888834 4294967295
-3.7700179 114.24486 -20.668367 4294967295
-3.7696705 112.82846 -20.487131 4294967295
-3.768631 115.34775 -20.80051 4294967295
-3.7669272 115.03454 -20.751642 4294967295
-3.766022 115.82218 -20.84647 4294967295
-3.7647767 116.13801 -20.879723 4294967295
-3.7644949 114.87935 -20.718838 4294967295
-3.7594318 113.78206 -20.552519 4294967295
-3.7584136 115.51433 -20.76635 4294967295
-3.7536919 111.74025 -20.262909 4294967295
-3.7514117 113.94661 -20.529984 4294967295
-3.7376258 118.05097 -20.975067 4294967295
-3.7313883 116.95525 -20.802626 4294967295
-3.726872 112.55114 -20.220566 4294967295
-3.7223725 111.60999 -20.077042 4294967295
-3.7214677 116.49215 -20.69035 4294967295
-3.7151942 118.22906 -20.876307 4294967295
-3.7138298 117.12871 -20.729633 4294967295
-3.7106822 116.81679 -20.673124 4294967295
