# .PCD v0.7 - Point Cloud Data file format
VERSION 0.7
FIELDS x y z rgb
SIZE 4 4 4 4
TYPE F F F U
COUNT 1 1 1 1
WIDTH 1148
HEIGHT 1
VIEWPOINT 0 0 0 1 0 0 0
POINTS 1148
DATA ascii
127.97832 55.485634 -21.467855 4294967295
127.99258 54.141171 -21.348749 4294967295
128.01364 55.154327 -21.361143 4294967295
128.02147 48.709827 -21.820072 4294967295
128.02933 49.047218 -21.822166 4294967295
128.0379 48.039036 -21.738068 4294967295
128.05139 48.377144 -21.726528 4294967295
128.09225 51.073982 -21.796627 4294967295
128.10217 49.392952 -21.667017 4294967295
128.10283 50.738941 -21.749886 4294967295
128.12134 49.731915 -21.641792 4294967295
128.16641 51.75703 -21.659452 4294967295
128.17198 51.421257 -21.62487 4294967295
128.18048 52.432037 -21.667683 4294967295
128.20323 53.108326 -21.654865 4294967295
128.21515 52.77346 -21.604898 4294967295
128.22128 47.006371 -22.109161 4294967295
128.22147 46.670113 -22.087666 4294967295
128.22504 52.101681 -21.538734 4294967295
128.25488 47.68298 -22.070171 4294967295
128.25508 46.337727 -21.985304 4294967295
128.25618 55.135445 -21.653559 4294967295
128.26929 53.454369 -21.516233 4294967295
128.27408 53.791691 -21.525757 4294967295
128.28644 54.130119 -21.517006 4294967295
128.30498 54.469498 -21.493273 4294967295
128.32103 54.80854 -21.475595 4294967295
128.32808 47.355457 -21.87219 4294967295
128.34402 49.7122 -21.981358 4294967295
128.35411 48.367878 -21.872541 4294967295
128.35632 48.031723 -21.846117 4294967295
128.35712 48.704666 -21.886412 4294967295
128.3927 50.05492 -21.884911 4294967295
128.3979 50.728474 -21.914513 4294967295
128.40846 49.384056 -21.80456 4294967295
128.42056 51.740837 -21.923086 4294967295
128.44388 51.407566 -21.845634 4294967295
128.48766 52.086559 -21.782141 4294967295
128.49136 51.077461 -21.709866 4294967295
128.49341 52.423874 -21.789341 4294967295
128.5358 53.102928 -21.729193 4294967295
128.55817 54.115852 -21.738525 4294967295
128.56866 46.666214 -22.12579 4294967295
128.58975 54.793674 -21.704466 4294967295
128.59703 47.005886 -22.078438 4294967295
128.6015 54.458813 -21.654957 4294967295
128.61703 53.451149 -21.554104 4294967295
128.6208 53.788357 -21.56612 4294967295
128.62846 47.345997 -22.023676 4294967295
128.63278 55.473377 -21.642759 4294967295
128.64261 47.684086 -22.010612 4294967295
128.64349 49.366066 -22.113934 4294967295
128.65968 55.14077 -21.556717 4294967295
128.66527 48.696064 -22.01923 4294967295
128.67513 49.706501 -22.058674 4294967295
128.68112 49.034462 -22.002037 4294967295
128.69949 48.363899 -21.915529 4294967295
128.70247 50.046448 -22.013832 4294967295
128.76465 50.391056 -21.884941 4294967295
128.77695 51.402172 -21.918577 4294967295
128.78438 51.066677 -21.879538 4294967295
128.78522 51.739796 -21.919727 4294967295
128.80067 52.414921 -21.92462 4294967295
128.84094 52.083981 -21.806406 4294967295
128.86179 53.769711 -21.861645 4294967295
128.86865 52.76099 -21.781788 4294967295
128.87802 46.321575 -22.234241 4294967295
128.89027 53.437241 -21.77182 4294967295
128.8943 53.101215 -21.741037 4294967295
128.90039 46.996822 -22.222481 4294967295
128.90974 46.661591 -22.178869 4294967295
128.92125 54.78817 -21.78159 4294967295
128.9241 54.451981 -21.753572 4294967295
128.94969 49.020844 -22.230148 4294967295
128.95056 47.675518 -22.143759 4294967295
128.95262 54.119522 -21.663694 4294967295
128.95396 55.129684 -21.723768 4294967295
128.95497 47.339672 -22.112011 4294967295
128.97246 49.360088 -22.196392 4294967295
128.9756 48.01495 -22.104507 4294967295
129.00003 48.690784 -22.087782 4294967295
129.00998 48.355595 -22.042753 4294967295
129.01387 55.475384 -21.600485 4294967295
129.01747 50.038662 -22.130131 4294967295
129.05545 49.707142 -22.017517 4294967295
129.08078 51.729286 -22.083099 4294967295
129.08598 51.393528 -22.049433 4294967295
129.09033 50.721146 -21.996815 4294967295
129.12617 50.389359 -21.889343 4294967295
129.17677 52.415565 -21.893988 4294967295
129.18037 46.312458 -22.380533 4294967295
129.18286 53.762672 -21.963741 4294967295
129.21504 52.757515 -21.822937 4294967295
129.22574 47.326687 -22.334564 4294967295
129.23912 53.434174 -21.807159 4294967295
129.24246 46.655983 -22.252205 4294967295
129.24248 48.337673 -22.357552 4294967295
129.26213 54.784061 -21.836098 4294967295
129.28131 54.450241 -21.768852 4294967295
129.29085 55.461655 -21.809196 4294967295
129.32169 49.020279 -22.20907 4294967295
129.33014 48.012054 -22.125504 4294967295
129.36533 48.689312 -22.083008 4294967295
129.39333 49.702301 -22.078928 4294967295
129.40579 51.04987 -22.133221 4294967295
129.42159 50.715488 -22.074116 4294967295
129.4231 50.379177 -22.049442 4294967295
129.42934 50.043468 -22.013353 4294967295
129.45525 51.393028 -22.035313 4294967295
129.45583 51.729641 -22.055012 4294967295
129.47577 52.068913 -22.02812 4294967295
129.50278 46.305649 -22.478512 4294967295
129.5054 53.419289 -22.041222 4294967295
129.52486 53.085484 -21.973358 4294967295
129.55138 54.435688 -21.993933 4294967295
129.56816 52.754963 -21.848108 4294967295
129.56833 47.322281 -22.384155 4294967295
129.57475 46.986687 -22.347672 4294967295
129.59319 49.007053 -22.429789 4294967295
129.59929 46.653191 -22.267647 4294967295
129.59966 47.662399 -22.329998 4294967295
129.60399 54.780083 -21.888485 4294967295
129.61185 48.673027 -22.363903 4294967295
129.61433 55.454948 -21.905792 4294967295
129.63191 55.120911 -21.842449 4294967295
129.63498 49.685097 -22.371523 4294967295
129.64268 49.349686 -22.331932 4294967295
129.65018 50.359844 -22.377151 4294967295
129.6647 48.343166 -22.215805 4294967295
129.68082 48.008675 -22.156025 4294967295
129.68857 50.028431 -22.263838 4294967295
129.73659 50.707668 -22.190607 4294967295
129.7438 51.045124 -22.194361 4294967295
129.78085 52.059685 -22.168598 4294967295
129.78601 52.396927 -22.177269 4294967295
129.79395 53.071083 -22.200382 4294967295
129.83218 51.393547 -22.003139 4294967295
129.84378 52.741547 -22.059612 4294967295
129.85533 46.638638 -22.525223 4294967295
129.85855 51.733746 -21.960884 4294967295
129.87772 54.0928 -22.062384 4294967295
129.88504 47.314789 -22.496073 4294967295
129.89384 53.758514 -22.002613 4294967295
129.89461 53.421978 -21.979691 4294967295
129.90326 54.433155 -22.022179 4294967295
129.91319 46.308983 -22.365313 4294967295
129.91913 55.108791 -22.026199 4294967295
129.9485 55.449856 -21.976784 4294967295
129.96048 54.778259 -21.905842 4294967295
129.97437 47.661884 -22.302788 4294967295
129.98529 47.99966 -22.2976 4294967295
130.0078 49.684742 -22.348911 4294967295
130.00893 48.339024 -22.261944 4294967295
130.00937 50.694275 -22.408327 4294967295
130.07172 51.039024 -22.279812 4294967295
130.09633 50.369217 -22.178642 4294967295
130.11012 52.053791 -22.2509 4294967295
130.12585 53.06559 -22.276356 4294967295
130.14563 46.291813 -22.679169 4294967295
130.14856 52.732231 -22.200825 4294967295
130.1496 51.722622 -22.135117 4294967295
130.15074 51.386177 -22.111353 4294967295
130.19695 53.748875 -22.148022 4294967295
130.2242 55.099342 -22.166979 4294967295
130.22929 46.974205 -22.520792 4294967295
130.23288 54.427353 -22.103954 4294967295
130.23741 53.41803 -22.029875 4294967295
130.24315 47.648609 -22.529699 4294967295
130.24411 54.092335 -22.056002 4294967295
130.25526 47.313667 -22.479595 4294967295
130.28638 55.445312 -22.038914 4294967295
130.29326 48.66394 -22.472776 4294967295
130.29585 48.327827 -22.445515 4294967295
130.2981 47.991665 -22.419096 4294967295
130.32039 49.340214 -22.449871 4294967295
130.33658 49.678734 -22.432146 4294967295
130.35271 49.00782 -22.351387 4294967295
130.36418 50.018761 -22.387066 4294967295
130.37141 50.692677 -22.411875 4294967295
130.45343 51.713249 -22.278528 4294967295
130.45941 52.387203 -22.306396 4294967295
130.47218 51.3792 -22.212545 4294967295
130.49342 53.401707 -22.288132 4294967295
130.50002 53.066048 -22.251253 4294967295
130.50906 46.289719 -22.678967 4294967295
130.51234 54.414211 -22.305973 4294967295
130.51692 46.963303 -22.702286 4294967295
130.51845 47.299809 -22.719654 4294967295
130.51967 52.732189 -22.183067 4294967295
130.52364 53.742634 -22.236803 4294967295
130.55026 54.083111 -22.194124 4294967295
130.56029 48.650253 -22.703671 4294967295
130.59235 47.981422 -22.584892 4294967295
130.59698 49.327591 -22.657997 4294967295
130.60896 47.647003 -22.52412 4294967295
130.61914 48.321114 -22.541851 4294967295
130.62544 50.340439 -22.652973 4294967295
130.63823 55.106125 -22.046671 4294967295
130.64165 50.006123 -22.593166 4294967295
130.65068 55.781483 -22.059013 4294967295
130.67072 50.6828 -22.565752 4294967295
130.714 51.698013 -22.525326 4294967295
130.73099 51.027271 -22.442663 4294967295
130.73515 49.681644 -22.348454 4294967295
130.7589 52.713718 -22.481123 4294967295
130.80522 52.383595 -22.349279 4294967295
130.81332 51.374863 -22.266741 4294967295
130.82231 53.059177 -22.350538 4294967295
130.83545 54.070866 -22.382225 4294967295
130.85741 54.410664 -22.350803 4294967295
130.86023 46.286205 -22.708416 4294967295
130.87633 47.297207 -22.732998 4294967295
130.8839 53.404533 -22.224308 4294967295
130.88695 47.971226 -22.749714 4294967295
130.88736 46.962128 -22.685619 4294967295
130.90102 55.763702 -22.330742 4294967295
130.91151 48.646999 -22.733089 4294967295
130.91696 54.756065 -22.229445 4294967295
130.9258 46.630188 -22.572746 4294967295
130.9297 49.322071 -22.731665 4294967295
130.9481 47.642185 -22.582541 4294967295
130.95543 55.098469 -22.158543 4294967295
130.98299 55.439339 -22.113672 4294967295
130.98534 50.002045 -22.640804 4294967295
131.00836 49.668518 -22.564787 4294967295
131.08479 51.024609 -22.466381 4294967295
131.08881 50.351974 -22.414732 4294967295
131.11794 46.608265 -22.982058 4294967295
131.1333 51.704304 -22.392616 4294967295
131.13673 53.051201 -22.468573 4294967295
131.1387 52.041656 -22.400726 4294967295
131.17107 46.278065 -22.834221 4294967295
131.18134 53.730766 -22.404144 4294967295
131.18365 47.288609 -22.867226 4294967295
131.18427 54.404457 -22.439251 4294967295
131.1902 46.953014 -22.830593 4294967295
131.19234 54.742275 -22.440985 4294967295
131.21396 52.725368 -22.263088 4294967295
131.21698 53.399189 -22.297966 4294967295
131.22018 48.638489 -22.864159 4294967295
131.22348 55.083527 -22.387716 4294967295
131.24593 54.076736 -22.270945 4294967295
131.25835 47.970337 -22.731117 4294967295
131.26216 55.762684 -22.337425 4294967295
131.28175 55.428909 -22.269667 4294967295
131.29518 47.638313 -22.622154 4294967295
131.35168 50.337387 -22.655563 4294967295
131.36044 49.328926 -22.571632 4294967295
131.37311 52.022785 -22.709618 4294967295
131.38023 51.687244 -22.67157 4294967295
131.38144 50.677803 -22.605659 4294967295
131.39024 51.015511 -22.605637 4294967295
131.41997 50.00967 -22.471653 4294967295
131.43236 46.264263 -23.078045 4294967295
131.44939 52.706398 -22.569735 4294967295
131.44948 53.716145 -22.63266 4294967295
131.45386 46.939323 -23.068878 4294967295
131.45763 51.361084 -22.46599 4294967295
131.49333 54.05904 -22.54912 4294967295
131.49724 53.386345 -22.49769 4294967295
131.51025 54.398121 -22.529791 4294967295
131.51389 53.05204 -22.436996 4294967295
131.52484 48.293129 -22.983723 4294967295
131.52751 46.611546 -22.872313 4294967295
131.54099 55.075935 -22.498598 4294967295
131.55768 48.969925 -22.947577 4294967295
131.57635 47.290108 -22.79796 4294967295
131.59464 54.74715 -22.349634 4294967295
131.62695 48.642086 -22.761477 4294967295
131.63644 49.989193 -22.82295 4294967295
131.65874 55.766998 -22.259949 4294967295
131.66791 51.339226 -22.832064 4294967295
131.67365 49.320927 -22.692291 4294967295
131.67764 50.331009 -22.745831 4294967295
131.67894 49.658127 -22.700687 4294967295
131.7001 50.670475 -22.713333 4294967295
131.71597 51.009109 -22.696541 4294967295
131.72583 51.683537 -22.715084 4294967295
131.75862 52.024551 -22.65803 4294967295
131.78842 46.261303 -23.095924 4294967295
131.80826 52.704609 -22.581879 4294967295
131.82755 53.380604 -22.577957 4294967295
131.84265 53.719406 -22.563042 4294967295
131.85681 48.287476 -23.059261 4294967295
131.86121 55.068745 -22.602987 4294967295
131.86241 46.942581 -22.96188 4294967295
131.87721 47.280731 -22.947678 4294967295
131.88391 54.062012 -22.485844 4294967295
131.89195 47.618912 -22.933582 4294967295
131.8965 46.610107 -22.859787 4294967295
131.92493 48.968689 -22.93919 4294967295
131.92755 49.641907 -22.974949 4294967295
131.9314 54.742386 -22.414801 4294967295
131.95912 55.756798 -22.411913 4294967295
131.98953 49.313267 -22.806511 4294967295
131.99167 50.659588 -22.885437 4294967295
131.99554 50.323593 -22.855244 4294967295
131.9971 55.425694 -22.300465 4294967295
132.0356 51.0019 -22.80196 4294967295
132.06076 51.341801 -22.763149 4294967295
132.07378 52.016716 -22.774189 4294967295
132.10847 46.590538 -23.220669 4294967295
132.11667 53.032429 -22.73525 4294967295
132.12801 53.70726 -22.750305 4294967295
132.13023 46.256699 -23.147949 4294967295
132.14188 51.689316 -22.591255 4294967295
132.15854 52.364948 -22.593605 4294967295
132.16014 52.701843 -22.610819 4294967295
132.17921 54.051239 -22.64958 4294967295
132.18983 53.379379 -22.582296 4294967295
132.19287 54.726578 -22.659103 4294967295
132.19939 46.937458 -23.025625 4294967295
132.20282 54.391342 -22.614454 4294967295
132.20961 47.275085 -23.022327 4294967295
132.21057 47.948055 -23.062035 4294967295
132.21974 47.612728 -23.01919 4294967295
132.23099 55.74231 -22.631607 4294967295
132.25235 48.289566 -22.98374 4294967295
132.26964 49.974041 -23.047674 4294967295
132.28609 48.630184 -22.924595 4294967295
132.29962 48.968369 -22.913452 4294967295
132.29967 49.304886 -22.934328 4294967295
132.35138 50.657631 -22.895531 4294967295
132.35866 50.99514 -22.89924 4294967295
132.36453 50.322784 -22.84326 4294967295
132.40094 52.010509 -22.861832 4294967295
132.42139 51.340057 -22.77124 4294967295
132.43748 52.688736 -22.817041 4294967295
132.46935 46.588161 -23.227459 4294967295
132.4794 53.031212 -22.738512 4294967295
132.47998 54.041264 -22.800135 4294967295
132.48112 53.368114 -22.755444 4294967295
132.48538 47.599136 -23.252401 4294967295
132.4865 51.685452 -22.637598 4294967295
132.5107 53.708992 -22.706211 4294967295
132.53789 46.259598 -23.043789 4294967295
132.53983 46.932735 -23.081184 4294967295
132.59073 47.948189 -23.023359 4294967295
132.59442 47.275612 -22.972641 4294967295
132.59816 55.742157 -22.624651 4294967295
132.6055 49.968937 -23.114269 4294967295
132.6066 54.73307 -22.541498 4294967295
132.61874 49.634136 -23.061897 4294967295
132.62103 49.297924 -23.035435 4294967295
132.62361 48.625206 -22.987366 4294967295
132.64194 55.411907 -22.499685 4294967295
132.65372 48.965473 -22.936932 4294967295
132.66498 50.313107 -22.994179 4294967295
132.7 50.990791 -22.953117 4294967295
132.70287 50.654591 -22.925356 4294967295
132.70361 52.000984 -23.007504 4294967295
132.71483 52.339077 -23.001904 4294967295
132.72495 51.330692 -22.914949 4294967295
132.75227 53.354031 -22.976152 4294967295
132.77242 53.020248 -22.907349 4294967295
132.78314 52.685097 -22.860901 4294967295
132.78967 51.675995 -22.782459 4294967295
132.8045 46.246426 -23.27445 4294967295
132.81575 46.920498 -23.289764 4294967295
132.82809 54.03809 -22.838314 4294967295
132.83118 53.701843 -22.810041 4294967295
132.85446 54.715294 -22.817768 4294967295
132.85596 48.607311 -23.299431 4294967295
132.866 54.380253 -22.769463 4294967295
132.87358 55.054806 -22.793509 4294967295
132.88066 46.591572 -23.11499 4294967295
132.88216 47.93763 -23.195366 4294967295
132.89221 47.265884 -23.129578 4294967295
132.91287 55.397366 -22.721329 4294967295
132.93562 47.607529 -23.047703 4294967295
132.93727 49.626808 -23.16972 4294967295
132.94818 48.282104 -23.059921 4294967295
132.96825 48.957649 -23.054365 4294967295
132.98087 49.968876 -23.087406 4294967295
132.99603 49.297672 -23.009537 4294967295
133.05586 50.988354 -22.97275 4294967295
133.05904 50.652153 -22.944191 4294967295
133.08807 51.329262 -22.917433 4294967295
133.10608 52.004997 -22.916744 4294967295
133.11806 51.669941 -22.867359 4294967295
133.13109 52.345081 -22.878534 4294967295
133.15796 47.252396 -23.362194 4294967295
133.16302 54.369713 -22.928879 4294967295
133.16728 46.244194 -23.277174 4294967295
133.18459 53.699387 -22.835821 4294967295
133.18465 54.709553 -22.898693 4294967295
133.19078 47.929146 -23.326488 4294967295
133.20988 47.594971 -23.260292 4294967295
133.22597 48.606331 -23.285137 4294967295
133.24413 48.945045 -23.263166 4294967295
133.26329 49.62043 -23.259758 4294967295
133.26335 55.057846 -22.733315 4294967295
133.29155 55.735668 -22.708563 4294967295
133.29446 49.287834 -23.165068 4294967295
133.3398 49.966702 -23.099749 4294967295
133.34789 50.304333 -23.101608 4294967295
133.34958 50.641144 -23.118589 4294967295
133.36145 51.652477 -23.15345 4294967295
133.37073 51.990318 -23.152489 4294967295
133.38179 50.981964 -23.063393 4294967295
133.41908 53.343422 -23.122066 4294967295
133.42671 51.324554 -22.978123 4294967295
133.43411 53.008884 -23.065533 4294967295
133.46257 46.907093 -23.481621 4294967295
133.468 47.244125 -23.489792 4294967295
133.46962 54.023895 -23.044491 4294967295
133.48358 52.679054 -22.927572 4294967295
133.49313 46.5742 -23.388458 4294967295
133.49335 53.690575 -22.967413 4294967295
133.49434 55.037525 -23.049015 4294967295
133.49812 47.584091 -23.439541 4294967295
133.51584 46.24033 -23.313793 4294967295
133.53299 47.924694 -23.378128 4294967295
133.53618 54.706928 -22.929125 4294967295
133.55217 48.599964 -23.374718 4294967295
133.55531 48.263859 -23.346344 4294967295
133.5705 55.385498 -22.889931 4294967295
133.58598 55.72459 -22.874313 4294967295
133.60614 48.943108 -23.268223 4294967295
133.64896 49.285 -23.187969 4294967295
133.67126 51.307365 -23.261131 4294967295
133.70174 51.984627 -23.231117 4294967295
133.70374 49.965149 -23.100559 4294967295
133.74628 53.000599 -23.188801 4294967295
133.75851 50.98225 -23.03409 4294967295
133.77385 52.33107 -23.081776 4294967295
133.78082 52.668716 -23.086292 4294967295
133.81152 54.01981 -23.09771 4294967295
133.82608 46.905037 -23.482918 4294967295
133.83455 47.242474 -23.483921 4294967295
133.84274 53.687527 -23.002987 4294967295
133.85834 54.363258 -23.008141 4294967295
133.86172 47.582142 -23.440746 4294967295
133.8726 54.702087 -22.995399 4294967295
133.88165 47.921009 -23.414669 4294967295
133.88879 48.258369 -23.418776 4294967295
133.89638 55.379131 -22.981205 4294967295
133.89644 49.268806 -23.463608 4294967295
133.90491 48.59684 -23.401731 4294967295
133.90883 55.717773 -22.972813 4294967295
133.96182 49.950104 -23.351267 4294967295
133.98795 48.943604 -23.226757 4294967295
134.00024 51.974548 -23.386404 4294967295
134.00031 49.618385 -23.239563 4294967295
134.00427 50.292122 -23.272116 4294967295
134.03743 52.652794 -23.340664 4294967295
134.04005 51.643303 -23.271551 4294967295
134.0426 50.970364 -23.223597 4294967295
134.07678 53.668152 -23.310726 4294967295
134.09084 53.333481 -23.256626 4294967295
134.09106 52.996853 -23.235132 4294967295
134.10464 51.31522 -23.098249 4294967295
134.11821 46.558292 -23.6318 4294967295
134.12056 47.567799 -23.689089 4294967295
134.13834 46.897034 -23.60533 4294967295
134.13882 52.330009 -23.080564 4294967295
134.15552 54.352745 -23.167028 4294967295
134.1823 47.911572 -23.564568 4294967295
134.20471 47.241226 -23.469852 4294967295
134.21712 55.708775 -23.105659 4294967295
134.23029 48.590366 -23.493353 4294967295
134.23555 55.037914 -23.020245 4294967295
134.24286 48.928436 -23.484661 4294967295
134.24881 54.703022 -22.968006 4294967295
134.25581 55.377724 -22.993416 4294967295
134.2863 50.953186 -23.508121 4294967295
134.30861 49.946358 -23.392653 4294967295
134.31056 50.283199 -23.409012 4294967295
134.31416 49.273846 -23.337652 4294967295
134.31766 50.620708 -23.413246 4294967295
134.31865 49.611027 -23.348032 4294967295
134.37854 51.301937 -23.311781 4294967295
134.37914 51.638672 -23.331303 4294967295
134.38261 52.985706 -23.406958 4294967295
134.41756 51.980499 -23.261761 4294967295
134.44701 46.5522 -23.715097 4294967295
134.44772 47.897945 -23.797142 4294967295
134.46011 52.659725 -23.203468 4294967295
134.47722 54.682491 -23.288977 4294967295
134.48199 47.229126 -23.674637 4294967295
134.48259 54.346546 -23.255352 4294967295
134.49025 53.674152 -23.195379 4294967295
134.50282 48.91391 -23.73028 4294967295
134.51292 54.014133 -23.16297 4294967295
134.52159 55.699226 -23.247347 4294967295
134.55545 47.574257 -23.52272 4294967295
134.56186 49.257706 -23.612337 4294967295
134.57779 55.370762 -23.094069 4294967295
134.58351 55.034767 -23.059654 4294967295
134.58934 49.597675 -23.568626 4294967295
134.59367 50.271317 -23.600327 4294967295
134.6593 49.943104 -23.424978 4294967295
134.66379 52.299973 -23.5611 4294967295
134.66614 50.953865 -23.471746 4294967295
134.67451 51.964825 -23.514908 4294967295
134.6891 50.620216 -23.396788 4294967295
134.69968 51.29491 -23.413836 4294967295
134.76262 46.544598 -23.829428 4294967295
134.78288 53.326363 -23.343803 4294967295
134.80214 46.885574 -23.757507 4294967295
134.80688 47.8955 -23.809158 4294967295
134.80702 52.656208 -23.245157 4294967295
134.81784 54.341515 -23.324514 4294967295
134.84056 47.226517 -23.688126 4294967295
134.84895 55.356316 -23.31419 4294967295
134.85722 47.564987 -23.669846 4294967295
134.85959 49.584286 -23.789917 4294967295
134.86145 53.674164 -23.180019 4294967295
134.86475 54.011448 -23.19323 4294967295
134.86821 55.695942 -23.289913 4294967295
134.88184 49.250565 -23.716717 4294967295
134.88948 55.025471 -23.197912 4294967295
134.8916 48.242153 -23.630995 4294967295
134.8916 54.68895 -23.172016 4294967295
134.89975 50.262379 -23.737473 4294967295
134.91824 48.918514 -23.610298 4294967295
134.93309 48.583748 -23.554403 4294967295
134.93343 50.939808 -23.700207 4294967295
134.93951 50.604042 -23.665022 4294967295
134.98387 49.936523 -23.518898 4294967295
135.01042 51.286518 -23.540249 4294967295
135.05864 53.649635 -23.573654 4294967295
135.06306 52.303558 -23.479445 4294967295
135.06726 52.977501 -23.511496 4294967295
135.09074 52.644035 -23.435366 4294967295
135.09148 46.874939 -23.933596 4294967295
135.09518 51.634441 -23.362141 4294967295
135.09807 51.971573 -23.376307 4294967295
135.10176 47.548981 -23.951298 4294967295
135.1149 48.223392 -23.962284 4294967295
135.13112 54.333336 -23.445316 4294967295
135.13139 54.670101 -23.46563 4294967295
135.13486 46.543453 -23.810822 4294967295
135.15794 53.326839 -23.319489 4294967295
135.18231 54.003872 -23.304136 4294967295
135.20337 55.354149 -23.338497 4294967295
135.22081 55.019886 -23.276577 4294967295
135.22488 49.246288 -23.76696 4294967295
135.22993 49.583462 -23.776045 4294967295
135.26448 51.270653 -23.799644 4294967295
135.2767 55.701843 -23.187284 4294967295
135.29527 50.264896 -23.664591 4294967295
135.31262 51.950214 -23.728579 4294967295
135.31558 49.930851 -23.596025 4294967295
135.36766 50.947552 -23.536692 4294967295
135.37122 51.621399 -23.57021 4294967295
135.39001 52.29731 -23.567982 4294967295
135.40099 53.64558 -23.625996 4294967295
135.42682 47.542469 -24.043457 4294967295
135.43059 47.879341 -24.055519 4294967295
135.44922 53.989101 -23.533857 4294967295
135.45273 53.316105 -23.483767 4294967295
135.46472 52.644222 -23.413712 4294967295
135.46642 52.981239 -23.430639 4294967295
135.47696 46.53886 -23.863194 4294967295
135.47911 47.212116 -23.899963 4294967295
135.485 46.876289 -23.865284 4294967295
135.49609 55.006123 -23.486683 4294967295
135.50745 54.334179 -23.418215 4294967295
135.52388 48.900028 -23.899641 4294967295
135.52892 54.674084 -23.388819 4294967295
135.55132 49.913036 -23.898138 4294967295
135.57259 55.691013 -23.349215 4294967295
135.58246 55.355591 -23.305172 4294967295
135.5923 48.5718 -23.718435 4294967295
135.60229 50.256081 -23.799608 4294967295
135.60486 49.246574 -23.730858 4294967295
135.63229 49.586628 -23.687458 4294967295
135.66214 51.610359 -23.743122 4294967295
135.69217 51.277657 -23.65185 4294967295
135.70251 50.942314 -23.606684 4294967295
135.71474 47.195213 -24.201633 4294967295
135.74567 52.294945 -23.589277 4294967295
135.76392 52.634174 -23.567488 4294967295
135.76898 51.96133 -23.51379 4294967295
135.77519 47.875153 -24.101971 4294967295
135.78401 53.98399 -23.604153 4294967295
135.7886 54.321396 -23.614323 4294967295
135.79005 46.530972 -23.98357 4294967295
135.79193 52.974785 -23.522812 4294967295
135.79546 53.312054 -23.535521 4294967295
135.79761 55.332947 -23.656038 4294967295
135.80687 49.224831 -24.111519 4294967295
135.83057 46.872116 -23.909664 4294967295
135.84314 47.546669 -23.922081 4294967295
135.855 48.894253 -23.977976 4294967295
135.87491 49.906345 -23.994064 4294967295
135.9043 55.685486 -23.427113 4294967295
135.91409 48.564873 -23.818783 4294967295
135.9158 51.25782 -23.98205 4294967295
135.92906 50.249783 -23.888342 4294967295
135.95018 50.589108 -23.859777 4294967295
135.96101 49.580563 -23.771751 4294967295
136.00381 50.932701 -23.755247 4294967295
136.0047 52.279503 -23.836866 4294967295
136.04251 51.611191 -23.706535 4294967295
136.04352 51.94804 -23.725157 4294967295
136.07007 53.298538 -23.746716 4294967295
136.07243 47.528915 -24.238392 4294967295
136.07739 52.962818 -23.70871 4294967295
136.09497 48.20446 -24.227524 4294967295
136.0976 46.522453 -24.116848 4294967295
136.10721 53.977219 -23.701738 4294967295
136.11153 52.630733 -23.607929 4294967295
136.11293 46.860683 -24.101974 4294967295
136.18321 54.324825 -23.544895 4294967295
136.18381 49.224739 -24.082592 4294967295
136.20216 55.674957 -23.584286 4294967295
136.21783 54.66666 -23.484802 4294967295
136.23849 49.568096 -23.975754 4294967295
136.24081 55.343777 -23.47298 4294967295
136.24771 55.007877 -23.435928 4294967295
136.3073 52.606606 -24.003124 4294967295
136.31479 50.924355 -23.881147 4294967295
136.31631 51.261227 -23.89846 4294967295
136.32854 52.946148 -23.974409 4294967295
136.32915 52.272923 -23.931208 4294967295
136.4174 53.295124 -23.787828 4294967295
136.42706 54.306732 -23.827969 4294967295
136.42932 47.526127 -24.256279 4294967295
136.43047 46.5168 -24.190996 4294967295
136.4404 53.635098 -23.755009 4294967295
136.44473 48.200901 -24.262104 4294967295
136.4537 47.865486 -24.22028 4294967295
136.46991 49.213421 -24.266027 4294967295
136.472 46.858047 -24.114922 4294967295
136.49609 53.979736 -23.645855 4294967295
136.54572 54.660549 -23.571835 4294967295
136.54614 55.671253 -23.633511 4294967295
136.55145 49.896652 -24.117579 4294967295
136.56563 48.888611 -24.02179 4294967295
136.57463 50.909378 -24.126137 4294967295
136.6394 50.244423 -23.933233 4294967295
136.6951 51.59848 -23.886902 4294967295
136.69894 53.955978 -24.024263 4294967295
136.71443 52.27454 -23.883633 4294967295
136.72401 52.949329 -23.903063 4294967295
136.72989 51.266304 -23.784842 4294967295
136.7383 51.940979 -23.807043 4294967295
136.7406 53.625107 -23.906223 4294967295
136.74069 53.288372 -23.88513 4294967295
136.74179 54.298759 -23.945261 4294967295
136.77892 46.849442 -24.249722 4294967295
136.78088 46.513134 -24.224243 4294967295
136.78162 54.977997 -23.89418 4294967295
136.78995 47.187237 -24.244829 4294967295
136.79829 47.524738 -24.246309 4294967295
136.80074 47.861557 -24.261477 4294967295
136.80649 49.208332 -24.331627 4294967295
136.83276 48.201908 -24.207743 4294967295
136.83517 49.548416 -24.28561 4294967295
136.85768 48.54147 -24.17057 4294967295
136.86481 55.663795 -23.742002 4294967295
136.86911 54.653793 -23.669231 4294967295
136.87434 48.880089 -24.152618 4294967295
136.88693 51.237797 -24.269482 4294967295
136.89421 49.892368 -24.168955 4294967295
136.91756 55.334641 -23.598114 4294967295
136.95544 50.573429 -24.068104 4294967295
136.97426 50.912533 -24.045145 4294967295
136.97551 52.259407 -24.125856 4294967295
137.0051 46.495213 -24.551378 4294967295
137.03345 53.950813 -24.09536 4294967295
137.05724 53.280682 -23.99814 4294967295
137.08125 46.840313 -24.39505 4294967295
137.10037 54.297035 -23.960331 4294967295
137.108 48.189445 -24.416225 4294967295
137.12169 47.854546 -24.363543 4294967295
137.12573 54.974255 -23.943052 4294967295
137.13344 48.86554 -24.3988 4294967295
137.13573 55.649323 -23.961603 4294967295
137.19461 48.536377 -24.235584 4294967295
137.19547 47.526623 -24.170959 4294967295
137.22801 49.886951 -24.241421 4294967295
137.28392 49.557274 -24.090433 4294967295
137.29398 50.568638 -24.12966 4294967295
137.31133 52.59103 -24.21459 4294967295
137.31247 46.486698 -24.684662 4294967295
137.32706 50.236134 -24.031794 4294967295
137.34575 46.826881 -24.628178 4294967295
137.3735 52.936218 -24.090837 4294967295
137.37685 51.252834 -23.9786 4294967295
137.3954 51.92886 -23.977261 4294967295
137.39545 53.949516 -24.102486 4294967295
137.39749 53.276276 -24.05596 4294967295
137.4064 54.287823 -24.097904 4294967295
137.42128 47.845024 -24.515226 4294967295
137.42479 52.2696 -23.929758 4294967295
137.43669 53.618515 -23.985655 4294967295
137.4521 54.967941 -24.03339 4294967295
137.4631 47.513397 -24.397144 4294967295
137.4709 55.307487 -24.010571 4294967295
137.47665 54.634655 -23.955362 4294967295
137.50403 48.191364 -24.343786 4294967295
137.51169 48.528889 -24.346848 4294967295
137.52734 55.652607 -23.900194 4294967295
137.53003 50.550728 -24.429443 4294967295
137.54843 49.206593 -24.303188 4294967295
137.56801 50.218945 -24.320335 4294967295
137.58305 49.54752 -24.243629 4294967295
137.59644 50.895889 -24.296001 4294967295
137.60658 51.570538 -24.314194 4294967295
137.61729 51.235268 -24.26844 4294967295
137.6347 52.247616 -24.290604 4294967295
137.6396 51.911579 -24.258364 4294967295
137.65294 46.481915 -24.740997 4294967295
137.68858 53.601807 -24.249022 4294967295
137.71948 47.498867 -24.649132 4294967295
137.75027 47.165932 -24.556808 4294967295
137.76112 52.601429 -24.01782 4294967295
137.7684 52.939259 -24.021803 4294967295
137.77449 46.832161 -24.479738 4294967295
137.79614 53.953644 -24.020071 4294967295
137.79813 47.844593 -24.487461 4294967295
137.80133 48.181541 -24.500889 4294967295
137.81189 49.529072 -24.559834 4294967295
137.83557 55.643623 -24.032892 4294967295
137.86029 49.871681 -24.468351 4294967295
137.86473 55.310997 -23.944296 4294967295
137.86885 49.199493 -24.406807 4294967295
137.88208 50.21104 -24.43865 4294967295
137.91159 48.86805 -24.286715 4294967295
137.93051 52.23719 -24.4515 4294967295
137.95155 50.556534 -24.298361 4294967295
137.95776 51.904156 -24.36735 4294967295
138.00294 50.899876 -24.199974 4294967295
138.0199 53.596172 -24.327621 4294967295
138.05092 52.926922 -24.213875 4294967295
138.08598 46.487526 -24.582909 4294967295
138.08893 54.953014 -24.250998 4294967295
138.08911 47.16098 -24.617357 4294967295
138.09595 48.171402 -24.664055 4294967295
138.10825 53.271606 -24.101831 4294967295
138.11433 54.283009 -24.15032 4294967295
138.11862 46.827789 -24.528078 4294967295
138.12306 55.294777 -24.192726 4294967295
138.13611 55.633522 -24.183315 4294967295
138.14285 53.950165 -24.063299 4294967295
138.14302 48.850155 -24.596706 4294967295
138.14522 49.187 -24.612442 4294967295
138.16704 47.506573 -24.457573 4294967295
138.17805 47.844501 -24.452929 4294967295
138.17924 50.87418 -24.637863 4294967295
138.187 49.528744 -24.536463 4294967295
138.19087 50.539078 -24.590036 4294967295
138.21582 48.522308 -24.407099 4294967295
138.25999 50.211193 -24.409065 4294967295
138.26303 51.221664 -24.464558 4294967295
138.29263 52.235645 -24.45859 4294967295
138.31595 51.565296 -24.362812 4294967295
138.34471 53.252888 -24.400497 4294967295
138.35513 53.927834 -24.418089 4294967295
138.35704 51.907478 -24.288492 4294967295
138.37178 46.81308 -24.787188 4294967295
138.38121 52.921116 -24.295086 4294967295
138.40472 47.489895 -24.752607 4294967295
138.42314 53.600525 -24.239735 4294967295
138.43108 47.829517 -24.712431 4294967295
138.43317 54.949272 -24.299969 4294967295
138.43413 49.176064 -24.788771 4294967295
138.43794 48.166882 -24.717417 4294967295
138.45772 48.505802 -24.692507 4294967295
138.45827 49.852131 -24.774582 4294967295
138.47058 48.843933 -24.683584 4294967295
138.48209 55.293198 -24.207489 4294967295
138.50067 54.28516 -24.101816 4294967295
138.50539 50.194622 -24.686407 4294967295
138.50928 49.521877 -24.635679 4294967295
138.51848 54.624619 -24.081497 4294967295
138.5462 51.209705 -24.654476 4294967295
138.57758 55.644066 -24.007248 4294967295
138.59955 50.879925 -24.510241 4294967295
138.63812 52.568596 -24.525238 4294967295
138.63968 51.895336 -24.479959 4294967295
138.68074 51.563976 -24.364086 4294967295
138.68158 52.911232 -24.445585 4294967295
138.72079 53.92701 -24.417412 4294967295
138.72545 48.15591 -24.896828 4294967295
138.74091 46.474979 -24.756914 4294967295
138.76382 47.823887 -24.787315 4294967295
138.77048 46.814896 -24.70937 4294967295
138.77896 53.598274 -24.26198 4294967295
138.78065 47.15266 -24.706699 4294967295
138.78723 49.17297 -24.816532 4294967295
138.80026 54.275032 -24.254431 4294967295
138.80598 47.492195 -24.668955 4294967295
138.81125 54.950386 -24.270741 4294967295
138.81854 50.186604 -24.806671 4294967295
138.83296 54.616581 -24.199673 4294967295
138.84241 48.506409 -24.647326 4294967295
138.85208 55.293201 -24.197189 4294967295
138.85431 48.844505 -24.640665 4294967295
138.86127 49.855339 -24.687092 4294967295
138.90044 55.637211 -24.106199 4294967295
138.90582 50.870987 -24.646685 4294967295
138.91368 51.545383 -24.670235 4294967295
138.91623 49.525459 -24.539257 4294967295
138.93648 51.885086 -24.638359 4294967295
138.93851 50.538452 -24.550291 4294967295
138.9621 52.225204 -24.600029 4294967295
138.97609 52.900562 -24.609396 4294967295
138.97705 51.216915 -24.502935 4294967295
138.98683 46.796047 -25.053028 4294967295
139.00386 53.577873 -24.586927 4294967295
139.01813 47.136097 -25.001549 4294967295
139.0276 46.464138 -24.938063 4294967295
139.04041 52.572487 -24.439917 4294967295
139.05077 48.149418 -24.988749 4294967295
139.05667 47.477043 -24.933477 4294967295
139.07811 54.261848 -24.457104 4294967295
139.09329 48.49102 -24.911392 4294967295
139.09595 53.927502 -24.395046 4294967295
139.10175 49.165169 -24.933582 4294967295
139.17123 48.836987 -24.752335 4294967295
139.19974 49.513802 -24.728207 4294967295
139.20197 49.850758 -24.743893 4294967295
139.21851 50.862881 -24.768269 4294967295
139.23946 51.202271 -24.740734 4294967295
139.26132 50.531635 -24.648594 4294967295
139.26685 51.542549 -24.698351 4294967295
139.29854 52.556961 -24.68774 4294967295
139.31905 52.222939 -24.619617 4294967295
139.31924 53.233269 -24.681646 4294967295
139.33112 52.898121 -24.633438 4294967295
139.33954 51.888859 -24.551487 4294967295
139.37332 53.914322 -24.598595 4294967295
139.3868 46.461418 -24.95187 4294967295
139.39122 47.135052 -24.983335 4294967295
139.40945 53.5825 -24.49441 4294967295
139.43831 48.82346 -24.978899 4294967295
139.43982 48.150448 -24.933748 4294967295
139.44589 54.598244 -24.472858 4294967295
139.44763 49.161186 -24.978201 4294967295
139.47658 49.837955 -24.953123 4294967295
139.49249 49.503296 -24.895638 4294967295
139.52797 50.517696 -24.87635 4294967295
139.54654 50.856743 -24.854397 4294967295
139.59244 50.189117 -24.706957 4294967295
139.63762 52.88908 -24.769506 4294967295
139.64256 46.44714 -25.20406 4294967295
139.64534 51.879791 -24.68919 4294967295
139.64641 51.543144 -24.665907 4294967295
139.66853 52.219666 -24.656616 4294967295
139.69109 52.559505 -24.625502 4294967295
139.70044 46.790157 -25.09161 4294967295
139.70062 53.234467 -24.645187 4294967295
139.70393 54.245407 -24.70002 4294967295
139.71118 53.572754 -24.641695 4294967295
139.72406 47.465973 -25.07885 4294967295
139.77596 49.155056 -25.063461 4294967295
139.78262 48.146004 -24.985641 4294967295
139.79462 48.484062 -24.978876 4294967295
139.80099 53.922104 -24.45562 4294967295
139.8278 49.834682 -24.985737 4294967295
139.85316 48.827744 -24.864935 4294967295
139.88545 50.178562 -24.873831 4294967295
139.8902 49.505692 -24.82131 4294967295
139.89703 50.516747 -24.868031 4294967295
139.9196 51.193108 -24.857718 4294967295
139.97594 51.873989 -24.769796 4294967295
139.9772 52.884537 -24.82929 4294967295
139.98206 52.211601 -24.77648 4294967295
139.9897 51.538982 -24.717257 4294967295
140.06468 48.134403 -25.177341 4294967295
140.06529 53.570236 -24.668324 4294967295
140.0687 48.808041 -25.209709 4294967295
140.07021 53.234024 -24.636208 4294967295
140.07495 47.46241 -25.112118 4294967295
140.11226 46.793388 -24.984724 4294967295
140.15555 48.481789 -24.989273 4294967295
140.19798 50.507164 -25.01655 4294967295
140.21329 50.172379 -24.960594 4294967295
140.25328 51.524441 -24.951973 4294967295
140.26024 52.198853 -24.977608 4294967295
140.29553 51.866745 -24.875648 4294967295
140.30603 51.194489 -24.809906 4294967295
140.30695 50.85778 -24.786964 4294967295
140.34622 53.220798 -24.842472 4294967295
140.35414 46.440903 -25.247822 4294967295
140.35568 46.777649 -25.265074 4294967295
140.38414 52.5522 -24.71369 4294967295
140.39713 47.118927 -25.190636 4294967295
140.39723 48.12875 -25.252865 4294967295
140.41093 47.457127 -25.17977 4294967295
140.46219 49.483032 -25.186962 4294967295
140.47243 47.800896 -25.059448 4294967295
140.50056 50.834476 -25.182035 4294967295
140.50946 48.478672 -25.016012 4294967295
140.53075 49.154697 -25.008741 4294967295
140.53494 49.828686 -25.04073 4294967295
140.5529 50.504406 -25.041117 4294967295
140.59909 50.173439 -24.914307 4294967295
140.61517 51.859501 -24.981449 4294967295
140.64572 52.20034 -24.932137 4294967295
140.65271 52.874928 -24.957729 4294967295
140.65909 51.528416 -24.859879 4294967295
140.66669 46.432964 -25.369116 4294967295
140.69626 46.77285 -25.322084 4294967295
140.71547 47.448219 -25.319641 4294967295
140.72824 48.459515 -25.352736 4294967295
140.74384 49.13459 -25.358562 4294967295
140.75377 47.115967 -25.211054 4294967295
140.79837 48.131145 -25.17116 4294967295
140.79951 47.794579 -25.147776 4294967295
140.80728 48.805592 -25.192287 4294967295
140.85178 50.157856 -25.173494 4294967295
140.85211 50.49461 -25.193565 4294967295
140.85844 49.821953 -25.137455 4294967295
140.8748 50.834213 -25.162359 4294967295
140.88982 49.489052 -25.044739 4294967295
140.92114 51.513691 -25.097761 4294967295
140.93379 52.188911 -25.110357 4294967295
140.94633 52.52737 -25.102373 4294967295
141.0105 46.428501 -25.418823 4294967295
141.08578 46.773529 -25.267271 4294967295
141.1138 48.796829 -25.327789 4294967295
141.11716 47.450474 -25.23695 4294967295
141.12033 50.144279 -25.395971 4294967295
141.12102 49.471039 -25.352863 4294967295
141.13843 48.46307 -25.250658 4294967295
141.1431 50.483795 -25.36466 4294967295
141.1561 49.812035 -25.29332 4294967295
141.15808 48.128662 -25.184818 4294967295
141.22752 50.831203 -25.192186 4294967295
141.24245 51.506676 -25.199615 4294967295
141.24889 51.844296 -25.205694 4294967295
141.25049 52.181286 -25.222778 4294967295
141.26575 51.172882 -25.125525 4294967295
141.30511 47.428215 -25.643423 4294967295
141.32907 46.421234 -25.526346 4294967295
141.36539 47.098499 -25.484896 4294967295
141.43791 49.126846 -25.443716 4294967295
141.43987 47.780346 -25.356144 4294967295
141.44797 48.117989 -25.358385 4294967295
141.49609 49.470608 -25.331457 4294967295
141.50729 51.155632 -25.409773 4294967295
141.50882 49.808907 -25.3232 4294967295
141.51367 48.799225 -25.249723 4294967295
141.54221 50.48658 -25.28841 4294967295
141.57112 50.153404 -25.201506 4294967295
141.66145 46.415489 -25.602327 4294967295
141.72394 47.095741 -25.501188 4294967295
141.74084 47.434334 -25.483368 4294967295
141.74284 47.77124 -25.499557 4294967295
141.74664 48.781681 -25.553234 4294967295
141.75792 48.109673 -25.485954 4294967295
141.81113 49.462845 -25.447515 4294967295
141.81599 50.473602 -25.498726 4294967295
141.81941 48.453617 -25.366287 4294967295
142.01241 48.094883 -25.739845 4294967295
142.02347 46.749664 -25.631607 4294967295
142.0282 47.423473 -25.662287 4294967295
142.03378 47.76075 -25.67033 4294967295
142.05418 47.089771 -25.582315 4294967295
142.11868 49.117462 -25.559795 4294967295
142.13348 50.129414 -25.588299 4294967295
142.16025 49.795982 -25.506535 4294967295
142.16245 49.459496 -25.480795 4294967295
142.20514 50.811901 -25.466496 4294967295
142.25488 50.481342 -25.332367 4294967295
142.32492 46.403854 -25.75746 4294967295
142.34877 47.753044 -25.786121 4294967295
142.35956 47.080997 -25.720089 4294967295
142.36485 49.101429 -25.832544 4294967295
142.37489 46.746052 -25.664396 4294967295
142.37961 49.776466 -25.840418 4294967295
142.38565 47.42062 -25.681431 4294967295
142.39766 48.768715 -25.737019 4294967295
142.40057 48.432384 -25.709709 4294967295
142.47478 50.124889 -25.644514 4294967295
142.50243 49.454762 -25.540047 4294967295
142.60385 46.392223 -25.955164 4294967295
142.62186 46.730793 -25.934994 4294967295
142.69443 47.412212 -25.811451 4294967295
142.71526 47.077896 -25.743292 4294967295
142.72107 49.435299 -25.875305 4294967295
142.7572 48.76627 -25.751705 4294967295
142.80159 48.434769 -25.630007 4294967295
142.83498 49.112324 -25.595537 4294967295
142.86435 49.789516 -25.570288 4294967295
142.97185 46.727013 -25.971106 4294967295
142.98816 48.075336 -26.016966 4294967295
143.0013 47.06694 -25.92499 4294967295
143.00317 46.393837 -25.87925 4294967295
143.05463 49.429798 -25.948977 4294967295
143.0992 48.761734 -25.806288 4294967295
143.11308 49.100128 -25.795517 4294967295
143.27983 46.381954 -26.081928 4294967295
143.28233 47.05545 -26.117664 4294967295
143.31163 48.741829 -26.154892 4294967295
143.35786 48.410648 -26.029301 4294967295
143.36244 47.401142 -25.95676 4294967295
143.36397 48.074688 -25.994751 4294967295
143.39922 49.088921 -25.976988 4294967295
143.40164 47.742329 -25.888592 4294967295
143.54663 46.369015 -26.306713 4294967295
143.63806 48.062229 -26.203203 4294967295
143.64005 46.715908 -26.115892 4294967295
143.65005 47.726978 -26.155348 4294967295
143.66609 47.392155 -26.098278 4294967295
143.66637 48.402164 -26.159803 4294967295
143.69888 47.059162 -26.003304 4294967295
143.92363 47.041363 -26.323265 4294967295
143.96509 48.055916 -26.291632 4294967295
144.01462 47.724957 -26.158888 4294967295
144.01759 46.715172 -26.090004 4294967295
144.25136 47.035107 -26.410057 4294967295
144.27071 47.373898 -26.387056 4294967295
144.29625 46.703465 -26.287996 4294967295
144.30508 46.367767 -26.247274 4294967295
144.3517 47.719776 -26.224836 4294967295
144.63071 47.371296 -26.401119 4294967295
144.66005 46.701187 -26.293531 4294967295
144.69304 47.041584 -26.239838 4294967295
144.87672 46.682667 -26.630842 4294967295
144.93846 46.35281 -26.471037 4294967295
110.02312 56.835014 -16.666111 4294967295
110.28685 55.809761 -16.853148 4294967295
110.33338 56.489922 -16.774508 4294967295
110.34418 56.827984 -16.767826 4294967295
110.37314 57.169155 -16.713621 4294967295
110.62012 55.80476 -16.922722 4294967295
110.67374 56.486122 -16.825672 4294967295
110.68938 57.497574 -16.849678 4294967295
110.69223 56.152912 -16.755682 4294967295
110.69597 56.826134 -16.78916 4294967295
110.75582 58.181664 -16.719175 4294967295
110.76481 58.519585 -16.717297 4294967295
110.81136 60.209755 -16.703688 4294967295
110.97491 56.139534 -16.95779 4294967295
110.98077 56.813 -16.985735 4294967295
111.03294 57.158089 -16.87104 4294967295
111.04074 56.486759 -16.807446 4294967295
111.0621 58.508366 -16.881432 4294967295
111.084 58.17585 -16.802551 4294967295
111.09522 57.841427 -16.751621 4294967295
111.1083 59.189213 -16.803997 4294967295
111.13928 58.858311 -16.701458 4294967295
111.16553 59.872284 -16.697779 4294967295
111.18376 60.548489 -16.693472 4294967295
111.20135 61.561092 -16.71244 4294967295
111.20623 61.225548 -16.678047 4294967295
111.32076 56.472885 -17.016384 4294967295
111.32173 56.809315 -17.035492 4294967295
111.34399 55.804123 -16.912592 4294967295
111.38105 57.155632 -16.902397 4294967295
111.38732 57.493042 -16.907652 4294967295
111.40012 58.167934 -16.917528 4294967295
111.41944 58.507664 -16.888742 4294967295
111.42267 59.180958 -16.923538 4294967295
111.4296 57.836662 -16.818989 4294967295
111.46593 58.852226 -16.789143 4294967295
111.48612 60.874382 -16.866184 4294967295
111.49839 61.213074 -16.855825 4294967295
111.52992 61.555405 -16.795238 4294967295
111.53316 60.546593 -16.721935 4294967295
111.54337 60.211967 -16.673685 4294967295
111.55765 62.233578 -16.766203 4294967295
111.57887 61.901108 -16.689283 4294967295
111.62212 63.255539 -16.663038 4294967295
111.6387 55.792782 -17.083084 4294967295
111.65372 56.131538 -17.065586 4294967295
111.67278 56.471004 -17.037535 4294967295
111.6856 56.809471 -17.025738 4294967295
111.71598 57.823639 -17.011454 4294967295
111.74403 57.492073 -16.916801 4294967295
111.75918 59.513016 -17.007 4294967295
111.75948 59.176697 -16.984587 4294967295
111.76022 58.167656 -16.917847 4294967295
111.79684 60.528996 -16.973751 4294967295
111.8069 58.512207 -16.817924 4294967295
111.82457 60.197628 -16.879969 4294967295
111.82701 59.861614 -16.85202 4294967295
111.82944 58.852638 -16.780825 4294967295
111.84549 60.874371 -16.868713 4294967295
111.87267 61.552368 -16.841227 4294967295
111.90429 61.894821 -16.780487 4294967295
111.92361 62.908077 -16.79509 4294967295
111.9281 63.582008 -16.826599 4294967295
111.93664 62.237492 -16.71793 4294967295
111.94263 63.248302 -16.767193 4294967295
111.95152 63.923138 -16.787304 4294967295
111.98772 56.12664 -17.133724 4294967295
112.00571 64.60704 -16.68951 4294967295
112.01126 56.466862 -17.094112 4294967295
112.0268 57.142155 -17.09687 4294967295
112.03862 57.81686 -17.109316 4294967295
112.05563 58.156151 -17.086697 4294967295
112.08566 57.488518 -16.965424 4294967295
112.09635 58.499622 -17.002407 4294967295
112.10898 59.847496 -17.055992 4294967295
112.11302 59.511806 -17.023888 4294967295
112.11669 58.839603 -16.971128 4294967295
112.14074 60.189659 -16.995026 4294967295
112.18576 60.870815 -16.921202 4294967295
112.20042 61.210026 -16.904701 4294967295
112.20097 61.546623 -16.924898 4294967295
112.22617 60.54171 -16.79454 4294967295
112.23915 61.890312 -16.847244 4294967295
112.30309 62.912216 -16.745895 4294967295
112.31517 63.58778 -16.757755 4294967295
112.31959 57.130341 -17.272245 4294967295
112.3471 56.462269 -17.157658 4294967295
112.34933 63.931103 -16.690605 4294967295
112.36358 58.146832 -17.222813 4294967295
112.36685 64.271233 -16.666653 4294967295
112.37381 64.609283 -16.670219 4294967295
112.3924 56.80621 -17.061626 4294967295
112.39536 57.47953 -17.097109 4294967295
112.41871 58.492779 -17.101265 4294967295
112.42759 57.821453 -17.035004 4294967295
112.44235 59.842636 -17.126244 4294967295
112.45191 59.171471 -17.058212 4294967295
112.47718 59.512424 -17.01424 4294967295
112.51018 60.191338 -16.971773 4294967295
112.53021 60.531502 -16.94137 4294967295
112.53665 60.869209 -16.946239 4294967295
112.56483 61.547512 -16.916321 4294967295
112.56814 62.557777 -16.97253 4294967295
112.57316 61.885632 -16.916292 4294967295
112.57319 62.222191 -16.937801 4294967295
112.57835 62.896271 -16.967602 4294967295
112.60378 56.108295 -17.404999 4294967295
112.63176 56.449203 -17.354002 4294967295
112.63704 56.786392 -17.361876 4294967295
112.65354 63.584015 -16.81572 4294967295
112.67798 57.129585 -17.277319 4294967295
112.69267 57.468437 -17.260811 4294967295
112.69651 64.26577 -16.747427 4294967295
112.71508 64.606148 -16.720861 4294967295
112.73102 65.282753 -16.722706 4294967295
112.7394 57.812805 -17.161274 4294967295
112.74591 58.486778 -17.187525 4294967295
112.74964 58.150997 -17.156279 4294967295
112.76373 59.162762 -17.18449 4294967295
112.79691 59.841572 -17.141689 4294967295
112.80343 58.833286 -17.060024 4294967295
112.81479 60.517746 -17.138493 4294967295
112.81487 60.854233 -17.159822 4294967295
112.86116 61.199265 -17.061459 4294967295
112.87108 61.874168 -17.078949 4294967295
112.88625 62.550095 -17.082767 4294967295
112.89025 62.887383 -17.094023 4294967295
112.90134 63.226051 -17.08688 4294967295
112.91729 56.100037 -17.526253 4294967295
112.97512 63.913597 -16.9389 4294967295
112.9877 57.120644 -17.408634 4294967295
113.01562 56.452553 -17.29327 4294967295
