# .PCD v0.7 - Point Cloud Data file format
VERSION 0.7
FIELDS x y z rgb
SIZE 4 4 4 4
TYPE F F F U
COUNT 1 1 1 1
WIDTH 1147
HEIGHT 1
VIEWPOINT 0 0 0 1 0 0 0
POINTS 1147
DATA ascii
50.090603 109.96014 -17.411045 4294967295
50.104836 111.09594 -17.483461 4294967295
50.105206 108.84108 -17.233454 4294967295
50.114265 112.55097 -17.608904 4294967295
50.124367 109.81883 -17.270168 4294967295
50.128418 110.78776 -17.361963 4294967295
50.135586 109.34206 -17.175949 4294967295
50.137844 110.31004 -17.274313 4294967295
50.15432 112.2529 -17.427387 4294967295
50.167442 111.77747 -17.326275 4294967295
50.181736 106.85674 -17.353008 4294967295
50.182476 111.62533 -17.253702 4294967295
50.182995 106.37425 -17.295137 4294967295
50.18861 107.18276 -17.36347 4294967295
50.192585 111.30908 -17.181318 4294967295
50.192795 112.75929 -17.340441 4294967295
50.201817 112.44249 -17.272032 4294967295
50.213879 107.35823 -17.289124 4294967295
50.217636 107.0382 -17.23992 4294967295
50.226768 107.84885 -17.295425 4294967295
50.226814 106.23788 -17.117645 4294967295
50.236416 109.46515 -17.437853 4294967295
50.237366 109.14357 -17.398874 4294967295
50.254368 108.67018 -17.283655 4294967295
50.276958 112.38804 -17.60972 4294967295
50.277649 110.93894 -17.447441 4294967295
50.27953 111.90643 -17.547113 4294967295
50.290432 108.36876 -17.11672 4294967295
50.295998 108.5331 -17.114212 4294967295
50.303257 110.47078 -17.3009 4294967295
50.30434 110.31031 -17.279194 4294967295
50.308731 109.66841 -17.192156 4294967295
50.311844 111.60354 -17.393927 4294967295
50.31591 109.35033 -17.130474 4294967295
50.316391 112.08952 -17.43063 4294967295
50.32383 111.77177 -17.368036 4294967295
50.331608 110.64859 -17.215385 4294967295
50.335545 111.13429 -17.25433 4294967295
50.340912 112.58749 -17.394611 4294967295
50.349537 106.37443 -17.299587 4294967295
50.351086 112.27138 -17.322042 4294967295
50.363007 106.05984 -17.215019 4294967295
50.375931 106.55042 -17.221222 4294967295
50.390774 108.81409 -17.415741 4294967295
50.394638 108.49418 -17.366167 4294967295
50.396591 109.46173 -17.465569 4294967295
50.398186 108.33514 -17.335506 4294967295
50.399414 110.91283 -17.615015 4294967295
50.409504 107.05278 -17.152243 4294967295
50.413059 107.37704 -17.174812 4294967295
50.425236 111.08914 -17.538811 4294967295
50.428261 111.5741 -17.581047 4294967295
50.4445 110.29511 -17.379967 4294967295
50.454285 111.75064 -17.504103 4294967295
50.458004 110.62524 -17.366325 4294967295
50.4646 111.91786 -17.484335 4294967295
50.465973 112.72404 -17.568069 4294967295
50.4664 110.79129 -17.353531 4294967295
50.470558 111.43814 -17.409399 4294967295
50.473804 109.66781 -17.202291 4294967295
50.474846 109.02386 -17.127478 4294967295
50.479191 109.34867 -17.147171 4294967295
50.482662 109.99525 -17.205576 4294967295
50.495567 112.41963 -17.424915 4294967295
50.50124 106.68837 -17.393555 4294967295
50.501339 106.04414 -17.322208 4294967295
50.504025 112.10248 -17.35866 4294967295
50.504364 110.49139 -17.179863 4294967295
50.507908 112.26591 -17.362274 4294967295
50.508358 105.887 -17.278913 4294967295
50.511402 106.21088 -17.303349 4294967295
50.51363 111.30257 -17.234934 4294967295
50.572994 108.50122 -17.327803 4294967295
50.57745 109.47034 -17.418077 4294967295
50.581306 106.89479 -17.120047 4294967295
50.589302 107.70501 -17.179731 4294967295
50.592079 108.18997 -17.222891 4294967295
50.595104 111.57465 -17.584562 4294967295
50.601181 110.61181 -17.456018 4294967295
50.605602 110.77549 -17.457697 4294967295
50.611614 109.16798 -17.25835 4294967295
50.612103 109.97383 -17.345322 4294967295
50.617371 108.68792 -17.184174 4294967295
50.623257 112.0746 -17.535467 4294967295
50.629509 109.01721 -17.175533 4294967295
50.646214 109.83263 -17.203558 4294967295
50.656803 110.16109 -17.20056 4294967295
50.67955 110.33558 -17.13562 4294967295
50.68177 111.46496 -17.251816 4294967295
50.683151 111.9492 -17.300039 4294967295
50.683754 111.78842 -17.280098 4294967295
50.683987 106.21443 -17.285919 4294967295
50.684784 111.14445 -17.205359 4294967295
50.687492 111.30721 -17.213259 4294967295
50.704384 112.76759 -17.31163 4294967295
50.704483 106.38708 -17.229164 4294967295
50.707317 106.06643 -17.183372 4294967295
50.716366 112.45247 -17.232576 4294967295
50.720783 112.29395 -17.198767 4294967295
50.739002 107.2122 -17.192457 4294967295
50.741226 110.59655 -17.556969 4294967295
50.742428 106.73074 -17.126753 4294967295
50.743858 108.50394 -17.316772 4294967295
50.747276 107.37804 -17.180132 4294967295
50.764137 107.54877 -17.136612 4294967295
50.764164 108.03222 -17.189762 4294967295
50.769024 111.25723 -17.52697 4294967295
50.777996 110.45705 -17.405689 4294967295
50.783447 108.36557 -17.155195 4294967295
50.785027 110.30006 -17.362413 4294967295
50.785084 109.97787 -17.326715 4294967295
50.786072 109.01166 -17.216661 4294967295
50.789474 109.65817 -17.275276 4294967295
50.792496 111.75439 -17.494955 4294967295
50.797356 111.11287 -17.406349 4294967295
50.798611 108.85776 -17.15336 4294967295
50.80233 109.34336 -17.193089 4294967295
50.808308 110.95821 -17.348841 4294967295
50.831871 112.5834 -17.440695 4294967295
50.832127 112.26131 -17.404282 4294967295
50.851486 106.53732 -17.322515 4294967295
50.857174 110.82585 -17.15362 4294967295
50.861115 111.95631 -17.26355 4294967295
50.861397 112.11764 -17.280268 4294967295
50.869423 106.2252 -17.221907 4294967295
50.870964 106.06493 -17.198576 4294967295
50.871674 112.44608 -17.278446 4294967295
50.877796 106.39103 -17.209246 4294967295
50.886322 111.48777 -17.118778 4294967295
50.89043 109.13705 -17.464958 4294967295
50.892696 107.52732 -17.279352 4294967295
50.893837 112.78167 -17.233471 4294967295
50.901455 107.04891 -17.19433 4294967295
50.901737 109.46577 -17.459391 4294967295
50.902081 109.30488 -17.440407 4294967295
50.911045 106.73204 -17.124022 4294967295
50.930908 107.71022 -17.158377 4294967295
50.93396 108.35656 -17.218279 4294967295
50.935978 107.87427 -17.157719 4294967295
50.939297 110.77647 -17.465 4294967295
50.939369 112.38736 -17.642061 4294967295
50.945854 109.97476 -17.352516 4294967295
50.952503 108.85066 -17.204206 4294967295
50.953941 112.55714 -17.60693 4294967295
50.957886 111.43185 -17.468496 4294967295
50.962456 109.8233 -17.274532 4294967295
50.971611 109.02285 -17.152597 4294967295
50.97229 112.08482 -17.487185 4294967295
50.972374 111.92376 -17.469143 4294967295
51.003845 111.13673 -17.266291 4294967295
51.009148 110.17285 -17.140596 4294967295
51.012001 111.30271 -17.254435 4294967295
51.015591 110.66016 -17.170444 4294967295
51.041851 105.90635 -17.169798 4294967295
51.043743 112.77203 -17.298962 4294967295
51.043903 111.64393 -17.174187 4294967295
51.056366 106.07562 -17.13488 4294967295
51.06123 106.2395 -17.134987 4294967295
51.067963 106.40443 -17.128296 4294967295
51.069519 107.37221 -17.229097 4294967295
51.090263 108.51202 -17.278023 4294967295
51.09359 111.09177 -17.549681 4294967295
51.096691 111.41577 -17.573902 4294967295
51.103756 109.64774 -17.353252 4294967295
51.109501 107.87842 -17.13731 4294967295
51.119453 108.68994 -17.189913 4294967295
51.121525 111.91376 -17.53709 4294967295
51.132095 109.01955 -17.179556 4294967295
51.157112 110.48457 -17.248508 4294967295
51.159523 110.16365 -17.204292 4294967295
51.162045 112.42123 -17.443438 4294967295
51.164013 112.58353 -17.454046 4294967295
51.169224 110.65283 -17.222345 4294967295
51.182419 110.98293 -17.209995 4294967295
51.189228 106.70136 -17.332714 4294967295
51.192959 111.63385 -17.242739 4294967295
51.205826 107.67744 -17.37896 4294967295
51.213539 107.52071 -17.333277 4294967295
51.223526 106.88184 -17.226162 4294967295
51.240139 112.30663 -17.142729 4294967295
51.252716 107.86528 -17.226805 4294967295
51.258568 108.02977 -17.223331 4294967295
51.269402 110.13084 -17.414595 4294967295
51.271877 108.68201 -17.246052 4294967295
51.271908 108.52087 -17.228214 4294967295
51.276897 111.26306 -17.511526 4294967295
51.278137 111.58601 -17.542496 4294967295
51.282516 109.01045 -17.242975 4294967295
51.298637 110.95361 -17.397367 4294967295
51.306416 112.24723 -17.511017 4294967295
51.311348 109.18826 -17.156282 4294967295
51.316357 111.12518 -17.350931 4294967295
51.323143 112.09605 -17.432734 4294967295
51.32568 112.41983 -17.459003 4294967295
51.32774 109.35892 -17.114639 4294967295
51.328648 110.32656 -17.217773 4294967295
51.329716 110.81071 -17.267101 4294967295
51.334003 111.94135 -17.375689 4294967295
51.345177 111.78682 -17.317505 4294967295
51.365898 107.02946 -17.336258 4294967295
51.375065 106.8735 -17.285349 4294967295
51.379383 107.68161 -17.358353 4294967295
51.401493 107.21072 -17.225142 4294967295
51.408562 109.4707 -17.44771 4294967295
51.416645 109.6365 -17.436186 4294967295
51.418011 108.67049 -17.324896 4294967295
51.427727 110.60967 -17.502424 4294967295
51.433445 112.06297 -17.641209 4294967295
51.441483 108.84512 -17.257687 4294967295
51.449924 109.33347 -17.280321 4294967295
51.465366 111.27628 -17.437159 4294967295
51.475819 111.76586 -17.452515 4294967295
51.478184 112.57292 -17.532555 4294967295
51.478645 111.92867 -17.460009 4294967295
51.481052 109.19027 -17.149952 4294967295
51.484699 110.96535 -17.331766 4294967295
51.486835 109.99956 -17.217678 4294967295
51.491737 110.1636 -17.217669 4294967295
51.503967 109.84832 -17.13797 4294967295
51.521236 106.21764 -17.293011 4294967295
51.530819 110.83121 -17.147209 4294967295
51.533882 111.63903 -17.224768 4294967295
51.535358 112.7682 -17.343523 4294967295
51.542896 112.28915 -17.263075 4294967295
51.543941 111.16135 -17.135202 4294967295
51.604412 107.87618 -17.169445 4294967295
51.622105 108.36983 -17.158655 4294967295
51.622932 109.98209 -17.332899 4294967295
51.628605 111.59689 -17.489582 4294967295
51.639091 108.54075 -17.114971 4294967295
51.640015 109.34727 -17.200262 4294967295
51.647221 108.86783 -17.121029 4294967295
51.647659 111.76929 -17.438452 4294967295
51.652802 110.32181 -17.26038 4294967295
51.664425 112.74615 -17.484175 4294967295
51.668625 109.525 -17.114557 4294967295
51.682331 111.95097 -17.330885 4294967295
51.696461 112.44291 -17.332994 4294967295
51.697037 105.9006 -17.228979 4294967295
51.710377 106.5527 -17.251654 4294967295
51.710747 107.51982 -17.356615 4294967295
51.712219 107.35951 -17.33359 4294967295
51.717102 106.71764 -17.245073 4294967295
51.732773 108.17693 -17.347921 4294967295
51.73418 108.66117 -17.395983 4294967295
51.742748 107.69912 -17.258738 4294967295
51.74551 108.82881 -17.372774 4294967295
51.759003 108.35306 -17.270887 4294967295
51.776257 111.10265 -17.509729 4294967295
51.784252 109.97927 -17.356867 4294967295
51.784515 112.71877 -17.657005 4294967295
51.792355 108.04969 -17.114983 4294967295
51.797668 110.7929 -17.397003 4294967295
51.813599 111.76923 -17.445776 4294967295
51.816635 109.83688 -17.22221 4294967295
51.818977 110.32182 -17.266911 4294967295
51.821495 109.35607 -17.151505 4294967295
51.828674 112.10046 -17.426781 4294967295
51.831234 110.65135 -17.258097 4294967295
51.83194 111.29652 -17.326416 4294967295
51.841206 109.68989 -17.115772 4294967295
51.863747 110.50912 -17.122978 4294967295
51.869473 112.60824 -17.332664 4294967295
51.887222 107.0421 -17.272591 4294967295
51.891304 112.2988 -17.218422 4294967295
51.899372 111.65865 -17.118422 4294967295
51.900097 108.49985 -17.385527 4294967295
51.904015 107.69627 -17.282843 4294967295
51.914276 106.57374 -17.121788 4294967295
51.932148 107.38981 -17.145874 4294967295
51.946964 111.10537 -17.499786 4294967295
51.95792 111.75639 -17.531105 4294967295
51.960609 108.37321 -17.149462 4294967295
51.970387 109.66846 -17.255909 4294967295
51.981861 109.03024 -17.143652 4294967295
51.982471 110.15906 -17.265453 4294967295
51.984505 108.87054 -17.116396 4294967295
51.989628 109.35715 -17.15106 4294967295
51.999466 110.97496 -17.292715 4294967295
52.001823 110.49272 -17.231066 4294967295
52.004818 111.46169 -17.326551 4294967295
52.007305 111.30195 -17.299864 4294967295
52.033619 112.12349 -17.29353 4294967295
52.044502 112.61357 -17.307421 4294967295
52.045193 111.64667 -17.198654 4294967295
52.056686 108.17203 -17.391062 4294967295
52.067387 107.37224 -17.263945 4294967295
52.084332 108.99363 -17.379929 4294967295
52.086536 112.31607 -17.120415 4294967295
52.092484 107.06399 -17.138033 4294967295
52.10014 108.35795 -17.252111 4294967295
52.121403 110.30441 -17.387966 4294967295
52.129124 109.34174 -17.253891 4294967295
52.130402 111.2767 -17.461758 4294967295
52.133427 109.18301 -17.220676 4294967295
52.134815 108.53894 -17.144815 4294967295
52.150154 112.4165 -17.514509 4294967295
52.151875 110.64452 -17.313559 4294967295
52.181355 110.01678 -17.136486 4294967295
52.198154 111.6389 -17.253052 4294967295
52.216953 112.13367 -17.238459 4294967295
52.225128 105.91663 -17.141436 4294967295
52.239647 111.98584 -17.138987 4294967295
52.246799 108.99147 -17.399757 4294967295
52.268536 107.7143 -17.179832 4294967295
52.286987 107.88597 -17.13109 4294967295
52.296303 108.69741 -17.186068 4294967295
52.297363 108.53679 -17.164551 4294967295
52.303577 111.44202 -17.460823 4294967295
52.312946 110.64155 -17.338594 4294967295
52.31596 111.1269 -17.380861 4294967295
52.316444 109.67631 -17.219786 4294967295
52.31646 111.93313 -17.467558 4294967295
52.321114 109.35654 -17.167549 4294967295
52.325226 111.29353 -17.365202 4294967295
52.329308 110.81229 -17.297405 4294967295
52.357204 112.27959 -17.356308 4294967295
52.35722 110.98981 -17.214621 4294967295
52.359005 110.18463 -17.119658 4294967295
52.366882 111.64042 -17.250656 4294967295
52.367508 112.76934 -17.372326 4294967295
52.407898 107.21543 -17.229845 4294967295
52.411633 112.15054 -17.142712 4294967295
52.417305 108.51035 -17.337589 4294967295
52.418037 108.02718 -17.281858 4294967295
52.42091 108.6736 -17.342316 4294967295
52.441322 108.84646 -17.286581 4294967295
52.447807 108.20529 -17.19244 4294967295
52.490295 110.16438 -17.252001 4294967295
52.500282 110.00892 -17.198381 4294967295
52.504772 109.85027 -17.164524 4294967295
52.508362 109.52984 -17.116211 4294967295
52.51265 112.43449 -17.419376 4294967295
52.514694 111.62963 -17.323544 4294967295
52.526363 111.31401 -17.246185 4294967295
52.528427 110.83149 -17.185654 4294967295
52.535732 111.15825 -17.19479 4294967295
52.538982 110.99889 -17.165405 4294967295
52.545742 112.13161 -17.265003 4294967295
52.545921 111.80923 -17.228952 4294967295
52.554825 112.6207 -17.285446 4294967295
52.565563 111.98205 -17.176022 4294967295
52.572277 112.30854 -17.187298 4294967295
45.651657 115.66898 -18.36112 4294967295
45.660954 116.63875 -18.433508 4294967295
45.662674 113.90861 -18.123447 4294967295
45.666981 115.35741 -18.268112 4294967295
45.671524 119.80614 -18.107992 4294967295
45.686623 113.11999 -17.944559 4294967295
45.695621 119.6613 -18.000017 4294967295
45.695713 116.33971 -18.267881 4294967295
45.704422 114.89903 -18.074554 4294967295
45.706444 116.98929 -18.299219 4294967295
45.711212 114.42115 -17.995575 4294967295
45.71516 113.78069 -17.909336 4294967295
45.722862 116.51778 -18.18428 4294967295
45.726131 119.57258 -18.511377 4294967295
45.735344 117.65066 -18.262671 4294967295
45.738377 114.11671 -17.858265 4294967295
45.742901 113.47646 -17.769861 4294967295
45.744267 115.8886 -18.032824 4294967295
45.74432 118.78125 -18.35416 4294967295
45.744843 115.5675 -17.99493 4294967295
45.751118 117.50017 -18.185865 4294967295
45.758389 116.05834 -17.997904 4294967295
45.770588 116.22688 -17.970173 4294967295
45.774342 119.12228 -18.277727 4294967295
45.779354 113.01671 -17.579895 4294967295
45.785145 118.00436 -18.112316 4294967295
45.79562 117.85043 -18.055313 4294967295
45.799534 117.20997 -17.969213 4294967295
45.799992 118.33548 -18.092579 4294967295
45.804146 119.30257 -18.184242 4294967295
45.81292 118.50465 -18.062136 4294967295
45.817612 118.66846 -18.062477 4294967295
45.821587 119.47477 -18.136953 4294967295
45.825562 116.31715 -18.407648 4294967295
45.838879 114.55823 -18.16151 4294967295
45.839153 114.237 -18.124773 4294967295
45.841915 116.64891 -18.382299 4294967295
45.844402 116.00785 -18.301594 4294967295
45.847084 115.04547 -18.184443 4294967295
45.84745 114.88501 -18.165218 4294967295
45.848881 112.95732 -17.945532 4294967295
45.86496 113.12802 -17.903334 4294967295
45.870945 117.14956 -18.327482 4294967295
45.873871 114.09802 -17.977234 4294967295
45.880203 118.60153 -18.453592 4294967295
45.881062 115.22765 -18.075418 4294967295
45.881485 113.7813 -17.913054 4294967295
45.883533 116.5149 -18.209063 4294967295
45.884289 116.99746 -18.259815 4294967295
45.888638 113.625 -17.868469 4294967295
45.8918 115.39517 -18.053171 4294967295
45.892063 119.09126 -18.462883 4294967295
45.895054 114.43279 -17.933838 4294967295
45.895954 117.64774 -18.287691 4294967295
45.90276 114.75913 -17.940794 4294967295
45.910233 115.72833 -18.020069 4294967295
45.913914 117.82006 -18.238504 4294967295
45.914871 116.85641 -18.127783 4294967295
45.917091 118.46491 -18.298071 4294967295
45.917156 113.96433 -17.797678 4294967295
45.921642 119.43201 -18.388206 4294967295
45.923588 115.57607 -17.952328 4294967295
45.928928 118.31193 -18.236027 4294967295
45.944679 117.35779 -18.070078 4294967295
45.948071 118.00292 -18.12887 4294967295
45.952435 118.16649 -18.130432 4294967295
45.964294 119.62077 -18.246895 4294967295
45.978741 117.54053 -17.960791 4294967295
46.000614 118.84089 -18.02206 4294967295
46.003479 116.48597 -18.385752 4294967295
46.013592 113.43912 -18.008812 4294967295
46.013817 119.33184 -18.026373 4294967295
46.020531 113.28268 -17.965059 4294967295
46.021011 114.56882 -18.106129 4294967295
46.024704 113.60676 -17.985201 4294967295
46.026627 115.53661 -18.192312 4294967295
46.028698 115.37722 -18.166729 4294967295
46.036102 118.11359 -18.442562 4294967295
46.038864 115.86579 -18.182358 4294967295
46.040367 115.06316 -18.087486 4294967295
46.047581 116.99627 -18.274813 4294967295
46.047836 114.7464 -18.023905 4294967295
46.050171 117.64069 -18.336555 4294967295
46.057449 114.43095 -17.952318 4294967295
46.063137 117.16697 -18.234648 4294967295
46.07185 118.94024 -18.39851 4294967295
46.073917 113.15501 -17.747961 4294967295
46.083649 113.96502 -17.800962 4294967295
46.086273 117.82474 -18.219784 4294967295
46.101448 118.31673 -18.216757 4294967295
46.101723 118.63835 -18.251429 4294967295
46.102829 114.2986 -17.76512 4294967295
46.107941 119.44597 -18.317497 4294967295
46.108078 116.3921 -17.977753 4294967295
46.116184 118.48705 -18.179659 4294967295
46.116669 116.23681 -17.927855 4294967295
46.141205 113.09428 -18.121162 4294967295
46.14727 117.38188 -17.938745 4294967295
46.157997 115.67584 -18.34412 4294967295
46.172508 118.84529 -18.005367 4294967295
46.185555 114.40762 -18.098627 4294967295
46.187958 119.65931 -18.037064 4294967295
46.193417 116.01971 -18.24781 4294967295
46.194309 119.18112 -17.959805 4294967295
46.198029 114.25469 -18.034279 4294967295
46.20665 113.29553 -17.895018 4294967295
46.20797 116.9932 -18.300663 4294967295
46.215225 115.22993 -18.077299 4294967295
46.215324 113.78323 -17.916239 4294967295
46.218189 113.94578 -17.92342 4294967295
46.219204 118.12528 -18.383724 4294967295
46.220097 112.9823 -17.809156 4294967295
46.229832 115.3999 -18.040703 4294967295
46.2299 119.57835 -18.504444 4294967295
46.230255 116.36461 -18.14624 4294967295
46.230412 116.68616 -18.181355 4294967295
46.231709 117.812 -18.301451 4294967295
46.238098 112.83261 -17.724174 4294967295
46.239239 116.53108 -18.130606 4294967295
46.249985 114.76955 -17.894173 4294967295
46.251373 118.62828 -18.317415 4294967295
46.256485 115.57752 -17.959227 4294967295
46.260258 113.48957 -17.713015 4294967295
46.262699 119.4392 -18.36446 4294967295
46.264526 114.61788 -17.822121 4294967295
46.268887 118.96113 -18.287886 4294967295
46.271889 115.1049 -17.848248 4294967295
46.272144 114.14024 -17.740137 4294967295
46.275497 117.35806 -18.084774 4294967295
46.276283 115.91164 -17.921164 4294967295
46.281868 113.66382 -17.650303 4294967295
46.284718 118.00702 -18.121826 4294967295
46.285698 116.23919 -17.921789 4294967295
46.30357 117.69769 -18.015898 4294967295
46.31794 113.58347 -18.139561 4294967295
46.319206 114.06639 -18.188366 4294967295
46.319534 114.2273 -18.204992 4294967295
46.320721 119.79879 -18.184076 4294967295
46.325954 113.42772 -18.091867 4294967295
46.329647 113.26927 -18.060257 4294967295
46.333588 115.52173 -18.295397 4294967295
46.334251 117.55669 -17.883741 4294967295
46.33646 115.04144 -18.231184 4294967295
46.338562 119.32821 -18.064079 4294967295
46.341087 115.36578 -18.249638 4294967295
46.350082 114.72858 -18.144773 4294967295
46.35289 113.12291 -17.955837 4294967295
46.359432 116.98441 -18.359747 4294967295
46.363239 117.30824 -18.38125 4294967295
46.363823 113.77271 -17.986528 4294967295
46.37001 115.2233 -18.124102 4294967295
46.371861 116.18884 -18.224285 4294967295
46.375591 116.51264 -18.246071 4294967295
46.377602 116.03176 -18.185064 4294967295
46.3848 113.94654 -17.926254 4294967295
46.385174 118.28653 -18.406645 4294967295
46.392601 114.43373 -17.950754 4294967295
46.396942 118.45486 -18.380695 4294967295
46.408764 116.8553 -18.158281 4294967295
46.409077 116.37327 -18.103579 4294967295
46.422825 117.66804 -18.195168 4294967295
46.426632 118.95632 -18.323734 4294967295
46.444103 114.62678 -17.776817 4294967295
46.447052 114.95026 -17.80155 4294967295
46.447952 112.85995 -17.566053 4294967295
46.448807 117.52402 -18.080633 4294967295
46.450722 118.8113 -18.216261 4294967295
46.452942 116.7228 -17.975998 4294967295
46.467972 117.85793 -18.044996 4294967295
46.490253 117.2291 -17.890663 4294967295
46.493866 118.03546 -17.966476 4294967295
46.50032 115.84407 -18.333254 4294967295
46.501862 119.327 -18.079508 4294967295
46.506454 119.16921 -18.044584 4294967295
46.509487 118.20638 -17.926203 4294967295
46.520992 113.12456 -17.953089 4294967295
46.523411 113.76911 -18.015463 4294967295
46.5243 116.82352 -18.351091 4294967295
46.526218 113.93162 -18.022863 4294967295
46.527443 119.66534 -18.020035 4294967295
46.530506 114.73806 -18.096115 4294967295
46.534481 119.50916 -17.976 4294967295
46.540367 114.26196 -18.005915 4294967295
46.549091 115.71424 -18.134031 4294967295
46.556759 117.96932 -18.355236 4294967295
46.558407 116.6846 -18.206427 4294967295
46.559059 114.59519 -17.972057 4294967295
46.561188 113.47099 -17.839218 4294967295
46.564026 116.36671 -18.149857 4294967295
46.564434 113.31219 -17.809292 4294967295
46.570251 112.83334 -17.734089 4294967295
46.570736 118.94263 -18.410276 4294967295
46.571087 114.12034 -17.873783 4294967295
46.573082 118.14059 -18.312386 4294967295
46.579487 113.64314 -17.788979 4294967295
46.581341 116.53849 -18.103302 4294967295
46.582211 116.21751 -18.064386 4294967295
46.586365 118.30992 -18.280849 4294967295
46.587959 115.25648 -17.93594 4294967295
46.593521 117.67159 -18.182896 4294967295
46.593796 115.58174 -17.949926 4294967295
46.598267 118.79984 -18.290106 4294967295
46.612614 119.45215 -18.308128 4294967295
46.615173 115.43443 -17.852566 4294967295
46.623363 115.11795 -17.786411 4294967295
46.627117 117.21087 -18.004461 4294967295
46.631001 116.08772 -17.865099 4294967295
46.634743 117.85893 -18.047476 4294967295
46.648693 113.74422 -18.171917 4294967295
46.650867 117.54773 -17.951834 4294967295
46.658909 118.51774 -18.029015 4294967295
46.676941 118.69025 -17.979824 4294967295
46.677601 119.33391 -18.048746 4294967295
46.67804 115.53055 -18.259024 4294967295
46.678535 119.17372 -18.027418 4294967295
46.683254 113.92643 -18.0613 4294967295
46.686752 119.8223 -18.068258 4294967295
46.700039 116.83026 -18.319929 4294967295
46.701641 115.0632 -18.117821 4294967295
46.711033 119.67743 -17.960173 4294967295
46.716011 115.71527 -18.135767 4294967295
46.721851 117.48712 -18.310234 4294967295
46.722221 116.6837 -18.219698 4294967295
46.722343 117.32671 -18.290565 4294967295
46.726105 114.9178 -18.009068 4294967295
46.726189 117.97208 -18.347607 4294967295
46.733627 114.76173 -17.963276 4294967295
46.735828 114.60232 -17.937254 4294967295
46.739784 112.99664 -17.744127 4294967295
46.740421 115.89148 -18.06291 4294967295
46.745258 118.62732 -18.348099 4294967295
46.750454 117.02324 -18.150488 4294967295
46.752998 115.41707 -17.962658 4294967295
46.768665 114.46203 -17.797384 4294967295
46.776695 113.18024 -17.62476 4294967295
46.778679 116.07652 -17.938604 4294967295
46.783905 118.97394 -18.240244 4294967295
46.784115 113.34569 -17.615026 4294967295
46.786144 116.40287 -17.946547 4294967295
46.786331 118.49323 -18.177736 4294967295
46.787842 114.31316 -17.708273 4294967295
46.793655 117.85486 -18.079193 4294967295
46.794182 118.33754 -18.130751 4294967295
46.794456 118.82005 -18.183233 4294967295
46.801151 119.14594 -18.194048 4294967295
46.82972 114.3969 -18.19245 4294967295
46.834179 119.64987 -18.124914 4294967295
46.841866 117.24258 -17.828773 4294967295
46.848671 115.53393 -18.246885 4294967295
46.850628 113.12379 -17.972153 4294967295
46.852055 119.8224 -18.076382 4294967295
46.85915 117.73623 -17.818098 4294967295
46.86586 114.58022 -18.076105 4294967295
46.868881 119.35095 -17.960386 4294967295
46.869759 116.51168 -18.275581 4294967295
46.875828 114.74722 -18.056925 4294967295
46.891983 113.95335 -17.907782 4294967295
46.893337 116.36593 -18.17024 4294967295
46.893639 115.4015 -18.062138 4294967295
46.908092 116.8576 -18.168978 4294967295
46.913963 117.66516 -18.236324 4294967295
46.915169 115.25426 -17.964388 4294967295
46.915176 115.09346 -17.946518 4294967295
46.916759 115.89845 -18.029818 4294967295
46.918491 113.4873 -17.755836 4294967295
46.920872 115.74026 -17.996716 4294967295
46.93322 113.01383 -17.6476 4294967295
46.935005 117.19636 -18.104755 4294967295
46.943321 119.45245 -18.323509 4294967295
46.945545 113.82575 -17.691055 4294967295
46.946487 116.72131 -18.008659 4294967295
46.949833 113.66754 -17.65729 4294967295
46.951332 118.81464 -18.222483 4294967295
46.960178 119.14194 -18.225321 4294967295
46.982586 118.35255 -18.053036 4294967295
46.986183 118.99809 -18.111017 4294967295
46.987877 119.64236 -18.176064 4294967295
46.995647 118.52181 -18.022417 4294967295
47.007858 117.40385 -17.852247 4294967295
47.010269 117.88794 -17.896826 4294967295
47.01329 112.96129 -17.971918 4294967295
47.017658 115.05401 -18.187473 4294967295
47.018776 114.25091 -18.0942 4294967295
47.02351 113.9323 -18.040993 4294967295
47.038754 118.22802 -17.826811 4294967295
47.046322 113.14241 -17.867208 4294967295
47.046852 118.71585 -17.850279 4294967295
47.059097 113.63274 -17.873325 4294967295
47.061962 115.56416 -18.076654 4294967295
47.066689 118.30011 -18.362116 4294967295
47.076817 113.48287 -17.789753 4294967295
47.085167 112.8446 -17.687422 4294967295
47.088428 118.1534 -18.263723 4294967295
47.09166 114.77877 -17.877363 4294967295
47.096272 115.26414 -17.913771 4294967295
47.098682 119.28532 -18.350466 4294967295
47.100117 116.39227 -18.024319 4294967295
47.114677 114.95401 -17.809839 4294967295
47.116909 116.56375 -17.979887 4294967295
47.121761 119.46114 -18.282761 4294967295
47.129124 114.48045 -17.702755 4294967295
47.134804 117.05762 -17.967026 4294967295
47.141201 118.66987 -18.121605 4294967295
47.145599 116.09943 -17.820013 4294967295
47.153358 117.55199 -17.951742 4294967295
47.154076 116.90908 -17.877748 4294967295
47.155743 116.74929 -17.853743 4294967295
47.160114 118.03883 -17.980188 4294967295
47.164841 117.88103 -17.944841 4294967295
47.167706 117.40034 -17.88073 4294967295
47.173069 119.01218 -18.039152 4294967295
47.184063 115.53694 -18.244631 4294967295
47.193935 117.73888 -17.819157 4294967295
47.199184 119.67254 -18.013681 4294967295
47.20216 118.87024 -17.913509 4294967295
47.208633 118.55271 -17.853855 4294967295
47.209587 115.07067 -18.096617 4294967295
47.212296 113.94678 -17.961819 4294967295
47.220234 113.46924 -17.878912 4294967295
47.220284 114.75578 -18.021338 4294967295
47.225372 117.33144 -18.287603 4294967295
47.228813 117.4944 -18.292681 4294967295
47.238483 116.85751 -18.185598 4294967295
47.239449 116.69735 -18.164207 4294967295
47.248489 113.32582 -17.756369 4294967295
47.248863 116.22095 -18.075876 4294967295
47.253384 117.8317 -18.237331 4294967295
47.253426 117.02782 -18.148085 4294967295
47.258106 116.38761 -18.059462 4294967295
47.259499 112.84998 -17.662067 4294967295
47.260765 117.99722 -18.227816 4294967295
47.267265 113.17651 -17.668951 4294967295
47.274261 114.46778 -17.78569 4294967295
47.282154 118.81493 -18.237701 4294967295
47.282772 118.97611 -18.253237 4294967295
47.285603 114.1531 -17.707998 4294967295
47.286716 115.4407 -17.846525 4294967295
47.288902 114.31602 -17.713608 4294967295
47.296486 117.21612 -18.00643 4294967295
47.302212 114.64606 -17.699961 4294967295
47.307411 118.18806 -18.072912 4294967295
47.338734 113.27948 -18.042397 4294967295
47.33984 118.69151 -18.00631 4294967295
47.346043 115.85635 -18.300371 4294967295
47.354565 115.0579 -18.179764 4294967295
47.354889 118.54039 -17.932758 4294967295
47.356136 116.18422 -18.298645 4294967295
47.356701 112.96892 -17.940229 4294967295
47.356941 118.38086 -17.907341 4294967295
47.363392 119.51102 -18.00823 4294967295
47.366158 117.7433 -17.801895 4294967295
47.371513 115.22929 -18.134855 4294967295
47.37352 119.35677 -17.952923 4294967295
47.377289 114.91133 -18.077845 4294967295
47.378983 119.84291 -17.986166 4294967295
47.384846 119.68588 -17.946638 4294967295
47.400066 113.63892 -17.850964 4294967295
47.402271 112.83601 -17.753675 4294967295
47.405155 118.30533 -18.348822 4294967295
47.4076 116.53837 -18.143833 4294967295
47.409748 116.70052 -18.153706 4294967295
47.411343 118.7916 -18.379366 4294967295
47.411366 115.73673 -18.040825 4294967295
47.415016 115.41739 -17.991674 4294967295
47.415516 114.45271 -17.882893 4294967295
47.418858 115.58063 -17.99527 4294967295
47.431335 114.14082 -17.788687 4294967295
47.431942 118.48339 -18.267555 4294967295
47.435528 113.17816 -17.666201 4294967295
47.440289 119.1319 -18.307924 4294967295
47.446331 118.65347 -18.23214 4294967295
47.456425 119.78552 -18.319492 4294967295
47.460239 117.05428 -18.002523 4294967295
47.47308 116.09733 -17.84808 4294967295
47.477261 119.63834 -18.224625 4294967295
47.479691 117.38838 -17.966204 4294967295
47.484192 117.8738 -18.003 4294967295
47.485752 119.00063 -18.121965 4294967295
47.486698 119.4837 -18.171909 4294967295
47.495735 116.91604 -17.853369 4294967295
47.500385 112.95554 -18.028168 4294967295
47.505009 119.33479 -18.086369 4294967295
47.512035 117.56993 -17.864365 4294967295
47.516773 113.93042 -18.07443 4294967295
47.521294 118.21937 -17.9014 4294967295
47.524834 113.45298 -17.991184 4294967295
47.540321 115.8746 -18.201099 4294967295
47.540863 116.1965 -18.234703 4294967295
47.541649 114.10663 -18.000261 4294967295
47.545601 114.91315 -18.074705 4294967295
47.553169 113.14874 -17.850744 4294967295
47.555984 114.75881 -18.018505 4294967295
47.564842 115.56843 -18.074823 4294967295
47.566631 114.44379 -17.943504 4294967295
47.583214 115.09747 -17.953445 4294967295
47.589634 113.332 -17.7337 4294967295
47.594032 113.65646 -17.753073 4294967295
47.594658 116.71296 -18.089289 4294967295
47.595345 119.12533 -18.353868 4294967295
47.596291 119.28671 -18.368177 4294967295
47.597385 114.30203 -17.81196 4294967295
47.597694 115.74991 -17.971169 4294967295
47.603207 116.07506 -17.986425 4294967295
47.605682 117.52406 -18.137592 4294967295
47.632362 117.70197 -18.056793 4294967295
47.6329 115.4503 -17.805372 4294967295
47.634117 112.87657 -17.515692 4294967295
47.635818 115.29125 -17.77677 4294967295
47.637886 119.63536 -18.250122 4294967295
47.639359 118.83226 -18.155634 4294967295
47.657509 119.00484 -18.106369 4294967295
47.667191 119.8153 -18.159657 4294967295
47.667919 117.24212 -17.871931 4294967295
47.66951 118.04749 -17.955151 4294967295
47.674339 117.4071 -17.866022 4294967295
47.679356 118.53643 -17.972206 4294967295
47.679634 118.37574 -17.953363 4294967295
47.690563 117.90014 -17.859514 4294967295
47.699547 116.03152 -18.24934 4294967295
47.706566 115.55357 -18.170002 4294967295
47.70982 113.14328 -17.890839 4294967295
47.718601 115.88274 -18.161152 4294967295
47.719028 113.95316 -17.945887 4294967295
47.721733 114.59818 -18.007132 4294967295
47.723022 114.43815 -17.984564 4294967295
47.744244 117.34618 -18.226707 4294967295
47.745178 116.38193 -18.11643 4294967295
47.752625 116.22581 -18.071119 4294967295
47.755497 116.87092 -18.131742 4294967295
47.756203 118.64017 -18.324972 4294967295
47.756466 113.81542 -17.789751 4294967295
47.757034 113.01134 -17.698566 4294967295
47.763752 113.33725 -17.709379 4294967295
47.765797 118.80716 -18.307364 4294967295
47.767994 113.66164 -17.729343 4294967295
47.774117 117.68688 -18.152018 4294967295
47.774311 114.95262 -17.848528 4294967295
47.782421 115.11856 -17.836391 4294967295
47.782707 119.3005 -18.29834 4294967295
47.784542 118.49766 -18.202555 4294967295
47.789021 118.33973 -18.168221 4294967295
47.789024 119.6262 -18.310627 4294967295
47.789165 116.73145 -17.989607 4294967295
47.798737 118.02431 -18.096729 4294967295
47.800358 115.45155 -17.805771 4294967295
47.800613 118.99049 -18.196636 4294967295
47.805592 115.29393 -17.768614 4294967295
47.808979 114.3306 -17.649195 4294967295
47.824284 117.07549 -17.895544 4294967295
47.861435 117.90366 -17.847443 4294967295
47.861439 114.09973 -18.056324 4294967295
47.861992 115.38654 -18.196693 4294967295
47.86261 119.51326 -18.021235 4294967295
47.867596 119.19476 -17.967197 4294967295
47.871143 116.19625 -18.251921 4294967295
47.872078 113.94547 -17.999252 4294967295
47.874538 116.03761 -18.22159 4294967295
47.874729 114.42961 -18.042875 4294967295
47.893417 113.63693 -17.88488 4294967295
47.902214 113.3206 -17.816786 4294967295
47.903461 113.48225 -17.829996 4294967295
47.913155 113.80996 -17.82983 4294967295
47.916527 116.38571 -18.102293 4294967295
47.918732 112.84805 -17.702374 4294967295
47.920174 117.83538 -18.249033 4294967295
47.92384 116.87283 -18.128716 4294967295
47.925858 117.03493 -18.139078 4294967295
47.930782 116.55556 -18.067495 4294967295
47.940876 117.36615 -18.11927 4294967295
47.947498 115.92268 -17.934597 4294967295
47.948288 118.49668 -18.216541 4294967295
47.949249 117.21064 -18.070589 4294967295
47.966572 116.73907 -17.953268 4294967295
47.973797 115.61743 -17.801952 4294967295
47.973869 117.7089 -18.033176 4294967295
47.97541 114.97481 -17.724752 4294967295
47.976562 118.67574 -18.130075 4294967295
47.978226 118.99849 -18.159546 4294967295
47.990353 118.04118 -18.007994 4294967295
47.992077 114.34145 -17.59198 4294967295
47.994728 117.56136 -17.938435 4294967295
48.001751 114.66934 -17.591915 4294967295
48.008404 119.17888 -18.066055 4294967295
48.030167 113.9409 -18.034002 4294967295
48.039715 116.19828 -18.247952 4294967295
48.045033 114.9151 -18.085978 4294967295
48.049122 113.14829 -17.875095 4294967295
48.049686 113.30951 -17.890808 4294967295
48.050098 115.8832 -18.174088 4294967295
48.051434 113.47144 -17.902174 4294967295
48.056038 115.56528 -18.116598 4294967295
48.067768 114.44669 -17.948763 4294967295
48.07024 116.37834 -18.153231 4294967295
48.076015 119.54453 -17.852356 4294967295
48.079105 115.25803 -17.99596 4294967295
48.080139 112.84547 -17.725092 4294967295
48.09531 117.84167 -18.220993 4294967295
48.096962 115.75178 -17.983549 4294967295
48.103249 117.20341 -18.120567 4294967295
48.111706 119.46037 -18.338524 4294967295
48.113716 118.81842 -18.259943 4294967295
48.11792 117.05189 -18.048704 4294967295
48.120178 113.67458 -17.666491 4294967295
48.128559 116.09338 -17.902679 4294967295
48.12904 119.79326 -18.310255 4294967295
48.130215 114.80722 -17.754135 4294967295
48.133583 116.5792 -17.937572 4294967295
48.133831 118.99224 -18.203642 4294967295
48.136253 118.18958 -18.10573 4294967295
48.139221 119.15656 -18.201582 4294967295
48.145363 114.1729 -17.627052 4294967295
48.151318 116.9122 -17.90782 4294967295
48.151424 116.75137 -17.889631 4294967295
48.15202 118.36056 -18.065439 4294967295
48.153595 113.05127 -17.472004 4294967295
48.156528 113.85789 -17.550257 4294967295
48.16573 114.66834 -17.605392 4294967295
48.167881 118.04898 -17.971405 4294967295
48.176197 119.34137 -18.083158 4294967295
48.181057 119.66626 -18.100857 4294967295
48.186211 118.70432 -17.97508 4294967295
48.19186 113.29518 -17.984268 4294967295
48.213043 113.46902 -17.924036 4294967295
48.232864 114.76816 -17.993401 4294967295
48.233597 112.99895 -17.794914 4294967295
48.234478 116.53845 -18.183178 4294967295
48.242222 113.8087 -17.852144 4294967295
48.245838 116.38478 -18.123556 4294967295
48.256313 114.13917 -17.835833 4294967295
48.263634 116.23515 -18.040245 4294967295
48.26791 116.88127 -18.095676 4294967295
48.28191 114.31588 -17.759348 4294967295
48.291538 113.99997 -17.688278 4294967295
48.296581 116.09499 -17.901133 4294967295
48.299728 118.51009 -18.156458 4294967295
48.303513 115.29479 -17.7866 4294967295
48.303574 117.70825 -18.053345 4294967295
48.310715 112.88506 -17.492983 4294967295
48.316605 118.68181 -18.112146 4294967295
48.321857 113.69672 -17.540979 4294967295
48.322197 117.55924 -17.966991 4294967295
48.324417 114.50311 -17.62059 4294967295
48.324795 118.20445 -18.028612 4294967295
48.334221 117.88871 -17.958319 4294967295
48.337017 119.82107 -18.16157 4294967295
48.337257 118.37333 -18.00054 4294967295
48.342327 117.41116 -17.875097 4294967295
48.351284 115.96842 -17.681892 4294967295
48.364487 116.78149 -17.722311 4294967295
48.369556 118.87682 -17.935049 4294967295
48.369671 119.0378 -17.952427 4294967295
48.408527 119.38477 -17.84503 4294967295
48.409626 116.70545 -18.173019 4294967295
48.412586 119.70928 -17.865692 4294967295
48.420151 119.23135 -17.784445 4294967295
48.422535 119.55479 -17.811279 4294967295
48.425087 115.10651 -17.938244 4294967295
48.42548 114.62408 -17.883419 4294967295
48.436016 114.30879 -17.809067 4294967295
48.438091 113.18359 -17.676838 4294967295
48.438965 113.506 -17.709227 4294967295
48.443012 118.49594 -18.245872 4294967295
48.444042 113.83097 -17.726141 4294967295
48.445087 113.99255 -17.740093 4294967295
48.449951 118.33955 -18.20257 4294967295
48.450062 117.21362 -18.077652 4294967295
48.458099 116.89696 -18.012516 4294967295
48.458508 112.87415 -17.566101 4294967295
48.459164 118.1846 -18.150906 4294967295
48.46209 115.61229 -17.855494 4294967295
48.46349 113.03815 -17.565567 4294967295
48.46851 115.29446 -17.796284 4294967295
48.480648 116.10667 -17.840607 4294967295
48.482422 118.03861 -18.0476 4294967295
48.485394 117.07513 -17.92992 4294967295
48.491501 117.40082 -17.943047 4294967295
48.494125 115.95419 -17.773233 4294967295
48.507618 116.60642 -17.79479 4294967295
48.507866 113.70921 -17.473463 4294967295
48.50787 114.51414 -17.562469 4294967295
48.508003 115.48003 -17.668783 4294967295
48.511509 116.44794 -17.762678 4294967295
48.512646 117.89702 -17.918667 4294967295
48.514442 115.00114 -17.591692 4294967295
48.520634 116.29272 -17.711319 4294967295
48.531483 117.58717 -17.813793 4294967295
48.533401 115.81784 -17.610949 4294967295
48.53656 119.84333 -18.044231 4294967295
48.546104 118.88401 -17.902395 4294967295
48.568405 119.22027 -17.855984 4294967295
48.5732 119.7062 -17.891739 4294967295
48.575527 113.4882 -17.823439 4294967295
48.580627 113.81314 -17.840263 4294967295
48.592148 114.14205 -17.833504 4294967295
48.596889 119.39964 -17.769056 4294967295
48.604546 115.11518 -17.894659 4294967295
48.609764 119.56895 -17.739523 4294967295
48.609787 115.92295 -17.964346 4294967295
48.612099 114.31527 -17.777945 4294967295
48.61377 114.96 -17.842972 4294967295
48.622402 114.64349 -17.775661 4294967295
48.622807 113.99999 -17.702993 4294967295
48.627686 112.87626 -17.560484 4294967295
48.631321 116.41917 -17.93856 4294967295
48.635139 117.86964 -18.084616 4294967295
48.638889 115.29746 -17.786226 4294967295
48.64278 116.5873 -17.914249 4294967295
48.644562 116.74934 -17.925488 4294967295
48.645245 113.69185 -17.584908 4294967295
48.648411 118.039 -18.053644 4294967295
48.65115 113.21252 -17.509811 4294967295
48.656635 117.40063 -17.952282 4294967295
48.665237 118.37156 -18.027397 4294967295
48.666714 114.50994 -17.59498 4294967295
48.674141 117.7336 -17.923542 4294967295
48.681492 117.09454 -17.825371 4294967295
48.691032 117.58341 -17.843699 4294967295
48.691593 119.67575 -18.072866 4294967295
48.69458 118.22942 -17.901814 4294967295
48.702423 113.46452 -17.972992 4294967295
48.703186 118.5568 -17.905787 4294967295
48.705658 119.84578 -18.038996 4294967295
48.712772 115.82647 -17.568066 4294967295
48.715103 119.04727 -17.91538 4294967295
48.730831 119.54025 -17.910971 4294967295
48.73098 115.89523 -18.134815 4294967295
48.739128 118.90179 -17.80934 4294967295
48.752964 116.06987 -18.071886 4294967295
48.765034 115.59475 -17.974232 4294967295
48.771412 114.63325 -17.844107 4294967295
48.773285 113.02499 -17.659353 4294967295
48.784294 113.99744 -17.725643 4294967295
48.79213 118.18605 -18.159235 4294967295
48.797417 114.32742 -17.713037 4294967295
48.797859 116.90257 -17.995977 4294967295
48.802109 117.70975 -18.069277 4294967295
48.809242 114.49567 -17.687395 4294967295
48.809799 113.20821 -17.543015 4294967295
48.810066 116.42751 -17.897814 4294967295
48.810711 114.8185 -17.717583 4294967295
48.810871 115.14051 -17.752571 4294967295
48.812767 118.52102 -18.119057 4294967295
48.816048 117.23589 -17.964771 4294967295
48.822628 117.07913 -17.922846 4294967295
48.825794 116.75928 -17.875645 4294967295
48.829182 114.99091 -17.667551 4294967295
48.846409 113.71358 -17.461937 4294967295
48.85091 115.32636 -17.623344 4294967295
48.865555 117.91107 -17.854202 4294967295
48.86742 115.49763 -17.580521 4294967295
48.876274 119.04455 -17.939365 4294967295
48.877235 118.40138 -17.864691 4294967295
48.886806 112.83234 -17.84025 4294967295
48.901768 118.73903 -17.810234 4294967295
48.903793 113.96912 -17.902369 4294967295
48.906811 114.29279 -17.926863 4294967295
48.921947 115.91118 -18.049109 4294967295
48.924538 113.0162 -17.719564 4294967295
48.9296 119.40086 -17.779257 4294967295
48.93428 119.72585 -17.797663 4294967295
48.939091 119.24599 -17.726646 4294967295
48.941967 117.21087 -18.11788 4294967295
48.946018 119.57245 -17.736811 4294967295
48.950951 116.57296 -18.013834 4294967295
48.953079 115.44786 -17.881582 4294967295
48.953083 113.35551 -17.650387 4294967295
48.954689 113.19552 -17.626713 4294967295
48.956242 117.70258 -18.118855 4294967295
48.95715 117.05958 -18.044436 4294967295
48.962669 116.09756 -17.917526 4294967295
48.971352 117.39038 -18.027899 4294967295
48.973915 113.52921 -17.591734 4294967295
48.974548 115.78312 -17.838392 4294967295
48.978161 116.42914 -17.896269 4294967295
48.97887 114.82007 -17.715843 4294967295
48.98217 113.85624 -17.597015 4294967295
48.997242 115.31437 -17.701807 4294967295
49.002129 118.69729 -18.057268 4294967295
49.008034 113.71107 -17.484333 4294967295
49.013649 116.93432 -17.819458 4294967295
49.021935 119.19278 -18.037991 4294967295
49.02383 115.00889 -17.568695 4294967295
49.024288 115.65318 -17.638168 4294967295
49.027607 114.52818 -17.501467 4294967295
49.029087 114.69012 -17.513838 4294967295
49.029903 118.39321 -17.919891 4294967295
49.030239 115.17387 -17.562975 4294967295
49.032177 117.58989 -17.822645 4294967295
49.042595 119.04514 -17.944469 4294967295
49.045879 117.92053 -17.807964 4294967295
49.048084 118.5658 -17.871012 4294967295
49.051281 118.88977 -17.894852 4294967295
49.052547 119.37344 -17.943552 4294967295
49.05904 118.08989 -17.777504 4294967295
49.059311 112.83649 -17.822367 4294967295
49.066864 113.32387 -17.848003 4294967295
49.086277 118.26826 -17.695431 4294967295
49.087509 114.78486 -17.932302 4294967295
49.089439 119.55823 -17.826107 4294967295
49.092865 119.72142 -17.831327 4294967295
49.093594 113.1792 -17.732239 4294967295
49.123177 115.93349 -17.926018 4294967295
49.124874 113.03725 -17.599777 4294967295
49.126385 116.90105 -18.020897 4294967295
49.131554 117.22614 -18.037504 4294967295
49.132641 113.52494 -17.62466 4294967295
49.137367 118.03438 -18.105057 4294967295
49.144142 114.65887 -17.706972 4294967295
49.147877 117.07552 -17.95994 4294967295
49.151424 114.1804 -17.626942 4294967295
49.151436 114.3414 -17.64467 4294967295
49.159504 119.49668 -18.183895 4294967295
49.174297 113.87241 -17.507534 4294967295
49.175068 119.82854 -18.162441 4294967295
49.18425 119.02987 -18.039972 4294967295
49.1884 114.52516 -17.526983 4294967295
49.188915 115.49155 -17.631798 4294967295
49.19059 117.90732 -17.892334 4294967295
49.192436 117.4256 -17.832243 4294967295
49.196976 116.78455 -17.744505 4294967295
49.207825 115.66433 -17.580286 4294967295
49.213505 118.56578 -17.879515 4294967295
49.213665 115.18488 -17.505527 4294967295
49.223679 115.83524 -17.53997 4294967295
49.226532 116.48112 -17.600655 4294967295
49.236435 117.61446 -17.688845 4294967295
49.236538 118.7415 -17.812935 4294967295
49.236546 113.80912 -17.893877 4294967295
49.245876 113.97576 -17.877485 4294967295
49.246082 113.65401 -17.841185 4294967295
49.25087 118.91168 -17.778215 4294967295
49.256004 118.27094 -17.688297 4294967295
49.262703 118.43623 -17.681545 4294967295
49.267551 113.18422 -17.709238 4294967295
49.273418 116.72852 -18.078697 4294967295
49.276268 119.41103 -17.738552 4294967295
49.27911 115.44469 -17.91573 4294967295
49.283432 113.35486 -17.668858 4294967295
49.283939 115.76957 -17.933588 4294967295
49.291744 117.54463 -18.100451 4294967295
49.295242 115.1328 -17.821131 4294967295
49.296261 113.04067 -17.586317 4294967295
49.304737 115.62157 -17.839689 4294967295
49.313145 115.94873 -17.844446 4294967295
49.313473 116.43181 -17.896555 4294967295
49.316803 112.89211 -17.493311 4294967295
49.318817 119.33189 -18.196789 4294967295
49.318905 113.53747 -17.556728 4294967295
49.321724 116.27602 -17.848595 4294967295
49.326527 118.04948 -18.026464 4294967295
49.34774 117.25817 -17.859995 4294967295
49.348427 118.54626 -17.999632 4294967295
49.357822 117.42551 -17.840866 4294967295
49.359726 114.85068 -17.549484 4294967295
49.361549 114.52974 -17.507254 4294967295
49.361828 114.36887 -17.488459 4294967295
49.363079 115.01378 -17.554993 4294967295
49.36343 119.68249 -18.069117 4294967295
49.36491 114.20972 -17.459391 4294967295
49.380054 119.04939 -17.937227 4294967295
49.382847 116.15324 -17.607086 4294967295
49.391491 118.4128 -17.824301 4294967295
49.399067 119.54453 -17.920975 4294967295
49.402504 118.90281 -17.837324 4294967295
49.410961 117.13706 -17.610846 4294967295
49.415974 112.85178 -17.744238 4294967295
49.416279 118.2676 -17.715832 4294967295
49.423824 113.17848 -17.751057 4294967295
49.425976 113.01881 -17.725412 4294967295
49.433208 113.82807 -17.78779 4294967295
49.439934 113.51022 -17.727657 4294967295
49.457657 117.70584 -18.124706 4294967295
49.473667 118.35968 -18.13722 4294967295
49.479084 114.98309 -17.74437 4294967295
49.482063 117.07754 -17.964434 4294967295
49.490368 114.66805 -17.667555 4294967295
49.499508 118.69803 -18.078291 4294967295
49.502716 119.66565 -18.173122 4294967295
49.50515 114.35511 -17.577944 4294967295
49.506691 115.96616 -17.750017 4294967295
49.510246 114.03618 -17.523743 4294967295
49.510345 117.4173 -17.896563 4294967295
49.511497 118.54475 -18.016699 4294967295
49.512527 114.84272 -17.604273 4294967295
49.516083 116.93798 -17.822294 4294967295
49.518826 114.20247 -17.510141 4294967295
49.52327 118.23033 -17.938139 4294967295
49.525196 116.13871 -17.700125 4294967295
49.526516 116.30054 -17.713057 4294967295
49.526924 115.65674 -17.64048 4294967295
49.532635 115.33823 -17.584057 4294967295
49.532925 116.46556 -17.707396 4294967295
49.544559 118.88781 -17.931376 4294967295
49.545673 115.82943 -17.589687 4294967295
49.560757 116.80505 -17.64118 4294967295
49.563087 119.38264 -17.916964 4294967295
49.573006 112.84651 -17.783241 4294967295
49.574696 117.61899 -17.679066 4294967295
49.575317 113.00888 -17.792555 4294967295
49.575718 113.33105 -17.826614 4294967295
49.577084 116.65426 -17.563696 4294967295
49.577957 119.2312 -17.844849 4294967295
49.578159 119.55332 -17.879641 4294967295
49.583416 118.1076 -17.700504 4294967295
