# .PCD v0.7 - Point Cloud Data file format
VERSION 0.7
FIELDS x y z rgb
SIZE 4 4 4 4
TYPE F F F U
COUNT 1 1 1 1
WIDTH 1120
HEIGHT 1
VIEWPOINT 0 0 0 1 0 0 0
POINTS 1120
DATA ascii
-37.402458 78.823471 -25.871891 4294967295
-37.401119 74.043266 -25.156717 4294967295
-37.385204 74.209877 -25.062145 4294967295
-37.382702 73.439949 -24.929808 4294967295
-37.38192 75.138458 -25.174574 4294967295
-37.381641 78.069733 -25.604902 4294967295
-37.375771 74.525887 -25.038174 4294967295
-37.371635 78.694778 -25.622183 4294967295
-37.360859 78.395218 -25.49732 4294967295
-37.28825 76.630287 -25.867931 4294967295
-37.279869 75.403435 -25.624474 4294967295
-37.259552 77.115852 -25.725039 4294967295
-37.239216 77.7491 -25.666409 4294967295
-37.234753 73.278069 -24.974049 4294967295
-37.231487 77.292702 -25.541409 4294967295
-37.226215 78.839119 -25.729862 4294967295
-37.191532 79.022011 -25.497663 4294967295
-37.090313 77.742188 -25.725573 4294967295
-37.088715 75.738358 -25.418642 4294967295
-37.087173 77.590523 -25.679846 4294967295
-37.086845 76.665421 -25.54121 4294967295
-37.081093 77.441223 -25.612507 4294967295
-37.080524 75.899101 -25.381235 4294967295
-37.075546 78.525223 -25.730717 4294967295
-37.069481 78.8386 -25.731619 4294967295
-37.060246 75.297768 -25.141441 4294967295
-37.054756 78.696518 -25.600882 4294967295
-37.05154 78.236435 -25.50919 4294967295
-37.044895 79.013107 -25.57394 4294967295
-37.036678 74.544159 -24.854694 4294967295
-36.957779 77.259506 -25.836523 4294967295
-36.955944 75.101822 -25.505447 4294967295
-36.95332 75.412399 -25.531603 4294967295
-36.939232 73.725914 -25.178604 4294967295
-36.93919 77.120247 -25.677654 4294967295
-36.931679 74.812088 -25.282196 4294967295
-36.924202 75.280869 -25.295525 4294967295
-36.921967 74.047829 -25.097435 4294967295
-36.920727 76.363716 -25.428942 4294967295
-36.919117 78.370232 -25.712078 4294967295
-36.916111 75.75016 -25.304314 4294967295
-36.913345 78.066498 -25.624434 4294967295
-36.908104 76.065109 -25.291058 4294967295
-36.902767 74.216942 -24.979418 4294967295
-36.784325 74.649773 -25.330353 4294967295
-36.776722 78.049576 -25.773506 4294967295
-36.76973 74.197968 -25.155479 4294967295
-36.757107 73.590034 -24.972319 4294967295
-36.755146 77.604347 -25.547768 4294967295
-36.752159 76.681046 -25.389894 4294967295
-36.751362 75.91008 -25.270693 4294967295
-36.751076 76.990501 -25.427338 4294967295
-36.750862 78.687546 -25.675102 4294967295
-36.75029 78.842239 -25.693583 4294967295
-36.74567 76.840515 -25.365135 4294967295
-36.738388 74.83963 -25.01696 4294967295
-36.737228 77.927376 -25.46213 4294967295
-36.664101 76.625816 -25.893559 4294967295
-36.653179 75.092133 -25.587362 4294967295
-36.652817 76.172134 -25.743269 4294967295
-36.645752 75.252174 -25.55579 4294967295
-36.638466 76.029198 -25.615873 4294967295
-36.636692 77.881287 -25.874607 4294967295
-36.632618 74.336502 -25.323908 4294967295
-36.620998 74.962776 -25.329727 4294967295
-36.620407 75.734818 -25.438723 4294967295
-36.61956 76.352646 -25.52314 4294967295
-36.610817 75.433678 -25.323362 4294967295
-36.610401 73.890388 -25.093636 4294967295
-36.604027 78.216194 -25.681534 4294967295
-36.60289 78.988243 -25.786438 4294967295
-36.601608 75.595207 -25.278799 4294967295
-36.601501 77.446968 -25.549902 4294967295
-36.578308 73.760361 -24.836552 4294967295
-36.477654 74.488716 -25.361723 4294967295
-36.474304 77.114182 -25.722103 4294967295
-36.460476 78.513351 -25.82494 4294967295
-36.458824 73.576851 -25.088543 4294967295
-36.457287 78.361725 -25.779106 4294967295
-36.418461 78.85614 -25.564215 4294967295
-36.417416 77.468262 -25.352949 4294967295
-36.336769 76.018639 -25.705517 4294967295
-36.33112 74.788773 -25.483494 4294967295
-36.321465 76.956215 -25.729855 4294967295
-36.32061 76.648384 -25.678431 4294967295
-36.319733 75.569115 -25.513765 4294967295
-36.31776 74.181664 -25.295815 4294967295
-36.315632 76.189499 -25.574387 4294967295
-36.309143 76.811737 -25.61763 4294967295
-36.297878 78.209084 -25.739176 4294967295
-36.295959 78.056389 -25.702618 4294967295
-36.295143 78.982452 -25.832254 4294967295
-36.290791 74.974182 -25.212727 4294967295
-36.288712 74.512611 -25.129719 4294967295
-36.287708 73.741295 -25.009232 4294967295
-36.279419 77.60688 -25.514553 4294967295
-36.278893 77.453003 -25.488104 4294967295
-36.278194 78.379288 -25.618677 4294967295
-36.273525 75.296303 -25.13238 4294967295
-36.273357 78.537491 -25.606115 4294967295
-36.272285 74.679619 -25.032833 4294967295
-36.272106 73.907555 -24.918333 4294967295
-36.266262 75.456337 -25.102184 4294967295
-36.186592 76.629791 -25.845467 4294967295
-36.186577 75.704338 -25.70985 4294967295
-36.17297 77.257507 -25.836889 4294967295
-36.165375 75.257927 -25.488106 4294967295
-36.165161 74.64077 -25.396156 4294967295
-36.123882 74.209122 -25.028532 4294967295
-36.106747 75.920921 -25.152864 4294967295
-36.028492 75.704704 -25.702106 4294967295
-36.022106 76.78952 -25.813807 4294967295
-36.017246 76.1763 -25.688324 4294967295
-36.016094 75.868637 -25.63483 4294967295
-36.0131 77.259392 -25.816216 4294967295
-36.011497 74.946327 -25.466066 4294967295
-36.006912 74.641151 -25.387657 4294967295
-35.999256 75.41877 -25.445087 4294967295
-35.997215 74.80294 -25.339951 4294967295
-35.993015 77.121086 -25.648167 4294967295
-35.992298 75.269806 -25.372072 4294967295
-35.992126 77.584625 -25.70941 4294967295
-35.990829 78.356941 -25.812817 4294967295
-35.985165 76.510078 -25.501015 4294967295
-35.976818 77.442558 -25.575953 4294967295
-35.975182 78.678116 -25.744631 4294967295
-35.974468 76.055435 -25.355764 4294967295
-35.966545 74.363159 -25.049843 4294967295
-35.966118 76.370697 -25.340429 4294967295
-35.964981 78.53212 -25.648182 4294967295
-35.963947 78.070076 -25.572996 4294967295
-35.962597 76.68219 -25.360075 4294967295
-35.962326 73.748535 -24.928867 4294967295
-35.956676 74.525124 -25.000908 4294967295
-35.953846 79.004021 -25.635223 4294967295
-35.913307 78.882721 -25.319113 4294967295
-35.854195 75.408997 -25.532124 4294967295
-35.852581 76.953232 -25.745968 4294967295
-35.8372 74.032677 -25.206083 4294967295
-35.824432 73.733459 -25.068531 4294967295
-35.813282 75.74939 -25.2813 4294967295
-35.806313 73.129135 -24.847046 4294967295
-35.790276 74.840561 -24.979416 4294967295
-35.784763 74.381325 -24.871803 4294967295
-35.778156 78.247116 -25.388226 4294967295
-35.772308 78.406189 -25.368519 4294967295
-35.704144 74.940102 -25.515305 4294967295
-35.696377 76.334991 -25.662048 4294967295
-35.695354 74.483742 -25.384214 4294967295
-35.690678 76.95665 -25.711021 4294967295
-35.686897 75.879425 -25.525997 4294967295
-35.684971 76.49823 -25.602247 4294967295
-35.681786 75.420334 -25.421482 4294967295
-35.681606 78.506554 -25.87076 4294967295
-35.681057 78.352745 -25.844286 4294967295
-35.678295 77.120728 -25.644157 4294967295
-35.674889 74.653702 -25.258938 4294967295
-35.673485 77.433144 -25.654516 4294967295
-35.668415 73.577576 -25.0543 4294967295
-35.665165 78.211258 -25.7071 4294967295
-35.648033 78.996544 -25.696089 4294967295
-35.647484 77.608147 -25.489376 4294967295
-35.645481 73.131241 -24.820904 4294967295
-35.644886 76.220856 -25.267771 4294967295
-35.643085 74.060036 -24.939003 4294967295
-35.638191 73.75473 -24.85853 4294967295
-35.632652 75.1493 -25.021599 4294967295
-35.631176 75.76825 -25.101154 4294967295
-35.630795 76.695091 -25.233694 4294967295
-35.611794 78.099762 -25.299423 4294967295
-35.59753 78.728806 -25.286646 4294967295
-35.527424 78.041107 -25.824121 4294967295
-35.525764 75.573372 -25.451979 4294967295
-35.508289 73.888145 -25.078176 4294967295
-35.500374 75.438538 -25.246473 4294967295
-35.498436 78.527237 -25.682823 4294967295
-35.498058 74.204781 -25.04949 4294967295
-35.4809 76.997742 -25.331394 4294967295
-35.479424 77.925163 -25.455843 4294967295
-35.477196 74.529526 -24.944172 4294967295
-35.384575 75.560616 -25.56674 4294967295
-35.378139 76.954536 -25.722864 4294967295
-35.376385 74.94944 -25.417795 4294967295
-35.374287 76.494606 -25.627707 4294967295
-35.370979 77.885956 -25.806295 4294967295
-35.36504 74.803688 -25.313677 4294967295
-35.363602 76.194244 -25.505861 4294967295
-35.363354 75.268181 -25.369057 4294967295
-35.357212 77.279655 -25.617365 4294967295
-35.351559 78.827225 -25.801556 4294967295
-35.348366 77.749657 -25.621206 4294967295
-35.347847 74.353424 -25.122419 4294967295
-35.347404 74.04483 -25.074181 4294967295
-35.346771 76.052933 -25.362295 4294967295
-35.34462 76.826523 -25.459314 4294967295
-35.344341 74.510529 -25.119715 4294967295
-35.337452 78.221344 -25.610222 4294967295
-35.336788 73.74382 -24.952732 4294967295
-35.335087 78.531898 -25.638191 4294967295
-35.327782 73.905075 -24.91045 4294967295
-35.326717 75.759605 -25.173012 4294967295
-35.32658 78.075699 -25.509556 4294967295
-35.324203 76.379288 -25.244986 4294967295
-35.324188 74.216789 -24.929628 4294967295
-35.316566 79.009834 -25.572495 4294967295
-35.304108 77.167168 -25.21298 4294967295
-35.295753 77.482635 -25.197906 4294967295
-35.292225 78.720764 -25.352543 4294967295
-35.21703 75.259399 -25.446938 4294967295
-35.193863 73.732567 -25.055616 4294967295
-35.185986 78.83371 -25.740973 4294967295
-35.171272 76.684357 -25.320745 4294967295
-35.061653 74.79435 -25.392345 4294967295
-35.058479 74.179054 -25.279718 4294967295
-35.057014 77.267769 -25.718445 4294967295
-35.049023 74.0317 -25.189419 4294967295
-35.047733 75.576988 -25.404915 4294967295
-35.043289 76.197998 -25.462902 4294967295
-35.0406 76.663231 -25.511013 4294967295
-35.03458 75.123772 -25.243227 4294967295
-35.033165 78.366951 -25.704704 4294967295
-35.031631 75.898193 -25.334423 4294967295
-35.024639 74.667931 -25.104511 4294967295
-35.024448 77.910873 -25.574923 4294967295
-35.020828 78.994156 -25.706123 4294967295
-35.020657 76.833191 -25.390575 4294967295
-35.020237 73.589699 -24.915577 4294967295
-35.019436 77.142944 -25.426737 4294967295
-35.017216 77.607864 -25.478222 4294967295
-35.009182 73.907013 -24.881258 4294967295
-35.00536 75.763969 -25.123663 4294967295
-35.000156 74.377388 -24.884024 4294967295
-34.998707 77.004784 -25.255764 4294967295
-34.99474 78.552063 -25.451929 4294967295
-34.989796 77.475105 -25.259291 4294967295
-34.974777 78.876892 -25.353863 4294967295
-34.909256 74.481392 -25.381687 4294967295
-34.90237 75.258659 -25.444681 4294967295
-34.890244 75.11348 -25.335451 4294967295
-34.851589 74.061218 -24.901609 4294967295
-34.844448 76.538673 -25.209877 4294967295
-34.827629 76.39724 -25.06712 4294967295
-34.808598 78.729286 -25.267742 4294967295
-34.726112 74.500374 -25.196323 4294967295
-34.72607 76.199287 -25.442772 4294967295
-34.71804 76.977539 -25.497561 4294967295
-34.714939 75.281174 -25.228712 4294967295
-34.711132 74.048103 -25.021978 4294967295
-34.707134 75.750534 -25.240265 4294967295
-34.706089 77.758881 -25.524334 4294967295
-34.704914 77.451012 -25.471104 4294967295
-34.702629 74.363503 -25.006144 4294967295
-34.700722 76.52774 -25.306652 4294967295
-34.698471 78.845573 -25.626846 4294967295
-34.69426 77.150536 -25.350197 4294967295
-34.689072 75.918854 -25.133736 4294967295
-34.688351 76.382858 -25.195881 4294967295
-34.679123 76.853439 -25.197302 4294967295
-34.674778 78.246902 -25.368099 4294967295
-34.673996 75.157776 -24.913855 4294967295
-34.669502 76.088409 -25.016428 4294967295
-34.669464 78.096687 -25.307756 4294967295
-34.664589 78.563881 -25.340239 4294967295
-34.593719 75.253319 -25.485666 4294967295
-34.583065 75.106979 -25.387299 4294967295
-34.572613 74.033569 -25.155859 4294967295
-34.572277 76.041779 -25.444843 4294967295
-34.568752 74.963356 -25.26285 4294967295
-34.56134 76.513474 -25.43413 4294967295
-34.557365 73.426788 -24.957397 4294967295
-34.549995 74.359482 -25.039419 4294967295
-34.546791 73.589149 -24.904432 4294967295
-34.539368 74.831039 -25.030939 4294967295
-34.531574 74.682373 -24.952942 4294967295
-34.52499 78.70385 -25.48872 4294967295
-34.523872 78.395912 -25.435966 4294967295
-34.500721 78.877678 -25.338257 4294967295
-34.391899 77.140228 -25.436943 4294967295
-34.388828 74.670898 -25.05677 4294967295
-34.388451 75.752747 -25.210896 4294967295
-34.388145 76.52536 -25.320679 4294967295
-34.385269 73.900826 -24.919395 4294967295
-34.38166 73.439766 -24.826441 4294967295
-34.380772 78.693108 -25.581575 4294967295
-34.374165 74.527351 -24.93001 4294967295
-34.369999 77.31176 -25.303539 4294967295
-34.364986 76.234222 -25.111151 4294967295
-34.364685 75.307266 -24.974579 4294967295
-34.360634 77.782486 -25.304106 4294967295
-34.360184 78.091759 -25.345669 4294967295
-34.359787 78.246521 -25.365248 4294967295
-34.354252 76.860558 -25.124353 4294967295
-34.352638 74.852661 -24.821609 4294967295
-34.317734 78.897865 -25.155754 4294967295
-34.263145 74.337692 -25.236797 4294967295
-34.258739 75.885704 -25.429255 4294967295
-34.253479 73.572281 -25.056185 4294967295
-34.250454 77.590714 -25.616421 4294967295
-34.241615 76.671074 -25.419502 4294967295
-34.238708 74.974022 -25.152731 4294967295
-34.237759 76.056206 -25.302616 4294967295
-34.231331 78.068954 -25.547745 4294967295
-34.218922 78.85083 -25.571449 4294967295
-34.204803 75.463249 -24.979042 4294967295
-34.181 76.408791 -24.944305 4294967295
-34.081127 76.982033 -25.441488 4294967295
-34.070621 78.380135 -25.568121 4294967295
-34.069347 74.209778 -24.9555 4294967295
-34.068371 75.292381 -25.105156 4294967295
-34.055679 75.45652 -25.037539 4294967295
-34.054874 77.15686 -25.277788 4294967295
-34.052849 75.149544 -24.972725 4294967295
-34.051655 76.695847 -25.187885 4294967295
-34.045723 74.691139 -24.855078 4294967295
-34.037891 76.861 -25.112696 4294967295
-34.034466 78.254242 -25.289608 4294967295
-34.03397 75.936699 -24.950708 4294967295
-34.032185 77.483521 -25.161686 4294967295
-34.028378 78.876976 -25.335861 4294967295
-34.023788 78.571655 -25.258665 4294967295
-34.022926 76.563438 -24.961908 4294967295
-34.020905 76.255836 -24.902826 4294967295
-33.950085 75.262444 -25.381645 4294967295
-33.946182 76.03772 -25.465696 4294967295
-33.943333 75.113045 -25.31152 4294967295
-33.937069 74.345169 -25.155462 4294967295
-33.929794 76.513634 -25.416735 4294967295
-33.922432 73.273994 -24.895367 4294967295
-33.917969 77.758415 -25.511702 4294967295
-33.914539 74.207336 -24.97364 4294967295
-33.910065 74.056061 -24.919609 4294967295
-33.90509 76.223579 -25.197262 4294967295
-33.900936 75.917694 -25.123177 4294967295
-33.90028 79.007828 -25.565159 4294967295
-33.898281 78.082748 -25.417095 4294967295
-33.895329 78.39399 -25.440855 4294967295
-33.888226 75.463654 -24.966185 4294967295
-33.848454 77.967346 -25.042336 4294967295
-33.794075 74.334 -25.256819 4294967295
-33.787197 74.030029 -25.163559 4294967295
-33.785862 76.194038 -25.466619 4294967295
-33.76503 75.282845 -25.185558 4294967295
-33.763626 76.828964 -25.398813 4294967295
-33.760529 73.43132 -24.885754 4294967295
-33.749722 74.830658 -25.010403 4294967295
-33.717171 77.328392 -25.137699 4294967295
-33.716614 77.019722 -25.089144 4294967295
-33.715515 76.402298 -24.992088 4294967295
-33.705185 78.728523 -25.253918 4294967295
-33.635532 74.64341 -25.292839 4294967295
-33.634335 74.798813 -25.306719 4294967295
-33.622276 76.507324 -25.466942 4294967295
-33.616199 75.894005 -25.334938 4294967295
-33.614227 74.195572 -25.075644 4294967295
-33.606392 73.892181 -24.975758 4294967295
-33.603062 73.740021 -24.929943 4294967295
-33.60141 74.359627 -25.007568 4294967295
-33.597977 77.916298 -25.496264 4294967295
-33.596058 76.6819 -25.304422 4294967295
-33.58223 75.610619 -25.050793 4294967295
-33.577061 77.778137 -25.32658 4294967295
-33.573326 75.462746 -24.965694 4294967295
-33.573078 78.244743 -25.365379 4294967295
-33.571804 75.309288 -24.932646 4294967295
-33.472374 75.574318 -25.385572 4294967295
-33.458439 75.275757 -25.242907 4294967295
-33.446781 73.120125 -24.848679 4294967295
-33.437881 77.609116 -25.432411 4294967295
-33.423359 78.238388 -25.419327 4294967295
-33.396149 79.032318 -25.339287 4294967295
-33.392071 77.026352 -25.020969 4294967295
-33.392033 77.953819 -25.154417 4294967295
-33.372742 78.741737 -25.130121 4294967295
-33.36121 78.596252 -25.02673 4294967295
-33.302837 75.273933 -25.255388 4294967295
-33.302822 75.583023 -25.299807 4294967295
-33.296627 76.205803 -25.345346 4294967295
-33.295227 74.970505 -25.157387 4294967295
-33.287685 73.893913 -24.948439 4294967295
-33.284863 74.205223 -24.973148 4294967295
-33.283493 74.670059 -25.03038 4294967295
-33.275856 74.83033 -24.998989 4294967295
-33.274971 73.748581 -24.836767 4294967295
-33.273994 76.68663 -25.253134 4294967295
-33.269421 78.080841 -25.421324 4294967295
-33.268456 77.309021 -25.303276 4294967295
-33.263508 77.003746 -25.224016 4294967295
-33.259876 75.924515 -25.042614 4294967295
-33.257961 78.862297 -25.452127 4294967295
-33.250984 78.249748 -25.314112 4294967295
-33.245625 77.635757 -25.187447 4294967295
-33.236179 79.034004 -25.321436 4294967295
-33.233864 75.789513 -24.837599 4294967295
-33.228603 76.566689 -24.912024 4294967295
-33.127369 77.450562 -25.439985 4294967295
-33.094532 75.93 -24.987299 4294967295
-33.075459 76.40831 -24.920303 4294967295
-33.061169 78.120071 -25.064894 4294967295
-33.030666 78.762383 -24.940088 4294967295
-32.987484 75.582489 -25.295906 4294967295
-32.981525 74.504883 -25.098553 4294967295
-32.981499 74.195686 -25.053909 4294967295
-32.978085 75.898651 -25.274576 4294967295
-32.976978 73.735115 -24.955509 4294967295
-32.975018 73.891182 -24.964012 4294967295
-32.974644 73.272865 -24.872402 4294967295
-32.96769 76.370171 -25.268488 4294967295
-32.958969 75.140022 -25.029564 4294967295
-32.956852 74.677704 -24.948019 4294967295
-32.956123 74.832878 -24.96516 4294967295
-32.954918 76.843559 -25.24576 4294967295
-32.941654 77.935638 -25.308517 4294967295
-32.941147 77.317802 -25.216072 4294967295
-32.925621 78.720871 -25.307425 4294967295
-32.924381 75.475098 -24.831884 4294967295
-32.923294 76.713074 -25.002199 4294967295
-32.923103 78.877388 -25.312037 4294967295
-32.919739 77.488861 -25.088493 4294967295
-32.919041 76.097748 -24.883476 4294967295
-32.898438 78.432991 -25.072809 4294967295
-32.897106 77.815559 -24.974569 4294967295
-32.895557 77.662125 -24.941507 4294967295
-32.882298 78.290962 -24.937637 4294967295
-32.810291 74.205223 -24.957699 4294967295
-32.798317 76.53334 -25.207293 4294967295
-32.771969 75.780113 -24.9121 4294967295
-32.732178 77.356911 -24.856298 4294967295
-32.676182 75.115173 -25.254049 4294967295
-32.674248 73.725128 -25.040735 4294967295
-32.661594 74.35289 -25.041243 4294967295
-32.660454 74.662987 -25.077698 4294967295
-32.658699 75.901115 -25.24304 4294967295
-32.657833 74.819542 -25.081614 4294967295
-32.653496 75.595825 -25.162346 4294967295
-32.648064 74.517456 -24.969036 4294967295
-32.646122 74.209557 -24.91107 4294967295
-32.645233 74.055534 -24.882666 4294967295
-32.642059 76.686577 -25.237947 4294967295
-32.63612 75.299515 -24.99674 4294967295
-32.634991 76.382744 -25.144251 4294967295
-32.625252 74.998253 -24.876509 4294967295
-32.622639 76.855927 -25.12468 4294967295
-32.617596 77.941956 -25.244854 4294967295
-32.60569 77.641945 -25.117468 4294967295
-32.604733 77.178818 -25.044218 4294967295
-32.601307 79.036659 -25.286587 4294967295
-32.595207 78.268486 -25.133144 4294967295
-32.59296 76.259796 -24.828899 4294967295
-32.587265 78.583878 -25.12215 4294967295
-32.579174 77.043663 -24.843781 4294967295
-32.569473 77.515129 -24.842724 4294967295
-32.567749 78.753738 -25.008297 4294967295
-32.560776 78.449875 -24.915298 4294967295
-32.474655 75.611267 -25.013596 4294967295
-32.3414 74.974228 -25.093679 4294967295
-32.337753 75.904678 -25.201294 4294967295
-32.33569 75.442352 -25.120472 4294967295
-32.326488 75.758461 -25.100853 4294967295
-32.312958 76.232506 -25.073273 4294967295
-32.307526 77.009773 -25.146324 4294967295
-32.302071 76.549988 -25.041945 4294967295
-32.297234 78.7183 -25.318485 4294967295
-32.294636 77.328842 -25.101061 4294967295
-32.292908 76.711563 -25.00042 4294967295
-32.289989 75.630974 -24.824974 4294967295
-32.283607 77.182602 -25.002274 4294967295
-32.282364 76.410164 -24.882812 4294967295
-32.281727 76.10125 -24.834044 4294967295
-32.277367 77.651337 -25.025414 4294967295
-32.243523 78.141388 -24.856758 4294967295
-32.238163 78.454926 -24.863852 4294967295
-32.23217 78.614273 -24.844378 4294967295
-32.182915 74.201118 -24.976175 4294967295
-32.172714 74.981934 -25.016136 4294967295
-32.169544 74.520226 -24.927668 4294967295
-32.131386 77.642075 -25.10585 4294967295
-32.128662 77.025528 -24.998417 4294967295
-32.111946 78.275612 -25.059599 4294967295
-32.022511 74.202652 -24.956345 4294967295
-32.020172 73.740234 -24.873705 4294967295
-32.009575 75.44957 -25.043774 4294967295
-31.99382 75.151817 -24.89039 4294967295
-31.991322 77.628319 -25.227098 4294967295
-31.985865 77.013916 -25.100838 4294967295
-31.977686 76.246696 -24.933569 4294967295
-31.974787 76.558258 -24.957748 4294967295
-31.96851 78.418976 -25.179766 4294967295
-31.964813 76.101608 -24.822283 4294967295
-31.962275 77.341148 -24.981758 4294967295
-31.949625 77.969536 -24.982681 4294967295
-31.929041 78.294754 -24.884432 4294967295
-31.910957 78.772881 -24.825634 4294967295
-31.870218 74.043594 -24.970657 4294967295
-31.861731 74.51384 -24.978313 4294967295
-31.856852 76.218788 -25.187798 4294967295
-31.83769 77.161041 -25.18796 4294967295
-31.835117 74.997406 -24.860615 4294967295
-31.828873 75.466164 -24.883793 4294967295
-31.801701 77.033585 -24.917095 4294967295
-31.801558 77.961845 -25.048742 4294967295
-31.695404 75.60257 -25.072573 4294967295
-31.681747 77.004753 -25.177141 4294967295
-31.677858 75.770233 -24.973572 4294967295
-31.675665 74.998245 -24.847937 4294967295
-31.67544 75.926727 -24.978977 4294967295
-31.674921 76.391197 -25.041681 4294967295
-31.674026 76.546555 -25.057596 4294967295
-31.650175 76.873856 -24.937195 4294967295
-31.649147 77.338745 -24.996376 4294967295
-31.648172 76.720642 -24.901281 4294967295
-31.642668 78.581146 -25.12837 4294967295
-31.638103 78.120621 -25.030636 4294967295
-31.637997 77.501907 -24.94154 4294967295
-31.62813 78.282967 -24.983925 4294967295
-31.547901 74.975922 -25.053774 4294967295
-31.542765 75.134369 -25.040455 4294967295
-31.541946 74.516129 -24.946493 4294967295
-31.504509 77.328514 -25.085943 4294967295
-31.503256 76.246513 -24.922792 4294967295
-31.443758 78.612587 -24.844166 4294967295
-31.368244 75.146233 -24.92407 4294967295
-31.338289 76.251495 -24.872503 4294967295
-31.332996 77.338593 -24.99052 4294967295
-31.326954 77.807312 -25.015141 4294967295
-31.326736 76.569603 -24.837185 4294967295
-31.317949 76.885696 -24.820885 4294967295
-31.315302 77.970894 -24.957094 4294967295
-31.308176 78.59523 -24.996332 4294967295
-31.301535 78.290871 -24.906572 4294967295
-31.218039 74.521332 -24.886976 4294967295
-31.199245 75.463531 -24.890221 4294967295
-31.174887 78.266785 -25.119728 4294967295
-31.057823 74.213097 -24.825382 4294967295
-31.055973 75.916695 -25.055021 4294967295
-31.046064 74.995468 -24.854946 4294967295
-30.999914 77.660645 -24.913151 4294967295
-30.983311 78.447037 -24.909527 4294967295
-30.975189 78.29847 -24.831881 4294967295
-30.866507 76.558716 -24.925447 4294967295
-30.835581 78.129539 -24.934002 4294967295
-30.713699 75.625961 -24.827024 4294967295
-30.676031 77.511414 -24.833752 4294967295
-30.575451 74.837334 -24.850031 4294967295
-30.55715 76.39856 -24.945028 4294967295
-30.526344 78.433586 -25.020679 4294967295
-30.428396 74.674339 -24.900749 4294967295
-30.390123 76.869339 -24.947695 4294967295
-30.381012 77.340469 -24.951565 4294967295
-30.377272 77.962372 -25.013931 4294967295
-30.260195 74.68132 -24.829599 4294967295
-30.248758 76.082878 -24.949398 4294967295
-30.222183 77.340851 -24.944389 4294967295
-30.048475 77.816765 -24.90222 4294967295
-29.92658 76.0868 -24.90444 4294967295
-29.756102 76.714935 -24.90634 4294967295
-29.445816 76.090729 -24.855206 4294967295
-29.411476 77.974289 -24.88623 4294967295
-29.276516 76.87294 -24.887487 4294967295
-28.944649 77.348534 -24.845131 4294967295
-49.803642 79.718002 -27.821699 4294967295
-49.781662 79.433769 -27.583256 4294967295
-49.758537 79.609421 -27.408411 4294967295
-49.622597 79.13118 -27.502504 4294967295
-49.616264 80.055168 -27.594835 4294967295
-49.583897 79.781052 -27.267483 4294967295
-49.47744 80.650261 -27.834732 4294967295
-49.475285 80.040741 -27.718534 4294967295
-49.466061 79.590942 -27.56605 4294967295
-49.465954 79.43808 -27.540693 4294967295
-49.464432 80.204376 -27.649813 4294967295
-49.44772 80.832733 -27.604143 4294967295
-49.440693 79.768776 -27.372751 4294967295
-49.429893 79.932404 -27.304523 4294967295
-49.256721 80.561775 -27.250669 4294967295
-49.15361 79.897987 -27.600918 4294967295
-49.147171 80.822128 -27.692152 4294967295
-49.138821 81.595169 -27.742668 4294967295
-49.137226 81.137917 -27.655943 4294967295
-49.131653 81.449394 -27.657082 4294967295
-49.128986 79.309891 -27.292915 4294967295
-49.127995 79.770004 -27.357613 4294967295
-49.115181 80.700798 -27.394482 4294967295
-49.111805 80.398056 -27.31686 4294967295
-49.106106 81.780937 -27.487621 4294967295
-49.101948 81.93811 -27.476486 4294967295
-48.997787 79.745132 -27.573191 4294967295
-48.992325 79.44442 -27.4779 4294967295
-48.990662 81.434807 -27.780275 4294967295
-48.978745 80.375778 -27.508253 4294967295
-48.964794 79.930328 -27.316244 4294967295
-48.933727 82.10376 -27.392443 4294967295
-48.919907 82.423775 -27.323364 4294967295
-48.845707 80.200577 -27.674849 4294967295
-48.834423 79.905594 -27.530172 4294967295
-48.826931 80.830971 -27.612408 4294967295
-48.818043 82.522469 -27.804283 4294967295
-48.815861 79.311394 -27.274876 4294967295
-48.809097 81.46064 -27.558012 4294967295
-48.806068 81.004593 -27.45927 4294967295
-48.804836 80.087486 -27.30278 4294967295
-48.80154 82.23317 -27.615345 4294967295
-48.798832 80.552574 -27.324715 4294967295
-48.795647 79.637146 -27.151552 4294967295
-48.791523 81.784195 -27.457182 4294967295
-48.790653 82.856102 -27.620043 4294967295
-48.783432 81.180046 -27.291073 4294967295
-48.782566 82.099228 -27.429676 4294967295
-48.76585 82.728218 -27.384855 4294967295
-48.695423 79.277313 -27.572884 4294967295
-48.685097 79.746353 -27.558107 4294967295
-48.644688 83.152267 -27.749599 4294967295
-48.615715 81.191879 -27.187891 4294967295
-48.606144 81.813797 -27.203903 4294967295
-48.605976 82.885513 -27.37261 4294967295
-48.528858 79.287704 -27.478848 4294967295
-48.521191 80.213379 -27.559547 4294967295
-48.514793 79.454308 -27.383955 4294967295
-48.509212 79.61277 -27.360968 4294967295
-48.50806 81.450401 -27.642515 4294967295
-48.499313 80.540817 -27.422783 4294967295
-48.491699 81.007469 -27.431133 4294967295
-48.490822 81.773552 -27.54508 4294967295
-48.489403 82.081009 -27.581594 4294967295
-48.489025 80.091599 -27.2628 4294967295
-48.484787 82.850662 -27.663841 4294967295
-48.480576 80.406044 -27.239794 4294967295
-48.475586 81.176422 -27.318937 4294967295
-48.474384 83.167183 -27.624289 4294967295
-48.468468 82.254982 -27.42861 4294967295
-48.463482 80.728996 -27.143585 4294967295
-48.452541 83.648445 -27.512184 4294967295
-48.447639 83.959503 -27.519234 4294967295
-48.442616 83.352463 -27.379641 4294967295
-48.435863 83.81852 -27.395277 4294967295
-48.386887 79.580505 -27.641779 4294967295
-48.357288 79.915176 -27.440083 4294967295
-48.325783 81.323624 -27.392033 4294967295
-48.316917 81.791626 -27.389894 4294967295
-48.295254 82.425568 -27.303852 4294967295
-48.29454 83.497787 -27.467535 4294967295
-48.285915 82.894234 -27.297682 4294967295
-48.270557 83.981422 -27.337706 4294967295
-48.214348 79.290497 -27.449465 4294967295
-48.212883 79.598045 -27.485588 4294967295
-48.207706 80.368347 -27.563034 4294967295
-48.206875 80.981308 -27.652874 4294967295
-48.196007 80.532791 -27.488564 4294967295
-48.192921 81.454109 -27.607864 4294967295
-48.178238 80.090752 -27.266016 4294967295
-48.177475 80.703941 -27.356503 4294967295
-48.170116 82.394966 -27.56089 4294967295
-48.169743 82.548386 -27.581932 4294967295
-48.160862 83.475471 -27.652332 4294967295
-48.160088 82.098854 -27.427876 4294967295
-48.151123 81.64846 -27.279644 4294967295
-48.149311 80.271927 -27.046251 4294967295
-48.148895 83.793671 -27.599907 4294967295
-48.146935 82.265038 -27.341227 4294967295
-48.14632 81.346954 -27.190672 4294967295
-48.141781 81.963959 -27.249306 4294967295
-48.141384 83.189102 -27.439735 4294967295
-48.139729 82.731529 -27.35313 4294967295
-48.132713 82.89167 -27.318213 4294967295
-48.053825 80.060402 -27.528553 4294967295
-48.042221 79.612297 -27.358282 4294967295
-48.033504 81.610794 -27.59948 4294967295
-48.019058 81.012695 -27.381124 4294967295
-47.958405 83.982162 -27.330597 4294967295
-47.954147 83.220863 -27.173826 4294967295
-47.889141 80.528221 -27.524378 4294967295
-47.886486 81.296127 -27.62291 4294967295
-47.88578 80.225304 -27.447798 4294967295
-47.883781 79.921013 -27.382675 4294967295
-47.878498 79.772964 -27.314108 4294967295
-47.873989 82.073677 -27.638802 4294967295
-47.873486 79.318306 -27.199448 4294967295
-47.86684 80.396721 -27.312912 4294967295
-47.860691 81.168304 -27.382143 4294967295
-47.855564 81.785751 -27.435797 4294967295
-47.850048 81.48497 -27.341122 4294967295
-47.845917 81.94838 -27.378958 4294967295
-47.837067 82.416481 -27.377153 4294967295
-47.835224 83.796043 -27.579142 4294967295
-47.83123 83.187798 -27.449001 4294967295
-47.831043 81.656799 -27.20573 4294967295
-47.829739 83.342384 -27.460642 4294967295
-47.825165 81.049866 -27.059652 4294967295
-47.822536 83.043434 -27.351877 4294967295
-47.805111 82.754608 -27.157257 4294967295
-47.803364 83.522087 -27.263468 4294967295
-47.762604 79.122391 -27.550472 4294967295
-47.713146 81.160233 -27.449871 4294967295
-47.708576 80.552185 -27.314955 4294967295
-47.693489 82.404366 -27.478313 4294967295
-47.693035 82.710983 -27.522766 4294967295
-47.692451 79.648628 -27.034864 4294967295
-47.554497 79.93782 -27.231537 4294967295
-47.550484 82.085548 -27.5357 4294967295
-47.547199 81.01696 -27.339405 4294967295
-47.545979 81.783783 -27.4498 4294967295
-47.542995 82.399132 -27.521313 4294967295
-47.537113 81.333076 -27.303335 4294967295
-47.532417 79.652504 -26.998602 4294967295
-47.530392 82.717842 -27.464184 4294967295
-47.526821 82.262032 -27.361996 4294967295
-47.52507 83.02935 -27.467937 4294967295
-47.513741 83.346909 -27.421482 4294967295
-47.513393 82.581612 -27.297993 4294967295
-47.506165 83.201378 -27.334051 4294967295
-47.489147 83.524742 -27.24008 4294967295
-47.469112 83.851265 -27.120893 4294967295
-47.418304 79.612663 -27.345911 4294967295
-47.416214 80.074104 -27.400768 4294967295
-47.411598 80.997307 -27.506809 4294967295
-47.409687 80.233505 -27.370363 4294967295
-47.408951 79.315201 -27.219614 4294967295
-47.385891 80.562714 -27.220005 4294967295
-47.378136 81.948723 -27.372189 4294967295
-47.359955 81.66021 -27.172298 4294967295
-47.321701 82.770363 -27.021929 4294967295
-47.286537 79.283493 -27.496658 4294967295
-47.259621 80.227928 -27.41691 4294967295
-47.219364 79.959991 -27.033478 4294967295
-47.216732 81.03508 -27.180138 4294967295
-47.216457 82.413902 -27.394503 4294967295
-47.216297 83.485901 -27.561575 4294967295
-47.214157 80.577919 -27.08647 4294967295
-47.205097 80.126862 -26.938736 4294967295
-47.204784 83.038033 -27.3936 4294967295
-47.193291 80.90451 -26.960863 4294967295
-47.190269 83.358803 -27.320938 4294967295
-47.176338 83.679077 -27.25312 4294967295
-47.165726 82.770432 -27.020399 4294967295
-47.129604 79.131317 -27.461685 4294967295
-47.108334 79.30452 -27.308928 4294967295
-47.100807 80.996437 -27.51091 4294967295
-47.100491 79.771492 -27.315889 4294967295
-47.085075 81.31794 -27.428267 4294967295
-47.073868 81.941452 -27.431309 4294967295
-47.073803 80.103287 -27.142212 4294967295
-47.073147 81.482681 -27.353216 4294967295
-47.071121 81.637817 -27.360434 4294967295
-47.063202 80.26664 -27.078156 4294967295
-47.055077 82.572517 -27.371397 4294967295
-47.043652 82.124214 -27.204361 4294967295
-47.038776 80.596542 -26.923285 4294967295
-47.02935 81.218719 -26.941238 4294967295
-46.90752 79.653282 -26.982626 4294967295
-46.878822 81.673218 -27.057114 4294967295
-46.878189 82.286781 -27.147976 4294967295
-46.862598 82.76181 -27.090803 4294967295
-46.86084 83.223244 -27.1483 4294967295
-46.791943 80.381035 -27.435404 4294967295
-46.778809 79.627487 -27.206711 4294967295
-46.778042 80.700676 -27.36838 4294967295
-46.77726 79.169212 -27.121851 4294967295
-46.772465 81.012398 -27.370222 4294967295
-46.757721 79.800644 -27.056166 4294967295
-46.756905 80.107941 -27.097427 4294967295
-46.750343 82.412483 -27.403128 4294967295
-46.748444 81.80159 -27.291435 4294967295
-46.745319 80.272217 -27.025555 4294967295
-46.742786 79.354836 -26.86051 4294967295
-46.737564 81.352463 -27.129459 4294967295
-46.730629 82.125366 -27.192072 4294967295
-46.716812 82.905045 -27.197763 4294967295
-46.707603 81.994568 -26.977592 4294967295
-46.689758 83.391533 -27.046034 4294967295
-46.627159 80.389458 -27.360363 4294967295
-46.569576 81.517311 -27.052744 4294967295
-46.48872 79.606857 -27.383152 4294967295
-46.464039 79.936539 -27.22765 4294967295
-46.454559 81.018173 -27.317154 4294967295
-46.451786 80.254623 -27.174574 4294967295
-46.448101 79.338409 -27.000437 4294967295
-46.433071 80.425644 -27.044304 4294967295
-46.425179 80.586441 -27.003227 4294967295
-46.423946 81.354034 -27.112856 4294967295
-46.420963 82.889313 -27.327738 4294967295
-46.416702 81.820816 -27.125034 4294967295
-46.415726 82.281532 -27.188822 4294967295
-46.409313 81.214806 -26.968313 4294967295
-46.398033 81.992188 -26.995193 4294967295
-46.387112 82.769287 -27.024996 4294967295
-46.376598 83.239487 -27.010254 4294967295
-46.315567 79.163139 -27.16802 4294967295
-46.308628 80.702141 -27.350233 4294967295
-46.285297 79.957916 -27.038717 4294967295
-46.264732 82.123444 -27.204636 4294967295
-46.264359 82.583534 -27.273321 4294967295
-46.244526 81.836449 -26.990669 4294967295
-46.235954 83.377647 -27.159449 4294967295
-46.162647 79.466736 -27.239353 4294967295
-46.147892 79.940353 -27.189962 4294967295
-46.147366 80.247383 -27.23345 4294967295
-46.134941 79.799217 -27.059746 4294967295
-46.126606 82.106155 -27.349874 4294967295
-46.120728 81.039017 -27.134369 4294967295
-46.105106 80.593941 -26.93446 4294967295
-46.102371 82.436157 -27.198864 4294967295
-46.100227 81.825119 -27.085697 4294967295
-46.094555 83.210068 -27.254236 4294967295
-46.088974 80.915947 -26.849916 4294967295
-46.088242 81.530022 -26.939562 4294967295
-46.073246 82.311142 -26.93606 4294967295
-46.073032 82.617996 -26.982134 4294967295
-46.05714 83.400139 -26.971321 4294967295
-45.99675 79.629173 -27.180408 4294967295
-45.982162 80.562569 -27.204224 4294967295
-45.975895 81.488129 -27.29615 4294967295
-45.971146 80.11306 -27.042358 4294967295
-45.964813 79.352257 -26.871058 4294967295
-45.945103 82.59066 -27.211185 4294967295
-45.908089 83.086647 -26.979874 4294967295
-45.829235 79.486473 -27.060963 4294967295
-45.828949 80.713158 -27.249487 4294967295
-45.827305 79.334938 -27.021317 4294967295
-45.82716 79.795052 -27.091742 4294967295
-45.824123 79.95121 -27.090755 4294967295
-45.821548 79.646957 -27.022017 4294967295
-45.810429 81.497162 -27.21739 4294967295
-45.808548 82.112053 -27.297421 4294967295
-45.805893 82.727615 -27.371084 4294967295
-45.803917 80.123466 -26.949476 4294967295
-45.802166 81.658356 -27.173761 4294967295
-45.789455 83.050125 -27.284534 4294967295
-45.78294 82.443344 -27.135921 4294967295
-45.782562 81.21711 -26.942022 4294967295
-45.766487 81.845894 -26.906128 4294967295
-45.757591 82.927902 -27.000452 4294967295
-45.644291 80.586792 -26.990625 4294967295
-45.64323 81.047821 -27.053497 4294967295
-45.633236 80.290443 -26.852779 4294967295
-45.597454 82.31842 -26.870939 4294967295
-45.525482 80.245125 -27.245007 4294967295
-45.522629 79.787849 -27.150366 4294967295
-45.518967 79.484573 -27.072941 4294967295
-45.509315 81.026825 -27.232452 4294967295
-45.506657 80.569397 -27.139418 4294967295
-45.502895 81.339508 -27.227804 4294967295
-45.501133 79.654457 -26.951595 4294967295
-45.493595 82.268135 -27.294926 4294967295
-45.493053 79.968719 -26.933441 4294967295
-45.460255 82.45356 -27.047508 4294967295
-45.452282 82.15451 -26.935061 4294967295
-45.446297 82.620377 -26.957781 4294967295
-45.374786 80.086761 -27.263168 4294967295
-45.358799 79.181519 -26.990601 4294967295
-45.341026 82.571365 -27.369402 4294967295
-45.333328 80.27877 -26.950237 4294967295
-45.331814 82.120354 -27.223291 4294967295
-45.32793 80.897339 -27.001526 4294967295
-45.325405 80.592957 -26.933447 4294967295
-45.32288 81.515556 -27.055658 4294967295
-45.184715 80.425079 -27.033459 4294967295
-45.180794 81.502235 -27.167973 4294967295
-45.177967 82.27153 -27.263824 4294967295
-45.177013 79.818672 -26.875956 4294967295
-45.171146 81.818077 -27.137291 4294967295
-45.167995 80.74749 -26.945457 4294967295
-45.164467 81.210968 -26.988167 4294967295
-45.157364 82.137917 -27.073156 4294967295
-45.153629 83.061554 -27.185381 4294967295
-45.146366 82.608536 -27.055323 4294967295
-45.138821 81.081741 -26.756567 4294967295
-45.132854 82.007942 -26.850826 4294967295
-45.066887 79.162689 -27.151903 4294967295
-45.045322 79.335838 -27.001154 4294967295
-45.009029 79.982956 -26.802532 4294967295
-44.995209 80.149216 -26.714483 4294967295
-44.993053 82.91256 -27.124361 4294967295
-44.989174 81.842644 -26.926851 4294967295
-44.981827 80.468597 -26.653742 4294967295
-44.946918 82.496681 -26.680195 4294967295
-44.874832 80.882874 -27.120897 4294967295
-44.855759 81.054131 -26.990667 4294967295
-44.855675 81.821129 -27.108547 4294967295
-44.854019 79.060974 -26.668242 4294967295
-44.852684 79.983017 -26.799807 4294967295
-44.850567 79.217613 -26.664082 4294967295
-44.849808 82.133438 -27.108625 4294967295
-44.844582 80.297424 -26.781864 4294967295
-44.842361 80.759834 -26.835106 4294967295
-44.833893 81.688362 -26.909079 4294967295
-44.832539 81.38279 -26.85071 4294967295
-44.831612 81.997353 -26.938093 4294967295
-44.829887 82.765976 -27.042727 4294967295
-44.819023 80.628143 -26.622999 4294967295
-44.817795 81.24321 -26.708012 4294967295
-44.812042 82.476265 -26.851318 4294967295
-44.727657 79.187111 -26.93108 4294967295
-44.726944 81.028481 -27.209612 4294967295
-44.722927 79.651718 -26.964067 4294967295
-44.701351 82.739525 -27.263956 4294967295
-44.577961 80.101555 -27.12369 4294967295
-44.509789 81.545891 -26.788727 4294967295
-44.507076 82.315735 -26.885254 4294967295
-44.503967 81.397881 -26.718279 4294967295
-44.503685 80.937653 -26.644953 4294967295
-44.501225 82.628181 -26.88558 4294967295
-44.492519 82.176086 -26.744631 4294967295
-44.48975 81.718239 -26.651361 4294967295
-44.477222 82.497597 -26.669069 4294967295
-44.407967 79.807343 -26.963917 4294967295
-44.398018 81.04393 -27.073257 4294967295
-44.395203 80.432846 -26.95611 4294967295
-44.39373 81.354752 -27.08614 4294967295
-44.39027 79.209602 -26.727308 4294967295
-44.380043 82.134651 -27.094522 4294967295
-44.375587 80.911392 -26.869669 4294967295
-44.372871 80.146507 -26.729647 4294967295
-44.369938 80.609688 -26.777061 4294967295
-44.366081 79.385117 -26.556856 4294967295
-44.364346 79.540237 -26.566589 4294967295
-44.364334 81.228806 -26.826706 4294967295
-44.327076 82.031258 -26.646141 4294967295
-44.320618 82.804909 -26.712584 4294967295
-44.252457 79.192764 -26.873537 4294967295
-44.181267 82.328354 -26.776096 4294967295
-44.176533 81.718788 -26.643736 4294967295
-44.105331 79.337875 -26.968443 4294967295
-44.082729 80.125809 -26.905821 4294967295
-44.076202 81.819756 -27.113232 4294967295
-44.067551 80.446716 -26.831743 4294967295
-44.066998 80.907669 -26.898132 4294967295
-44.066463 82.135757 -27.082603 4294967295
-44.062164 81.372566 -26.930311 4294967295
-44.055779 80.764565 -26.784904 4294967295
-44.054241 79.077049 -26.512882 4294967295
-44.051743 81.99617 -26.941435 4294967295
-44.048187 79.850372 -26.582598 4294967295
-44.043758 79.547272 -26.499956 4294967295
-44.04245 82.618774 -26.961584 4294967295
-44.041943 81.084404 -26.721569 4294967295
-44.034611 81.705284 -26.757418 4294967295
-44.026512 80.33091 -26.480255 4294967295
-44.024902 81.253769 -26.609064 4294967295
-43.920681 79.824028 -26.811031 4294967295
-43.892746 80.617203 -26.706171 4294967295
-43.842453 81.892357 -26.493891 4294967295
-43.783333 79.499748 -26.913212 4294967295
-43.768559 80.587616 -26.960501 4294967295
-43.76273 79.211311 -26.702085 4294967295
-43.761169 80.901382 -26.948782 4294967295
-43.758842 82.131203 -27.118647 4294967295
-43.754944 81.367577 -26.969912 4294967295
-43.751225 80.450027 -26.798988 4294967295
-43.749699 80.144371 -26.739752 4294967295
-43.748104 79.838737 -26.679939 4294967295
-43.736645 80.002724 -26.612288 4294967295
-43.732811 81.848656 -26.86446 4294967295
-43.725739 80.319824 -26.572622 4294967295
-43.725643 82.469353 -26.90164 4294967295
-43.72015 80.785667 -26.598858 4294967295
-43.712177 81.714394 -26.676767 4294967295
-43.696297 82.650551 -26.691793 4294967295
-43.689457 82.349899 -26.590281 4294967295
-43.626354 79.653778 -26.929672 4294967295
-43.603268 81.823669 -27.075686 4294967295
-43.594456 82.599174 -27.123304 4294967295
-43.59227 82.140869 -27.035404 4294967295
-43.566078 82.011887 -26.803953 4294967295
-43.550415 81.258682 -26.561934 4294967295
-43.454132 79.207428 -26.731319 4294967295
-43.449181 79.672546 -26.762632 4294967295
-43.44672 79.060501 -26.649038 4294967295
-43.443745 80.138107 -26.790073 4294967295
-43.441418 79.372414 -26.654051 4294967295
-43.438419 82.292061 -27.076889 4294967295
-43.43639 81.833534 -26.99033 4294967295
-43.430893 79.842651 -26.641159 4294967295
-43.427147 82.149132 -26.964115 4294967295
-43.421314 79.544106 -26.518202 4294967295
-43.411659 80.781647 -26.629827 4294967295
-43.410881 80.321587 -26.553116 4294967295
-43.407738 81.092407 -26.645786 4294967295
-43.406254 81.400917 -26.681061 4294967295
-43.402966 81.71109 -26.702007 4294967295
-43.393608 82.487595 -26.745419 4294967295
-43.295918 80.590881 -26.926426 4294967295
-43.277313 80.914963 -26.826267 4294967295
-43.277157 80.45446 -26.754574 4294967295
-43.234177 82.029747 -26.649561 4294967295
-43.142162 80.127884 -26.874964 4294967295
-43.141754 79.821159 -26.82482 4294967295
-43.135277 81.362343 -27.00828 4294967295
-43.125305 79.375198 -26.624537 4294967295
-43.121674 79.992851 -26.689754 4294967295
-43.121372 81.068077 -26.851631 4294967295
-43.089901 80.636101 -26.532827 4294967295
-43.087101 80.331383 -26.463758 4294967295
-43.086895 80.946091 -26.556049 4294967295
-43.086578 79.56356 -26.342247 4294967295
-43.084084 81.56311 -26.627712 4294967295
-43.08144 82.026329 -26.677259 4294967295
-43.073917 80.497017 -26.383163 4294967295
-43.073456 82.340935 -26.661179 4294967295
-42.967903 79.529594 -26.63863 4294967295
-42.937626 81.246704 -26.658037 4294967295
-42.815292 80.140488 -26.760799 4294967295
-42.800068 79.078735 -26.477072 4294967295
-42.791683 80.008141 -26.55175 4294967295
-42.791027 80.316002 -26.593443 4294967295
-42.789848 82.160194 -26.865189 4294967295
-42.787094 79.551292 -26.445349 4294967295
-42.785629 81.089005 -26.66811 4294967295
-42.779602 80.787254 -26.573889 4294967295
-42.77095 79.258308 -26.271534 4294967295
-42.768116 81.565903 -26.60071 4294967295
-42.755985 81.423409 -26.481947 4294967295
-42.755005 80.655945 -26.357094 4294967295
-42.748646 82.044769 -26.517939 4294967295
-42.744095 82.35627 -26.529032 4294967295
-42.661362 80.59893 -26.848995 4294967295
-42.649502 80.916855 -26.802748 4294967295
-42.62624 79.40139 -26.386166 4294967295
-42.505741 80.290977 -26.806999 4294967295
-42.493317 79.533981 -26.592815 4294967295
-42.492874 81.531326 -26.893225 4294967295
-42.492867 81.377754 -26.869801 4294967295
-42.488434 80.460182 -26.694853 4294967295
-42.47744 80.777374 -26.655519 4294967295
-42.463287 81.097504 -26.591465 4294967295
-42.460564 79.87056 -26.383039 4294967295
-42.451309 81.723045 -26.591181 4294967295
-42.449333 82.185776 -26.645851 4294967295
-42.438877 80.966019 -26.376953 4294967295
-42.355263 79.824745 -26.782032 4294967295
-42.341076 80.75914 -26.811258 4294967295
-42.338173 79.379028 -26.57839 4294967295
-42.331352 80.153389 -26.641876 4294967295
-42.32835 81.077888 -26.75852 4294967295
-42.314957 81.24369 -26.677202 4294967295
-42.312061 82.01445 -26.771338 4294967295
-42.295113 80.339592 -26.381981 4294967295
-42.155476 80.478035 -26.535835 4294967295
-42.151531 80.942627 -26.575075 4294967295
-42.136257 79.880371 -26.292566 4294967295
-42.131939 80.652908 -26.375605 4294967295
-42.126118 82.041504 -26.540245 4294967295
-42.124699 81.581741 -26.459162 4294967295
-42.103115 81.29393 -26.244181 4294967295
-42.097549 81.913994 -26.294142 4294967295
-42.014053 81.386292 -26.791855 4294967295
-42.013737 79.235191 -26.463043 4294967295
-42.012333 80.619629 -26.661928 4294967295
-42.002968 79.552139 -26.425827 4294967295
-41.996277 80.019241 -26.443676 4294967295
-41.984348 80.183601 -26.374132 4294967295
-41.837967 79.713234 -26.382072 4294967295
-41.818127 81.114571 -26.437613 4294967295
-41.817806 80.807404 -26.388517 4294967295
-41.813709 80.503578 -26.310104 4294967295
-41.812973 81.734116 -26.490744 4294967295
-41.799328 81.285301 -26.314867 4294967295
-41.797844 82.055359 -26.419827 4294967295
-41.7925 81.599007 -26.308428 4294967295
-41.787716 81.910873 -26.317862 4294967295
-41.711189 79.379387 -26.565268 4294967295
-41.694275 80.470299 -26.596972 4294967295
-41.678711 81.252754 -26.592661 4294967295
-41.65469 79.73671 -26.173628 4294967295
-41.628815 80.990211 -26.159275 4294967295
-41.558647 79.683159 -26.641333 4294967295
-41.529053 80.170486 -26.482044 4294967295
-41.502239 79.886696 -26.228004 4294967295
-41.488544 80.667854 -26.238329 4294967295
-41.478111 80.369537 -26.111052 4294967295
-41.470428 81.760704 -26.260941 4294967295
-41.411484 79.521103 -26.689167 4294967295
-41.375317 79.860374 -26.456251 4294967295
-41.368542 79.405029 -26.334204 4294967295
-41.364975 81.406914 -26.608641 4294967295
-41.362358 80.025581 -26.379383 4294967295
-41.359299 80.489586 -26.425453 4294967295
-41.346539 80.654724 -26.350153 4294967295
-41.344948 81.117455 -26.407541 4294967295
-41.336266 81.740311 -26.433403 4294967295
-41.334682 81.8955 -26.44441 4294967295
-41.321617 80.984581 -26.204145 4294967295
-41.230072 80.618896 -26.658476 4294967295
-41.223572 79.240929 -26.399521 4294967295
-41.19841 79.724335 -26.275154 4294967295
-41.174332 81.437508 -26.344896 4294967295
-41.065468 80.625954 -26.595423 4294967295
-41.058556 79.555695 -26.379951 4294967295
-41.053661 80.021355 -26.411856 4294967295
-41.052086 79.253731 -26.283787 4294967295
-41.048412 81.717323 -26.626478 4294967295
-41.048332 79.872253 -26.347658 4294967295
-41.047905 80.334 -26.413939 4294967295
-41.037922 79.112221 -26.151577 4294967295
-41.032394 81.116692 -26.410572 4294967295
-41.026657 81.42939 -26.412811 4294967295
-41.00893 80.983841 -26.206896 4294967295
-40.985794 81.619934 -26.121712 4294967295
-40.982597 81.315079 -26.050734 4294967295
-40.918262 79.695061 -26.527369 4294967295
-40.854824 80.827614 -26.202435 4294967295
-40.853432 80.213425 -26.099031 4294967295
-40.743904 79.402802 -26.3438 4294967295
-40.742821 79.557564 -26.358667 4294967295
-40.742035 81.096123 -26.584045 4294967295
-40.730801 80.029526 -26.335978 4294967295
-40.725521 80.495621 -26.36496 4294967295
-40.710331 81.278168 -26.364286 4294967295
-40.705372 79.128494 -26.002142 4294967295
-40.70208 80.670174 -26.208479 4294967295
-40.68663 80.37606 -26.043774 4294967295
-40.584774 79.866272 -26.393124 4294967295
-40.508339 81.472351 -26.03985 4294967295
-40.434155 79.55323 -26.39193 4294967295
-40.424492 81.099762 -26.54917 4294967295
-40.423023 79.409035 -26.283861 4294967295
-40.414635 80.493248 -26.381529 4294967295
-40.39999 80.659973 -26.292873 4294967295
-40.391716 80.051758 -26.137262 4294967295
-40.380421 79.291985 -25.935438 4294967295
-40.351669 81.472191 -26.039606 4294967295
-40.276558 79.553871 -26.383791 4294967295
