# .PCD v0.7 - Point Cloud Data file format
VERSION 0.7
FIELDS x y z rgb
SIZE 4 4 4 4
TYPE F F F U
COUNT 1 1 1 1
WIDTH 1121
HEIGHT 1
VIEWPOINT 0 0 0 1 0 0 0
POINTS 1121
DATA ascii
-33.740288 96.734802 -26.974308 4294967295
-33.701588 95.540222 -26.523947 4294967295
-33.679585 95.870285 -26.413437 4294967295
-33.672821 94.951591 -26.232355 4294967295
-33.644249 98.675278 -27.693304 4294967295
-33.623089 96.849327 -27.278513 4294967295
-33.608688 97.633728 -27.28821 4294967295
-33.595188 99.341141 -27.437292 4294967295
-33.560837 95.678467 -26.663273 4294967295
-33.559906 95.987671 -26.70116 4294967295
-33.5047 98.196304 -27.750593 4294967295
-33.502937 95.272667 -26.189508 4294967295
-33.495377 98.667419 -27.751619 4294967295
-33.478333 97.761177 -27.499176 4294967295
-33.477108 99.147728 -27.689939 4294967295
-33.469387 98.847786 -27.591497 4294967295
-33.468033 96.693649 -27.271795 4294967295
-33.459808 97.317863 -27.302731 4294967295
-33.456684 98.398872 -27.435953 4294967295
-33.455696 96.397858 -27.140877 4294967295
-33.44936 99.483994 -27.539661 4294967295
-33.448624 97.483078 -27.246439 4294967295
-33.420116 96.124908 -26.846825 4294967295
-33.405457 96.910004 -26.854874 4294967295
-33.393044 95.843315 -26.612446 4294967295
-33.384506 95.234932 -26.463743 4294967295
-33.334778 95.592094 -26.159101 4294967295
-33.318485 96.994484 -27.37015 4294967295
-33.315174 98.075615 -27.501966 4294967295
-33.299141 98.553719 -27.4561 4294967295
-33.217369 95.86171 -26.484575 4294967295
-33.205673 95.56472 -26.358265 4294967295
-33.198849 95.417145 -26.288246 4294967295
-33.175983 94.976555 -26.06146 4294967295
-33.157677 97.306526 -27.389648 4294967295
-33.154243 98.233864 -27.498363 4294967295
-33.153431 97.618759 -27.404209 4294967295
-33.151768 99.467949 -27.657978 4294967295
-33.149063 96.853073 -27.26305 4294967295
-33.145691 98.088501 -27.416471 4294967295
-33.139671 98.556534 -27.440767 4294967295
-33.127796 99.184517 -27.446259 4294967295
-33.123173 96.416534 -27.015619 4294967295
-33.123089 97.957222 -27.236382 4294967295
-33.112377 98.892204 -27.294252 4294967295
-33.110909 97.507278 -27.084835 4294967295
-33.096901 95.671738 -26.721161 4294967295
-33.096825 96.134277 -26.787075 4294967295
-33.079567 95.997078 -26.644234 4294967295
-33.07885 95.381004 -26.550596 4294967295
-33.076637 96.616661 -26.712378 4294967295
-32.987667 95.006813 -25.84631 4294967295
-32.983223 97.324173 -27.269812 4294967295
-32.973457 96.717651 -27.113197 4294967295
-32.970673 99.03096 -27.425417 4294967295
-32.946308 98.439507 -27.16703 4294967295
-32.899635 96.482269 -26.553698 4294967295
-32.886639 96.032341 -26.396544 4294967295
-32.88139 95.420395 -26.271311 4294967295
-32.878796 96.194298 -26.36396 4294967295
-32.86697 95.743042 -26.214941 4294967295
-32.842682 99.001846 -27.629644 4294967295
-32.838242 98.082481 -27.466238 4294967295
-32.824715 97.017784 -27.217388 4294967295
-32.822887 96.557388 -27.138357 4294967295
-32.817699 95.01918 -25.760151 4294967295
-32.81612 97.95063 -27.290092 4294967295
-32.809536 98.573387 -27.332575 4294967295
-32.801342 97.195038 -27.076664 4294967295
-32.799984 99.199158 -27.354403 4294967295
-32.795525 98.895615 -27.279179 4294967295
-32.793819 98.743286 -27.245234 4294967295
-32.790569 96.743378 -26.935297 4294967295
-32.783882 97.520607 -26.999258 4294967295
-32.780083 97.370277 -26.950668 4294967295
-32.772858 96.298363 -26.745567 4294967295
-32.770184 98.304871 -27.014345 4294967295
-32.76963 97.843071 -26.944187 4294967295
-32.741821 95.711884 -26.440821 4294967295
-32.728008 95.416794 -26.300306 4294967295
-32.711037 95.124641 -26.137747 4294967295
-32.691463 94.834854 -25.957056 4294967295
-32.682438 98.235542 -27.49876 4294967295
-32.674263 97.781693 -27.37571 4294967295
-32.580467 95.561806 -26.392031 4294967295
-32.577911 96.644104 -26.529009 4294967295
-32.576744 96.028244 -26.43247 4294967295
-32.560833 95.735191 -26.277582 4294967295
-32.520412 97.77877 -27.399921 4294967295
-32.519756 95.003235 -25.881191 4294967295
-32.515831 95.47023 -25.920277 4294967295
-32.513897 97.939301 -27.376753 4294967295
-32.507263 97.637817 -27.286589 4294967295
-32.497726 99.03376 -27.418879 4294967295
-32.496479 99.343063 -27.454336 4294967295
-32.489857 98.425507 -27.276068 4294967295
-32.472851 98.75074 -27.202181 4294967295
-32.46051 96.142624 -26.741365 4294967295
-32.457718 96.453743 -26.766142 4294967295
-32.445839 97.390556 -26.816151 4294967295
-32.443909 96.929901 -26.736523 4294967295
-32.441677 98.936256 -27.007931 4294967295
-32.414536 95.416092 -26.311689 4294967295
-32.409134 96.347099 -26.406767 4294967295
-32.392601 94.974281 -26.093063 4294967295
-32.39064 96.056564 -26.234169 4294967295
-32.347607 97.794708 -27.292805 4294967295
-32.326862 97.352997 -27.082958 4294967295
-32.323257 96.894157 -26.991852 4294967295
-32.271179 99.412437 -26.983831 4294967295
-32.2379 95.434952 -26.179586 4294967295
-32.213585 94.99527 -25.944746 4294967295
-32.204082 95.313232 -25.92308 4294967295
-32.199268 98.710548 -27.487495 4294967295
-32.190968 97.486359 -27.253944 4294967295
-32.188557 96.87233 -27.149189 4294967295
-32.182259 97.803162 -27.237762 4294967295
-32.1689 98.586929 -27.255497 4294967295
-32.165657 96.58651 -26.946707 4294967295
-32.158985 97.055542 -26.966656 4294967295
-32.155441 98.446289 -27.14043 4294967295
-32.155212 97.213417 -26.962597 4294967295
-32.154499 99.06366 -27.221987 4294967295
-32.145718 97.68528 -26.963036 4294967295
-32.138027 96.150887 -26.689455 4294967295
-32.134171 99.392372 -27.125502 4294967295
-32.130981 98.316582 -26.949251 4294967295
-32.113338 95.712082 -26.452473 4294967295
-32.103695 96.3386 -26.473974 4294967295
-32.097057 96.036476 -26.383936 4294967295
-32.093731 96.502609 -26.427111 4294967295
-32.08432 95.894524 -26.273752 4294967295
-32.058292 95.302216 -26.005394 4294967295
-32.042133 95.472198 -25.915668 4294967295
-32.041027 98.403931 -27.43749 4294967295
-32.021225 97.344955 -27.146784 4294967295
-32.014359 99.200958 -27.363432 4294967295
-31.972818 98.00946 -26.900648 4294967295
-31.967104 96.164391 -26.596914 4294967295
-31.955875 98.797287 -26.89378 4294967295
-31.951118 98.956245 -26.882963 4294967295
-31.904613 95.607597 -26.077145 4294967295
-31.885859 94.699043 -25.815239 4294967295
-31.862881 97.808762 -27.206564 4294967295
-31.859612 98.582542 -27.293974 4294967295
-31.857492 99.355095 -27.389269 4294967295
-31.857168 97.043694 -27.057241 4294967295
-31.855982 96.582359 -26.983074 4294967295
-31.85589 95.036659 -25.652344 4294967295
-31.845875 98.442131 -27.17734 4294967295
-31.842989 97.365952 -27.003508 4294967295
-31.83849 97.524551 -26.994499 4294967295
-31.834763 97.219856 -26.924816 4294967295
-31.833261 96.912941 -26.870462 4294967295
-31.829493 96.145508 -26.734461 4294967295
-31.821627 98.928764 -27.076241 4294967295
-31.810946 97.705917 -26.826677 4294967295
-31.80098 98.795242 -26.911999 4294967295
-31.794237 99.264572 -26.931528 4294967295
-31.789669 95.875526 -26.415869 4294967295
-31.787724 95.568748 -26.358418 4294967295
-31.769793 96.357765 -26.344912 4294967295
-31.756805 95.135353 -26.079136 4294967295
-31.756327 94.826996 -26.031769 4294967295
-31.667042 99.234749 -27.140293 4294967295
-31.666079 95.997414 -26.672056 4294967295
-31.640017 98.953461 -26.910494 4294967295
-31.593681 94.677689 -25.975658 4294967295
-31.555674 98.264618 -27.325411 4294967295
-31.549313 94.874405 -25.692249 4294967295
-31.548952 98.887711 -27.367058 4294967295
-31.54825 97.809586 -27.208597 4294967295
-31.542875 94.571487 -25.603865 4294967295
-31.526003 97.523148 -27.011896 4294967295
-31.520176 97.220467 -26.927965 4294967295
-31.511196 97.691902 -26.932177 4294967295
-31.510426 99.234474 -27.146465 4294967295
-31.50419 96.464867 -26.708317 4294967295
-31.496349 96.318199 -26.632471 4294967295
-31.492594 96.784676 -26.672611 4294967295
-31.486202 98.641899 -26.892338 4294967295
-31.483088 99.107643 -26.936831 4294967295
-31.481922 96.64077 -26.577337 4294967295
-31.478346 96.026993 -26.464834 4294967295
-31.455105 96.203781 -26.327168 4294967295
-31.41894 95.621017 -25.990726 4294967295
-31.411304 95.164955 -25.872246 4294967295
-31.391209 97.193077 -27.123869 4294967295
-31.365198 99.068657 -27.208822 4294967295
-31.360823 98.147987 -27.047218 4294967295
-31.358889 98.61245 -27.099771 4294967295
-31.336597 98.326141 -26.903116 4294967295
-31.32037 97.107994 -26.616262 4294967295
-31.316626 95.413986 -26.348963 4294967295
-31.308117 95.5765 -26.312574 4294967295
-31.286119 95.134323 -26.09576 4294967295
-31.228525 97.352837 -27.110378 4294967295
-31.224182 94.575172 -25.582922 4294967295
-31.222029 97.513374 -27.087841 4294967295
-31.216208 94.891846 -25.572214 4294967295
-31.210699 96.907593 -26.922594 4294967295
-31.206541 94.746445 -25.483902 4294967295
-31.205095 97.992569 -27.037745 4294967295
-31.198143 99.078766 -27.143616 4294967295
-31.192606 96.770912 -26.776831 4294967295
-31.186331 98.319489 -26.953196 4294967295
-31.177818 96.168053 -26.587841 4294967295
-31.173285 98.640854 -26.907785 4294967295
-31.168461 95.868401 -26.479889 4294967295
-31.1675 95.714981 -26.451357 4294967295
-31.163504 99.421722 -26.950502 4294967295
-31.163483 95.41011 -26.379961 4294967295
-31.154522 97.888046 -26.669754 4294967295
-31.136551 94.972565 -26.129671 4294967295
-31.114483 95.611336 -26.066433 4294967295
-31.086222 95.329376 -25.828999 4294967295
-31.078272 94.564301 -25.664669 4294967295
-31.047052 98.302025 -27.078259 4294967295
-31.043005 97.380676 -26.919159 4294967295
-31.019409 97.712234 -26.8018 4294967295
-31.011524 99.416733 -26.98896 4294967295
-31.004768 98.806496 -26.855192 4294967295
-30.972982 95.132965 -26.111727 4294967295
-30.933743 95.479233 -25.887419 4294967295
-30.889736 98.456558 -27.101885 4294967295
-30.888224 96.29863 -26.785044 4294967295
-30.87817 94.449913 -25.353796 4294967295
-30.876669 98.006737 -26.947119 4294967295
-30.876595 98.777954 -27.056051 4294967295
-30.875214 96.465439 -26.718208 4294967295
-30.873541 97.547035 -26.860106 4294967295
-30.872591 98.319221 -26.963097 4294967295
-30.859154 97.25248 -26.718189 4294967295
-30.856749 99.106071 -26.964542 4294967295
-30.855373 99.261673 -26.977053 4294967295
-30.852081 97.105042 -26.648052 4294967295
-30.842587 97.422905 -26.62711 4294967295
-30.836042 96.040054 -26.385267 4294967295
-30.834318 99.436874 -26.855419 4294967295
-30.827236 95.430855 -26.237499 4294967295
-30.825661 96.204399 -26.33637 4294967295
-30.819523 96.827873 -26.382164 4294967295
-30.8109 94.828568 -26.038319 4294967295
-30.799431 95.766235 -26.091654 4294967295
-30.790098 95.929619 -26.049911 4294967295
-30.780359 95.011932 -25.85186 4294967295
-30.770435 94.557701 -25.718313 4294967295
-30.754171 95.345825 -25.71706 4294967295
-30.714462 94.301071 -25.292421 4294967295
-30.700205 98.488579 -26.884434 4294967295
-30.6674 98.212196 -26.617399 4294967295
-30.65045 96.37606 -26.239246 4294967295
-30.610441 94.40554 -25.681828 4294967295
-30.585529 97.213142 -27.001608 4294967295
-30.565069 96.924385 -26.818834 4294967295
-30.555145 97.859726 -26.882565 4294967295
-30.554192 97.706375 -26.854223 4294967295
-30.552917 94.150139 -25.24605 4294967295
-30.543119 96.482552 -26.604033 4294967295
-30.534122 99.423103 -26.958323 4294967295
-30.531418 98.808685 -26.852524 4294967295
-30.530788 97.420502 -26.651453 4294967295
-30.527822 98.657936 -26.806234 4294967295
-30.525185 98.351913 -26.744581 4294967295
-30.513792 95.275352 -26.229589 4294967295
-30.511684 95.740654 -26.280935 4294967295
-30.507072 97.13475 -26.446535 4294967295
-30.504787 96.364937 -26.321585 4294967295
-30.484751 94.530312 -25.922636 4294967295
-30.477648 96.082008 -26.093327 4294967295
-30.466656 95.47448 -25.931002 4294967295
-30.436754 94.884521 -25.640059 4294967295
-30.432627 94.733803 -25.590078 4294967295
-30.425327 97.061913 -26.962194 4294967295
-30.417398 94.129562 -25.398842 4294967295
-30.41287 98.308067 -27.05242 4294967295
-30.399416 96.16095 -26.655291 4294967295
-30.397305 98.940346 -27.034201 4294967295
-30.390799 96.014816 -26.574957 4294967295
-30.366249 97.582008 -26.626951 4294967295
-30.365084 95.730507 -26.356707 4294967295
-30.357542 96.818558 -26.458597 4294967295
-30.228531 96.637108 -26.631462 4294967295
-30.222166 99.421005 -26.981298 4294967295
-30.221449 93.85585 -25.09708 4294967295
-30.220549 97.416557 -26.68659 4294967295
-30.21715 95.721642 -26.423302 4294967295
-30.214579 98.657005 -26.820816 4294967295
-30.213621 98.349304 -26.770664 4294967295
-30.21282 97.887085 -26.699751 4294967295
-30.206495 96.96701 -26.525888 4294967295
-30.206388 96.195114 -26.415945 4294967295
-30.205257 99.283424 -26.845013 4294967295
-30.204491 94.961411 -26.228258 4294967295
-30.202034 98.977966 -26.779539 4294967295
-30.194916 95.124886 -26.185238 4294967295
-30.18944 95.593452 -26.213711 4294967295
-30.184086 96.525269 -26.308569 4294967295
-30.1835 98.224358 -26.544897 4294967295
-30.147896 94.860031 -25.822897 4294967295
-30.117205 94.424957 -25.549286 4294967295
-30.114737 94.117973 -25.488792 4294967295
-30.0846 97.550385 -26.855631 4294967295
-30.081741 97.090172 -26.770855 4294967295
-30.071827 95.401512 -26.463753 4294967295
-30.067327 99.264534 -26.978769 4294967295
-30.058275 95.877571 -26.43759 4294967295
-30.019461 96.686729 -26.284281 4294967295
-30.016596 99.160164 -26.614128 4294967295
-30.013294 96.074722 -26.155233 4294967295
-29.991524 94.704445 -25.811354 4294967295
-29.961699 95.196175 -25.675175 4294967295
-29.938934 93.825516 -25.32436 4294967295
-29.935644 98.005386 -26.980017 4294967295
-29.91618 99.104424 -27.001209 4294967295
-29.909794 97.876137 -26.783796 4294967295
-29.880833 99.447823 -26.806345 4294967295
-29.879063 95.280426 -26.205584 4294967295
-29.878551 95.898811 -26.289419 4294967295
-29.87549 96.82843 -26.399643 4294967295
-29.874863 97.755569 -26.526264 4294967295
-29.8603 94.679955 -25.991566 4294967295
-29.857338 96.38237 -26.211662 4294967295
-29.853195 95.768303 -26.096401 4294967295
-29.831947 95.170143 -25.865623 4294967295
-29.830534 95.635162 -25.921579 4294967295
-29.810223 94.881302 -25.675238 4294967295
-29.808435 94.573715 -25.619478 4294967295
-29.801165 94.116531 -25.504826 4294967295
-29.791119 94.435181 -25.480686 4294967295
-29.778862 97.07917 -26.855503 4294967295
-29.77125 98.012444 -26.934883 4294967295
-29.76248 96.16861 -26.614403 4294967295
-29.761625 97.713097 -26.82649 4294967295
-29.758734 95.863358 -26.54558 4294967295
-29.758413 94.001389 -25.19422 4294967295
-29.755449 96.484077 -26.610603 4294967295
-29.746307 95.411781 -26.396435 4294967295
-29.729595 97.435219 -26.567148 4294967295
-29.726181 98.82798 -26.740206 4294967295
-29.717867 98.527344 -26.640646 4294967295
-29.717278 98.219131 -26.5931 4294967295
-29.705956 97.921265 -26.473263 4294967295
-29.695017 97.005066 -26.268791 4294967295
-29.691088 95.000038 -25.958807 4294967295
-29.675474 94.087036 -25.72261 4294967295
-29.637281 93.812981 -25.421431 4294967295
-29.606405 96.630661 -26.691092 4294967295
-29.602968 98.177559 -26.885616 4294967295
-29.546089 99.467941 -26.677292 4294967295
-29.543819 97.462616 -26.379013 4294967295
-29.540642 98.855659 -26.553606 4294967295
-29.537718 96.232521 -26.163698 4294967295
-29.537024 94.687737 -25.941071 4294967295
-29.526924 95.624557 -26.003904 4294967295
-29.526636 95.006561 -25.914766 4294967295
-29.49642 94.416206 -25.624189 4294967295
-29.49168 94.575249 -25.614107 4294967295
-29.490818 95.194626 -25.695547 4294967295
-29.453539 94.146477 -25.291954 4294967295
-29.448128 93.687218 -25.190046 4294967295
-29.442822 94.00161 -25.197983 4294967295
-29.429794 97.42112 -26.673342 4294967295
-29.427362 95.106819 -26.330605 4294967295
-29.423977 97.735504 -26.677782 4294967295
-29.418659 98.9757 -26.816069 4294967295
-29.41795 98.513275 -26.746065 4294967295
-29.41395 96.355209 -26.414654 4294967295
-29.410984 96.666939 -26.438261 4294967295
-29.407951 98.059761 -26.613707 4294967295
-29.403585 96.056046 -26.301514 4294967295
-29.399523 96.832298 -26.383064 4294967295
-29.386227 96.535965 -26.250237 4294967295
-29.385908 94.990952 -26.03035 4294967295
-29.38545 97.309158 -26.353855 4294967295
-29.379967 98.395683 -26.469372 4294967295
-29.379608 95.924133 -26.118713 4294967295
-29.369808 94.078339 -25.791479 4294967295
-29.28442 98.027267 -26.843565 4294967295
-29.283512 93.38398 -25.102579 4294967295
-29.283234 98.182777 -26.857347 4294967295
-29.257589 97.126564 -26.533346 4294967295
-29.247112 94.664505 -26.115072 4294967295
-29.209213 94.390388 -25.817364 4294967295
-29.197805 95.174057 -25.849712 4294967295
-29.192051 93.78759 -25.615139 4294967295
-29.18388 94.104446 -25.603888 4294967295
-29.168516 94.582657 -25.566185 4294967295
-29.165855 95.049156 -25.613689 4294967295
-29.130905 93.688858 -25.18318 4294967295
-29.126923 98.181923 -26.86722 4294967295
-29.126146 96.793121 -26.666594 4294967295
-29.123404 97.722168 -26.778534 4294967295
-29.119194 95.873039 -26.489714 4294967295
-29.104296 95.578033 -26.346533 4294967295
-29.100595 94.963432 -26.234818 4294967295
-29.100012 97.435722 -26.578598 4294967295
-29.097294 99.445656 -26.842709 4294967295
-29.092552 98.987114 -26.745874 4294967295
-29.091507 98.524902 -26.673735 4294967295
-29.085413 96.059258 -26.285353 4294967295
-29.07946 96.373894 -26.288982 4294967295
-29.079155 94.210464 -25.982544 4294967295
-29.066946 98.70311 -26.531162 4294967295
-29.064627 94.533043 -25.92877 4294967295
-29.064285 98.087814 -26.426476 4294967295
-29.040918 93.936325 -25.682991 4294967295
-29.039074 93.62867 -25.627123 4294967295
-29.028406 93.483711 -25.533907 4294967295
-29.014904 93.186562 -25.399939 4294967295
-28.955896 93.08532 -24.982952 4294967295
-28.952797 98.043793 -26.736494 4294967295
-28.948566 96.194443 -26.447773 4294967295
-28.940001 95.429947 -26.28195 4294967295
-28.938036 96.976784 -26.485979 4294967295
-28.931671 96.673843 -26.400026 4294967295
-28.905434 96.85318 -26.246475 4294967295
-28.89673 99.179047 -26.514015 4294967295
-28.892525 99.028664 -26.464228 4294967295
-28.882301 94.865189 -25.809435 4294967295
-28.869095 94.568069 -25.677685 4294967295
-28.837534 93.204391 -25.270927 4294967295
-28.83486 93.671135 -25.318333 4294967295
-28.833111 93.827492 -25.328396 4294967295
-28.827297 93.523247 -25.24601 4294967295
-28.817816 93.067451 -25.117323 4294967295
-28.807671 97.41452 -26.734562 4294967295
-28.800011 96.49511 -26.553349 4294967295
-28.798555 97.886482 -26.738834 4294967295
-28.794022 95.419289 -26.361528 4294967295
-28.791248 96.039902 -26.429821 4294967295
-28.789288 96.814171 -26.525219 4294967295
-28.787905 97.278877 -26.581081 4294967295
-28.784369 98.517799 -26.730986 4294967295
-28.780504 94.659119 -26.162819 4294967295
-28.777786 95.743462 -26.296638 4294967295
-28.777105 96.362183 -26.378891 4294967295
-28.775951 97.59919 -26.544754 4294967295
-28.766287 99.461845 -26.740536 4294967295
-28.76512 96.218918 -26.277256 4294967295
-28.755608 95.918739 -26.170395 4294967295
-28.747961 94.379875 -25.902248 4294967295
-28.74295 93.92054 -25.803646 4294967295
-28.7428 94.848503 -25.932972 4294967295
-28.740894 98.250694 -26.397795 4294967295
-28.740091 99.332893 -26.544258 4294967295
-28.739799 95.315125 -25.978109 4294967295
-28.738792 97.016464 -26.210188 4294967295
-28.727781 95.171654 -25.876209 4294967295
-28.71825 95.644417 -25.877779 4294967295
-28.705872 94.109123 -25.577942 4294967295
-28.700506 93.185623 -25.411722 4294967295
-28.644306 97.574738 -26.719501 4294967295
-28.64418 96.957069 -26.63199 4294967295
-28.640753 98.195839 -26.782513 4294967295
-28.633219 97.739738 -26.667379 4294967295
-28.607157 94.8283 -26.081875 4294967295
-28.598925 95.763435 -26.157213 4294967295
-28.593212 98.550407 -26.509466 4294967295
-28.568127 93.472137 -25.626532 4294967295
-28.528549 94.28183 -25.471453 4294967295
-28.503967 93.839951 -25.242519 4294967295
-28.500193 93.069267 -25.108717 4294967295
-28.490028 96.027214 -26.526814 4294967295
-28.489407 95.718796 -26.479351 4294967295
-28.481039 95.417542 -26.380396 4294967295
-28.474939 97.122787 -26.578142 4294967295
-28.471119 98.979851 -26.812563 4294967295
-28.467482 96.975349 -26.506914 4294967295
-28.46666 96.20356 -26.393145 4294967295
-28.45886 96.674454 -26.4063 4294967295
-28.451111 97.608856 -26.484766 4294967295
-28.45092 98.381485 -26.591784 4294967295
-28.450565 94.827431 -26.091097 4294967295
-28.436981 95.14917 -26.044138 4294967295
-28.434574 98.088142 -26.439865 4294967295
-28.434423 98.860794 -26.547155 4294967295
-28.432022 95.926788 -26.11956 4294967295
-28.42675 97.322906 -26.279568 4294967295
-28.425442 98.560432 -26.44417 4294967295
-28.424538 95.624542 -26.026453 4294967295
-28.423082 99.489716 -26.558428 4294967295
-28.413795 99.344223 -26.475098 4294967295
-28.412575 95.017059 -25.860186 4294967295
-28.410032 94.091331 -25.713133 4294967295
-28.403837 93.942276 -25.65023 4294967295
-28.395855 93.175858 -25.488636 4294967295
-28.390812 93.7994 -25.541908 4294967295
-28.379631 93.500038 -25.424139 4294967295
-28.361839 92.742096 -25.197229 4294967295
-28.312862 98.517494 -26.745232 4294967295
-28.270098 96.240105 -26.136864 4294967295
-28.262037 97.02063 -26.191662 4294967295
-28.255823 95.480255 -25.933817 4294967295
-28.235807 93.02317 -25.454077 4294967295
-28.235565 94.570808 -25.669317 4294967295
-28.195383 92.594971 -25.120541 4294967295
-28.191544 93.991913 -25.290335 4294967295
-28.185549 93.687706 -25.207134 4294967295
-28.160408 97.43158 -26.630033 4294967295
-28.152958 94.656799 -26.191284 4294967295
-28.150934 98.367455 -26.69701 4294967295
-28.14995 95.587051 -26.301203 4294967295
-28.14871 96.360977 -26.401169 4294967295
-28.144335 95.90139 -26.307276 4294967295
-28.143307 98.683701 -26.689753 4294967295
-28.137526 99.307129 -26.737942 4294967295
-28.130888 98.077599 -26.521038 4294967295
-28.130291 93.749664 -25.911163 4294967295
-28.125261 98.237473 -26.505413 4294967295
-28.124386 96.074516 -26.196754 4294967295
-28.121283 99.16832 -26.608797 4294967295
-28.116144 99.482269 -26.618017 4294967295
-28.116123 94.999825 -25.990498 4294967295
-28.106966 98.564011 -26.427525 4294967295
-28.106527 94.235275 -25.81863 4294967295
-28.105055 97.793068 -26.306728 4294967295
-28.103798 98.876122 -26.44981 4294967295
-28.099424 96.716248 -26.117971 4294967295
-28.098221 97.644974 -26.23983 4294967295
-28.098026 96.872169 -26.130362 4294967295
-28.090502 95.487411 -25.885687 4294967295
-28.087584 96.26342 -25.974609 4294967295
-28.086746 92.860588 -25.492529 4294967295
-28.0762 95.191223 -25.747618 4294967295
-28.072113 93.338043 -25.460545 4294967295
-28.064262 94.119003 -25.516869 4294967295
-28.04533 93.207344 -25.26133 4294967295
-28.044008 93.672997 -25.317602 4294967295
-28.041861 92.591087 -25.151594 4294967295
-27.993864 97.903748 -26.637928 4294967295
-27.989241 96.671951 -26.434483 4294967295
-27.982077 95.751228 -26.257389 4294967295
-27.981346 96.988449 -26.425507 4294967295
-27.977415 95.291733 -26.161694 4294967295
-27.922546 96.27037 -25.928587 4294967295
-27.907135 92.570473 -25.307049 4294967295
-27.90316 94.431595 -25.540648 4294967295
-27.843821 97.278809 -26.603785 4294967295
-27.839441 95.737473 -26.3589 4294967295
-27.836338 96.204048 -26.403227 4294967295
-27.835089 96.823418 -26.481375 4294967295
-27.830292 95.591339 -26.276894 4294967295
-27.826696 98.067551 -26.598717 4294967295
-27.824734 94.823395 -26.132141 4294967295
-27.824705 97.760399 -26.542393 4294967295
-27.809996 95.300797 -26.099657 4294967295
-27.809214 96.383858 -26.245754 4294967295
-27.808296 94.065079 -25.915489 4294967295
-27.805784 94.68605 -25.985382 4294967295
-27.805033 98.242653 -26.47735 4294967295
-27.802145 99.1726 -26.587845 4294967295
-27.800064 95.928497 -26.120522 4294967295
-27.793324 96.553268 -26.162466 4294967295
-27.786858 94.54863 -25.838758 4294967295
-27.786581 95.012962 -25.901806 4294967295
-27.781252 99.038116 -26.428415 4294967295
-27.780737 93.161583 -25.603655 4294967295
-27.770348 96.110687 -25.945946 4294967295
-27.770195 95.492081 -25.858459 4294967295
-27.769636 93.635834 -25.59523 4294967295
-27.769073 97.039841 -26.067215 4294967295
-27.758799 95.19313 -25.739969 4294967295
-27.750444 93.033905 -25.381887 4294967295
-27.735205 92.582993 -25.216249 4294967295
-27.73004 92.897301 -25.22543 4294967295
-27.706343 93.38311 -25.133829 4294967295
-27.683495 96.045181 -26.415598 4294967295
-27.663414 96.682129 -26.3696 4294967295
-27.64719 98.706696 -26.54324 4294967295
-27.636435 94.232628 -25.846207 4294967295
-27.631121 97.485344 -26.26473 4294967295
-27.628508 99.497299 -26.528048 4294967295
-27.62455 97.336906 -26.199854 4294967295
-27.614542 97.964821 -26.220263 4294967295
-27.609024 93.793175 -25.600626 4294967295
-27.600876 92.562073 -25.373894 4294967295
-27.59211 94.427567 -25.575567 4294967295
-27.585052 94.124382 -25.485786 4294967295
-27.5203 95.43206 -26.29516 4294967295
-27.519953 96.050766 -26.379166 4294967295
-27.518967 96.824547 -26.480516 4294967295
-27.515091 94.354401 -26.109837 4294967295
-27.510796 94.976891 -26.167891 4294967295
-27.508261 97.298248 -26.474777 4294967295
-27.504387 96.219765 -26.298323 4294967295
-27.504007 97.456802 -26.468372 4294967295
-27.502268 95.603241 -26.198086 4294967295
-27.500635 98.232758 -26.553995 4294967295
-27.499403 96.688194 -26.330244 4294967295
-27.497684 94.524857 -26.016851 4294967295
-27.496305 95.299431 -26.115688 4294967295
-27.493427 94.219345 -25.945648 4294967295
-27.491228 93.911926 -25.887985 4294967295
-27.491144 98.087189 -26.470013 4294967295
-27.484571 95.77417 -26.103218 4294967295
-27.471394 96.559624 -26.124401 4294967295
-27.467213 95.171379 -25.902639 4294967295
-27.462149 92.854713 -25.545347 4294967295
-27.461658 94.86702 -25.822903 4294967295
-27.454836 93.4804 -25.583618 4294967295
-27.453592 97.040184 -26.07202 4294967295
-27.448225 93.331528 -25.518486 4294967295
-27.443996 92.716034 -25.4042 4294967295
-27.44194 97.669762 -26.081694 4294967295
-27.441195 99.371445 -26.314064 4294967295
-27.438356 93.804779 -25.518333 4294967295
-27.423359 99.23391 -26.175222 4294967295
-27.409021 92.437309 -25.130659 4294967295
-27.404179 93.216049 -25.206873 4294967295
-27.316486 98.876381 -26.468681 4294967295
-27.312214 98.725861 -26.419085 4294967295
-27.308582 93.315292 -25.640427 4294967295
-27.29319 98.125435 -26.207993 4294967295
-27.287586 97.202728 -26.041849 4294967295
-27.182732 98.081055 -26.520447 4294967295
-27.179077 95.455925 -26.130339 4294967295
-27.17532 96.541946 -26.256521 4294967295
-27.174442 95.924164 -26.164587 4294967295
-27.171997 98.554924 -26.514673 4294967295
-27.167595 94.538216 -25.925716 4294967295
-27.164059 99.335312 -26.570274 4294967295
-27.162853 99.027328 -26.519329 4294967295
-27.162292 93.769318 -25.783123 4294967295
-27.161987 93.61483 -25.759558 4294967295
-27.160151 97.638496 -26.307835 4294967295
-27.158869 99.494835 -26.557802 4294967295
-27.156992 96.249573 -26.093245 4294967295
-27.154247 98.417137 -26.376816 4294967295
-27.148188 97.958992 -26.272495 4294967295
-27.133642 97.508682 -26.11253 4294967295
-27.126612 92.872337 -25.419573 4294967295
-27.115635 92.727203 -25.325953 4294967295
-27.109858 94.280815 -25.503822 4294967295
-27.100243 98.777603 -26.06595 4294967295
-27.09531 93.209869 -25.257328 4294967295
-27.081661 92.602341 -25.081408 4294967295
-27.016596 94.996277 -26.037127 4294967295
-27.008924 95.157959 -26.008421 4294967295
-27.006395 97.325699 -26.293278 4294967295
-26.997873 96.869667 -26.172934 4294967295
-26.99715 97.179665 -26.211254 4294967295
-26.992382 95.327736 -25.921644 4294967295
-26.991291 97.030449 -26.151381 4294967295
-26.987112 95.79673 -25.951759 4294967295
-26.96772 98.135216 -26.147804 4294967295
-26.962961 96.437866 -25.879814 4294967295
-26.956963 99.228058 -26.228079 4294967295
-26.955257 93.813408 -25.46303 4294967295
-26.954639 94.433296 -25.545206 4294967295
-26.953064 93.350807 -25.383984 4294967295
-26.925913 92.755302 -25.119835 4294967295
-26.872801 96.375648 -26.324505 4294967295
-26.845568 96.864761 -26.211071 4294967295
-26.842878 93.927544 -25.784594 4294967295
-26.842609 98.104713 -26.363791 4294967295
-26.841871 97.332184 -26.251448 4294967295
-26.836451 94.707146 -25.85021 4294967295
-26.834427 96.256302 -26.05221 4294967295
-26.833824 94.245216 -25.76845 4294967295
-26.833176 95.019615 -25.871862 4294967295
-26.832588 98.423409 -26.341331 4294967295
-26.832184 97.650543 -26.231173 4294967295
-26.832085 96.103745 -26.015388 4294967295
-26.827421 92.857674 -25.532749 4294967295
-26.819698 93.483841 -25.568405 4294967295
-26.817194 95.807922 -25.875025 4294967295
-26.816311 98.902718 -26.299522 4294967295
-26.813965 99.368874 -26.348707 4294967295
-26.813925 93.798645 -25.573736 4294967295
-26.809763 93.182991 -25.460344 4294967295
-26.800636 95.513504 -25.723749 4294967295
-26.797993 98.765404 -26.158371 4294967295
-26.796053 99.076599 -26.188711 4294967295
-26.792049 96.60482 -25.818312 4294967295
-26.790089 97.999336 -25.999184 4294967295
-26.779963 92.434853 -25.157679 4294967295
-26.730337 94.505898 -26.168642 4294967295
-26.722187 94.358528 -26.093937 4294967295
-26.720167 96.989601 -26.446178 4294967295
-26.71736 94.981674 -26.148447 4294967295
-26.697723 95.308884 -26.063299 4294967295
-26.697359 96.701416 -26.25441 4294967295
-26.691013 95.469696 -26.041023 4294967295
-26.682117 93.620621 -25.724821 4294967295
-26.678064 92.385643 -25.526163 4294967295
-26.642687 99.227303 -26.241695 4294967295
-26.63744 98.304108 -26.078527 4294967295
-26.630766 97.691444 -25.949011 4294967295
-26.627184 97.230515 -25.861143 4294967295
-26.61525 92.750633 -25.159065 4294967295
-26.514408 94.24865 -25.748997 4294967295
-26.50832 97.813332 -26.20359 4294967295
-26.505833 98.589058 -26.294767 4294967295
-26.504066 98.900047 -26.326208 4294967295
-26.503632 92.400108 -25.420656 4294967295
-26.502985 99.365028 -26.383581 4294967295
-26.502241 93.020813 -25.49765 4294967295
-26.498365 94.572655 -25.687469 4294967295
-26.49692 96.586143 -25.957493 4294967295
-26.495577 94.884789 -25.712305 4294967295
-26.494446 99.063805 -26.285065 4294967295
-26.493822 97.67215 -26.087708 4294967295
-26.491491 93.185181 -25.449089 4294967295
-26.489252 98.449966 -26.165348 4294967295
-26.487667 96.28511 -25.854248 4294967295
-26.486572 95.821762 -25.782633 4294967295
-26.480135 93.969612 -25.482645 4294967295
-26.475668 97.224785 -25.905048 4294967295
-26.472961 98.774712 -26.102253 4294967295
-26.457012 93.370583 -25.245884 4294967295
-26.45686 99.254097 -26.061878 4294967295
-26.45257 92.909698 -25.152359 4294967295
-26.435406 92.614845 -24.997414 4294967295
-26.410431 94.509949 -26.14497 4294967295
-26.395891 94.213516 -26.007429 4294967295
-26.377054 96.39669 -26.185513 4294967295
-26.375435 95.16037 -26.003222 4294967295
-26.375406 94.386604 -25.895657 4294967295
-26.37245 96.091484 -26.112642 4294967295
-26.371651 93.925606 -25.806768 4294967295
-26.357525 98.271019 -26.316078 4294967295
-26.347202 95.650238 -25.884039 4294967295
-26.347033 97.197899 -26.097654 4294967295
-26.344555 96.890724 -26.03861 4294967295
-26.333891 93.494644 -25.496634 4294967295
-26.313459 96.764595 -25.814959 4294967295
-26.311039 97.540756 -25.906601 4294967295
-26.234423 95.609436 -26.179262 4294967295
-26.22591 93.605286 -25.844999 4294967295
-26.218592 92.837677 -25.690098 4294967295
-26.216681 95.006531 -25.978237 4294967295
-26.206305 98.110397 -26.33988 4294967295
-26.186514 95.188507 -25.803812 4294967295
-26.162123 97.842133 -26.010286 4294967295
-26.154209 93.049118 -25.293327 4294967295
-26.154163 99.087524 -26.130232 4294967295
-26.138708 92.597855 -25.128136 4294967295
-26.135105 98.795967 -25.96369 4294967295
-26.129393 99.265648 -25.990986 4294967295
-26.077482 96.227585 -26.273092 4294967295
-26.072222 95.768242 -26.17469 4294967295
-26.069771 93.758575 -25.880045 4294967295
-26.060827 93.302055 -25.757683 4294967295
-26.057976 93.614212 -25.782104 4294967295
-26.056286 96.092186 -26.114288 4294967295
-26.05224 95.167305 -25.959417 4294967295
-26.050657 98.417931 -26.399261 4294967295
-26.046432 94.398544 -25.814528 4294967295
-26.046177 99.040787 -26.455912 4294967295
-26.045696 95.01841 -25.895554 4294967295
-26.043743 95.32975 -25.925777 4294967295
-26.037788 97.037544 -26.123022 4294967295
-26.030016 95.496941 -25.858252 4294967295
-26.029509 92.400299 -25.425783 4294967295
-26.022406 98.134911 -26.173399 4294967295
-26.021055 93.491982 -25.521221 4294967295
-26.020498 95.969971 -25.860897 4294967295
-26.014307 96.594803 -25.906553 4294967295
-26.001926 97.534912 -25.954977 4294967295
-25.988739 97.701912 -25.890982 4294967295
-25.980463 98.947891 -26.008875 4294967295
-25.979536 98.02005 -25.874235 4294967295
-25.92869 94.053291 -26.034014 4294967295
-25.914356 94.839897 -26.04838 4294967295
-25.909866 94.379593 -25.955025 4294967295
-25.906567 96.549095 -26.233604 4294967295
-25.888136 97.958458 -26.307106 4294967295
-25.884441 99.199387 -26.45447 4294967295
-25.880531 94.715385 -25.808029 4294967295
-25.868967 96.119095 -25.926081 4294967295
-25.846277 96.913811 -25.886427 4294967295
-25.834152 92.897705 -25.250418 4294967295
-25.832329 97.855484 -25.924757 4294967295
-25.83181 98.62989 -26.0285 4294967295
-25.826418 93.214409 -25.243258 4294967295
-25.768087 94.520088 -26.082893 4294967295
-25.763304 94.98864 -26.116211 4294967295
-25.750858 95.309334 -26.078625 4294967295
-25.749969 94.071831 -25.901566 4294967295
-25.745121 96.24305 -26.169992 4294967295
-25.742479 97.019119 -26.259947 4294967295
-25.741863 95.626968 -26.063328 4294967295
-25.739132 97.64106 -26.323915 4294967295
-25.739017 95.939079 -26.087753 4294967295
-25.737631 96.559357 -26.164425 4294967295
-25.726097 92.85405 -25.575863 4294967295
-25.719193 92.55027 -25.488361 4294967295
-25.718029 94.409851 -25.738001 4294967295
-25.709003 98.906761 -26.30055 4294967295
-25.708729 96.121323 -25.913523 4294967295
-25.708332 93.334297 -25.525337 4294967295
-25.699827 94.890663 -25.684664 4294967295
-25.699097 97.368484 -26.022585 4294967295
-25.695114 99.22924 -26.253674 4294967295
-25.692196 93.65831 -25.463911 4294967295
-25.684149 98.310989 -26.054502 4294967295
-25.682405 95.835503 -25.700636 4294967295
-25.668211 97.551743 -25.844547 4294967295
-25.665047 98.17395 -25.909761 4294967295
-25.611202 93.900154 -26.006016 4294967295
-25.580395 93.462822 -25.743032 4294967295
-25.577209 92.84613 -25.636822 4294967295
-25.568319 95.486382 -25.943377 4294967295
-25.559996 95.339043 -25.868296 4294967295
-25.557829 94.721619 -25.768707 4294967295
-25.549377 97.670662 -26.120743 4294967295
-25.52899 97.225044 -25.925137 4294967295
-25.514427 98.167343 -25.959608 4294967295
-25.485134 99.278358 -25.920561 4294967295
-25.472826 99.135071 -25.819845 4294967295
-25.454784 95.137108 -26.188913 4294967295
-25.446054 93.596962 -25.918873 4294967295
-25.438055 94.223282 -25.952904 4294967295
-25.429726 96.088219 -26.155815 4294967295
-25.415962 94.707367 -25.874765 4294967295
-25.413137 95.484009 -25.963509 4294967295
-25.410942 97.962387 -26.291349 4294967295
-25.408031 96.262642 -26.037531 4294967295
-25.405722 92.702972 -25.530659 4294967295
-25.405033 93.013405 -25.569029 4294967295
-25.404514 97.658829 -26.207253 4294967295
-25.399899 96.579613 -26.027929 4294967295
-25.399263 93.328262 -25.574667 4294967295
-25.392334 95.812378 -25.87232 4294967295
-25.390226 98.291054 -26.200768 4294967295
-25.382296 97.21489 -26.000128 4294967295
-25.382246 99.381714 -26.298975 4294967295
-25.378664 96.908577 -25.933998 4294967295
-25.377996 98.921455 -26.207542 4294967295
-25.373503 94.125496 -25.51573 4294967295
-25.361855 96.459351 -25.761633 4294967295
-25.358309 98.475449 -26.016758 4294967295
-25.351387 99.25589 -26.079084 4294967295
-25.340319 98.182487 -25.858238 4294967295
-25.339682 97.873375 -25.811378 4294967295
-25.27425 93.918861 -25.874716 4294967295
-25.243231 97.042992 -26.102633 4294967295
-25.232933 95.658928 -25.844166 4294967295
-25.231718 93.646469 -25.558441 4294967295
-25.23 95.196968 -25.761192 4294967295
-25.210274 94.749847 -25.570244 4294967295
-25.180067 97.720169 -25.782225 4294967295
-25.157063 98.206017 -25.698528 4294967295
-25.119989 94.999451 -26.050264 4294967295
-25.119034 93.142189 -25.787853 4294967295
-25.109022 96.092873 -26.129316 4294967295
-25.108932 93.615631 -25.787092 4294967295
-25.10647 93.927536 -25.814007 4294967295
-25.104635 92.844925 -25.652668 4294967295
-25.102654 94.395485 -25.853575 4294967295
-25.101381 94.551468 -25.866768 4294967295
-25.097387 95.174408 -25.926559 4294967295
-25.095089 93.008125 -25.61274 4294967295
-25.093451 92.699699 -25.559479 4294967295
-25.079973 96.273895 -25.96427 4294967295
-25.078773 95.655602 -25.871161 4294967295
-25.072464 98.293228 -26.193556 4294967295
-25.071714 93.493286 -25.526758 4294967295
-25.071501 95.971848 -25.867191 4294967295
-25.067734 93.34182 -25.479828 4294967295
-25.063696 97.217659 -25.987923 4294967295
-25.056889 97.533539 -25.986944 4294967295
-25.053049 96.453087 -25.812866 4294967295
-25.051117 98.622566 -26.099323 4294967295
-25.047621 99.39978 -26.183603 4294967295
-25.041569 99.095848 -26.102121 4294967295
-25.039408 96.930084 -25.789396 4294967295
-25.03364 98.019417 -25.901867 4294967295
-25.027609 97.715233 -25.82048 4294967295
-25.020407 98.805901 -25.923717 4294967295
-25.017015 97.415176 -25.709808 4294967295
-25.015942 96.641594 -25.596125 4294967295
-25.012688 98.967926 -25.895569 4294967295
-24.964581 95.3069 -26.111559 4294967295
-24.945305 94.859566 -25.924042 4294967295
-24.924267 98.593964 -26.301163 4294967295
-24.904636 98.921715 -26.218122 4294967295
-24.894487 97.847427 -26.00386 4294967295
-24.893381 96.299828 -25.783417 4294967295
-24.880022 94.607552 -25.462999 4294967295
-24.817474 99.157616 -25.681423 4294967295
-24.782867 92.849884 -25.620619 4294967295
-24.781578 93.62561 -25.719057 4294967295
-24.770533 95.029396 -25.840357 4294967295
-24.767244 95.806679 -25.92594 4294967295
-24.766172 93.174232 -25.556458 4294967295
-24.752266 92.721359 -25.403414 4294967295
-24.748068 94.739479 -25.65398 4294967295
-24.747385 96.753723 -25.926855 4294967295
-24.746489 95.205643 -25.707878 4294967295
-24.743778 93.968536 -25.519842 4294967295
-24.734074 94.44194 -25.521769 4294967295
-24.729073 98.473785 -26.044256 4294967295
-24.724659 96.154655 -25.696226 4294967295
-24.716789 92.596931 -25.154995 4294967295
-24.716425 94.922432 -25.472885 4294967295
-24.715502 96.00795 -25.616322 4294967295
-24.711651 97.715485 -25.826294 4294967295
-24.710806 98.335777 -25.906164 4294967295
-24.709349 97.872482 -25.832901 4294967295
-24.701645 99.118568 -25.954187 4294967295
-24.700144 95.711784 -25.475428 4294967295
-24.696526 97.264557 -25.665609 4294967295
-24.694683 96.646469 -25.568506 4294967295
-24.691364 97.114311 -25.611277 4294967295
-24.681736 97.587906 -25.61371 4294967295
-24.677189 97.437103 -25.563305 4294967295
-24.661734 98.690865 -25.635122 4294967295
-24.613945 93.78894 -25.681393 4294967295
-24.606707 92.865517 -25.507208 4294967295
-24.596653 93.649071 -25.549597 4294967295
-24.591219 97.681305 -26.068998 4294967295
-24.59012 98.920845 -26.232332 4294967295
-24.585979 97.376389 -25.992945 4294967295
-24.581934 97.070335 -25.92452 4294967295
-24.571823 98.318443 -26.03039 4294967295
-24.553123 95.392044 -25.506121 4294967295
-24.508101 97.91217 -25.559763 4294967295
-24.483706 92.525414 -25.69076 4294967295
-24.47089 93.311127 -25.715542 4294967295
-24.469273 93.002655 -25.662605 4294967295
-24.459585 95.334808 -25.920338 4294967295
-24.458342 93.167053 -25.614195 4294967295
-24.45541 95.648277 -25.936296 4294967295
-24.453369 93.48127 -25.625084 4294967295
-24.452961 94.256325 -25.729008 4294967295
-24.450237 94.878395 -25.796846 4294967295
-24.437664 97.677422 -26.099907 4294967295
-24.437412 94.114998 -25.60854 4294967295
-24.436558 93.960785 -25.581787 4294967295
-24.435595 93.65168 -25.53303 4294967295
-24.434042 94.582809 -25.650965 4294967295
-24.4335 98.455376 -26.179781 4294967295
-24.432247 95.978729 -25.831217 4294967295
-24.420668 98.622017 -26.119293 4294967295
-24.412188 97.390877 -25.894991 4294967295
-24.411594 94.75753 -25.529129 4294967295
-24.407499 94.451164 -25.460402 4294967295
-24.406601 97.860619 -25.923256 4294967295
-24.406025 98.945213 -26.068563 4294967295
-24.403931 96.468864 -25.714605 4294967295
-24.40309 97.554039 -25.858299 4294967295
-24.401392 92.906219 -25.208273 4294967295
-24.397192 99.417938 -26.076138 4294967295
-24.375452 98.198929 -25.767345 4294967295
-24.371599 96.96286 -25.572422 4294967295
-24.366079 97.277794 -25.579847 4294967295
-24.360004 98.832832 -25.754093 4294967295
-24.348013 99.308716 -25.741579 4294967295
-24.332794 92.364342 -25.717272 4294967295
-24.327862 94.072647 -25.920012 4294967295
-24.306656 92.851624 -25.614666 4294967295
-24.295233 96.269806 -26.010183 4294967295
-24.290716 92.555351 -25.470552 4294967295
-24.287401 93.333153 -25.555937 4294967295
-24.285776 96.12339 -25.928722 4294967295
-24.260572 97.849831 -26.002354 4294967295
-24.25573 97.079781 -25.865175 4294967295
-24.232431 95.24115 -25.461481 4294967295
-24.224146 95.713509 -25.47262 4294967295
-24.223349 98.658371 -25.871922 4294967295
-24.213684 96.497849 -25.512497 4294967295
-24.195719 97.753983 -25.568491 4294967295
-24.182938 98.230598 -25.551035 4294967295
-24.141699 94.562027 -25.807358 4294967295
-24.134037 93.484039 -25.609751 4294967295
-24.133894 92.554222 -25.48114 4294967295
-24.128336 94.108871 -25.658611 4294967295
-24.119764 95.510933 -25.795568 4294967295
-24.117571 94.893097 -25.696556 4294967295
-24.111412 97.99678 -26.082653 4294967295
-24.110874 94.434067 -25.59017 4294967295
-24.107389 92.886993 -25.355192 4294967295
-24.10471 97.073563 -25.91255 4294967295
-24.096724 96.615997 -25.798035 4294967295
-24.093851 93.363785 -25.332968 4294967295
-24.091103 96.156197 -25.698513 4294967295
-24.08839 95.228767 -25.553642 4294967295
-24.087585 98.638069 -26.016352 4294967295
-24.086519 95.695374 -25.605583 4294967295
-24.08197 93.063911 -25.214851 4294967295
-24.076262 95.859474 -25.561678 4294967295
-24.073627 98.805786 -25.948973 4294967295
-24.072651 97.877197 -25.815212 4294967295
-24.072485 97.72242 -25.792908 4294967295
-24.072201 97.412796 -25.748575 4294967295
-24.065046 98.348923 -25.830698 4294967295
-24.06465 99.123856 -25.934473 4294967295
-24.061806 94.787117 -25.32085 4294967295
-24.061771 96.802353 -25.59725 4294967295
-24.049889 96.503021 -25.47921 4294967295
-24.048775 97.279022 -25.578491 4294967295
-24.041033 97.596008 -25.571859 4294967295
-24.04077 99.455765 -25.825356 4294967295
-24.003002 94.080383 -25.868996 4294967295
-23.955454 95.826416 -25.801079 4294967295
-23.943287 97.541458 -25.957613 4294967295
-23.940287 95.219986 -25.619829 4294967295
-23.908316 96.178291 -25.544561 4294967295
-23.855 98.551575 -25.525293 4294967295
-23.854036 99.017479 -25.582943 4294967295
-23.836796 92.692818 -25.62863 4294967295
-23.835148 93.159172 -25.681929 4294967295
-23.813265 92.557899 -25.458241 4294967295
-23.804909 95.819817 -25.851446 4294967295
-23.803041 94.891747 -25.712183 4294967295
-23.79701 92.41671 -25.333956 4294967295
-23.794561 94.744194 -25.637222 4294967295
-23.79154 95.676704 -25.745535 4294967295
-23.781986 94.135132 -25.472567 4294967295
-23.778902 93.982773 -25.431763 4294967295
-23.777212 93.053902 -25.293516 4294967295
-23.774418 96.776665 -25.785757 4294967295
-23.773054 94.608002 -25.479727 4294967295
-23.772568 97.70797 -25.901434 4294967295
-23.767715 93.372215 -25.275854 4294967295
-23.7658 95.389473 -25.540018 4294967295
-23.757713 97.256554 -25.743696 4294967295
-23.757174 98.961357 -25.973804 4294967295
-23.752222 96.176559 -25.560246 4294967295
-23.744347 98.043465 -25.765238 4294967295
-23.742481 98.66497 -25.838352 4294967295
-23.740438 97.117119 -25.613081 4294967295
-23.739679 98.202667 -25.756927 4294967295
-23.730427 97.591141 -25.613407 4294967295
-23.718918 96.516304 -25.391821 4294967295
-23.709764 99.314857 -25.716208 4294967295
-23.706915 97.922462 -25.50704 4294967295
-23.696814 99.481789 -25.655479 4294967295
-23.693325 92.990242 -25.766155 4294967295
-23.687773 99.180115 -25.55579 4294967295
-23.665293 93.944199 -25.716183 4294967295
-23.661953 93.172119 -25.5889 4294967295
-23.644581 93.652107 -25.54269 4294967295
-23.620945 97.082527 -25.860203 4294967295
-23.615805 92.746452 -25.233181 4294967295
-23.614412 95.538582 -25.606674 4294967295
-23.607275 98.799126 -26.007143 4294967295
-23.604656 94.927063 -25.460037 4294967295
-23.594343 98.965897 -25.946636 4294967295
-23.592176 96.0233 -25.529751 4294967295
-23.547205 98.699104 -25.606335 4294967295
-23.491934 94.112404 -25.643635 4294967295
-23.468714 93.512314 -25.4121 4294967295
-23.468098 94.288094 -25.514328 4294967295
-23.465822 95.220222 -25.627254 4294967295
-23.463205 93.827187 -25.419754 4294967295
-23.459711 97.085457 -25.84318 4294967295
-23.454411 93.36953 -25.300535 4294967295
-23.453114 96.161461 -25.674305 4294967295
-23.447538 92.754982 -25.172184 4294967295
-23.446062 98.027481 -25.884264 4294967295
-23.444696 96.633942 -25.684805 4294967295
-23.444288 95.084068 -25.470076 4294967295
-23.443201 93.224037 -25.208488 4294967295
-23.441103 96.01709 -25.577278 4294967295
-23.434994 95.557381 -25.475058 4294967295
-23.434864 94.627106 -25.346897 4294967295
-23.431734 99.280083 -25.963432 4294967295
-23.426302 97.270416 -25.653545 4294967295
-23.42523 95.410912 -25.392189 4294967295
-23.42012 97.74099 -25.678154 4294967295
-23.418089 98.827728 -25.813759 4294967295
-23.415411 98.210243 -25.712055 4294967295
-23.397675 97.91629 -25.557734 4294967295
-23.397175 97.451622 -25.490942 4294967295
-23.396492 96.987068 -25.422979 4294967295
-23.395555 98.693321 -25.650402 4294967295
-23.3927 99.160942 -25.695999 4294967295
-23.390467 97.612709 -25.469824 4294967295
-23.352491 99.042755 -25.421139 4294967295
-23.3522 93.166512 -25.635056 4294967295
-23.346369 92.551361 -25.513453 4294967295
-23.33938 94.572578 -25.745037 4294967295
-23.338638 92.868027 -25.507126 4294967295
-23.338608 93.798241 -25.634159 4294967295
-23.335934 94.110573 -25.659704 4294967295
-23.301046 96.00116 -25.694166 4294967295
-23.27953 96.330246 -25.60095 4294967295
-23.244341 96.671616 -25.421598 4294967295
-23.241009 97.294853 -25.485413 4294967295
-23.23982 98.226189 -25.605112 4294967295
-23.202045 99.345924 -25.515533 4294967295
-23.173746 95.044136 -25.763971 4294967295
-23.133907 93.217857 -25.2589 4294967295
-23.132603 94.76992 -25.462658 4294967295
-23.128706 94.152969 -25.353342 4294967295
-23.123835 93.691833 -25.259081 4294967295
-23.12063 97.571098 -25.768623 4294967295
-23.116468 98.814705 -25.911818 4294967295
-23.114429 96.801575 -25.623722 4294967295
-23.110718 98.509995 -25.833307 4294967295
-23.107279 96.962982 -25.599915 4294967295
-23.099577 94.953766 -25.275991 4294967295
-23.096832 95.731697 -25.364693 4294967295
-23.091673 97.131966 -25.522928 4294967295
-23.084177 97.913948 -25.581696 4294967295
-23.076635 96.369926 -25.322384 4294967295
-23.075281 95.905777 -25.250277 4294967295
-23.072155 98.389954 -25.569618 4294967295
-23.070274 97.461258 -25.430687 4294967295
-23.055204 99.33567 -25.590105 4294967295
-23.054152 99.491684 -25.60466 4294967295
-23.044474 98.725212 -25.437902 4294967295
-23.04002 92.697861 -25.602516 4294967295
-23.031612 92.860039 -25.570841 4294967295
-23.001993 93.660614 -25.490555 4294967295
-22.996626 93.975365 -25.49917 4294967295
-22.98843 95.688004 -25.680576 4294967295
-22.985346 94.450302 -25.491816 4294967295
-22.983015 96.467865 -25.752377 4294967295
-22.978043 97.247284 -25.826952 4294967295
-22.947989 95.878593 -25.44767 4294967295
-22.930763 94.652687 -25.169992 4294967295
-22.92905 98.22139 -25.646267 4294967295
-22.905775 98.862671 -25.584784 4294967295
-22.904688 96.692375 -25.281553 4294967295
-22.851885 93.343529 -25.501656 4294967295
-22.825241 95.382362 -25.609568 4294967295
-22.817102 92.752625 -25.198677 4294967295
