# .PCD v0.7 - Point Cloud Data file format
VERSION 0.7
FIELDS x y z rgb
SIZE 4 4 4 4
TYPE F F F U
COUNT 1 1 1 1
WIDTH 1147
HEIGHT 1
VIEWPOINT 0 0 0 1 0 0 0
POINTS 1147
DATA ascii
35.772434 58.03513 -16.00507 4294967295
35.784061 58.519875 -16.013456 4294967295
35.788425 53.868469 -15.466324 4294967295
35.7929 51.943462 -15.229075 4294967295
35.826584 52.915939 -15.204307 4294967295
35.834831 56.289242 -15.555232 4294967295
35.877388 52.448086 -14.946582 4294967295
35.879032 58.336102 -16.277473 4294967295
35.881805 52.770531 -14.965545 4294967295
35.88237 56.252605 -16.026958 4294967295
35.883907 54.055939 -15.103471 4294967295
35.886478 56.895302 -16.083584 4294967295
35.887844 56.093849 -15.98689 4294967295
35.889637 54.539322 -15.135464 4294967295
35.89893 52.293308 -14.842287 4294967295
35.899143 54.493065 -15.75927 4294967295
35.902546 57.862339 -16.129044 4294967295
35.923588 57.708412 -16.02696 4294967295
35.92775 55.624359 -15.773057 4294967295
35.933041 55.305019 -15.715432 4294967295
35.933849 54.823891 -15.657427 4294967295
35.941788 57.393169 -15.91793 4294967295
35.942516 56.751728 -15.84201 4294967295
35.947838 57.55542 -15.91207 4294967295
35.948689 52.741669 -15.360737 4294967295
35.953876 53.06414 -15.376605 4294967295
35.961975 55.794834 -15.654879 4294967295
35.96674 54.03083 -15.434938 4294967295
35.988132 52.110191 -15.130301 4294967295
35.989639 53.716217 -15.307091 4294967295
36.002533 58.213921 -15.767149 4294967295
36.006306 57.252289 -15.642572 4294967295
36.013393 58.538193 -15.760394 4294967295
36.03006 51.960888 -14.944763 4294967295
36.040173 53.569778 -15.087296 4294967295
36.060299 55.933876 -15.942087 4294967295
36.066101 53.25576 -14.947329 4294967295
36.075756 56.900856 -15.990041 4294967295
36.112934 52.304588 -14.650775 4294967295
36.113438 51.822598 -14.593879 4294967295
36.119965 55.309551 -15.631489 4294967295
36.133766 54.190025 -15.448677 4294967295
36.150242 53.231415 -15.273441 4294967295
36.156696 52.912067 -15.211173 4294967295
36.159294 58.04921 -15.785245 4294967295
36.174927 57.73307 -15.686509 4294967295
36.214417 56.410065 -16.043325 4294967295
36.214642 54.966503 -15.878255 4294967295
36.223244 57.695724 -16.154123 4294967295
36.227394 54.698341 -15.130588 4294967295
36.229435 56.735317 -16.020082 4294967295
36.231987 53.093403 -14.929499 4294967295
36.233322 55.453178 -15.85867 4294967295
36.237698 58.662342 -16.20606 4294967295
36.244881 54.060833 -14.987822 4294967295
36.249989 56.099773 -15.865366 4294967295
36.251209 55.779263 -15.824011 4294967295
36.257355 52.457687 -14.755292 4294967295
36.262676 57.226521 -15.9426 4294967295
36.266438 57.067234 -15.909408 4294967295
36.272797 57.550423 -15.938843 4294967295
36.279755 54.022255 -15.509667 4294967295
36.290169 53.54361 -15.413457 4294967295
36.315762 56.279663 -15.622007 4294967295
36.317417 58.045372 -15.816144 4294967295
36.326252 56.924751 -15.65329 4294967295
36.337742 52.272106 -15.077984 4294967295
36.342037 53.879219 -15.243589 4294967295
36.345768 54.20142 -15.265265 4294967295
36.353153 52.597515 -15.05318 4294967295
36.367405 53.083279 -15.051284 4294967295
36.400211 55.131027 -15.818019 4294967295
36.401749 52.128735 -14.804937 4294967295
36.431309 58.188366 -16.040976 4294967295
36.434113 52.940964 -14.767528 4294967295
36.451569 54.503822 -15.54093 4294967295
36.467407 55.631931 -15.605737 4294967295
36.479061 58.363518 -15.869555 4294967295
36.493507 56.763145 -15.629761 4294967295
36.502197 53.554775 -15.230145 4294967295
36.512768 55.966244 -15.461988 4294967295
36.517387 57.893871 -15.662598 4294967295
36.534382 52.760586 -15.010881 4294967295
36.551872 53.407955 -15.014412 4294967295
36.560043 56.411152 -15.987812 4294967295
36.578743 52.451332 -14.797954 4294967295
36.58128 55.13382 -15.757635 4294967295
36.584377 54.059631 -14.958286 4294967295
36.60202 57.546711 -15.948826 4294967295
36.607841 54.820477 -15.615706 4294967295
36.619102 52.94445 -14.692335 4294967295
36.627392 55.468128 -15.61107 4294967295
36.629959 57.234257 -15.801503 4294967295
36.630665 54.666477 -15.506863 4294967295
36.633846 58.037746 -15.877237 4294967295
36.640095 56.755856 -15.706567 4294967295
36.642765 55.312065 -15.531797 4294967295
36.644455 56.275658 -15.634552 4294967295
36.644463 58.361923 -15.871581 4294967295
36.644585 52.583057 -15.214317 4294967295
36.652576 55.796494 -15.547588 4294967295
36.655655 54.352482 -15.371144 4294967295
36.663689 57.404922 -15.685894 4294967295
36.667927 51.946907 -15.048559 4294967295
36.67387 58.531479 -15.773149 4294967295
36.675873 56.606003 -15.546345 4294967295
36.683128 54.03907 -15.225558 4294967295
36.704048 55.761517 -16.001553 4294967295
36.704727 55.008793 -15.249328 4294967295
36.707016 53.242622 -15.039402 4294967295
36.722137 53.407452 -14.997616 4294967295
36.733913 57.534931 -16.083595 4294967295
36.752174 52.29089 -14.750466 4294967295
36.786705 56.427616 -15.746737 4294967295
36.829086 52.74699 -15.15909 4294967295
36.85598 58.21402 -15.672666 4294967295
36.860985 55.48616 -15.342789 4294967295
36.866718 55.598602 -15.995953 4294967295
36.892666 54.803833 -15.802048 4294967295
36.907063 56.412613 -15.927249 4294967295
36.908554 52.286541 -14.789012 4294967295
36.909573 57.857258 -16.081276 4294967295
36.91901 53.092907 -14.838848 4294967295
36.922596 55.293865 -15.738157 4294967295
36.924408 56.578205 -15.876779 4294967295
36.933819 57.062393 -15.894167 4294967295
36.946804 52.457596 -14.655513 4294967295
36.94862 55.782906 -15.689758 4294967295
36.949802 58.35088 -15.976626 4294967295
36.962975 54.984444 -15.541749 4294967295
36.96413 56.268974 -15.683008 4294967295
36.967602 55.146313 -15.541642 4294967295
36.97578 55.951359 -15.600401 4294967295
36.985863 54.348724 -15.378114 4294967295
36.995373 57.722904 -15.72332 4294967295
36.99939 52.746449 -15.142086 4294967295
37.000626 57.403465 -15.666066 4294967295
37.001064 54.674194 -15.354376 4294967295
37.003601 57.564888 -15.672516 4294967295
37.003765 54.514374 -15.325425 4294967295
37.022945 58.052345 -15.650599 4294967295
37.041451 53.882507 -15.103148 4294967295
37.053417 52.439785 -14.891451 4294967295
37.057594 54.480984 -15.769477 4294967295
37.068123 53.407925 -14.942695 4294967295
37.092869 58.663265 -16.103483 4294967295
37.09449 57.380241 -15.951398 4294967295
37.121143 55.462212 -15.627312 4294967295
37.142193 58.036606 -15.835562 4294967295
37.146507 56.753857 -15.67274 4294967295
37.152561 52.58062 -15.174767 4294967295
37.184734 53.392586 -15.138601 4294967295
37.205032 53.237526 -15.040008 4294967295
37.205101 58.216377 -15.604965 4294967295
37.234581 53.727722 -14.977783 4294967295
37.237316 56.409088 -15.933462 4294967295
37.237347 55.927692 -15.878721 4294967295
37.243389 55.287506 -15.781983 4294967295
37.25671 54.167686 -15.601795 4294967295
37.259396 58.501598 -16.082888 4294967295
37.266556 58.022453 -15.999985 4294967295
37.26738 55.454929 -15.705367 4294967295
37.267567 52.933258 -14.755955 4294967295
37.273911 52.291988 -14.657812 4294967295
37.273922 54.814701 -15.606633 4294967295
37.276237 54.494274 -15.561028 4294967295
37.277748 57.544453 -15.901138 4294967295
37.289867 53.052925 -15.3431 4294967295
37.305691 58.676346 -15.918194 4294967295
37.311745 57.07317 -15.712177 4294967295
37.317196 56.593197 -15.635976 4294967295
37.318501 53.542618 -15.284568 4294967295
37.318821 55.630356 -15.520247 4294967295
37.326168 56.274746 -15.564081 4294967295
37.334126 56.919315 -15.60551 4294967295
37.335915 57.240944 -15.634871 4294967295
37.339836 54.030407 -15.254889 4294967295
37.348385 58.368492 -15.713097 4294967295
37.348831 53.872292 -15.201099 4294967295
37.365658 52.43095 -14.970421 4294967295
37.367764 58.213894 -15.618322 4294967295
37.383293 52.275002 -14.882428 4294967295
37.387535 54.798191 -15.813469 4294967295
37.391506 53.996792 -15.706731 4294967295
37.433453 57.379402 -15.92345 4294967295
37.442394 56.579601 -15.797127 4294967295
37.444565 53.851048 -15.478931 4294967295
37.458481 55.139496 -15.569722 4294967295
37.501972 52.903183 -15.142808 4294967295
37.51516 52.58543 -15.054254 4294967295
37.516788 52.264511 -15.011343 4294967295
37.556355 53.560799 -15.000906 4294967295
37.57737 56.889877 -15.955837 4294967295
37.585258 55.287193 -15.742723 4294967295
37.588379 54.48542 -15.639389 4294967295
37.593227 51.963493 -14.672844 4294967295
37.594383 54.326565 -15.59749 4294967295
37.600525 54.809952 -15.627873 4294967295
37.601391 55.13129 -15.660885 4294967295
37.609577 56.417912 -15.774224 4294967295
37.613129 53.528927 -15.432457 4294967295
37.617741 52.130814 -14.594223 4294967295
37.622097 58.668694 -15.979623 4294967295
37.626926 55.941391 -15.651178 4294967295
37.629906 56.102806 -15.657646 4294967295
37.633495 53.213322 -15.315647 4294967295
37.641239 58.353592 -15.867763 4294967295
37.64193 57.872261 -15.810449 4294967295
37.642639 57.55143 -15.771251 4294967295
37.64946 55.466225 -15.507669 4294967295
37.663113 57.236496 -15.654114 4294967295
37.669586 52.259212 -15.063875 4294967295
37.669758 54.66901 -15.336528 4294967295
37.685818 53.388332 -15.127405 4294967295
37.70232 52.428696 -14.95291 4294967295
37.718174 54.794613 -15.818475 4294967295
37.722843 56.079918 -15.945631 4294967295
37.726299 53.078045 -14.93119 4294967295
37.73217 52.918922 -14.889798 4294967295
37.736668 53.836639 -15.636385 4294967295
37.776806 57.379848 -15.878584 4294967295
37.825462 52.897415 -15.177094 4294967295
37.85038 56.438374 -15.479541 4294967295
37.852505 57.563148 -15.598595 4294967295
37.865383 52.10471 -14.928587 4294967295
37.877258 58.373585 -15.592093 4294967295
37.888397 54.31263 -15.747198 4294967295
37.902721 55.440376 -15.818147 4294967295
37.908875 53.515572 -15.575578 4294967295
37.91317 53.998463 -15.613256 4294967295
37.918453 56.087013 -15.828985 4294967295
37.920967 57.853275 -16.019136 4294967295
37.924728 52.602863 -14.74929 4294967295
37.926552 54.64447 -15.633368 4294967295
37.945721 57.539749 -15.885367 4294967295
37.946465 53.204704 -15.391149 4294967295
37.958202 55.938049 -15.654333 4294967295
37.967957 57.225357 -15.761491 4294967295
37.979572 58.673683 -15.879468 4294967295
37.984272 54.8214 -15.424326 4294967295
37.984798 54.17905 -15.349433 4294967295
37.989014 56.428772 -15.587658 4294967295
37.989498 53.055813 -15.203474 4294967295
37.989529 53.37714 -15.239774 4294967295
38.000889 55.147373 -15.39531 4294967295
38.011307 55.63224 -15.408916 4294967295
38.041744 52.909332 -14.979498 4294967295
38.047417 52.107197 -14.866061 4294967295
38.049191 56.928368 -15.405416 4294967295
38.054405 58.054298 -15.512299 4294967295
38.058685 55.435913 -15.857644 4294967295
38.069664 58.380184 -15.488657 4294967295
38.07119 55.921078 -15.863029 4294967295
38.096973 57.052292 -15.88893 4294967295
38.103172 55.609257 -15.700899 4294967295
38.137142 58.348595 -15.876473 4294967295
38.145573 53.854641 -15.334005 4294967295
38.154469 52.73246 -15.171571 4294967295
38.162025 54.180515 -15.305694 4294967295
38.173691 52.416252 -15.059526 4294967295
38.178547 57.237156 -15.586435 4294967295
38.180351 54.506966 -15.270018 4294967295
38.189861 57.561741 -15.578348 4294967295
38.245293 56.403458 -15.885818 4294967295
38.246391 55.76165 -15.808788 4294967295
38.249046 52.918781 -14.817703 4294967295
38.249821 53.996437 -15.595299 4294967295
38.253086 57.689877 -16.000603 4294967295
38.25742 52.277912 -14.711887 4294967295
38.258938 54.962467 -15.668599 4294967295
38.261173 53.196568 -15.459736 4294967295
38.264652 53.518745 -15.482445 4294967295
38.269405 54.483677 -15.572905 4294967295
38.275772 57.215118 -15.856989 4294967295
38.275806 52.122009 -14.621318 4294967295
38.284122 56.735958 -15.769671 4294967295
38.288883 52.400871 -15.25985 4294967295
38.293022 54.169071 -15.443742 4294967295
38.296215 52.724163 -15.267444 4294967295
38.297722 56.097664 -15.643529 4294967295
38.3074 58.187889 -15.841866 4294967295
38.325989 57.0695 -15.641623 4294967295
38.333237 54.340954 -15.303929 4294967295
38.337994 55.306213 -15.394403 4294967295
38.342693 56.592625 -15.521467 4294967295
38.343651 52.254822 -15.026396 4294967295
38.363548 58.526169 -15.657775 4294967295
38.364532 53.706917 -15.108161 4294967295
38.378399 55.639133 -15.272074 4294967295
38.386639 52.587814 -14.893846 4294967295
38.389 58.373337 -15.539659 4294967295
38.400829 58.055668 -15.456842 4294967295
38.425308 55.282101 -15.703765 4294967295
38.447124 57.054646 -15.818085 4294967295
38.457485 55.933685 -15.650216 4294967295
38.459949 58.503403 -15.9313 4294967295
38.462944 55.453465 -15.574249 4294967295
38.519024 54.505497 -15.24506 4294967295
38.532082 55.794632 -15.339333 4294967295
38.536812 53.224747 -15.029675 4294967295
38.555626 56.604847 -15.337887 4294967295
38.559216 53.713104 -14.996319 4294967295
38.582607 53.832714 -15.574626 4294967295
38.583687 53.511791 -15.534045 4294967295
38.592415 56.886436 -15.881433 4294967295
38.601078 54.801495 -15.611263 4294967295
38.619755 55.609821 -15.628929 4294967295
38.624557 56.414185 -15.700963 4294967295
38.631199 58.182446 -15.874768 4294967295
38.635498 54.329288 -15.421784 4294967295
38.639896 55.133728 -15.495433 4294967295
38.643753 53.206917 -15.262127 4294967295
38.64669 57.866001 -15.77774 4294967295
38.651665 55.779625 -15.522014 4294967295
38.655132 57.386772 -15.69015 4294967295
38.656521 57.065987 -15.648367 4294967295
38.661579 56.103756 -15.519513 4294967295
38.662861 53.694202 -15.241756 4294967295
38.6702 54.660339 -15.322089 4294967295
38.67033 57.712524 -15.666941 4294967295
38.671669 52.893089 -15.116266 4294967295
38.677254 56.750874 -15.530779 4294967295
38.678066 54.019794 -15.218504 4294967295
38.689728 57.236465 -15.536414 4294967295
38.706379 52.098667 -14.889145 4294967295
38.708874 54.189064 -15.115908 4294967295
38.712551 58.046501 -15.537849 4294967295
38.714138 53.386833 -15.004299 4294967295
38.734341 58.535061 -15.507006 4294967295
38.759018 52.434269 -14.719088 4294967295
38.779602 52.232956 -15.271834 4294967295
38.802532 54.488552 -15.436512 4294967295
38.813629 58.66766 -15.86538 4294967295
38.823753 51.923244 -15.062452 4294967295
38.851025 58.197281 -15.664534 4294967295
38.859871 54.826027 -15.248301 4294967295
38.916122 57.574265 -15.337062 4294967295
38.925934 54.47496 -15.603834 4294967295
38.928303 52.54792 -15.37653 4294967295
38.93224 57.900505 -15.310319 4294967295
38.936634 52.113884 -14.63834 4294967295
38.954433 54.161636 -15.455987 4294967295
38.955154 53.679855 -15.39866 4294967295
38.963772 53.200184 -15.310417 4294967295
38.968681 53.362209 -15.309368 4294967295
38.976997 53.525169 -15.295001 4294967295
38.982346 54.008705 -15.328608 4294967295
38.983627 54.812447 -15.414447 4294967295
38.983776 51.919861 -15.086683 4294967295
38.985214 58.507317 -15.825952 4294967295
38.987656 56.098839 -15.544026 4294967295
38.987888 57.865753 -15.742871 4294967295
38.989544 57.223808 -15.663774 4294967295
38.994949 52.887218 -15.152041 4294967295
39.002617 55.299843 -15.394656 4294967295
39.004543 55.621742 -15.423457 4294967295
39.015884 55.785671 -15.397266 4294967295
39.016537 52.089264 -14.976641 4294967295
39.027473 56.43174 -15.424606 4294967295
39.029408 56.914318 -15.471545 4294967295
39.029682 57.557034 -15.543129 4294967295
39.033436 52.415291 -14.94687 4294967295
39.04298 54.668442 -15.164064 4294967295
39.04319 58.043049 -15.544805 4294967295
39.06012 58.369495 -15.514921 4294967295
39.083553 53.185898 -15.491846 4294967295
39.090145 52.063026 -15.338897 4294967295
39.10902 57.741474 -15.251056 4294967295
39.11351 52.551292 -15.302057 4294967295
39.12859 54.001537 -15.406612 4294967295
39.203934 55.308243 -15.257467 4294967295
39.203987 55.790398 -15.311771 4294967295
39.207973 52.898121 -14.969079 4294967295
39.220318 53.062237 -14.938997 4294967295
39.238281 55.478764 -15.141422 4294967295
39.260838 55.596802 -15.720695 4294967295
39.268581 56.56266 -15.79935 4294967295
39.274891 58.382782 -15.325397 4294967295
39.285095 52.229595 -15.244662 4294967295
39.296581 53.679008 -15.363282 4294967295
39.296856 52.554157 -15.235057 4294967295
39.29969 53.197762 -15.296651 4294967295
39.300285 52.71579 -15.239836 4294967295
39.307274 55.128105 -15.484962 4294967295
39.309048 56.413845 -15.623269 4294967295
39.310608 56.89621 -15.671621 4294967295
39.319736 58.344505 -15.799322 4294967295
39.324333 54.008045 -15.291245 4294967295
39.325432 54.651169 -15.359592 4294967295
39.336781 51.921764 -15.006429 4294967295
39.340336 53.369526 -15.15608 4294967295
39.346188 54.978413 -15.314878 4294967295
39.356636 54.338448 -15.201434 4294967295
39.357174 57.873909 -15.598806 4294967295
39.357971 57.392166 -15.541229 4294967295
39.361134 56.750393 -15.456278 4294967295
39.36692 58.198158 -15.59707 4294967295
39.371952 55.950039 -15.323267 4294967295
39.390636 54.508675 -15.086847 4294967295
39.416924 57.248959 -15.293015 4294967295
39.418991 52.058609 -15.352635 4294967295
39.423096 58.53656 -15.414194 4294967295
39.436123 57.736877 -15.272572 4294967295
39.437489 53.027687 -15.389395 4294967295
39.447842 53.833927 -15.439781 4294967295
39.450798 54.798771 -15.537165 4294967295
39.456516 55.764313 -15.623753 4294967295
39.462425 58.014751 -15.854681 4294967295
39.497295 55.454632 -15.428428 4294967295
39.541679 52.895008 -14.964732 4294967295
39.546944 55.147285 -15.198497 4294967295
39.559345 57.722519 -15.440602 4294967295
39.567852 55.635494 -15.171443 4294967295
39.574932 57.08427 -15.307232 4294967295
39.622612 55.602058 -15.606043 4294967295
39.633484 53.034019 -15.273325 4294967295
39.636379 54.159813 -15.389093 4294967295
39.638569 52.874657 -15.235351 4294967295
39.642578 52.232746 -15.147098 4294967295
39.651291 54.646072 -15.385444 4294967295
39.657154 54.808426 -15.38075 4294967295
39.659565 54.32695 -15.316914 4294967295
39.662704 54.006363 -15.268368 4294967295
39.665276 52.560295 -15.094939 4294967295
39.669525 57.704288 -15.659131 4294967295
39.671257 53.687225 -15.198734 4294967295
39.674541 55.777596 -15.421896 4294967295
39.675545 54.974312 -15.327245 4294967295
39.680141 56.422012 -15.47266 4294967295
39.683834 58.672512 -15.712225 4294967295
39.683899 52.082882 -14.967864 4294967295
39.69368 57.390133 -15.528798 4294967295
39.698059 58.516182 -15.638711 4294967295
39.700733 56.910126 -15.446891 4294967295
39.701332 54.499306 -15.17232 4294967295
39.710121 55.144802 -15.210694 4294967295
39.719868 53.539726 -14.991139 4294967295
39.71991 52.735683 -14.900161 4294967295
39.723038 56.273739 -15.287433 4294967295
39.730469 58.043911 -15.458105 4294967295
39.737804 58.206829 -15.447679 4294967295
39.787529 58.382587 -15.272212 4294967295
39.790939 53.672821 -15.380188 4294967295
39.828346 58.343189 -15.760569 4294967295
39.832157 52.719505 -15.110826 4294967295
39.897556 53.058659 -14.892508 4294967295
39.907005 53.865364 -14.946502 4294967295
39.922039 52.215252 -15.353669 4294967295
39.931381 55.641148 -15.051334 4294967295
39.941814 52.702667 -15.33118 4294967295
39.946617 53.828972 -15.439473 4294967295
39.948158 56.610813 -15.094952 4294967295
39.956364 57.095615 -15.117476 4294967295
39.9683 57.048702 -15.7178 4294967295
39.970402 52.067253 -15.147403 4294967295
39.975815 54.479877 -15.398494 4294967295
39.985245 56.571659 -15.597555 4294967295
40.00079 55.290493 -15.392068 4294967295
40.002113 57.219326 -15.604509 4294967295
40.006443 55.613548 -15.406363 4294967295
40.006474 53.36306 -15.15228 4294967295
40.014774 55.133709 -15.319555 4294967295
40.015076 58.187256 -15.662903 4294967295
40.015892 52.561642 -15.024893 4294967295
40.017666 57.70599 -15.598459 4294967295
40.018551 54.974026 -15.286745 4294967295
40.018829 57.867023 -15.612066 4294967295
40.022732 56.100395 -15.397454 4294967295
40.038143 54.175632 -15.119843 4294967295
40.04332 53.051414 -14.972668 4294967295
40.054005 55.948639 -15.257746 4294967295
40.061459 53.538792 -14.956575 4294967295
40.079651 56.277569 -15.194342 4294967295
40.104713 55.480728 -15.006183 4294967295
40.106579 58.536316 -15.343624 4294967295
40.114769 58.056484 -15.257389 4294967295
40.122753 54.151451 -15.437382 4294967295
40.150532 53.676865 -15.275079 4294967295
40.157566 58.339306 -15.773428 4294967295
40.189678 54.652233 -15.231823 4294967295
40.190315 55.938465 -15.374431 4294967295
40.198414 55.458519 -15.288575 4294967295
40.214336 56.909882 -15.389939 4294967295
40.215885 53.855503 -15.039334 4294967295
40.217659 58.678852 -15.57641 4294967295
40.263252 52.696278 -15.374328 4294967295
40.279064 52.37899 -15.27669 4294967295
40.279251 53.504227 -15.402863 4294967295
40.285595 53.184471 -15.341996 4294967295
40.292656 58.058468 -15.212796 4294967295
40.298355 54.634556 -15.455618 4294967295
40.314224 56.567554 -15.611505 4294967295
40.315311 53.674778 -15.281054 4294967295
40.315865 52.227928 -15.115695 4294967295
40.316196 56.086025 -15.549507 4294967295
40.330315 54.964951 -15.367869 4294967295
40.332451 52.875511 -15.123863 4294967295
40.341991 57.218472 -15.576278 4294967295
40.344727 58.504833 -15.710591 4294967295
40.34481 54.165165 -15.220971 4294967295
40.349575 57.05999 -15.528745 4294967295
40.360531 58.027508 -15.594971 4294967295
40.364765 55.296162 -15.270465 4294967295
40.366806 53.045525 -15.008654 4294967295
40.367874 58.190418 -15.584608 4294967295
40.367908 55.940125 -15.330779 4294967295
40.373016 54.012123 -15.093382 4294967295
40.380856 55.622276 -15.244287 4294967295
40.382084 56.265728 -15.312044 4294967295
40.386295 54.498222 -15.096255 4294967295
40.418617 53.863777 -14.898285 4294967295
40.425877 57.725517 -15.305319 4294967295
40.435928 57.406918 -15.230093 4294967295
40.452099 56.929241 -15.112981 4294967295
40.489399 51.906452 -15.051565 4294967295
40.512455 52.073311 -14.980289 4294967295
40.516254 54.80806 -15.273762 4294967295
40.526745 55.936413 -15.35996 4294967295
40.527596 52.398975 -14.957836 4294967295
40.545483 57.549397 -15.468546 4294967295
40.546223 53.690681 -15.030698 4294967295
40.592869 54.185993 -14.904263 4294967295
40.617157 52.055412 -15.219285 4294967295
40.622967 53.021599 -15.305512 4294967295
40.632393 58.540039 -15.240576 4294967295
40.641525 56.61272 -14.987681 4294967295
40.654392 54.31628 -15.328748 4294967295
40.666653 54.480442 -15.299393 4294967295
40.670372 54.803024 -15.321224 4294967295
40.675392 53.839687 -15.193076 4294967295
40.679649 52.393459 -15.013447 4294967295
40.682369 53.359154 -15.111679 4294967295
40.684982 57.379234 -15.554472 4294967295
40.685883 52.234257 -14.971165 4294967295
40.690399 53.682964 -15.116833 4294967295
40.691639 55.291321 -15.29324 4294967295
40.698208 52.559208 -14.959683 4294967295
40.706814 57.064159 -15.433756 4294967295
40.72142 57.872253 -15.46778 4294967295
40.723095 52.887547 -14.899552 4294967295
40.723171 56.425819 -15.297981 4294967295
40.731003 57.55357 -15.394471 4294967295
40.732655 53.533588 -14.935051 4294967295
40.735096 54.177689 -14.998105 4294967295
40.736431 55.947224 -15.192306 4294967295
40.742321 56.913757 -15.278204 4294967295
40.744274 55.627815 -15.125696 4294967295
40.760403 58.205437 -15.353145 4294967295
40.76413 56.276814 -15.12132 4294967295
40.770115 54.991703 -14.953139 4294967295
40.800327 58.378223 -15.21677 4294967295
40.832561 55.925594 -15.464195 4294967295
40.863857 56.577629 -15.415607 4294967295
40.869522 58.508289 -15.61094 4294967295
40.881317 53.205379 -14.967632 4294967295
40.925774 57.238838 -15.248637 4294967295
40.929756 58.044056 -15.323789 4294967295
40.949265 55.315407 -14.940382 4294967295
40.949566 57.728317 -15.210981 4294967295
40.954632 57.568985 -15.173282 4294967295
40.957195 58.21307 -15.235825 4294967295
40.962204 56.123478 -14.980947 4294967295
40.967216 56.446671 -14.997802 4294967295
40.981575 53.185928 -15.223502 4294967295
40.990635 55.278629 -15.42389 4294967295
40.991364 54.314167 -15.312436 4294967295
40.994759 51.902802 -15.027613 4294967295
40.995235 55.922977 -15.478517 4294967295
40.997086 52.707611 -15.109209 4294967295
41.006554 52.549278 -15.054487 4294967295
41.016613 55.60751 -15.359715 4294967295
41.018009 57.376331 -15.553439 4294967295
41.020508 56.894806 -15.489489 4294967295
41.034843 53.682774 -15.071955 4294967295
41.038879 54.970558 -15.201265 4294967295
41.044456 58.509422 -15.577967 4294967295
41.053135 55.135372 -15.164289 4294967295
41.057022 54.493088 -15.076815 4294967295
41.068115 53.530918 -14.925238 4294967295
41.068138 57.551865 -15.377925 4294967295
41.073189 58.035732 -15.412726 4294967295
41.073353 52.888748 -14.832508 4294967295
41.077061 56.267975 -15.198611 4294967295
41.077759 52.085335 -14.72485 4294967295
41.079136 56.751053 -15.244924 4294967295
41.079197 54.016579 -14.936771 4294967295
41.097488 58.364586 -15.355087 4294967295
41.097805 54.826126 -14.955454 4294967295
41.100307 55.792072 -15.05448 4294967295
41.131618 52.054184 -15.159915 4294967295
41.158775 54.955967 -15.380943 4294967295
41.193691 56.412918 -15.409068 4294967295
41.215332 53.845776 -15.035872 4294967295
41.227539 56.905102 -15.332752 4294967295
41.246845 54.337017 -14.968554 4294967295
41.264996 55.629116 -15.043374 4294967295
41.280632 54.507221 -14.85623 4294967295
41.285862 55.795914 -14.980943 4294967295
41.296986 56.603535 -15.028562 4294967295
41.298363 57.086571 -15.077563 4294967295
41.314869 52.861019 -15.185472 4294967295
41.317314 55.965759 -14.877667 4294967295
41.31892 58.540474 -15.161183 4294967295
41.319164 52.540485 -15.132692 4294967295
41.319366 55.113522 -15.421484 4294967295
41.327789 57.899628 -15.054561 4294967295
41.335602 58.223728 -15.060624 4294967295
41.339729 54.154335 -15.234388 4294967295
41.354042 55.444843 -15.323972 4294967295
41.361168 53.034191 -15.024981 4294967295
41.366562 53.679108 -15.076594 4294967295
41.368366 52.070774 -14.888561 4294967295
41.37244 57.54047 -15.488232 4294967295
41.389851 53.363632 -14.950551 4294967295
41.394253 54.651871 -15.07842 4294967295
41.404388 58.032295 -15.419363 4294967295
41.406837 56.103123 -15.192813 4294967295
41.415321 57.392273 -15.304863 4294967295
41.418537 55.945602 -15.129594 4294967295
41.423508 53.5336 -14.83884 4294967295
41.431084 53.857494 -14.845855 4294967295
41.4328 55.306129 -15.002196 4294967295
41.468498 53.820789 -15.343391 4294967295
41.483288 57.090424 -15.00669 4294967295
41.501511 56.45203 -14.864032 4294967295
41.522289 56.890984 -15.479849 4294967295
41.545422 58.505604 -15.571603 4294967295
41.546471 57.380417 -15.440981 4294967295
41.547638 55.129192 -15.183246 4294967295
41.552917 52.556492 -14.873302 4294967295
41.566509 52.881924 -14.857132 4294967295
41.582085 54.817036 -15.014361 4294967295
41.584976 57.713371 -15.328898 4294967295
41.636181 56.76313 -15.02318 4294967295
41.642365 56.282177 -14.945076 4294967295
41.648663 52.536137 -15.145807 4294967295
41.654598 57.09029 -14.988454 4294967295
41.655788 52.055416 -15.064093 4294967295
41.656315 52.699013 -15.134439 4294967295
41.675999 55.277771 -15.348096 4294967295
41.676682 53.34787 -15.128415 4294967295
41.677711 53.830723 -15.178729 4294967295
41.685867 54.637192 -15.237784 4294967295
41.692307 53.673809 -15.10446 4294967295
41.692963 55.443356 -15.300908 4294967295
41.694717 55.926331 -15.348404 4294967295
41.699345 54.96262 -15.222086 4294967295
41.714348 58.183331 -15.525995 4294967295
41.714706 52.23167 -14.855356 4294967295
41.716801 51.910355 -14.811081 4294967295
41.718864 53.198273 -14.947942 4294967295
41.719311 54.16378 -15.054801 4294967295
41.721085 58.50692 -15.536246 4294967295
41.724976 52.39529 -14.833917 4294967295
41.726013 57.382748 -15.390749 4294967295
41.726219 57.543625 -15.408041 4294967295
41.729485 54.005657 -14.997548 4294967295
41.749161 56.263535 -15.175109 4294967295
41.79113 53.539528 -14.705973 4294967295
41.794163 54.345177 -14.78482 4294967295
41.79702 55.150715 -14.86432 4294967295
41.816322 58.052803 -15.115723 4294967295
41.847149 57.901024 -14.979081 4294967295
41.850899 57.741196 -14.946561 4294967295
41.856647 52.706226 -15.004246 4294967295
41.85685 57.260109 -14.869386 4294967295
41.875759 58.392342 -14.92332 4294967295
41.91898 56.584671 -15.198691 4294967295
41.936111 57.233131 -15.20517 4294967295
41.945812 54.500389 -14.860415 4294967295
41.968563 58.047081 -15.170881 4294967295
41.970936 57.565094 -15.107524 4294967295
41.977119 51.888012 -15.090785 4294967295
41.97868 54.670395 -14.752145 4294967295
41.983196 55.637459 -14.843349 4294967295
41.994083 58.376469 -15.109 4294967295
41.996735 53.019291 -15.142003 4294967295
42.002357 57.735249 -15.004867 4294967295
42.010319 53.505543 -15.144064 4294967295
42.011051 58.542454 -15.061888 4294967295
42.016216 52.219955 -14.976737 4294967295
42.018879 54.151352 -15.183501 4294967295
42.019779 55.599285 -15.342727 4294967295
42.02346 53.187286 -15.057416 4294967295
42.028168 57.098999 -14.833341 4294967295
42.028736 55.119251 -15.254113 4294967295
42.029598 54.797764 -15.214644 4294967295
42.041 53.352875 -15.008124 4294967295
42.058392 56.253624 -15.266773 4294967295
42.063538 52.715145 -14.849193 4294967295
42.066292 57.381874 -15.362942 4294967295
42.069683 53.682419 -14.934111 4294967295
42.072006 53.843975 -14.943282 4294967295
42.082569 52.398224 -14.739886 4294967295
42.090042 55.940861 -15.109092 4294967295
42.097355 58.67783 -15.388274 4294967295
42.110973 56.912251 -15.137204 4294967295
42.111252 55.78595 -15.009565 4294967295
42.117783 57.236027 -15.147207 4294967295
42.120941 52.569271 -14.610559 4294967295
42.136959 52.045414 -15.134446 4294967295
42.142277 56.599442 -14.980854 4294967295
42.147594 56.761906 -14.978532 4294967295
42.190369 53.829281 -15.128314 4294967295
42.22332 56.573345 -15.309121 4294967295
42.232376 56.093315 -15.220188 4294967295
42.310425 57.724876 -15.101572 4294967295
42.315338 55.473 -14.829644 4294967295
42.332714 58.053307 -15.052251 4294967295
42.346352 53.663872 -15.150759 4294967295
42.347153 57.896626 -14.978815 4294967295
42.363537 58.223389 -14.952147 4294967295
42.372902 53.349171 -15.012831 4294967295
42.382408 55.926193 -15.265509 4294967295
42.38752 56.571133 -15.318173 4294967295
42.390125 52.227085 -14.820253 4294967295
42.390175 54.480286 -15.07313 4294967295
42.392628 52.710629 -14.864901 4294967295
42.395153 55.447113 -15.162476 4294967295
42.399475 54.965595 -15.091702 4294967295
42.400681 54.322235 -15.014791 4294967295
42.401169 53.517666 -14.922544 4294967295
42.40657 53.036236 -14.847604 4294967295
42.413269 54.003777 -14.9304 4294967295
42.417931 55.131634 -15.039046 4294967295
42.420731 51.91304 -14.666732 4294967295
42.422783 52.396572 -14.713125 4294967295
42.424736 54.811646 -14.976819 4294967295
42.43787 56.907391 -15.161405 4294967295
42.442463 57.230537 -15.179935 4294967295
42.44759 52.564068 -14.636086 4294967295
42.447796 56.105618 -15.033032 4294967295
42.460285 55.304371 -14.894804 4294967295
42.464882 58.363461 -15.220497 4294967295
42.477421 51.882931 -15.087959 4294967295
42.479588 54.182758 -14.694264 4294967295
42.48856 55.795223 -14.840683 4294967295
42.490589 56.761646 -14.941354 4294967295
42.498127 52.371029 -15.06285 4294967295
42.505589 52.694813 -15.07041 4294967295
42.512363 56.284935 -14.803701 4294967295
42.52018 57.575081 -14.91836 4294967295
42.591282 58.350052 -15.374465 4294967295
42.6026 54.491188 -14.897664 4294967295
42.620316 52.241856 -14.576735 4294967295
42.646015 56.595921 -14.966356 4294967295
42.646454 54.02013 -14.675516 4294967295
42.64846 54.986763 -14.776299 4294967295
42.651878 57.241455 -15.016176 4294967295
42.654011 52.044682 -15.067609 4294967295
42.655251 56.115627 -14.876808 4294967295
42.665409 55.474495 -14.765622 4294967295
42.668392 57.89011 -15.025245 4294967295
42.673561 53.015301 -15.101184 4294967295
42.685532 57.573196 -14.923526 4294967295
42.692383 55.965126 -14.71659 4294967295
42.696743 57.093479 -14.826414 4294967295
42.698177 58.220844 -14.947389 4294967295
42.702721 58.544151 -14.966149 4294967295
42.720749 53.18874 -14.938701 4294967295
42.726814 55.12167 -15.132249 4294967295
42.7355 54.64127 -15.044852 4294967295
42.735771 52.709785 -14.827025 4294967295
42.746861 52.229691 -14.730379 4294967295
42.748489 55.93235 -15.139645 4294967295
42.753613 56.899307 -15.228397 4294967295
42.754631 56.577774 -15.188383 4294967295
42.762676 54.487755 -14.922839 4294967295
42.763973 58.511292 -15.369286 4294967295
42.770638 57.70879 -15.253565 4294967295
42.793076 55.301025 -14.896893 4294967295
42.802788 53.693615 -14.679062 4294967295
42.806099 53.53347 -14.648323 4294967295
42.814827 58.365505 -15.156855 4294967295
42.81955 54.181236 -14.66916 4294967295
42.834839 57.083691 -14.935899 4294967295
42.888401 52.382423 -14.844509 4294967295
42.907829 54.963104 -15.059222 4294967295
42.928741 58.348404 -15.358372 4294967295
42.959763 54.333412 -14.788541 4294967295
42.965328 52.724556 -14.586601 4294967295
42.993828 56.757969 -14.929304 4294967295
42.995007 58.2071 -15.087298 4294967295
43.017448 55.476501 -14.69459 4294967295
43.018631 57.248116 -14.88874 4294967295
43.022465 54.625336 -15.2217 4294967295
43.024311 58.054771 -14.957337 4294967295
43.027454 58.538666 -14.999497 4294967295
43.030678 55.963348 -14.698239 4294967295
43.039421 56.610004 -14.737097 4294967295
43.043484 55.805897 -14.631251 4294967295
43.047417 56.934376 -14.742691 4294967295
43.057133 52.220226 -14.818536 4294967295
43.062298 53.670467 -14.961333 4294967295
43.075344 54.156902 -14.965689 4294967295
43.09399 52.390804 -14.695852 4294967295
43.095661 56.576912 -15.158883 4294967295
43.097694 52.874863 -14.735899 4294967295
43.101318 51.909573 -14.613671 4294967295
43.101383 54.807922 -14.938514 4294967295
43.105118 55.291901 -14.978408 4294967295
43.114758 54.006557 -14.797166 4294967295
43.124416 52.07658 -14.543533 4294967295
43.126358 57.229527 -15.11394 4294967295
43.129436 52.722145 -14.596628 4294967295
43.139713 57.877239 -15.135172 4294967295
43.149719 56.109348 -14.898457 4294967295
43.156548 53.85677 -14.619568 4294967295
43.175705 53.171741 -15.110345 4294967295
43.17767 54.989933 -14.665387 4294967295
43.178089 54.506863 -14.60959 4294967295
43.178154 52.367634 -15.010768 4294967295
43.207767 53.824078 -15.06025 4294967295
43.220898 54.793354 -15.118439 4294967295
43.2215 57.579151 -14.787054 4294967295
43.226463 55.760536 -15.205472 4294967295
43.246159 53.351387 -14.859679 4294967295
43.259472 55.28688 -15.025489 4294967295
43.272007 54.485374 -14.887453 4294967295
43.300591 53.043716 -14.61595 4294967295
43.327068 57.559841 -15.020434 4294967295
43.327621 52.039528 -15.040154 4294967295
43.333477 55.62949 -14.779425 4294967295
43.337444 57.401859 -14.962838 4294967295
43.344845 57.887024 -14.988771 4294967295
43.351772 53.977272 -15.164623 4294967295
43.353592 57.084496 -14.865201 4294967295
43.356174 58.37336 -14.999714 4294967295
43.358307 57.72995 -14.919415 4294967295
43.36554 54.302879 -15.148241 4294967295
43.366127 56.282867 -14.727164 4294967295
43.375996 56.124592 -14.671497 4294967295
43.382053 52.21455 -14.850754 4294967295
43.38522 53.342361 -14.965023 4294967295
43.389435 54.470322 -15.075256 4294967295
43.393402 53.505524 -14.951884 4294967295
43.399929 55.438965 -15.143501 4294967295
43.403992 53.025326 -14.857405 4294967295
43.408478 52.543442 -14.786161 4294967295
43.409672 56.085495 -15.178539 4294967295
43.425522 55.928997 -15.100149 4294967295
43.462482 52.879654 -14.616463 4294967295
43.47263 57.069241 -15.047009 4294967295
43.473518 58.196331 -15.169878 4294967295
43.478535 53.206036 -14.591412 4294967295
43.481606 54.65646 -14.742185 4294967295
43.484016 55.301304 -14.80518 4294967295
43.485626 55.784859 -14.853185 4294967295
43.497089 57.881298 -15.044069 4294967295
43.50325 58.527073 -15.09276 4294967295
43.504791 56.595421 -14.87042 4294967295
43.565788 56.451706 -14.620089 4294967295
43.570522 53.828625 -14.948313 4294967295
43.59927 54.158379 -14.874989 4294967295
43.613537 54.806343 -14.892845 4294967295
43.624653 56.74152 -15.066982 4294967295
43.642208 51.914703 -14.458865 4294967295
43.661934 54.497452 -14.672579 4294967295
43.663342 57.557659 -15.009984 4294967295
43.670742 56.432606 -14.855582 4294967295
43.675125 55.789635 -14.76674 4294967295
43.683022 57.885426 -14.971185 4294967295
43.706936 54.462734 -15.135688 4294967295
43.708412 58.214935 -14.91069 4294967295
43.724495 58.541771 -14.8856 4294967295
43.729439 56.288151 -14.614229 4294967295
43.729454 54.790817 -15.086139 4294967295
43.732719 53.664734 -14.947505 4294967295
43.733013 53.825821 -14.964415 4294967295
43.742531 54.311398 -14.982327 4294967295
43.743454 53.345551 -14.870619 4294967295
43.756741 52.865932 -14.765983 4294967295
43.763832 54.961231 -14.973478 4294967295
43.76722 52.224403 -14.653954 4294967295
43.777916 52.710403 -14.667407 4294967295
43.782345 52.550476 -14.632524 4294967295
43.796074 57.707272 -15.157406 4294967295
43.798344 58.512798 -15.238885 4294967295
43.802261 56.743088 -15.025743 4294967295
43.809532 56.906174 -15.016146 4294967295
43.818264 58.357708 -15.145187 4294967295
43.832237 55.463223 -14.767548 4294967295
43.837738 56.109009 -14.818784 4294967295
43.842941 53.533009 -14.510352 4294967295
43.850883 54.179604 -14.552349 4294967295
43.859322 52.525433 -14.973783 4294967295
43.86544 57.405361 -14.857782 4294967295
43.883934 52.209759 -14.844204 4294967295
43.898602 51.891434 -14.752409 4294967295
43.934925 57.214767 -15.209323 4294967295
43.963486 53.035767 -14.632159 4294967295
43.985413 55.296787 -14.801353 4294967295
44.000088 55.139755 -14.7276 4294967295
44.003117 56.429161 -14.860332 4294967295
44.007584 54.336323 -14.608951 4294967295
44.010437 56.270168 -14.814513 4294967295
44.010544 57.075489 -14.904255 4294967295
44.01236 57.559151 -14.95143 4294967295
44.027645 54.663994 -14.56883 4294967295
44.040974 55.473248 -14.60841 4294967295
44.05463 55.799282 -14.592624 4294967295
44.055553 52.048218 -14.807703 4294967295
44.058807 58.377995 -14.865252 4294967295
44.067436 53.017574 -14.870774 4294967295
44.068111 55.432968 -15.138516 4294967295
44.095039 55.279408 -15.018353 4294967295
44.102585 53.348934 -14.773435 4294967295
44.114456 54.962685 -14.908652 4294967295
44.122921 56.2533 -15.0207 4294967295
44.135071 55.934647 -14.938584 4294967295
44.138103 53.197208 -14.620619 4294967295
44.138958 52.875214 -14.581308 4294967295
44.141109 54.164593 -14.717399 4294967295
44.144413 53.682194 -14.65077 4294967295
44.148426 57.548748 -15.068108 4294967295
44.149818 58.515209 -15.170913 4294967295
44.150581 57.871407 -15.095964 4294967295
44.152191 54.650852 -14.729432 4294967295
44.195602 55.14603 -14.618835 4294967295
44.199345 57.40242 -14.857002 4294967295
44.200211 53.858192 -14.457075 4294967295
44.21574 54.829281 -14.506369 4294967295
44.216007 58.051556 -14.865903 4294967295
44.217602 56.118855 -14.643561 4294967295
44.232002 54.625576 -15.059326 4294967295
44.249908 57.25589 -14.647238 4294967295
44.250404 53.825386 -14.899488 4294967295
44.253342 53.665119 -14.870332 4294967295
44.262531 52.056759 -14.655254 4294967295
44.310448 55.452278 -14.852101 4294967295
44.335979 57.875343 -15.025591 4294967295
44.342583 57.716217 -14.982574 4294967295
44.344101 54.333782 -14.598406 4294967295
44.350018 56.107624 -14.774235 4294967295
44.350952 55.785686 -14.73466 4294967295
44.363045 57.077847 -14.83299 4294967295
44.381367 54.504993 -14.475178 4294967295
44.389229 56.440876 -14.661703 4294967295
44.392166 58.536053 -14.884822 4294967295
44.393917 53.817509 -14.987692 4294967295
44.394512 57.247967 -14.731808 4294967295
44.396313 58.215099 -14.83309 4294967295
44.398067 54.993031 -14.465967 4294967295
44.401714 58.055584 -14.794607 4294967295
44.402313 54.624905 -15.045943 4294967295
44.40649 52.049152 -14.741898 4294967295
44.409992 54.465954 -14.99886 4294967295
44.412346 51.889557 -14.701684 4294967295
44.415577 52.69582 -14.779558 4294967295
44.422375 53.180824 -14.807866 4294967295
44.427002 54.792648 -14.970478 4294967295
44.429783 52.216213 -14.671681 4294967295
44.44384 52.380939 -14.636455 4294967295
44.467381 55.286877 -14.871647 4294967295
44.499168 53.684425 -14.571091 4294967295
44.499561 56.423363 -14.875904 4294967295
44.49968 55.617966 -14.785398 4294967295
44.503586 54.007874 -14.590415 4294967295
44.505089 58.196613 -15.053082 4294967295
44.510609 53.042835 -14.455663 4294967295
44.524467 58.524406 -15.015767 4294967295
44.545002 56.113934 -14.667874 4294967295
44.574066 53.49728 -14.901157 4294967295
44.601585 55.43734 -15.013144 4294967295
44.62252 54.315578 -14.807906 4294967295
44.624928 52.866253 -14.636666 4294967295
44.628902 56.41124 -15.017857 4294967295
44.654831 58.673229 -15.171822 4294967295
44.67498 56.26313 -14.825605 4294967295
44.688766 55.783653 -14.719445 4294967295
44.689743 57.072788 -14.85983 4294967295
44.694695 57.396393 -14.877121 4294967295
44.695702 54.012947 -14.495034 4294967295
44.696056 55.302277 -14.637835 4294967295
44.714504 53.695595 -14.387856 4294967295
44.717308 58.369511 -14.899668 4294967295
44.718002 57.725319 -14.82502 4294967295
44.718666 55.63081 -14.58836 4294967295
44.732136 56.601479 -14.645505 4294967295
44.73856 55.95866 -14.549152 4294967295
44.742558 52.207355 -14.75081 4294967295
44.743538 54.83176 -14.404197 4294967295
44.778954 58.548756 -14.684647 4294967295
44.791222 53.186642 -14.674922 4294967295
44.806282 52.546001 -14.545941 4294967295
44.823765 53.356323 -14.569936 4294967295
44.825512 52.067429 -14.419196 4294967295
44.825706 52.873352 -14.508552 4294967295
44.827995 55.452171 -14.788072 4294967295
44.829132 55.130257 -14.747766 4294967295
44.834568 56.420616 -14.871259 4294967295
44.847141 58.357182 -15.039748 4294967295
44.854134 54.170177 -14.545226 4294967295
44.861828 54.655739 -14.570197 4294967295
44.88327 56.112038 -14.651276 4294967295
44.932671 52.372688 -14.680986 4294967295
44.934956 57.738304 -14.636117 4294967295
44.939838 53.019035 -14.725948 4294967295
44.942421 54.630741 -14.896199 4294967295
44.950981 58.065292 -14.611612 4294967295
44.955433 54.795357 -14.86508 4294967295
44.958996 58.228802 -14.599358 4294967295
44.961868 58.551994 -14.624527 4294967295
44.978741 56.895901 -15.011051 4294967295
45.000282 57.868504 -15.03773 4294967295
45.014519 57.711548 -14.966025 4294967295
45.015018 56.261761 -14.802178 4294967295
45.019863 54.168194 -14.549851 4294967295
45.019917 54.490543 -14.585661 4294967295
45.020199 56.585453 -14.81862 4294967295
45.021782 52.879208 -14.398503 4294967295
45.031189 53.365269 -14.417034 4294967295
45.035419 57.073132 -14.815187 4294967295
45.040535 57.396835 -14.831874 4294967295
45.057964 58.529705 -14.892083 4294967295
45.069542 58.371983 -14.830412 4294967295
45.071529 53.537109 -14.282728 4294967295
45.072079 54.988235 -14.442781 4294967295
45.084099 52.366978 -14.73934 4294967295
45.085808 52.04517 -14.696886 4294967295
45.096485 55.269939 -15.016517 4294967295
45.105938 55.433605 -14.998852 4294967295
45.107529 54.145336 -14.848927 4294967295
45.109562 54.468082 -14.877251 4294967295
45.113689 52.858002 -14.681706 4294967295
45.114586 53.663879 -14.768321 4294967295
45.119286 56.564785 -15.074448 4294967295
45.128029 54.79528 -14.843587 4294967295
45.132591 53.829777 -14.718413 4294967295
45.134876 57.374508 -15.105594 4294967295
45.1366 57.53606 -15.117074 4294967295
45.144249 52.543594 -14.530419 4294967295
45.147194 52.221992 -14.483294 4294967295
45.15741 53.99752 -14.642797 4294967295
45.183147 55.132545 -14.671734 4294967295
45.19643 55.780811 -14.693645 4294967295
45.196648 57.875557 -14.926734 4294967295
45.251057 56.118351 -14.523685 4294967295
45.312866 51.897522 -14.452133 4294967295
45.357941 53.682396 -14.480288 4294967295
45.365993 53.84573 -14.467945 4294967295
45.388031 53.045387 -14.294895 4294967295
18.402451 59.007183 -17.799078 4294967295
19.387844 59.477303 -17.843657 4294967295
19.408998 58.848171 -17.674381 4294967295
19.743153 59.325199 -17.702473 4294967295
19.751379 59.00972 -17.628378 4294967295
19.759253 61.081776 -17.838087 4294967295
19.773756 61.246235 -17.792656 4294967295
19.796381 61.891239 -17.767691 4294967295
19.81826 62.376919 -17.727222 4294967295
19.951908 61.090984 -17.71088 4294967295
20.029093 58.830303 -17.831217 4294967295
20.06896 58.684982 -17.636152 4294967295
20.253204 59.964413 -17.696863 4294967295
20.258654 60.762363 -17.766766 4294967295
20.321064 62.695774 -17.716791 4294967295
20.400528 60.116367 -17.789032 4294967295
20.426208 59.807072 -17.638208 4294967295
20.574888 58.844933 -17.592957 4294967295
20.580795 59.324715 -17.623283 4294967295
20.733288 59.637787 -17.711477 4294967295
20.76812 61.56094 -17.783484 4294967295
20.773668 60.129807 -17.590132 4294967295
20.78039 61.087719 -17.673208 4294967295
20.789679 61.40958 -17.669889 4294967295
20.809523 62.690823 -17.732775 4294967295
20.811508 62.532326 -17.705275 4294967295
20.899664 58.841049 -17.607193 4294967295
20.988234 62.854347 -17.68717 4294967295
21.01136 58.821575 -17.836946 4294967295
21.071121 59.160774 -17.612097 4294967295
21.074093 59.798851 -17.674093 4294967295
21.116659 61.088123 -17.637337 4294967295
21.192284 59.303722 -17.818901 4294967295
21.242359 59.958263 -17.674334 4294967295
21.275791 61.881363 -17.752769 4294967295
21.298073 62.048805 -17.673866 4294967295
21.365118 59.623909 -17.817745 4294967295
21.374388 60.104862 -17.833366 4294967295
21.375612 59.149841 -17.715551 4294967295
21.423695 60.440876 -17.654928 4294967295
21.428343 61.079624 -17.709553 4294967295
21.446293 61.404663 -17.668444 4294967295
21.474064 62.5298 -17.678064 4294967295
21.532011 58.827305 -17.711554 4294967295
21.538465 59.30732 -17.739525 4294967295
21.567333 60.113762 -17.70693 4294967295
21.56889 59.795761 -17.66264 4294967295
21.647808 62.054237 -17.579815 4294967295
21.653471 61.737671 -17.51758 4294967295
21.725094 59.15451 -17.622181 4294967295
21.731174 59.634502 -17.65181 4294967295
21.744917 59.957909 -17.62923 4294967295
21.750267 60.596973 -17.680782 4294967295
21.76577 60.921101 -17.650511 4294967295
21.770748 61.560059 -17.703682 4294967295
21.771463 62.675224 -17.83164 4294967295
21.786011 61.884197 -17.674473 4294967295
21.78931 61.40749 -17.603867 4294967295
21.805048 62.369083 -17.647514 4294967295
21.865755 58.985752 -17.705799 4294967295
21.88345 60.903172 -17.853231 4294967295
21.916077 61.711254 -17.804459 4294967295
22.048885 59.94672 -17.735121 4294967295
22.053751 58.992607 -17.601597 4294967295
22.066132 59.793468 -17.641216 4294967295
22.089375 62.031906 -17.801918 4294967295
22.118111 61.883102 -17.657974 4294967295
22.120277 61.405922 -17.592382 4294967295
22.13195 62.525436 -17.672531 4294967295
22.167463 58.973881 -17.82122 4294967295
22.250969 60.27737 -17.607256 4294967295
22.277697 60.924206 -17.565735 4294967295
22.284216 60.129738 -17.443775 4294967295
22.285954 62.36116 -17.698174 4294967295
22.36001 59.14159 -17.716162 4294967295
22.363272 58.824093 -17.66456 4294967295
22.378069 60.262981 -17.768524 4294967295
22.394398 59.472118 -17.603991 4294967295
22.40155 61.864277 -17.853395 4294967295
22.413565 60.912804 -17.688967 4294967295
22.41501 60.435341 -17.626564 4294967295
22.415205 59.957394 -17.569601 4294967295
22.424187 60.597927 -17.605366 4294967295
22.425303 62.510117 -17.824911 4294967295
22.440695 62.356472 -17.739294 4294967295
22.441032 61.400639 -17.625629 4294967295
22.442781 62.038597 -17.692831 4294967295
22.478092 62.210838 -17.55801 4294967295
22.485052 58.808208 -17.848677 4294967295
22.5175 59.137928 -17.745071 4294967295
22.550491 60.901798 -17.807373 4294967295
22.603476 59.008133 -17.352795 4294967295
22.618631 59.332169 -17.32436 4294967295
22.619282 62.519863 -17.695538 4294967295
22.691141 59.299145 -17.722576 4294967295
22.697744 58.982761 -17.656542 4294967295
22.701773 59.621468 -17.713816 4294967295
22.72571 59.151714 -17.553852 4294967295
22.748161 60.115681 -17.568584 4294967295
22.748501 61.231239 -17.697943 4294967295
22.763332 60.439751 -17.54014 4294967295
22.767912 61.716248 -17.669794 4294967295
22.787233 62.201317 -17.64204 4294967295
22.789108 60.608242 -17.446993 4294967295
22.789209 60.927063 -17.483942 4294967295
