# .PCD v0.7 - Point Cloud Data file format
VERSION 0.7
FIELDS x y z rgb
SIZE 4 4 4 4
TYPE F F F U
COUNT 1 1 1 1
WIDTH 1129
HEIGHT 1
VIEWPOINT 0 0 0 1 0 0 0
POINTS 1129
DATA ascii
38.513649 2.4318187 -13.944499 4294967295
38.517822 0.1860123 -14.323727 4294967295
38.541122 2.2734344 -14.468796 4294967295
38.544395 3.8754692 -13.335948 4294967295
38.551079 1.6302781 -14.356863 4294967295
38.552616 3.2340868 -13.88236 4294967295
38.559059 1.9512383 -14.361914 4294967295
38.580185 -2.5424292 -14.419116 4294967295
38.584793 -1.0970801 -14.56475 4294967295
38.591545 -0.7762996 -14.57461 4294967295
38.597805 -2.2224696 -14.386297 4294967295
38.599201 0.18687411 -14.653695 4294967295
38.602139 -2.8654673 -14.296475 4294967295
38.604099 -1.2590342 -14.470742 4294967295
38.606827 3.714421 -13.723867 4294967295
38.618378 -1.5813388 -14.378257 4294967295
38.618526 2.1090603 -14.146458 4294967295
38.62241 3.0703504 -13.589672 4294967295
38.62289 -0.2964443 -14.506095 4294967295
38.629856 0.98815107 -14.624281 4294967295
38.63208 2.9121122 -14.184254 4294967295
38.63765 0.50583822 -14.539116 4294967295
38.640644 3.3913682 -13.554433 4294967295
38.64175 -0.45829251 -14.413842 4294967295
38.644047 1.9510761 -14.677718 4294967295
38.646347 -0.61925358 -14.377588 4294967295
38.648884 1.4689879 -14.604152 4294967295
38.648945 3.873709 -13.57648 4294967295
38.656921 0.66537011 -14.481646 4294967295
38.661781 2.1108296 -14.626293 4294967295
38.664207 -1.7453103 -14.180051 4294967295
38.665169 1.1468554 -14.503847 4294967295
38.66539 2.589143 -14.016953 4294967295
38.668652 0.34337109 -14.399185 4294967295
38.670128 -1.5775275 -14.824109 4294967295
38.682785 -2.06812 -14.070664 4294967295
38.691368 0.82408631 -14.364593 4294967295
38.692032 -0.1401027 -14.252793 4294967295
38.692684 -2.542666 -14.626515 4294967295
38.697857 2.7516961 -14.557474 4294967295
38.704239 2.269453 -14.477843 4294967295
38.725952 2.5897882 -14.429005 4294967295
38.726543 3.551327 -13.886005 4294967295
38.731144 -2.0637336 -14.530151 4294967295
38.746906 -1.4223571 -14.541047 4294967295
38.788643 0.0206048 -14.540979 4294967295
38.841129 1.3028052 -14.480622 4294967295
38.868347 3.8677034 -13.365437 4294967295
38.880657 -0.4672209 -14.125446 4294967295
38.885998 3.386718 -13.891929 4294967295
38.889816 -1.4250467 -14.629023 4294967295
38.897335 -0.46191171 -14.708611 4294967295
38.90152 -1.7471253 -14.546784 4294967295
38.908451 0.019191001 -14.719576 4294967295
38.909588 2.2634876 -14.321335 4294967295
38.910957 1.941998 -14.279568 4294967295
38.911568 3.8682067 -13.84622 4294967295
38.9188 -1.9090229 -14.460873 4294967295
38.920258 -1.1058981 -14.54607 4294967295
38.922626 -2.8733158 -14.336766 4294967295
38.924973 0.33940729 -14.691189 4294967295
38.93792 0.65987903 -14.676816 4294967295
38.94265 3.7061944 -13.706041 4294967295
38.955196 2.743588 -14.197092 4294967295
38.963612 -0.94817013 -14.394333 4294967295
38.966053 -0.1449831 -14.47568 4294967295
38.968838 0.8187601 -14.573866 4294967295
38.972286 2.903594 -14.148287 4294967295
38.973335 -0.62745613 -14.392591 4294967295
38.977657 -2.0740395 -14.211967 4294967295
38.985397 -2.3960695 -14.145235 4294967295
38.988152 -2.717756 -14.098058 4294967295
38.989651 1.4602149 -14.56505 4294967295
38.990582 1.299516 -14.543219 4294967295
38.992397 2.263278 -14.645195 4294967295
38.999683 3.5455203 -14.113693 4294967295
39.005482 2.1020167 -14.575762 4294967295
39.005997 2.5839231 -14.628286 4294967295
39.014683 1.6195847 -14.48517 4294967295
39.026581 -2.7121656 -14.595572 4294967295
39.028744 1.1368015 -14.375527 4294967295
39.037945 -2.3917933 -14.587408 4294967295
39.063671 -0.79410392 -14.020365 4294967295
39.064774 0.49190441 -14.1616 4294967295
39.065449 -0.78753197 -14.661442 4294967295
39.068241 3.0603225 -13.79031 4294967295
39.092949 -2.5566595 -14.353824 4294967295
39.127838 3.8623173 -13.647743 4294967295
39.148506 -0.31093031 -14.390803 4294967295
39.230366 0.0113385 -14.754026 4294967295
39.23143 -1.2736968 -14.604546 4294967295
39.234619 0.96973228 -14.1992 4294967295
39.243633 3.3775797 -13.788548 4294967295
39.250839 3.5381556 -13.778534 4294967295
39.260506 -2.2397597 -14.381783 4294967295
39.263515 -2.4006777 -14.351829 4294967295
39.267029 -0.4728395 -14.556158 4294967295
39.2742 -2.7229064 -14.273677 4294967295
39.277008 -0.63414299 -14.498958 4294967295
39.279686 -1.5984014 -14.379451 4294967295
39.293652 0.81077999 -14.597402 4294967295
39.296535 2.8957617 -14.175158 4294967295
39.308681 -1.921909 -14.229666 4294967295
39.316689 -0.15461691 -14.398292 4294967295
39.321251 1.9338931 -14.616682 4294967295
39.32745 -2.0840278 -14.138067 4294967295
39.328648 1.1301863 -14.496921 4294967295
39.335094 3.3764975 -14.078867 4294967295
39.342781 1.4508016 -14.47801 4294967295
39.348946 0.4862676 -14.344852 4294967295
39.349541 -0.96034211 -14.178919 4294967295
39.354546 -0.79992688 -14.177529 4294967295
39.359119 2.4140949 -14.523163 4294967295
39.373241 2.7348261 -14.50432 4294967295
39.380653 2.2524037 -14.420821 4294967295
39.384647 0.32344791 -14.187078 4294967295
39.390018 1.2876143 -14.275146 4294967295
39.402893 0.1615995 -14.097557 4294967295
39.404343 -1.4391243 -14.556985 4294967295
39.428097 3.8554232 -13.769629 4294967295
39.456177 2.0880787 -14.107433 4294967295
39.460461 2.5702214 -14.145238 4294967295
39.464512 0.484983 -14.539872 4294967295
39.470444 -0.31879061 -14.425872 4294967295
39.486084 1.6084908 -14.582778 4294967295
39.48901 3.0513399 -14.088208 4294967295
39.500652 -1.92813 -14.126137 4294967295
39.521225 3.6932681 -14.035043 4294967295
39.543404 -2.08412 -14.587215 4294967295
39.548401 -2.574883 -13.866813 4294967295
39.550182 1.9266826 -14.368792 4294967295
39.556103 -2.5670643 -14.483178 4294967295
39.557919 -0.48507911 -14.065969 4294967295
39.564571 3.8524792 -13.883845 4294967295
39.576595 2.0861394 -14.283826 4294967295
39.578033 0.31762269 -14.078281 4294967295
39.589771 0.79931468 -14.086966 4294967295
39.595669 2.8890064 -14.30022 4294967295
39.613659 3.3705125 -14.284498 4294967295
39.621437 -2.4113507 -14.246265 4294967295
39.623554 -1.9293138 -14.292486 4294967295
39.625557 -0.96515119 -14.393658 4294967295
39.631329 0.1593626 -14.49826 4294967295
39.634071 2.5657814 -14.113913 4294967295
39.644493 -1.4486125 -14.265248 4294967295
39.64624 0.80124819 -14.512709 4294967295
39.646645 -0.80583543 -14.329511 4294967295
39.649231 3.3665297 -13.498409 4294967295
39.650669 -2.2528059 -14.15031 4294967295
39.652733 -0.1633434 -14.378414 4294967295
39.657909 0.31848279 -14.4127 4294967295
39.678253 -1.2902029 -14.151638 4294967295
39.687675 2.2453425 -14.514504 4294967295
39.69186 -1.773499 -14.044019 4294967295
39.692524 1.7629974 -14.441101 4294967295
39.695095 2.727087 -14.540051 4294967295
39.703701 0.63729101 -14.270347 4294967295
39.708466 -0.488343 -14.124571 4294967295
39.723682 -0.0069487998 -14.1197 4294967295
39.725853 0.95756501 -14.220245 4294967295
39.730591 3.6875837 -13.864359 4294967295
39.736031 1.2785462 -14.216882 4294967295
39.73624 0.47465739 -14.125208 4294967295
39.738171 -0.80520129 -14.617945 4294967295
39.757835 2.5635784 -14.277167 4294967295
39.764305 2.4025214 -14.233752 4294967295
39.783421 1.9192649 -14.104671 4294967295
39.785278 -0.0048233001 -14.525053 4294967295
39.785812 -2.2548378 -14.268776 4294967295
39.790226 3.5244 -13.613363 4294967295
39.802547 1.1141946 -13.939185 4294967295
39.809155 0.63653708 -14.504598 4294967295
39.823708 -0.3286193 -14.338918 4294967295
39.836029 3.3642068 -14.06304 4294967295
39.841194 3.042347 -14.006551 4294967295
39.863544 -2.4214742 -13.947441 4294967295
39.864609 -1.135103 -14.088631 4294967295
39.902103 2.5604539 -14.360228 4294967295
39.913815 -1.4528402 -14.505627 4294967295
39.923248 0.30842409 -14.023529 4294967295
39.926109 0.63512588 -14.693629 4294967295
39.929085 1.9161283 -14.182446 4294967295
39.935028 -2.2579246 -14.332229 4294967295
39.936119 -1.2936865 -14.436879 4294967295
39.936653 0.79011101 -14.025784 4294967295
39.939014 -2.5796976 -14.280397 4294967295
39.942493 2.2370653 -14.166516 4294967295
39.942799 1.2722287 -14.05633 4294967295
39.946159 3.8425846 -13.688085 4294967295
39.947254 -0.97301972 -14.429807 4294967295
39.964237 -0.4919813 -14.418119 4294967295
39.965958 2.0751486 -14.056925 4294967295
39.966469 0.9542163 -14.572779 4294967295
39.986 -0.0111651 -14.387812 4294967295
39.986698 -0.6541574 -14.312492 4294967295
39.991978 0.79210269 -14.455297 4294967295
40.005932 -2.4240308 -14.037827 4294967295
40.006447 0.30908409 -14.344497 4294967295
40.011154 -1.7812172 -14.09013 4294967295
40.012119 -2.1028857 -14.050047 4294967295
40.016972 3.0378642 -13.967157 4294967295
40.022625 2.3941822 -13.872437 4294967295
40.026276 3.8417165 -14.02177 4294967295
40.029831 3.1981854 -13.93523 4294967295
40.030464 0.46843639 -14.269131 4294967295
40.04945 -1.1406634 -14.013592 4294967295
40.061951 3.518645 -13.846438 4294967295
40.062237 -0.33741951 -14.054598 4294967295
40.066277 1.752637 -14.274933 4294967295
40.082283 -0.82119417 -13.92203 4294967295
40.09222 3.3565547 -13.710329 4294967295
40.106445 1.5898247 -14.100388 4294967295
40.132053 3.676872 -13.591507 4294967295
40.14817 1.9133779 -14.618637 4294967295
40.151642 1.1096976 -14.514414 4294967295
40.171082 -1.4635102 -14.148424 4294967295
40.200596 1.267823 -14.342162 4294967295
40.235947 -0.18131851 -14.041264 4294967295
40.239822 2.8735247 -14.371096 4294967295
40.240658 1.748081 -14.240788 4294967295
40.242397 3.8358362 -13.825531 4294967295
40.248249 -2.1044807 -14.419577 4294967295
40.265282 1.5860429 -14.12687 4294967295
40.269142 2.2290876 -14.184479 4294967295
40.278782 -0.66009432 -14.464137 4294967295
40.278824 -2.4282496 -14.264411 4294967295
40.284866 3.6733305 -13.642078 4294967295
40.28751 -0.33920729 -14.46649 4294967295
40.291546 2.5496821 -14.133669 4294967295
40.295914 -1.9472247 -14.252402 4294967295
40.303425 0.94558239 -14.54974 4294967295
40.303997 3.514039 -14.194187 4294967295
40.305328 2.388231 -14.061913 4294967295
40.305702 3.1923459 -14.151237 4294967295
40.309608 0.4630824 -14.471301 4294967295
40.310139 -0.98363572 -14.305971 4294967295
40.311764 0.3022278 -14.444776 4294967295
40.313278 2.0661733 -13.994685 4294967295
40.316555 1.4225718 -13.909292 4294967295
40.333115 3.0303805 -14.026499 4294967295
40.333729 -1.6283712 -14.141686 4294967295
40.341888 -2.5938489 -14.001076 4294967295
40.357456 1.2641419 -14.376072 4294967295
40.361622 -1.3087 -14.069545 4294967295
40.363609 -2.5871446 -14.559977 4294967295
40.388542 -0.023906499 -14.110113 4294967295
40.401459 3.6711588 -13.833423 4294967295
40.428173 -1.1523902 -13.829004 4294967295
40.481285 0.29780889 -14.429391 4294967295
40.483604 0.77989298 -14.47479 4294967295
40.486961 -1.4709845 -14.207844 4294967295
40.508064 -0.18608969 -14.271021 4294967295
40.535343 2.7061791 -14.491602 4294967295
40.552574 3.1876857 -14.479138 4294967295
40.563847 2.5441592 -14.36285 4294967295
40.578468 -0.35128641 -13.979536 4294967295
40.58197 -1.3096157 -14.499822 4294967295
40.583721 -2.5956492 -14.348005 4294967295
40.58667 0.45246819 -14.03842 4294967295
40.588669 1.5781889 -14.157672 4294967295
40.591652 2.2213035 -14.218662 4294967295
40.596508 -1.7928418 -14.389042 4294967295
40.598881 2.0601473 -14.172465 4294967295
40.601475 -2.7577822 -14.260982 4294967295
40.602085 -0.34660491 -14.530559 4294967295
40.616119 -0.66896141 -14.439862 4294967295
40.616428 3.3458912 -14.24951 4294967295
40.644974 -2.2787185 -14.146606 4294967295
40.650475 0.29341009 -14.415396 4294967295
40.655434 1.2576091 -14.50493 4294967295
40.658066 0.77523398 -14.440338 4294967295
40.663185 0.614191 -14.402356 4294967295
40.671158 -1.6373671 -14.117562 4294967295
40.677261 3.6652007 -14.049783 4294967295
40.682312 -1.155681 -14.128712 4294967295
40.695583 2.5415936 -14.494293 4294967295
40.707703 2.8625638 -14.483567 4294967295
40.722923 -0.83671618 -14.007452 4294967295
40.729885 1.0928718 -14.198112 4294967295
40.734253 -0.19403569 -14.03606 4294967295
40.740662 3.8237267 -13.821953 4294967295
40.746159 3.6648278 -14.425166 4294967295
40.759056 -1.1539294 -14.473209 4294967295
40.761265 -1.4755665 -14.428408 4294967295
40.771812 0.45253399 -14.604986 4294967295
40.780079 1.8944554 -14.094176 4294967295
40.785908 2.2158689 -14.107859 4294967295
40.794544 -0.19175319 -14.44443 4294967295
40.799858 -2.1214252 -14.206325 4294967295
40.801346 -2.6039572 -14.146174 4294967295
40.816471 2.6970506 -14.043795 4294967295
40.835007 1.7349902 -14.505157 4294967295
40.86388 2.5373917 -14.483937 4294967295
40.932205 0.2824119 -13.965468 4294967295
40.934975 2.2125468 -14.172348 4294967295
40.944756 0.92520589 -13.989388 4294967295
40.945595 2.6945741 -14.18562 4294967295
40.954647 -1.6425555 -14.302614 4294967295
40.962479 -2.1255066 -14.217934 4294967295
40.966259 3.658741 -14.214398 4294967295
40.966797 1.2457879 -13.940285 4294967295
40.969189 1.0895059 -14.554341 4294967295
40.975361 3.8192384 -14.197281 4294967295
40.985954 3.0145531 -14.065599 4294967295
40.996075 2.048794 -13.917583 4294967295
40.998184 -1.8064576 -14.115928 4294967295
40.998604 -0.35913181 -14.277428 4294967295
41.005054 -0.037928302 -14.288701 4294967295
41.009579 -2.2898226 -14.017435 4294967295
41.015617 -2.4511361 -13.97592 4294967295
41.023201 -1.1648433 -14.091588 4294967295
41.025539 1.5688505 -14.390639 4294967295
41.0345 0.76438779 -14.265363 4294967295
41.040565 -1.326879 -14.006231 4294967295
41.045162 -0.8446033 -14.042831 4294967295
41.048218 -0.52308881 -14.067254 4294967295
41.052361 3.3336422 -13.844735 4294967295
41.074917 0.44042981 -14.072683 4294967295
41.09293 -0.35889041 -14.553226 4294967295
41.094955 2.852037 -14.267049 4294967295
41.098656 -1.002251 -14.458638 4294967295
41.106071 1.7256321 -14.097158 4294967295
41.13028 -2.6124291 -14.155173 4294967295
41.148777 0.60230899 -14.445967 4294967295
41.148956 0.1199685 -14.39093 4294967295
41.155117 -0.8451944 -14.258411 4294967295
41.181202 2.047555 -14.483631 4294967295
41.195457 2.5258899 -13.841989 4294967295
41.224911 -2.7805841 -13.770986 4294967295
41.22554 3.1710517 -14.439075 4294967295
41.243793 -0.69010818 -13.933624 4294967295
41.257843 -1.4956031 -13.788651 4294967295
41.258595 1.239585 -14.093893 4294967295
41.272514 1.0779715 -14.021966 4294967295
41.273472 2.2040172 -14.145126 4294967295
41.277233 0.2732349 -13.913087 4294967295
41.27951 3.9711072 -13.680109 4294967295
41.28249 -0.36460689 -14.460653 4294967295
41.285683 3.0077527 -14.188544 4294967295
41.296867 2.6855526 -14.109066 4294967295
41.298985 -0.68721569 -14.360723 4294967295
41.301979 -2.6172168 -14.13181 4294967295
41.313057 3.9718189 -14.191487 4294967295
41.331055 -2.1368504 -14.073804 4294967295
41.345757 2.8443334 -13.938266 4294967295
41.346279 1.882697 -14.46778 4294967295
41.346375 -0.046943098 -14.250107 4294967295
41.352058 1.2392401 -14.373035 4294967295
41.354343 -1.655936 -14.038163 4294967295
41.356144 -0.85175312 -14.121793 4294967295
41.358704 -0.53021711 -14.148143 4294967295
41.362087 1.5603278 -14.370529 4294967295
41.36462 0.27363119 -14.215858 4294967295
41.369022 -1.1743348 -14.035811 4294967295
41.369404 -1.3352356 -14.016218 4294967295
41.376099 0.75548393 -14.225862 4294967295
41.379017 3.4890552 -14.522459 4294967295
41.381538 3.3281765 -14.494617 4294967295
41.381702 0.43348181 -14.167985 4294967295
41.392315 0.59372872 -14.145121 4294967295
41.394665 -0.2107407 -14.045453 4294967295
41.408749 3.1662843 -14.371473 4294967295
41.438152 3.6475987 -14.312301 4294967295
41.458813 0.27362421 -14.491803 4294967295
41.476524 2.037271 -13.982994 4294967295
41.538483 2.3597205 -14.419793 4294967295
41.557789 2.5196605 -14.363436 4294967295
41.573174 -1.985823 -13.796941 4294967295
41.591331 -2.4700177 -13.672482 4294967295
41.593975 1.5528487 -14.115202 4294967295
41.595184 -1.6655066 -13.748216 4294967295
41.598072 -2.7840011 -14.249727 4294967295
41.602077 0.7479682 -13.993386 4294967295
41.602436 2.1959329 -14.155012 4294967295
41.612427 0.90830499 -13.971566 4294967295
41.614536 -0.057347599 -13.854728 4294967295
41.62059 2.8386118 -14.157443 4294967295
41.637581 0.1022132 -13.783926 4294967295
41.641048 1.2286128 -13.897378 4294967295
41.643932 -2.3049567 -14.127181 4294967295
41.645981 0.42897549 -14.426987 4294967295
41.649803 2.9982662 -14.062887 4294967295
41.660988 -0.054340798 -14.314851 4294967295
41.667957 -0.53726929 -14.233672 4294967295
41.676987 1.8705602 -13.831224 4294967295
41.681889 -2.146884 -13.998922 4294967295
41.684193 -0.69915807 -14.152981 4294967295
41.688412 3.4794531 -13.968349 4294967295
41.698994 3.3181047 -13.909424 4294967295
41.708591 2.6738939 -13.799931 4294967295
41.724049 -1.5062722 -13.908784 4294967295
41.725079 3.1561007 -13.790707 4294967295
41.735039 -0.3806181 -13.993185 4294967295
41.739624 2.0323112 -14.247102 4294967295
41.740978 -1.024657 -13.897853 4294967295
41.741306 1.5496488 -14.186306 4294967295
41.753777 3.6401308 -14.373581 4294967295
41.76638 0.1002134 -13.926706 4294967295
41.770954 -0.865695 -13.8004 4294967295
41.772877 2.6742454 -14.191394 4294967295
41.776428 3.9609759 -14.322525 4294967295
41.789562 -1.1888568 -13.692425 4294967295
41.811783 -1.8268437 -14.173238 4294967295
41.815071 -1.0228267 -14.251063 4294967295
41.818275 2.3504231 -13.980258 4294967295
41.86153 -0.86502409 -14.090229 4294967295
41.868793 -1.6699975 -13.971743 4294967295
41.880341 3.9591665 -14.560646 4294967295
41.912159 -2.3168821 -13.732263 4294967295
41.932823 0.90058881 -14.014812 4294967295
41.944984 -1.3533933 -13.714481 4294967295
41.954311 -2.794591 -14.153966 4294967295
41.956974 -1.3471578 -14.306528 4294967295
41.958099 1.3820114 -13.97181 4294967295
41.965775 2.1862476 -14.032785 4294967295
41.965935 1.5425414 -13.959748 4294967295
41.974453 3.4731321 -14.144206 4294967295
41.976574 3.1512456 -14.09984 4294967295
41.979919 2.0246556 -13.960238 4294967295
41.980499 -1.02706 -14.252197 4294967295
41.981205 -1.9922668 -14.140927 4294967295
41.993641 0.098008998 -14.328263 4294967295
41.99448 -1.6714649 -14.12604 4294967295
41.994957 -0.7063008 -14.232751 4294967295
41.996784 1.2190502 -13.804774 4294967295
42.004505 -2.4766476 -13.996984 4294967295
42.013771 -0.064044498 -14.232731 4294967295
42.014393 2.5059056 -13.881856 4294967295
42.016804 2.8277113 -13.908801 4294967295
42.019276 0.57905352 -14.283916 4294967295
42.032936 -0.38696569 -14.122821 4294967295
42.041737 -0.2266219 -14.107066 4294967295
42.043362 3.955245 -14.571125 4294967295
42.045906 1.6995089 -13.669999 4294967295
42.063259 -1.19348 -13.915671 4294967295
42.065956 -0.87179601 -13.94149 4294967295
42.074429 0.41503441 -14.05369 4294967295
42.078407 2.0237467 -14.219322 4294967295
42.079346 2.5063159 -14.269995 4294967295
42.086693 2.9857519 -13.657922 4294967295
42.102024 2.3444147 -14.164702 4294967295
42.121864 3.6306849 -14.233171 4294967295
42.123131 -1.8339933 -14.250587 4294967295
42.128525 2.6650355 -14.098988 4294967295
42.129646 0.2508986 -13.823176 4294967295
42.1325 -2.1563883 -14.178411 4294967295
42.177422 0.89213377 -13.711841 4294967295
42.17831 1.3794651 -14.400196 4294967295
42.213245 -1.5185367 -13.940359 4294967295
42.236942 1.537336 -14.193022 4294967295
42.246204 3.464993 -13.737065 4294967295
42.253788 3.3036816 -13.689792 4294967295
42.265461 3.1448665 -14.264347 4294967295
42.274261 -0.87224448 -14.41514 4294967295
42.27478 1.2135694 -14.01147 4294967295
42.278439 2.9834459 -14.196405 4294967295
42.283585 0.40835959 -13.887161 4294967295
42.289532 -1.8383317 -14.248055 4294967295
42.293568 -0.39099541 -14.39525 4294967295
42.294655 3.9481726 -14.242659 4294967295
42.297813 -0.55835879 -13.72389 4294967295
42.309288 3.6258354 -14.150283 4294967295
42.317398 -1.3576705 -14.195271 4294967295
42.317863 -2.1621296 -14.103081 4294967295
42.319401 -0.2377011 -13.677135 4294967295
42.320072 1.6941063 -13.89175 4294967295
42.335114 0.73242933 -14.362282 4294967295
42.336861 -2.4853528 -13.993951 4294967295
42.358818 3.3020425 -13.923872 4294967295
42.364166 2.8188968 -13.849039 4294967295
42.364243 0.087287001 -14.178146 4294967295
42.368954 -1.2002617 -14.015388 4294967295
42.37569 -0.7179414 -14.043781 4294967295
42.380383 -1.6838495 -13.917249 4294967295
42.389534 -0.075129703 -14.062976 4294967295
42.394829 1.5336018 -14.223483 4294967295
42.407032 3.785213 -14.429765 4294967295
42.433506 2.4971342 -14.183549 4294967295
42.434967 2.0143392 -14.123689 4294967295
42.444324 0.88733232 -13.961173 4294967295
42.448582 -1.5276245 -13.673449 4294967295
42.471474 -1.0394062 -14.276321 4294967295
42.474628 2.3343568 -14.00766 4294967295
42.479565 2.6560287 -14.024892 4294967295
42.525661 0.88776278 -14.285376 4294967295
42.553364 1.3689455 -14.23338 4294967295
42.560162 3.9405944 -13.860396 4294967295
42.567329 3.1379578 -14.378664 4294967295
42.56834 -0.56295389 -13.959 4294967295
42.58242 -1.6906747 -13.778397 4294967295
42.593773 2.1714754 -14.168841 4294967295
42.603508 -0.88715267 -13.787943 4294967295
42.612831 -2.8115947 -14.171163 4294967295
42.615387 1.8485954 -14.049816 4294967295
42.620609 3.7794335 -14.246756 4294967295
42.625778 -0.083585098 -13.792957 4294967295
42.627098 0.2383205 -13.824073 4294967295
42.628067 -2.3380382 -13.530919 4294967295
42.629265 2.4917123 -14.06894 4294967295
42.629547 -2.1771007 -13.543323 4294967295
42.635178 1.0427883 -13.883522 4294967295
42.63866 2.3303428 -14.014841 4294967295
42.645531 0.55925262 -13.789571 4294967295
42.652264 3.6173377 -14.107357 4294967295
42.66814 -1.2066091 -14.139879 4294967295
42.685581 3.9380162 -14.01583 4294967295
42.686886 3.2940848 -13.938498 4294967295
42.687866 1.6840682 -13.753855 4294967295
42.688911 -0.72523981 -14.114506 4294967295
42.69545 2.8107681 -13.851413 4294967295
42.695778 -1.5303385 -13.997827 4294967295
42.709995 -1.6922773 -13.925271 4294967295
42.711445 2.6490717 -13.772005 4294967295
42.722954 1.042798 -14.18288 4294967295
42.725658 3.4535637 -13.80797 4294967295
42.730453 1.2033129 -14.172229 4294967295
42.730618 -0.084118202 -14.02701 4294967295
42.730938 2.0040476 -13.624912 4294967295
42.743332 1.6853992 -14.177113 4294967295
42.759907 -0.56881249 -13.860561 4294967295
42.761917 -2.6620376 -13.617772 4294967295
42.779243 -1.0530541 -13.732217 4294967295
42.782261 -1.8583732 -13.630239 4294967295
42.803452 1.5214518 -13.92878 4294967295
42.804218 0.55547732 -13.817356 4294967295
42.834785 -0.41249111 -13.591733 4294967295
42.853958 -2.4997971 -13.918802 4294967295
42.873592 1.8439153 -14.331457 4294967295
42.873783 -2.1793268 -13.879041 4294967295
42.875496 2.8060911 -13.797523 4294967295
42.894619 2.3221467 -13.670035 4294967295
42.906868 3.932018 -13.803989 4294967295
42.92178 2.8071034 -14.255499 4294967295
42.935268 1.0361615 -14.005138 4294967295
42.935726 -1.5397351 -13.714189 4294967295
42.947247 -2.4986863 -14.196451 4294967295
42.95285 0.069279499 -13.829409 4294967295
42.953224 3.9322579 -14.261676 4294967295
42.955181 -2.8211002 -14.129988 4294967295
42.961315 0.71278882 -13.869316 4294967295
42.973236 3.448725 -14.130927 4294967295
42.98402 0.22846361 -13.728185 4294967295
42.989861 1.9992814 -13.904683 4294967295
42.992268 3.7699111 -14.094278 4294967295
42.992825 1.3551226 -13.821035 4294967295
43.005363 -0.89366412 -14.154779 4294967295
43.006104 1.676483 -13.806395 4294967295
43.006748 -1.2156032 -14.113353 4294967295
43.01857 1.3581758 -14.3571 4294967295
43.022362 2.1587641 -13.798412 4294967295
43.024426 0.23157381 -14.208303 4294967295
43.024994 -0.7340048 -14.097775 4294967295
43.028824 -2.1828468 -13.920544 4294967295
43.039711 2.9631109 -13.822437 4294967295
43.045185 2.6408226 -13.765338 4294967295
43.045918 -1.3791977 -13.945503 4294967295
43.051258 2.4828053 -14.35856 4294967295
43.059002 -0.57521838 -13.985785 4294967295
43.062336 -1.8632898 -13.828502 4294967295
43.07621 1.0333325 -14.100648 4294967295
43.089092 2.3201952 -14.195898 4294967295
43.101551 -1.5440093 -13.714663 4294967295
43.105194 1.514693 -14.044044 4294967295
43.117378 2.1579506 -14.069735 4294967295
43.121277 0.38694179 -13.85609 4294967295
43.128372 3.2841504 -14.154168 4294967295
43.135685 -2.029567 -13.529888 4294967295
43.137543 3.7666357 -14.173306 4294967295
43.160099 -1.0581087 -14.179226 4294967295
43.174652 2.638325 -13.90505 4294967295
43.213863 -2.8325737 -13.775137 4294967295
43.229687 1.5126406 -14.202312 4294967295
43.257416 2.7987864 -14.240892 4294967295
43.268951 -0.74325031 -13.799514 4294967295
43.279778 -2.5154908 -13.559394 4294967295
43.2906 3.6021342 -14.204484 4294967295
43.290909 0.060501501 -13.805964 4294967295
43.304222 1.8308877 -13.953825 4294967295
43.305813 0.70373982 -13.821299 4294967295
43.312988 3.7622552 -14.137094 4294967295
43.335968 -1.7068038 -14.068855 4294967295
43.345978 3.1170456 -13.938913 4294967295
43.346058 2.1509302 -13.830213 4294967295
43.353855 1.0232186 -13.673969 4294967295
43.363586 -1.0648495 -14.035651 4294967295
43.366619 0.54444033 -14.204592 4294967295
43.380253 3.2792029 -14.459379 4294967295
43.382778 -0.42221329 -14.034626 4294967295
43.385078 1.9880494 -13.663161 4294967295
43.388706 -2.1935163 -13.813385 4294967295
43.38916 3.2763433 -13.79213 4294967295
43.401398 2.6315968 -13.673135 4294967295
43.405231 2.9535763 -13.694642 4294967295
43.416325 1.6684158 -14.141322 4294967295
43.418297 -2.517765 -13.664298 4294967295
43.419933 -0.2635164 -13.910902 4294967295
43.423218 -0.90776378 -13.826133 4294967295
43.428703 -2.8406713 -13.588449 4294967295
43.429317 -1.3912513 -13.748663 4294967295
43.443451 3.1157579 -14.200318 4294967295
43.444138 -1.2312099 -13.710166 4294967295
43.445137 0.37901849 -13.886953 4294967295
43.449673 -0.58740127 -13.761291 4294967295
43.461246 0.86116302 -13.879668 4294967295
43.463699 -1.0647693 -14.28656 4294967295
43.465755 -1.7085705 -14.206544 4294967295
43.474449 1.1824985 -13.865424 4294967295
43.483711 3.4360945 -14.082896 4294967295
43.484661 -1.8782978 -13.483239 4294967295
43.488705 -2.032073 -14.082953 4294967295
43.513008 1.5068038 -14.38725 4294967295
43.515026 1.3414373 -13.728689 4294967295
43.516521 0.21385419 -13.596527 4294967295
43.521851 2.3074112 -13.811028 4294967295
43.547276 -2.3583081 -13.823504 4294967295
43.54805 2.1487401 -14.325871 4294967295
43.549858 -1.3924416 -13.921968 4294967295
43.553646 3.9165277 -13.870386 4294967295
43.557835 2.6310511 -14.342712 4294967295
43.561375 1.8262541 -14.239021 4294967295
43.613743 -0.91361231 -13.732557 4294967295
43.615822 3.916199 -14.266145 4294967295
43.62648 0.85703361 -13.882607 4294967295
43.63699 3.271558 -14.113327 4294967295
43.647171 1.9831274 -13.930129 4294967295
43.648968 -2.8407943 -14.014235 4294967295
43.656948 3.1097689 -14.019242 4294967295
43.657688 -1.5537241 -14.125341 4294967295
43.672272 -0.74993688 -14.159986 4294967295
43.690308 -0.1130051 -13.530965 4294967295
43.701954 0.2139695 -14.155189 4294967295
43.702438 -2.5228503 -13.846601 4294967295
43.709408 1.8229951 -14.307199 4294967295
43.713051 -2.6846733 -13.788134 4294967295
43.714005 3.2710166 -14.452018 4294967295
43.716381 2.9462993 -13.774762 4294967295
43.721226 1.6614829 -14.24417 4294967295
43.728893 -0.91456437 -13.926306 4294967295
43.738754 -2.2034628 -13.744356 4294967295
43.744961 -1.7207724 -13.774861 4294967295
43.747932 -1.3988975 -13.799636 4294967295
43.748299 -0.59377718 -13.888492 4294967295
43.751278 2.464818 -14.219961 4294967295
43.751457 -2.365448 -13.677909 4294967295
43.761776 2.7862737 -14.216085 4294967295
43.763077 3.751904 -14.319371 4294967295
43.77322 -1.2395529 -13.721378 4294967295
43.777023 0.53166193 -13.905432 4294967295
43.7915 1.3359889 -13.94055 4294967295
43.797043 1.4967273 -13.937491 4294967295
43.797092 3.911628 -14.207965 4294967295
43.804283 2.6234691 -14.036263 4294967295
43.805649 -0.1141771 -13.724225 4294967295
43.807533 3.5892959 -14.13215 4294967295
43.827496 2.1393695 -13.893764 4294967295
43.832287 0.68963498 -13.713062 4294967295
43.879246 -1.8838718 -13.877544 4294967295
43.901882 0.2077965 -14.025931 4294967295
43.918911 -0.1152274 -13.925067 4294967295
43.919621 -1.0814662 -13.814115 4294967295
43.95686 -0.60069561 -13.726567 4294967295
43.965366 -0.27908349 -13.730289 4294967295
43.972599 -0.76277238 -13.648638 4294967295
43.97987 0.52540869 -13.76535 4294967295
43.982475 1.1695093 -13.827633 4294967295
43.988979 1.491284 -13.838976 4294967295
43.991936 1.9742886 -13.881875 4294967295
43.994194 -2.8505058 -13.963401 4294967295
43.998272 -1.4088948 -13.478754 4294967295
44.001957 2.6180067 -13.915935 4294967295
44.00272 3.1010821 -13.967156 4294967295
44.01511 2.1342585 -13.81178 4294967295
44.023514 1.6506345 -13.725689 4294967295
44.026009 -1.564798 -13.986714 4294967295
44.028759 -0.43803111 -14.102485 4294967295
44.032417 3.9051335 -13.944465 4294967295
44.048512 -2.049438 -13.847065 4294967295
44.051716 3.5823185 -13.835014 4294967295
44.057945 -1.7280304 -13.847275 4294967295
44.058788 3.2598965 -13.772027 4294967295
44.073059 0.84730488 -14.078376 4294967295
44.073425 -2.2122865 -13.734311 4294967295
44.083908 -1.8909066 -13.730528 4294967295
44.086094 -1.246812 -13.794388 4294967295
44.091412 -0.76400292 -13.828278 4294967295
44.125912 0.36128721 -13.823441 4294967295
44.129841 0.68317938 -13.844585 4294967295
44.134037 3.9033976 -14.189342 4294967295
44.140701 -2.7005811 -13.424384 4294967295
44.143536 3.2590487 -14.081138 4294967295
44.148968 0.1988897 -13.717779 4294967295
44.159401 -2.379684 -13.389382 4294967295
44.160309 2.2921629 -13.909206 4294967295
44.176823 1.0027845 -13.702148 4294967295
44.189541 0.035410099 -13.545545 4294967295
44.192493 1.1630584 -13.660646 4294967295
44.194122 1.8073702 -13.726628 4294967295
44.203442 2.4512956 -13.763393 4294967295
44.218777 -1.0878279 -13.939102 4294967295
44.25209 -2.3786061 -13.668321 4294967295
44.25584 0.037083801 -13.924585 4294967295
44.306309 -0.44916821 -13.678869 4294967295
44.306988 0.67838818 -13.802538 4294967295
44.318077 0.35560301 -13.724372 4294967295
44.326176 2.7712171 -13.964143 4294967295
44.326927 3.0932689 -13.997359 4294967295
44.328518 3.737334 -14.063438 4294967295
44.333179 2.1266856 -13.865441 4294967295
44.335026 3.4150259 -14.002681 4294967295
44.337708 1.1599889 -13.74004 4294967295
44.344578 -1.0894467 -14.09169 4294967295
44.346313 0.83733231 -13.671301 4294967295
44.351097 -2.3779993 -13.92278 4294967295
44.363163 0.036333501 -14.147326 4294967295
44.366756 -1.7349993 -13.935463 4294967295
44.368324 0.1970204 -14.145774 4294967295
44.372429 -1.5743599 -13.931968 4294967295
44.374245 1.6414505 -13.655473 4294967295
44.37674 3.8966422 -13.898524 4294967295
44.380733 1.4841959 -14.242856 4294967295
44.380989 0.6792748 -14.151809 4294967295
44.395229 3.5738041 -13.792295 4294967295
44.41338 -2.7047682 -13.650393 4294967295
44.414246 -0.2887589 -13.917545 4294967295
44.4156 0.99941152 -14.056592 4294967295
44.420052 2.9283719 -13.625964 4294967295
44.42281 -2.2221754 -13.668715 4294967295
44.430264 -0.77293128 -13.8027 4294967295
44.431362 2.7697148 -14.195067 4294967295
44.435726 -1.4176143 -13.709855 4294967295
44.468735 1.157658 -13.873133 4294967295
44.480652 -2.5486856 -13.413166 4294967295
44.483688 1.9622332 -13.906568 4294967295
44.510071 0.51616222 -14.273736 4294967295
44.51725 -0.93314129 -14.084423 4294967295
44.519314 -2.2214475 -13.932465 4294967295
44.534061 1.7987406 -13.697549 4294967295
44.536617 2.1244135 -14.353273 4294967295
44.544609 2.2815902 -13.711661 4294967295
44.552578 1.1577829 -14.18475 4294967295
44.558537 1.8014383 -14.234231 4294967295
44.576202 -2.3866663 -13.698812 4294967295
44.593494 0.3504433 -13.939663 4294967295
44.595516 -1.7436599 -13.697709 4294967295
44.603607 1.6382364 -14.045502 4294967295
44.60392 -1.0998435 -13.73796 4294967295
44.627201 -2.8738644 -13.451406 4294967295
44.642517 0.99201608 -13.826032 4294967295
44.645264 -1.2636956 -13.563244 4294967295
44.647682 0.83065122 -13.788436 4294967295
44.660049 3.7292824 -14.065989 4294967295
44.660469 1.4743516 -13.812094 4294967295
44.666306 1.9573319 -13.844068 4294967295
44.666912 -2.707521 -13.948245 4294967295
44.67149 3.4067557 -13.986626 4294967295
44.671719 2.4403324 -13.877633 4294967295
44.677582 -0.77602392 -14.123978 4294967295
44.678562 -0.29308891 -14.174289 4294967295
44.682232 -2.5476267 -13.908241 4294967295
44.682377 -1.4273455 -13.404557 4294967295
44.683681 -2.2256439 -13.938775 4294967295
44.691101 2.9227538 -13.858295 4294967295
44.695091 0.0279186 -14.147739 4294967295
44.695415 1.3158087 -14.290566 4294967295
44.705318 3.888711 -13.912601 4294967295
44.708813 -1.7442828 -13.897663 4294967295
44.725746 0.50919539 -14.085739 4294967295
44.733494 3.2432506 -13.73382 4294967295
44.73357 -1.2627823 -13.857976 4294967295
44.734348 1.6358366 -14.179249 4294967295
44.754681 3.0839136 -14.264391 4294967295
44.756027 -2.8753645 -13.592747 4294967295
44.764038 3.0808923 -13.600124 4294967295
44.770496 2.7612522 -14.168537 4294967295
44.776428 -1.4267511 -13.677686 4294967295
44.782467 -0.1383145 -13.798983 4294967295
44.787827 -1.9109135 -13.58046 4294967295
44.797215 1.4716794 -13.923352 4294967295
44.819149 0.1817373 -13.696185 4294967295
44.828663 1.1478957 -13.768308 4294967295
44.854923 0.50706869 -14.225219 4294967295
44.861629 2.2740674 -13.76971 4294967295
44.871147 -1.4262072 -13.94781 4294967295
44.871372 0.82816058 -14.199032 4294967295
44.8904 -2.0718205 -13.802947 4294967295
44.898808 -0.3006106 -13.96925 4294967295
44.899578 1.3097109 -14.146405 4294967295
44.905167 3.4024367 -14.359303 4294967295
44.922794 0.18114761 -13.932584 4294967295
44.924988 3.7216358 -13.692206 4294967295
44.927654 -2.5578632 -13.607969 4294967295
44.931011 3.5624442 -14.27964 4294967295
44.967182 2.5948195 -14.034906 4294967295
44.981838 1.9498765 -13.907471 4294967295
44.986286 -2.7152448 -13.99629 4294967295
44.99131 0.66056609 -13.727552 4294967295
44.995472 1.1437006 -13.765875 4294967295
44.999279 -1.9110103 -14.037192 4294967295
45.016102 -0.468909 -13.507679 4294967295
45.01955 -2.3956144 -13.906576 4294967295
45.032173 2.1086333 -13.735227 4294967295
45.034569 -1.1082015 -13.993857 4294967295
45.037998 3.8806338 -13.911371 4294967295
45.045063 -0.1425931 -14.062215 4294967295
45.045139 3.7192757 -13.866364 4294967295
45.046272 -2.0754018 -13.841606 4294967295
45.054588 3.2355688 -13.776616 4294967295
45.05846 -0.62656528 -13.957588 4294967295
45.061222 3.0768106 -14.361136 4294967295
45.064285 -2.8822343 -13.6835 4294967295
45.073029 -0.30533239 -13.938563 4294967295
45.089157 -2.2395909 -13.661533 4294967295
45.094872 2.4313631 -14.162104 4294967295
45.095387 1.3040417 -14.034153 4294967295
45.102215 1.6258097 -14.044367 4294967295
45.108044 0.65909678 -13.914328 4294967295
45.110455 0.82004678 -13.923226 4294967295
45.115204 -1.5968918 -13.63515 4294967295
45.122501 2.2690823 -14.039766 4294967295
45.123852 0.17492069 -13.800589 4294967295
45.126579 3.5572939 -14.168373 4294967295
45.128365 3.2351463 -14.125642 4294967295
45.136208 2.9127266 -14.06002 4294967295
45.147461 2.5901148 -13.981524 4294967295
45.157616 0.97862709 -13.763103 4294967295
45.170761 -0.30540979 -14.196667 4294967295
45.18129 1.460794 -13.727723 4294967295
45.182789 1.7829847 -13.75809 4294967295
45.202309 2.7488697 -13.792447 4294967295
45.205685 0.17558751 -14.118842 4294967295
45.206738 1.6246947 -14.276805 4294967295
45.229855 -1.4365606 -13.847651 4294967295
45.232662 -2.5645077 -13.711037 4294967295
45.238594 3.7142401 -13.763513 4294967295
45.268215 2.5879855 -14.152837 4294967295
45.268627 -1.1169235 -13.737305 4294967295
45.307903 -0.6360299 -13.643072 4294967295
45.316998 2.2636926 -13.93283 4294967295
45.318161 1.4581144 -13.838433 4294967295
45.319286 -2.4097395 -13.401999 4294967295
45.331215 3.2296379 -13.987206 4294967295
45.338921 -0.79284149 -14.134818 4294967295
45.342838 0.97344917 -13.691319 4294967295
45.348259 1.1343143 -13.688864 4294967295
45.352272 3.0676992 -13.88978 4294967295
45.354443 2.4231296 -13.809581 4294967295
45.366253 0.65479273 -14.193657 4294967295
45.370781 -1.7613024 -13.90673 4294967295
45.371487 3.550297 -13.871325 4294967295
45.385406 1.1368572 -14.175429 4294967295
45.38792 -2.0846987 -13.806098 4294967295
45.393448 3.7106133 -13.806507 4294967295
45.403381 -0.15259489 -13.963737 4294967295
45.406685 -1.9249136 -13.753327 4294967295
45.409523 -0.31404841 -13.922588 4294967295
45.417038 3.8709106 -13.735553 4294967295
45.417732 -2.4091036 -13.657675 4294967295
45.42308 2.9036603 -13.60471 4294967295
45.42448 2.1011877 -14.136094 4294967295
45.43166 0.1679225 -13.893117 4294967295
45.442581 -1.2828423 -13.689966 4294967295
45.450981 2.7442358 -14.108186 4294967295
45.454254 0.97217858 -13.897924 4294967295
45.464066 -1.1231096 -13.626948 4294967295
45.505592 -2.2543147 -13.344312 4294967295
45.508396 -1.4484257 -13.423773 4294967295
45.508411 1.7750461 -13.78379 4294967295
45.523899 -1.4425488 -13.99173 4294967295
45.53904 -0.48312229 -13.416284 4294967295
45.544323 -2.0883172 -13.842834 4294967295
45.549709 0.32231519 -13.4661 4294967295
45.559319 0.48298681 -13.447872 4294967295
45.586594 3.3832419 -13.669193 4294967295
45.58889 -1.6080657 -13.728899 4294967295
45.596085 -0.64175522 -13.809756 4294967295
45.611923 -0.32047659 -13.786083 4294967295
45.620098 0.162429 -13.809276 4294967295
45.647625 -2.74053 -13.381613 4294967295
45.651138 0.64409602 -13.746353 4294967295
45.663727 -0.0012624 -13.626962 4294967295
45.672924 1.4487005 -13.754292 4294967295
45.678814 -0.8081367 -13.480145 4294967295
45.683331 2.2539399 -13.80508 4294967295
45.684757 0.4810707 -13.601762 4294967295
45.693428 3.7037129 -13.929008 4294967295
45.694618 -1.6082259 -13.956472 4294967295
45.697498 3.8646872 -13.931683 4294967295
45.699303 3.3812397 -13.870915 4294967295
45.699833 3.0589445 -13.832933 4294967295
45.704395 -1.1322324 -13.347766 4294967295
45.711067 -2.5760288 -13.786664 4294967295
45.720467 2.5746136 -13.701278 4294967295
45.731312 0.1613932 -14.016202 4294967295
45.733768 2.8964007 -13.687201 4294967295
45.744904 -1.1282727 -13.821189 4294967295
45.746662 -2.0952091 -13.706637 4294967295
45.750381 1.9284892 -13.51665 4294967295
45.750614 -1.9343411 -13.709758 4294967295
45.757996 0.64316303 -13.969748 4294967295
45.761715 -0.968234 -13.775903 4294967295
45.772099 3.2172396 -13.578917 4294967295
45.780003 -1.2917298 -13.671105 4294967295
45.791626 2.7327764 -13.451392 4294967295
45.791786 1.446919 -13.932559 4294967295
45.801922 0.96302909 -13.840471 4294967295
45.807236 -0.32647261 -13.676569 4294967295
45.808929 1.9294338 -13.922039 4294967295
45.82299 0.3172726 -13.689263 4294967295
45.834061 -1.7789783 -13.413681 4294967295
45.834599 2.411639 -13.879445 4294967295
45.837521 0.79997772 -13.688569 4294967295
45.838608 -1.4568418 -13.432567 4294967295
45.849529 2.7332661 -13.859273 4294967295
45.857845 1.1212578 -13.648089 4294967295
45.864067 -0.001948 -14.123826 4294967295
45.874599 -1.9356836 -13.86853 4294967295
45.905125 3.53684 -13.740163 4294967295
45.910759 -0.81026423 -13.858427 4294967295
45.961182 1.1203578 -13.884676 4294967295
45.97179 -2.2649336 -13.467097 4294967295
45.994789 2.7300634 -13.938197 4294967295
46.001549 -0.49360901 -13.553103 4294967295
46.012817 -2.5824373 -13.901685 4294967295
46.014908 -1.6230445 -13.376946 4294967295
46.021835 -0.65608382 -13.458855 4294967295
46.025082 -2.7444685 -13.837634 4294967295
46.025352 2.5676148 -13.805396 4294967295
46.02615 3.534481 -13.910302 4294967295
46.027699 0.79451048 -13.598728 4294967295
46.030186 -2.5916984 -13.211528 4294967295
46.037769 2.0835462 -13.704785 4294967295
46.040447 -0.81220269 -13.995591 4294967295
46.061031 3.3720016 -13.761281 4294967295
46.066849 -1.9418209 -13.770615 4294967295
46.077621 -1.2979748 -13.802061 4294967295
46.078236 -2.10378 -13.709869 4294967295
46.079922 -0.1701953 -13.919249 4294967295
46.099724 1.2744329 -13.382041 4294967295
46.107178 0.4727405 -13.888803 4294967295
46.111622 2.2447834 -14.069813 4294967295
46.118858 1.9185462 -13.382113 4294967295
46.120876 2.2409775 -13.410526 4294967295
46.126961 1.2773526 -13.904405 4294967295
46.132122 -1.1403954 -13.615348 4294967295
46.134338 3.0466876 -13.449918 4294967295
46.138992 0.30980271 -13.751362 4294967295
46.143494 1.5988039 -13.878287 4294967295
46.148468 -2.2700086 -13.428059 4294967295
46.166019 3.3702929 -13.991459 4294967295
46.169853 1.9198425 -13.815295 4294967295
46.203808 1.75705 -13.669856 4294967295
46.215363 -0.33368841 -14.016754 4294967295
46.2155 -0.50078201 -13.374161 4294967295
46.226475 1.1110568 -13.512826 4294967295
46.228546 -1.469276 -13.217213 4294967295
46.230579 3.6901848 -13.785149 4294967295
46.240391 3.0450406 -13.676409 4294967295
46.263233 0.30797979 -13.909046 4294967295
46.269844 -2.4322956 -13.578703 4294967295
46.283939 3.8494713 -13.602902 4294967295
46.319778 -0.0176074 -13.66099 4294967295
46.33358 2.7216201 -13.914781 4294967295
46.340824 3.0436177 -13.923566 4294967295
46.348839 1.431559 -13.713786 4294967295
46.350803 0.46423611 -13.59855 4294967295
46.358131 2.2370527 -13.768803 4294967295
46.361309 -0.5037629 -13.451264 4294967295
46.363365 0.14107551 -13.515469 4294967295
46.365856 -0.66529489 -13.416226 4294967295
46.366291 2.5590587 -13.774159 4294967295
46.369274 -1.3038285 -13.955083 4294967295
46.383339 0.94614702 -13.53046 4294967295
46.391331 1.2682043 -13.536444 4294967295
46.392921 3.8474662 -13.818117 4294967295
46.395943 -1.4736345 -13.213408 4294967295
46.397839 3.686105 -13.781702 4294967295
46.402817 -0.82261223 -13.88325 4294967295
46.411049 2.8795729 -13.642293 4294967295
46.436382 -2.4366474 -13.577754 4294967295
46.438499 -1.1472303 -13.713574 4294967295
46.439896 -1.7920842 -13.636468 4294967295
46.440899 -0.66384917 -13.758483 4294967295
46.445312 3.361901 -13.567772 4294967295
46.445724 -0.50297362 -13.758362 4294967295
46.450634 2.3941526 -13.439932 4294967295
46.457397 0.46336269 -13.822425 4294967295
46.466007 3.1998444 -13.4722 4294967295
46.480667 2.3960578 -13.95083 4294967295
46.509075 -2.1194031 -13.341168 4294967295
46.51025 -2.273114 -13.941897 4294967295
46.513294 -0.023420099 -13.559054 4294967295
46.516453 2.8780003 -13.870675 4294967295
46.517719 -1.9587393 -13.326749 4294967295
46.520969 -2.6041133 -13.242645 4294967295
46.536781 1.909972 -13.686708 4294967295
46.564934 3.8432267 -13.796914 4294967295
46.583775 0.61761433 -13.36684 4294967295
46.612598 1.7451258 -13.384713 4294967295
46.627487 0.78129929 -13.844146 4294967295
46.62912 1.9093177 -13.96374 4294967295
46.640656 -1.4762994 -13.543325 4294967295
46.642262 3.5179441 -13.471365 4294967295
46.646854 1.7473205 -13.879419 4294967295
46.670567 3.6801944 -14.006198 4294967295
46.670963 -0.83332109 -13.50172 4294967295
46.671555 1.1013484 -13.715114 4294967295
46.676605 2.8741705 -13.893806 4294967295
46.686062 2.7126005 -13.840457 4294967295
46.687157 2.0677917 -13.764506 4294967295
46.693558 3.5181878 -13.902217 4294967295
46.694065 -2.4398539 -13.858115 4294967295
46.6968 -2.1252406 -13.261184 4294967295
46.701508 -0.67398119 -13.405322 4294967295
46.702225 3.8402171 -13.905711 4294967295
46.703499 -0.029037399 -13.469751 4294967295
46.705696 3.0341682 -13.802917 4294967295
46.712475 0.2981703 -14.094414 4294967295
46.718346 3.1948636 -13.77354 4294967295
46.719635 -0.35253939 -13.373398 4294967295
46.733437 2.3881402 -13.627252 4294967295
46.734016 -1.1533594 -13.852272 4294967295
46.735867 -1.3213732 -13.204768 4294967295
46.739872 -1.9596223 -13.740587 4294967295
46.749527 -0.99319589 -13.812213 4294967295
46.760193 1.2580469 -13.401306 4294967295
46.772556 -1.8006958 -13.636264 4294967295
46.77454 -0.35004291 -13.790472 4294967295
46.778496 0.45560721 -13.865461 4294967295
46.780716 -0.18922891 -13.785328 4294967295
46.786694 -2.6078489 -13.493561 4294967295
46.798435 2.3884988 -14.00634 4294967295
46.799244 2.546536 -13.398951 4294967295
46.81221 1.2596948 -13.829155 4294967295
46.816414 -2.7632296 -13.986347 4294967295
46.817913 2.0653055 -13.897616 4294967295
46.820061 -1.3202162 -13.512436 4294967295
46.860226 0.77355129 -13.595734 4294967295
46.862228 1.5796107 -13.67806 4294967295
46.869652 -0.67223197 -14.020654 4294967295
46.881493 0.1273382 -13.44433 4294967295
46.882439 -1.9622735 -13.829281 4294967295
46.888939 2.5457418 -13.68596 4294967295
46.897385 3.6739476 -13.780108 4294967295
46.905762 0.93238968 -13.443417 4294967295
46.917427 0.60918421 -13.363853 4294967295
46.93037 0.77452928 -13.955294 4294967295
46.958817 1.5788729 -13.938779 4294967295
46.961147 -2.6127903 -13.463266 4294967295
47.011745 -1.0036209 -13.453752 4294967295
47.013256 -0.1973915 -13.537901 4294967295
47.014194 2.8657992 -13.875546 4294967295
47.020554 2.220726 -13.77999 4294967295
47.021786 0.28587979 -13.559915 4294967295
47.022259 1.4145465 -13.683839 4294967295
47.024021 2.7041938 -13.820897 4294967295
47.035698 0.60762078 -13.543848 4294967295
47.050488 3.8315878 -13.847739 4294967295
47.053455 1.7355045 -13.603226 4294967295
47.054115 1.8967241 -13.618722 4294967295
47.056229 -0.0331503 -14.016591 4294967295
47.056454 -1.4835869 -13.854274 4294967295
47.058712 3.1864243 -13.745208 4294967295
47.06039 -0.8454265 -13.289934 4294967295
47.062317 3.6699526 -13.785615 4294967295
47.071907 -0.83989578 -13.868345 4294967295
47.077473 -2.2910118 -13.686057 4294967295
47.078373 -2.4522913 -13.66474 4294967295
47.084763 2.2212057 -14.161245 4294967295
47.087322 0.1262033 -13.918464 4294967295
47.105965 -1.6481299 -13.651464 4294967295
47.10759 1.0921013 -13.950488 4294967295
47.114162 1.7364237 -13.997721 4294967295
47.126152 -1.1657853 -13.629934 4294967295
47.139652 0.76804239 -13.794938 4294967295
47.181881 2.3780479 -13.816831 4294967295
47.183311 -2.6133263 -13.875859 4294967295
47.187931 3.1838117 -13.883983 4294967295
47.19622 -0.52517247 -13.440177 4294967295
47.216732 2.6989918 -13.722697 4294967295
47.228729 -1.3338002 -13.229013 4294967295
47.280476 -0.3631717 -13.764609 4294967295
47.283054 -0.84698713 -13.701161 4294967295
47.284763 3.0187216 -13.504798 4294967295
47.290756 -1.4924327 -13.600648 4294967295
47.296612 2.6985393 -14.04529 4294967295
47.308414 -2.461262 -13.427095 4294967295
47.319839 3.6645916 -14.06634 4294967295
47.34996 2.3738644 -13.81057 4294967295
47.351368 -0.044893201 -13.536132 4294967295
47.352448 -1.3352624 -13.388496 4294967295
47.354095 2.8573334 -13.848986 4294967295
47.358734 3.8243747 -13.939342 4294967295
47.369602 0.92172152 -13.575837 4294967295
47.370609 1.2442015 -13.607967 4294967295
47.377258 2.0501671 -13.672922 4294967295
47.392113 0.27534521 -13.420104 4294967295
47.394749 1.5655427 -13.55388 4294967295
47.414291 1.4032896 -13.463078 4294967295
47.415627 3.0160713 -13.637595 4294967295
47.419807 -0.53292072 -13.22705 4294967295
47.425827 3.4994757 -13.653426 4294967295
47.439732 -2.6243086 -13.539965 4294967295
47.440308 2.2085819 -13.455849 4294967295
47.446491 -1.657257 -13.622413 4294967295
47.468418 0.43744761 -13.773931 4294967295
47.470978 2.5329318 -13.997556 4294967295
47.473869 -1.9816716 -13.484507 4294967295
47.484814 -1.1760225 -13.533454 4294967295
47.497509 -0.69300669 -13.539971 4294967295
47.499557 3.1740453 -13.342749 4294967295
47.499813 -0.37060189 -13.567281 4294967295
47.511047 -2.1455865 -13.32801 4294967295
47.521847 -2.4690189 -13.251875 4294967295
47.529995 0.1114614 -13.508677 4294967295
47.548119 3.4970648 -13.817945 4294967295
47.554863 -0.85790497 -13.308335 4294967295
47.556946 -1.0193739 -13.282634 4294967295
47.559547 -0.0515536 -13.38063 4294967295
47.567436 -1.8268377 -13.153773 4294967295
47.620964 0.4340148 -13.825499 4294967295
47.621365 3.3330305 -13.527308 4294967295
47.646957 -1.5025835 -13.513529 4294967295
47.650116 2.6865721 -13.348458 4294967295
47.665779 2.0439508 -13.83806 4294967295
47.690536 -0.053709399 -13.512779 4294967295
47.694202 -2.4737859 -13.229993 4294967295
47.695778 -1.3445218 -13.34973 4294967295
47.70343 -1.0223641 -13.357132 4294967295
47.707386 3.4932747 -13.844682 4294967295
