# .PCD v0.7 - Point Cloud Data file format
VERSION 0.7
FIELDS x y z rgb
SIZE 4 4 4 4
TYPE F F F U
COUNT 1 1 1 1
WIDTH 1121
HEIGHT 1
VIEWPOINT 0 0 0 1 0 0 0
POINTS 1121
DATA ascii
-42.831154 60.007935 -25.06378 4294967295
-42.826382 61.397633 -25.237911 4294967295
-42.817215 63.867802 -25.541939 4294967295
-42.814522 59.247963 -24.814861 4294967295
-42.814419 60.481052 -25.002422 4294967295
-42.81403 62.176048 -25.258192 4294967295
-42.813248 59.402924 -24.828371 4294967295
-42.812565 58.940876 -24.752338 4294967295
-42.8078 60.177113 -24.903137 4294967295
-42.805237 62.336002 -25.212397 4294967295
-42.803795 60.796196 -24.965719 4294967295
-42.802071 62.800255 -25.25802 4294967295
-42.801571 61.105865 -24.995264 4294967295
-42.785809 61.886822 -24.988688 4294967295
-42.773895 61.586517 -24.847698 4294967295
-42.764126 63.442413 -25.053089 4294967295
-42.748741 57.187084 -25.221994 4294967295
-42.724129 57.356148 -25.051674 4294967295
-42.722488 58.281715 -25.179871 4294967295
-42.717705 57.668301 -25.048115 4294967295
-42.704445 57.830566 -24.967237 4294967295
-42.698051 57.98864 -24.940405 4294967295
-42.694012 58.145271 -24.93214 4294967295
-42.690765 59.072033 -25.047707 4294967295
-42.689789 57.531254 -24.804756 4294967295
-42.683918 60.000946 -25.134911 4294967295
-42.682659 58.460609 -24.889809 4294967295
-42.682381 58.923199 -24.958172 4294967295
-42.670322 60.471981 -25.09845 4294967295
-42.66151 60.169476 -24.982059 4294967295
-42.659542 61.865688 -25.225204 4294967295
-42.658188 61.558475 -25.167519 4294967295
-42.653572 59.403851 -24.801973 4294967295
-42.651596 61.254669 -25.068657 4294967295
-42.650208 59.868473 -24.846077 4294967295
-42.647987 60.640602 -24.946203 4294967295
-42.646873 62.33633 -25.196041 4294967295
-42.64608 59.716953 -24.790066 4294967295
-42.636688 63.267525 -25.25691 4294967295
-42.635818 60.802666 -24.873972 4294967295
-42.634617 63.577011 -25.287636 4294967295
-42.632183 63.424648 -25.244993 4294967295
-42.630661 61.730831 -24.974485 4294967295
-42.627335 60.96236 -24.830715 4294967295
-42.619438 61.121696 -24.792118 4294967295
-42.608093 61.4375 -24.749895 4294967295
-42.597717 63.140072 -24.926956 4294967295
-42.59391 57.647148 -25.303186 4294967295
-42.59222 63.7603 -24.977749 4294967295
-42.587681 57.188728 -25.183748 4294967295
-42.568356 57.816895 -25.125849 4294967295
-42.56514 57.04826 -24.983061 4294967295
-42.559448 57.514118 -25.008844 4294967295
-42.549526 58.136719 -25.02487 4294967295
-42.546692 57.367744 -24.885059 4294967295
-42.543201 58.294758 -24.998671 4294967295
-42.542454 58.449348 -25.016306 4294967295
-42.540054 57.988426 -24.926922 4294967295
-42.533173 59.37986 -25.08437 4294967295
-42.519936 58.617523 -24.862856 4294967295
-42.510933 60.010498 -25.00363 4294967295
-42.51025 60.935555 -25.139223 4294967295
-42.51017 59.086132 -24.856647 4294967295
-42.505085 58.935158 -24.793188 4294967295
-42.497787 59.248112 -24.782877 4294967295
-42.496807 59.557083 -24.822163 4294967295
-42.488243 60.795807 -24.942894 4294967295
-42.487545 60.179668 -24.843443 4294967295
-42.486141 62.64637 -25.208225 4294967295
-42.482697 60.491116 -24.852358 4294967295
-42.47805 62.343666 -25.097761 4294967295
-42.475521 62.499458 -25.101362 4294967295
-42.472202 62.039375 -25.004869 4294967295
-42.470058 61.578423 -24.917564 4294967295
-42.463604 61.274376 -24.819904 4294967295
-42.462429 63.895035 -25.209909 4294967295
-42.462269 61.737724 -24.879892 4294967295
-42.458363 63.743774 -25.154535 4294967295
-42.456497 62.820499 -24.999004 4294967295
-42.456085 61.125141 -24.737349 4294967295
-42.453224 63.593231 -25.090714 4294967295
-42.450367 63.132885 -24.997873 4294967295
-42.448399 63.288338 -25.005909 4294967295
-42.446239 57.024414 -25.276184 4294967295
-42.4408 57.489918 -25.30393 4294967295
-42.437389 62.987583 -24.872507 4294967295
-42.420887 57.810238 -25.194693 4294967295
-42.419277 57.194798 -25.088154 4294967295
-42.409016 57.355145 -25.03113 4294967295
-42.404156 57.666367 -25.03997 4294967295
-42.400684 58.130871 -25.083187 4294967295
-42.400166 58.439415 -25.126064 4294967295
-42.393764 59.830189 -25.287092 4294967295
-42.388962 59.062828 -25.132111 4294967295
-42.386948 58.293484 -24.998922 4294967295
-42.377384 58.6077 -24.970898 4294967295
-42.37339 57.99353 -24.845631 4294967295
-42.372368 60.768349 -25.260111 4294967295
-42.364407 59.694813 -25.033461 4294967295
-42.364269 59.540771 -25.008904 4294967295
-42.363686 60.928074 -25.215536 4294967295
-42.358986 61.085217 -25.202158 4294967295
-42.358677 60.623158 -25.129354 4294967295
-42.3535 62.013218 -25.299915 4294967295
-42.350834 60.474125 -25.044405 4294967295
-42.348026 61.708729 -25.210102 4294967295
-42.347298 62.787575 -25.368587 4294967295
-42.346527 63.71217 -25.503183 4294967295
-42.344349 60.17004 -24.946648 4294967295
-42.337509 61.561592 -25.104254 4294967295
-42.332188 62.951839 -25.273664 4294967295
-42.326504 63.109753 -25.25259 4294967295
-42.325317 62.494267 -25.149483 4294967295
-42.324219 62.186821 -25.093948 4294967295
-42.318504 62.344742 -25.072639 4294967295
-42.313873 62.656059 -25.083282 4294967295
-42.310463 63.274738 -25.150393 4294967295
-42.308212 63.430359 -25.156208 4294967295
-42.302582 61.430473 -24.807089 4294967295
-42.290802 57.176716 -25.305664 4294967295
-42.255497 57.352177 -25.052708 4294967295
-42.251041 57.817284 -25.088221 4294967295
-42.24538 58.591354 -25.161152 4294967295
-42.244232 57.975586 -25.058353 4294967295
-42.241673 57.052208 -24.897573 4294967295
-42.240891 58.440025 -25.10257 4294967295
-42.240223 58.132183 -25.050438 4294967295
-42.231968 60.140682 -25.290648 4294967295
-42.230251 59.217243 -25.136551 4294967295
-42.22821 59.064411 -25.09713 4294967295
-42.223389 58.296711 -24.942141 4294967295
-42.222878 57.526134 -24.820812 4294967295
-42.219345 59.68647 -25.121563 4294967295
-42.218029 58.916656 -24.994013 4294967295
-42.217983 59.533218 -25.087444 4294967295
-42.216614 59.379959 -25.053282 4294967295
-42.213997 60.922634 -25.26725 4294967295
-42.212173 61.54007 -25.34671 4294967295
-42.211582 60.307854 -25.1546 4294967295
-42.209789 61.69569 -25.351479 4294967295
-42.207825 61.851032 -25.359568 4294967295
-42.201141 60.776905 -25.143255 4294967295
-42.192318 61.244961 -25.144547 4294967295
-42.191875 60.628792 -25.047335 4294967295
-42.18906 62.633789 -25.329981 4294967295
-42.186752 63.251507 -25.405624 4294967295
-42.179649 63.564407 -25.396954 4294967295
-42.175457 62.951077 -25.270466 4294967295
-42.175098 62.335011 -25.17396 4294967295
-42.163784 61.109482 -24.897947 4294967295
-42.162766 60.493439 -24.796173 4294967295
-42.160767 63.885445 -25.296202 4294967295
-42.160427 63.731621 -25.270132 4294967295
-42.15596 63.426533 -25.188347 4294967295
-42.151245 62.196819 -24.963984 4294967295
-42.14539 63.12553 -25.058836 4294967295
-42.121624 57.337326 -25.227835 4294967295
-42.112129 57.034817 -25.106766 4294967295
-42.111755 57.651524 -25.197586 4294967295
-42.111641 57.18924 -25.126379 4294967295
-42.103466 57.810692 -25.156239 4294967295
-42.094479 57.507893 -25.039179 4294967295
-42.092144 58.12587 -25.114664 4294967295
-42.084938 58.592693 -25.128641 4294967295
-42.082672 59.05645 -25.181242 4294967295
-42.074173 58.907646 -25.091413 4294967295
-42.070965 59.834351 -25.206921 4294967295
-42.068775 59.21928 -25.096127 4294967295
-42.067154 58.295395 -24.942875 4294967295
-42.066166 60.607861 -25.28653 4294967295
-42.059563 58.454254 -24.907021 4294967295
-42.05946 59.379276 -25.046801 4294967295
-42.055859 60.152199 -25.135807 4294967295
-42.052933 60.308189 -25.136377 4294967295
-42.052628 61.849216 -25.368122 4294967295
-42.050884 61.2341 -25.260889 4294967295
-42.050613 60.001427 -25.071432 4294967295
-42.046268 59.541748 -24.967222 4294967295
-42.046253 60.928936 -25.177893 4294967295
-42.044052 62.317062 -25.371412 4294967295
-42.043476 59.697674 -24.968855 4294967295
-42.042767 60.777088 -25.127283 4294967295
-42.040989 62.781242 -25.417721 4294967295
-42.039951 62.47385 -25.362818 4294967295
-42.03867 61.087975 -25.142115 4294967295
-42.03598 62.938652 -25.402042 4294967295
-42.034611 61.707043 -25.2041 4294967295
-42.029724 63.250965 -25.400032 4294967295
-42.02914 63.097317 -25.372089 4294967295
-42.028545 62.635551 -25.297211 4294967295
-42.022079 63.718285 -25.410589 4294967295
-42.016018 62.181656 -25.12925 4294967295
-42.0144 63.87759 -25.374088 4294967295
-42.010506 61.414642 -24.969128 4294967295
-42.00486 63.421928 -25.22945 4294967295
-41.993549 61.579937 -24.860197 4294967295
-41.955193 57.804535 -25.218679 4294967295
-41.948635 57.346127 -25.097321 4294967295
-41.943058 57.503643 -25.07725 4294967295
-41.935425 58.587246 -25.181601 4294967295
-41.932301 57.972633 -25.06362 4294967295
-41.927956 57.204418 -24.912661 4294967295
-41.922054 58.749664 -25.100769 4294967295
-41.920433 57.671528 -24.924261 4294967295
-41.917404 59.214966 -25.134726 4294967295
-41.915859 59.061798 -25.099276 4294967295
-41.912926 58.909485 -25.053032 4294967295
-41.911419 58.139584 -24.92421 4294967295
-41.911118 59.527172 -25.132532 4294967295
-41.908932 59.682678 -25.138905 4294967295
-41.903427 60.14854 -25.166206 4294967295
-41.902012 59.84119 -25.108383 4294967295
-41.901886 58.299625 -24.873329 4294967295
-41.898113 58.45615 -24.867327 4294967295
-41.896309 60.769554 -25.204313 4294967295
-41.894169 59.383698 -24.977047 4294967295
-41.890263 60.0028 -25.040218 4294967295
-41.888371 61.237019 -25.212648 4294967295
-41.884548 60.468887 -25.065895 4294967295
-41.870216 61.711235 -25.141424 4294967295
-41.868668 61.404003 -25.082561 4294967295
-41.86668 60.326187 -24.903255 4294967295
-41.858425 63.106003 -25.260056 4294967295
-41.856846 62.644783 -25.177618 4294967295
-41.85545 62.79982 -25.190126 4294967295
-41.855251 63.26223 -25.258745 4294967295
-41.849018 61.108501 -24.882685 4294967295
-41.848312 62.496372 -25.087757 4294967295
-41.846096 62.189575 -25.023716 4294967295
-41.844994 63.88554 -25.272398 4294967295
-41.839916 61.576996 -24.881989 4294967295
-41.83931 63.735348 -25.20475 4294967295
-41.838978 62.040138 -24.944878 4294967295
-41.834084 63.584808 -25.140678 4294967295
-41.834003 62.968365 -25.04653 4294967295
-41.828888 61.892624 -24.842899 4294967295
-41.823704 62.358624 -24.872715 4294967295
-41.821697 63.43911 -25.020864 4294967295
-41.807949 57.489544 -25.242249 4294967295
-41.792179 57.961483 -25.189665 4294967295
-41.778339 59.511147 -25.315771 4294967295
-41.774773 57.355404 -24.960667 4294967295
-41.772644 58.12756 -25.061047 4294967295
-41.77079 58.437008 -25.093393 4294967295
-41.757648 59.832417 -25.201593 4294967295
-41.753738 60.297241 -25.241306 4294967295
-41.752964 58.293797 -24.931316 4294967295
-41.752274 58.602592 -24.972721 4294967295
-41.752274 59.68169 -25.136398 4294967295
-41.747055 59.376682 -25.049051 4294967295
-41.746807 59.993416 -25.140659 4294967295
-41.746571 58.760303 -24.951735 4294967295
-41.74601 59.223175 -25.017534 4294967295
-41.735683 60.154636 -25.077524 4294967295
-41.733025 61.69754 -25.290562 4294967295
-41.730473 59.078693 -24.873304 4294967295
-41.724808 61.394714 -25.17993 4294967295
-41.719128 60.627697 -25.018902 4294967295
-41.715031 61.555229 -25.127283 4294967295
-41.714149 63.867077 -25.470842 4294967295
-41.71146 62.482277 -25.239748 4294967295
-41.709145 62.175598 -25.175028 4294967295
-41.704395 60.482979 -24.880949 4294967295
-41.697681 63.570187 -25.296194 4294967295
-41.694664 62.801723 -25.155916 4294967295
-41.691093 62.033405 -25.011332 4294967295
-41.689392 61.109444 -24.857834 4294967295
-41.684959 62.654087 -25.057138 4294967295
-41.679127 63.428684 -25.128633 4294967295
-41.674618 63.123463 -25.046862 4294967295
-41.669468 62.356075 -24.88998 4294967295
-41.654186 57.024345 -25.19173 4294967295
-41.640759 58.26548 -25.274311 4294967295
-41.633659 57.807415 -25.149122 4294967295
-41.62999 58.117935 -25.167351 4294967295
-41.629639 58.734669 -25.258049 4294967295
-41.620682 57.506935 -25.001583 4294967295
-41.620564 58.586143 -25.164217 4294967295
-41.612087 57.35791 -24.911463 4294967295
-41.611523 58.437553 -25.070675 4294967295
-41.606667 57.206947 -24.845989 4294967295
-41.605263 57.670441 -24.905203 4294967295
-41.600632 59.831661 -25.196316 4294967295
-41.599918 59.061382 -25.074022 4294967295
-41.589344 60.609467 -25.225473 4294967295
-41.585121 61.690903 -25.356117 4294967295
-41.58419 59.533718 -25.02199 4294967295
-41.582905 59.997025 -25.082094 4294967295
-41.580986 59.227364 -24.950378 4294967295
-41.577816 59.691906 -24.995867 4294967295
-41.576756 61.542286 -25.267853 4294967295
-41.576077 61.850929 -25.309282 4294967295
-41.573097 60.311581 -25.05266 4294967295
-41.565212 60.162426 -24.968126 4294967295
-41.556229 61.40155 -25.08523 4294967295
-41.555889 63.251129 -25.362719 4294967295
-41.555851 60.785141 -24.988897 4294967295
-41.554401 62.635769 -25.257839 4294967295
-41.552597 60.478855 -24.916914 4294967295
-41.551289 63.408314 -25.350374 4294967295
-41.5401 62.337036 -25.100208 4294967295
-41.535877 62.802265 -25.137482 4294967295
-41.529102 62.190159 -24.991549 4294967295
-41.524502 62.501553 -25.002541 4294967295
-41.522816 62.040131 -24.919405 4294967295
-41.520504 63.120861 -25.064936 4294967295
-41.511147 63.743778 -25.085739 4294967295
-41.510151 63.590309 -25.054661 4294967295
-41.497097 57.177647 -25.208973 4294967295
-41.494968 57.795456 -25.285805 4294967295
-41.489117 57.336575 -25.170444 4294967295
-41.475571 58.115509 -25.18214 4294967295
-41.475506 57.65308 -25.111616 4294967295
-41.473427 57.037605 -25.002125 4294967295
-41.46434 57.968185 -25.071747 4294967295
-41.461029 59.203438 -25.232782 4294967295
-41.459064 59.975254 -25.334198 4294967295
-41.456329 57.510452 -24.939623 4294967295
-41.452782 58.900272 -25.122206 4294967295
-41.451614 58.592663 -25.066486 4294967295
-41.445328 58.288143 -24.97109 4294967295
-41.44521 58.44241 -24.993532 4294967295
-41.442051 58.752735 -25.015726 4294967295
-41.440742 59.832706 -25.168934 4294967295
-41.433598 59.683052 -25.090265 4294967295
-41.423798 60.305897 -25.107679 4294967295
-41.41745 59.076374 -24.87178 4294967295
-41.414742 60.465832 -25.060858 4294967295
-41.408756 61.394623 -25.15447 4294967295
-41.408245 60.932499 -25.08053 4294967295
-41.406364 60.1628 -24.949291 4294967295
-41.401428 61.245228 -25.074406 4294967295
-41.399521 62.787815 -25.292849 4294967295
-41.390755 62.022984 -25.108397 4294967295
-41.390118 61.098373 -24.963474 4294967295
-41.389412 62.640438 -25.191273 4294967295
-41.386665 63.412857 -25.286602 4294967295
-41.385582 60.638676 -24.858328 4294967295
-41.381935 61.566254 -24.970116 4294967295
-41.379269 62.955475 -25.159395 4294967295
-41.37429 61.879631 -24.957594 4294967295
-41.373264 61.726109 -24.926291 4294967295
-41.368999 63.116501 -25.103239 4294967295
-41.368324 62.500301 -25.004704 4294967295
-41.35947 62.351982 -24.912836 4294967295
-41.359447 63.585392 -25.099245 4294967295
-41.353333 63.2812 -25.005285 4294967295
-41.339394 57.17717 -25.198217 4294967295
-41.336021 57.795776 -25.265392 4294967295
-41.322968 57.649502 -25.141098 4294967295
-41.319744 57.034698 -25.022867 4294967295
-41.31424 57.346378 -25.026941 4294967295
-41.305618 58.122528 -25.076826 4294967295
-41.304714 58.585598 -25.139801 4294967295
-41.304398 57.506481 -24.974112 4294967295
-41.300053 58.896793 -25.150389 4294967295
-41.296104 57.97411 -24.979929 4294967295
-41.295574 58.745388 -25.092422 4294967295
-41.292667 59.055531 -25.116581 4294967295
-41.287193 59.367268 -25.120878 4294967295
-41.276165 60.453308 -25.198759 4294967295
-41.272724 59.530483 -25.03231 4294967295
-41.27095 59.223198 -24.971964 4294967295
-41.269234 59.841045 -25.051937 4294967295
-41.263126 61.540642 -25.261089 4294967295
-41.261189 62.312462 -25.36261 4294967295
-41.256622 61.082436 -25.140938 4294967295
-41.254272 60.313068 -25.006229 4294967295
-41.24651 62.16803 -25.22588 4294967295
-41.241734 63.250004 -25.352034 4294967295
-41.240631 60.784363 -24.970707 4294967295
-41.237892 62.790245 -25.252501 4294967295
-41.230244 62.024578 -25.07688 4294967295
-41.229874 63.874397 -25.353586 4294967295
-41.228649 60.946266 -24.901386 4294967295
-41.22784 62.488647 -25.128231 4294967295
-41.221909 63.109188 -25.175594 4294967295
-41.221279 62.647156 -25.100842 4294967295
-41.219536 63.419056 -25.20385 4294967295
-41.218884 61.877842 -24.96578 4294967295
-41.216969 61.262241 -24.857738 4294967295
-41.214138 61.418301 -24.859179 4294967295
-41.20853 61.7304 -24.862486 4294967295
-41.202213 63.584896 -25.093338 4294967295
-41.199783 63.7407 -25.097876 4294967295
-41.195721 62.972546 -24.949963 4294967295
-41.167641 58.110088 -25.218916 4294967295
-41.165024 57.032402 -25.035614 4294967295
-41.15826 57.807426 -25.099897 4294967295
-41.15036 58.428944 -25.132107 4294967295
-41.148674 57.350563 -24.955999 4294967295
-41.147533 58.739021 -25.156849 4294967295
-41.146214 59.048161 -25.193258 4294967295
-41.144272 59.511822 -25.248133 4294967295
-41.14286 58.279331 -25.050917 4294967295
-41.139355 57.973049 -24.977232 4294967295
-41.135815 59.825409 -25.229429 4294967295
-41.131504 60.290554 -25.26602 4294967295
-41.130615 60.445251 -25.282444 4294967295
-41.128765 58.596352 -24.988708 4294967295
-41.123768 59.216248 -25.043299 4294967295
-41.114849 58.913342 -24.927879 4294967295
-41.110172 60.920738 -25.194582 4294967295
-41.108463 61.692532 -25.297796 4294967295
-41.107792 62.001205 -25.339169 4294967295
-41.101856 62.159218 -25.316643 4294967295
-41.101006 60.155693 -25.007427 4294967295
-41.099472 61.390095 -25.181879 4294967295
-41.099113 61.85276 -25.248936 4294967295
-41.098946 61.082111 -25.131262 4294967295
-41.097378 59.695332 -24.909548 4294967295
-41.095928 60.775696 -25.061396 4294967295
-41.095482 60.004971 -24.941502 4294967295
-41.080353 62.789936 -25.243904 4294967295
-41.079231 62.482395 -25.188713 4294967295
-41.078606 61.249409 -24.997643 4294967295
-41.075855 62.330467 -25.139418 4294967295
-41.066612 63.107376 -25.184528 4294967295
-41.059605 63.882793 -25.246838 4294967295
-41.058636 63.575176 -25.192823 4294967295
-41.051418 63.425884 -25.113905 4294967295
-41.050293 63.734959 -25.151796 4294967295
-41.049236 61.576874 -24.817657 4294967295
-41.0476 63.274277 -25.061213 4294967295
-41.032742 57.170975 -25.244646 4294967295
-41.012085 58.108341 -25.225082 4294967295
-41.006401 57.803421 -25.134773 4294967295
-41.003941 57.033871 -24.999413 4294967295
-41.001446 57.343792 -25.026735 4294967295
-40.995972 59.505585 -25.310358 4294967295
-40.992817 57.965809 -25.053362 4294967295
-40.988495 58.431034 -25.089891 4294967295
-40.986332 59.20327 -25.189577 4294967295
-40.983585 57.662926 -24.935686 4294967295
-40.983509 57.508728 -24.911818 4294967295
-40.982128 58.280704 -25.017572 4294967295
-40.981052 58.89817 -25.102383 4294967295
-40.972443 59.982765 -25.198942 4294967295
-40.966503 60.294838 -25.199724 4294967295
-40.9645 59.83358 -25.114487 4294967295
-40.964325 60.142048 -25.159683 4294967295
-40.962265 59.372387 -25.027483 4294967295
-40.955116 59.685261 -25.018944 4294967295
-40.94849 62.002014 -25.316864 4294967295
-40.948174 62.310463 -25.36092 4294967295
-40.944889 62.620853 -25.382132 4294967295
-40.943207 61.38887 -25.183168 4294967295
-40.942936 58.767365 -24.785475 4294967295
-40.94257 60.618389 -25.061937 4294967295
-40.942402 62.468384 -25.339739 4294967295
-40.940281 60.77404 -25.067581 4294967295
-40.939167 60.466347 -25.012489 4294967295
-40.938229 63.241699 -25.423851 4294967295
-40.927372 62.94072 -25.293818 4294967295
-40.921432 61.557148 -25.03879 4294967295
-40.920494 61.866142 -25.078087 4294967295
-40.906872 63.725128 -25.252323 4294967295
-40.903175 63.573479 -25.200611 4294967295
-40.893688 62.192085 -24.918295 4294967295
-40.880913 63.125854 -24.959562 4294967295
-40.874378 63.901264 -25.025572 4294967295
-40.85907 57.796703 -25.204422 4294967295
-40.853313 58.416866 -25.253138 4294967295
-40.850719 57.030674 -25.023918 4294967295
-40.846729 57.649914 -25.086252 4294967295
-40.84547 58.267456 -25.169571 4294967295
-40.843945 57.343143 -25.01832 4294967295
-40.839062 57.191807 -24.957516 4294967295
-40.838955 58.733971 -25.18923 4294967295
-40.837387 59.043282 -25.223669 4294967295
-40.83416 57.503204 -24.966326 4294967295
-40.832615 59.200397 -25.210224 4294967295
-40.830284 58.122452 -25.029547 4294967295
-40.824795 59.667763 -25.219828 4294967295
-40.824635 59.513691 -25.195356 4294967295
-40.812744 57.978798 -24.871424 4294967295
-40.80806 60.757446 -25.253872 4294967295
-40.80294 59.989803 -25.098339 4294967295
-40.797592 58.913555 -24.894461 4294967295
-40.797241 59.376495 -24.961535 4294967295
-40.792244 58.608303 -24.806829 4294967295
-40.788792 60.923916 -25.129059 4294967295
-40.785938 60.154701 -24.990902 4294967295
-40.780399 60.466644 -24.994835 4294967295
-40.778297 62.164074 -25.23431 4294967295
-40.766426 61.400875 -25.026915 4294967295
-40.764755 61.55616 -25.037334 4294967295
-40.764236 62.327461 -25.149536 4294967295
-40.763977 63.869087 -25.379812 4294967295
-40.762356 62.020321 -25.088608 4294967295
-40.759315 62.947384 -25.204676 4294967295
-40.756031 62.795395 -25.156216 4294967295
-40.75436 63.56731 -25.259514 4294967295
-40.752422 62.48941 -25.082035 4294967295
-40.751499 61.873192 -24.981958 4294967295
-40.744293 62.648972 -25.042824 4294967295
-40.737713 63.424313 -25.10845 4294967295
-40.721489 57.167496 -25.255857 4294967295
-40.71339 63.749058 -24.968149 4294967295
-40.696209 57.028233 -25.038549 4294967295
-40.695377 57.799805 -25.14834 4294967295
-40.694752 57.954376 -25.166773 4294967295
-40.682442 57.653332 -25.025808 4294967295
-40.679733 57.50071 -24.981787 4294967295
-40.676853 57.348175 -24.936441 4294967295
-40.674103 58.429478 -25.077967 4294967295
-40.670624 58.585808 -25.074499 4294967295
-40.669643 59.665779 -25.229563 4294967295
-40.668995 58.741016 -25.085243 4294967295
-40.667919 58.895885 -25.100212 4294967295
-40.660927 58.128983 -24.930397 4294967295
-40.653286 59.98436 -25.150517 4294967295
-40.650871 59.369034 -25.039078 4294967295
-40.644691 58.29306 -24.829046 4294967295
-40.642719 60.299393 -25.115908 4294967295
-40.642639 61.07037 -25.231369 4294967295
-40.64217 61.224838 -25.250984 4294967295
-40.639839 60.917984 -25.186682 4294967295
-40.634064 60.459064 -25.072725 4294967295
-40.633442 62.155411 -25.323309 4294967295
-40.633011 60.613941 -25.087881 4294967295
-40.62875 62.466766 -25.333773 4294967295
-40.628365 62.004574 -25.261183 4294967295
-40.626389 59.229912 -24.828016 4294967295
-40.618053 62.936249 -25.321384 4294967295
-40.618034 61.857121 -25.158762 4294967295
-40.61702 61.395191 -25.081326 4294967295
-40.616184 62.629185 -25.260624 4294967295
-40.615173 63.40057 -25.368908 4294967295
-40.614563 61.705181 -25.108925 4294967295
-40.610626 62.787014 -25.241241 4294967295
-40.609772 60.782925 -24.932854 4294967295
-40.605099 63.561447 -25.314898 4294967295
-40.565823 63.742001 -25.037066 4294967295
-40.563946 63.280594 -24.953053 4294967295
-40.52869 58.113117 -25.116058 4294967295
-40.519039 57.039131 -24.879637 4294967295
-40.518307 57.19384 -24.897226 4294967295
-40.505341 59.977859 -25.215687 4294967295
-40.500813 58.59269 -24.972155 4294967295
-40.499317 58.439339 -24.937496 4294967295
-40.498394 57.8228 -24.837566 4294967295
-40.49823 57.514313 -24.789862 4294967295
-40.497623 60.136883 -25.1798 4294967295
-40.49202 58.289486 -24.858398 4294967295
-40.491005 59.369919 -25.0131 4294967295
-40.477398 58.761215 -24.816044 4294967295
-40.476166 59.224815 -24.876274 4294967295
-40.473309 60.923256 -25.10965 4294967295
-40.472424 59.844189 -24.940443 4294967295
-40.470695 62.158432 -25.275187 4294967295
-40.469456 60.617264 -25.033739 4294967295
-40.469284 59.07476 -24.80036 4294967295
-40.458515 61.08691 -25.019621 4294967295
-40.456596 62.938503 -25.283234 4294967295
-40.45211 60.319702 -24.854563 4294967295
-40.451855 61.862305 -25.084618 4294967295
-40.451454 60.782917 -24.919142 4294967295
-40.444469 62.638149 -25.144064 4294967295
-40.442753 61.251236 -24.922153 4294967295
-40.442333 63.102123 -25.197298 4294967295
-40.434261 62.490646 -25.042768 4294967295
-40.432774 61.4119 -24.868992 4294967295
-40.430912 63.263901 -25.133097 4294967295
-40.42926 61.568428 -24.865313 4294967295
-40.426769 61.724304 -24.869431 4294967295
-40.423477 62.034966 -24.890663 4294967295
-40.415295 62.811588 -24.944057 4294967295
-40.411919 63.893421 -25.080561 4294967295
-40.407158 63.433949 -24.974588 4294967295
-40.394608 57.173203 -25.147907 4294967295
-40.381378 57.026752 -25.02356 4294967295
-40.369694 57.650665 -25.026981 4294967295
-40.366272 57.498444 -24.977617 4294967295
-40.3652 57.807598 -25.0158 4294967295
-40.351833 58.278381 -24.9832 4294967295
-40.346539 60.440712 -25.267265 4294967295
-40.343845 59.054485 -25.038074 4294967295
-40.343754 58.128979 -24.898233 4294967295
-40.333881 60.75708 -25.216904 4294967295
-40.326633 59.836327 -25.022448 4294967295
-40.323982 60.146461 -25.048548 4294967295
-40.323902 58.449532 -24.792862 4294967295
-40.322273 61.227051 -25.197729 4294967295
-40.32106 60.302525 -25.049419 4294967295
-40.319145 58.60672 -24.779703 4294967295
-40.309502 59.538418 -24.845161 4294967295
-40.303486 60.930584 -25.007872 4294967295
-40.301884 63.39875 -25.366316 4294967295
-40.301693 62.319695 -25.202717 4294967295
-40.300323 61.395317 -25.05323 4294967295
-40.300301 61.549557 -25.076235 4294967295
-40.296467 61.089298 -24.977428 4294967295
-40.29443 60.627804 -24.892311 4294967295
-40.28791 61.866013 -25.027939 4294967295
-40.278358 62.951817 -25.11721 4294967295
-40.276154 62.027874 -24.961317 4294967295
-40.274494 62.64592 -25.041359 4294967295
-40.263733 63.269939 -25.051865 4294967295
-40.261181 62.500401 -24.916517 4294967295
-40.253529 63.122467 -24.950788 4294967295
-40.252083 63.740391 -25.032417 4294967295
-40.250935 63.895386 -25.046841 4294967295
-40.232342 57.946449 -25.219204 4294967295
-40.227592 58.257713 -25.229282 4294967295
-40.217606 57.029724 -24.967743 4294967295
-40.215511 58.419209 -25.160261 4294967295
-40.214909 57.339855 -24.993492 4294967295
-40.208176 59.19474 -25.220085 4294967295
-40.206619 57.653301 -24.976582 4294967295
-40.206161 58.57909 -25.112087 4294967295
-40.204205 58.117535 -25.027658 4294967295
-40.183342 57.821445 -24.822126 4294967295
-40.182312 58.902081 -24.976469 4294967295
-40.17868 59.367085 -25.018261 4294967295
-40.175922 58.75169 -24.904554 4294967295
-40.175346 60.448811 -25.154951 4294967295
-40.175175 59.986237 -25.08419 4294967295
-40.173515 59.524525 -25.002043 4294967295
-40.17234 59.833755 -25.039402 4294967295
-40.170166 60.606289 -25.138605 4294967295
-40.161674 59.686108 -24.934887 4294967295
-40.155285 59.072865 -24.793459 4294967295
-40.15498 60.924351 -25.069109 4294967295
-40.153702 60.770916 -25.03623 4294967295
-40.152813 60.308712 -24.959951 4294967295
-40.152588 62.159603 -25.236084 4294967295
-40.151836 63.393436 -25.415474 4294967295
-40.148315 61.3913 -25.087763 4294967295
-40.143963 62.78199 -25.262915 4294967295
-40.143417 61.085941 -25.004126 4294967295
-40.14262 62.320286 -25.183245 4294967295
-40.136505 61.244602 -24.974583 4294967295
-40.131176 63.252983 -25.234915 4294967295
-40.130329 63.099354 -25.205297 4294967295
-40.128746 62.020847 -25.031193 4294967295
-40.128544 63.563107 -25.261116 4294967295
-40.123116 62.64146 -25.080881 4294967295
-40.11937 61.564106 -24.890261 4294967295
-40.117168 62.491116 -25.012413 4294967295
-40.117043 61.874161 -24.918823 4294967295
-40.108154 63.730919 -25.128887 4294967295
-40.081047 57.016743 -25.119553 4294967295
-40.077339 57.944317 -25.230156 4294967295
-40.071644 58.410366 -25.256207 4294967295
-40.069061 57.795021 -25.143978 4294967295
-40.066673 58.567574 -25.241495 4294967295
-40.064289 58.877434 -25.269596 4294967295
-40.05621 58.111179 -25.092388 4294967295
-40.053757 57.341301 -24.957968 4294967295
-40.051105 57.188568 -24.914621 4294967295
-40.033695 59.667263 -25.152384 4294967295
-40.032814 59.359333 -25.099396 4294967295
-40.03186 60.131065 -25.207808 4294967295
-40.030949 58.280598 -24.923162 4294967295
-40.026562 59.054649 -25.005491 4294967295
-40.023533 60.290485 -25.167547 4294967295
-40.02042 58.749825 -24.912455 4294967295
-40.017658 59.985676 -25.07658 4294967295
-40.015907 61.066364 -25.225174 4294967295
-40.008072 60.608646 -25.096163 4294967295
-40.003479 62.153717 -25.292477 4294967295
-40.002754 61.691593 -25.217594 4294967295
-40.001305 60.767155 -25.067778 4294967295
-40.000202 61.539017 -25.175064 4294967295
-39.996864 61.232697 -25.103394 4294967295
-39.996479 62.620827 -25.308605 4294967295
-39.996269 61.38731 -25.121988 4294967295
-39.99601 61.850143 -25.1894 4294967295
-39.995995 63.08366 -25.374262 4294967295
-39.989445 60.466087 -24.931253 4294967295
-39.988712 63.705124 -25.41132 4294967295
-39.984653 63.553669 -25.35734 4294967295
-39.984089 62.783131 -25.237452 4294967295
-39.969711 60.941399 -24.850481 4294967295
-39.96846 63.256039 -25.187963 4294967295
-39.968231 63.410397 -25.209324 4294967295
-39.968102 62.022392 -25.000217 4294967295
-39.952023 63.883827 -25.155426 4294967295
-39.943989 62.963703 -24.955555 4294967295
-39.926163 57.014503 -25.131554 4294967295
-39.925835 57.168945 -25.152178 4294967295
-39.914177 58.255501 -25.225409 4294967295
-39.912239 57.331181 -25.071968 4294967295
-39.910862 57.640514 -25.107748 4294967295
-39.903641 59.032955 -25.260912 4294967295
-39.901493 57.800327 -25.059649 4294967295
-39.901203 58.725994 -25.196178 4294967295
-39.893291 57.49662 -24.951052 4294967295
-39.887299 58.425884 -25.044245 4294967295
-39.886944 58.888878 -25.11091 4294967295
-39.881233 59.663574 -25.183115 4294967295
-39.875885 57.969845 -24.888121 4294967295
-39.875057 59.821621 -25.159311 4294967295
-39.874378 60.747349 -25.292801 4294967295
-39.866432 60.28968 -25.163126 4294967295
-39.864723 61.216057 -25.288773 4294967295
-39.864632 60.907703 -25.24189 4294967295
-39.863342 60.445847 -25.162766 4294967295
-39.862637 61.371586 -25.29603 4294967295
-39.862522 59.366566 -24.99472 4294967295
-39.860069 59.522346 -24.999208 4294967295
-39.859692 59.985386 -25.065678 4294967295
-39.846474 62.46133 -25.335014 4294967295
-39.844662 61.999916 -25.251955 4294967295
-39.842442 61.075974 -25.096458 4294967295
-39.834705 63.702438 -25.430431 4294967295
-39.826851 62.165642 -25.139826 4294967295
-39.821827 63.248444 -25.263386 4294967295
-39.819874 63.095528 -25.225458 4294967295
-39.819679 63.558258 -25.293272 4294967295
-39.81662 62.326511 -25.085238 4294967295
-39.813789 62.945309 -25.156174 4294967295
-39.809708 62.639507 -25.078959 4294967295
-39.80793 62.794914 -25.088577 4294967295
-39.806038 61.870552 -24.935541 4294967295
-39.795013 61.723331 -24.828724 4294967295
-39.792175 63.422279 -25.061394 4294967295
-39.785873 63.889206 -25.082876 4294967295
-39.768009 57.168423 -25.141939 4294967295
-39.758347 57.019798 -25.045517 4294967295
-39.756996 57.946178 -25.173887 4294967295
-39.748489 58.876701 -25.247927 4294967295
-39.739635 58.727818 -25.15769 4294967295
-39.735691 57.650257 -24.966042 4294967295
-39.734741 59.501984 -25.236038 4294967295
-39.732788 58.269142 -25.03643 4294967295
-39.727348 58.580963 -25.041388 4294967295
-39.725742 57.347481 -24.844353 4294967295
-39.725586 59.816078 -25.212772 4294967295
-39.725506 59.353405 -25.142893 4294967295
-39.723709 57.50301 -24.852024 4294967295
-39.721016 59.664654 -25.155045 4294967295
-39.716202 57.816101 -24.841307 4294967295
-39.714638 59.051498 -25.014277 4294967295
-39.714245 59.206017 -25.034407 4294967295
-39.709618 58.437325 -24.883787 4294967295
-39.701534 61.219166 -25.238214 4294967295
-39.70126 58.133659 -24.774164 4294967295
-39.69878 60.141174 -25.055723 4294967295
-39.698536 61.066837 -25.192413 4294967295
-39.69836 60.295704 -25.075615 4294967295
-39.697269 60.759155 -25.13662 4294967295
-39.689911 59.992393 -24.965366 4294967295
-39.689133 60.610004 -25.05184 4294967295
-39.681599 61.848797 -25.179453 4294967295
-39.679394 62.312897 -25.231997 4294967295
-39.67627 61.543716 -25.092886 4294967295
-39.672703 62.162994 -25.158195 4294967295
-39.672699 62.625687 -25.227413 4294967295
-39.669083 63.244896 -25.292341 4294967295
-39.66655 63.863338 -25.36544 4294967295
-39.664402 63.402187 -25.279938 4294967295
-39.659195 63.097187 -25.194347 4294967295
-39.654324 61.403419 -24.903448 4294967295
-39.652054 62.947636 -25.117155 4294967295
-39.640156 62.801163 -25.003893 4294967295
-39.638195 62.030972 -24.873589 4294967295
-39.616543 63.588112 -24.940424 4294967295
-39.593536 58.874535 -25.25963 4294967295
-39.583282 57.337914 -24.951199 4294967295
-39.582973 58.726665 -25.156595 4294967295
-39.582958 59.035179 -25.202604 4294967295
-39.582748 58.264 -25.085649 4294967295
-39.581741 58.110321 -25.054943 4294967295
-39.58115 57.80209 -25.004292 4294967295
-39.580402 57.956825 -25.021732 4294967295
-39.579025 57.031754 -24.872776 4294967295
-39.568508 57.192223 -24.816214 4294967295
-39.555431 59.51474 -25.063475 4294967295
-39.550762 60.751698 -25.212727 4294967295
-39.5462 58.440166 -24.832029 4294967295
-39.545536 58.594902 -24.8501 4294967295
-39.543747 57.669834 -24.698 4294967295
-39.538708 60.14217 -25.029209 4294967295
-39.538692 59.987892 -25.006041 4294967295
-39.537346 61.222878 -25.180405 4294967295
-39.537163 59.217285 -24.879047 4294967295
-39.534752 59.373081 -24.883879 4294967295
-39.534714 59.836048 -24.952848 4294967295
-39.531612 61.38076 -25.160101 4294967295
-39.51976 59.690922 -24.816597 4294967295
-39.517574 62.160973 -25.169233 4294967295
-39.512707 62.935303 -25.247709 4294967295
-39.510803 60.313801 -24.841122 4294967295
-39.509823 61.857437 -25.064463 4294967295
-39.507721 62.784328 -25.186935 4294967295
-39.506752 63.401871 -25.271847 4294967295
-39.506485 61.088112 -24.923847 4294967295
-39.503078 61.70747 -24.990379 4294967295
-39.500225 62.480698 -25.084118 4294967295
-39.496899 62.328579 -25.03591 4294967295
-39.495934 60.940437 -24.82093 4294967295
-39.494698 62.638554 -25.065395 4294967295
-39.492481 63.873981 -25.233089 4294967295
-39.491135 61.560787 -24.87693 4294967295
-39.483395 62.02869 -24.887623 4294967295
-39.476383 63.576172 -25.065256 4294967295
-39.47171 63.270699 -24.983797 4294967295
-39.464005 63.738647 -24.994728 4294967295
-39.432198 58.721966 -25.200079 4294967295
-39.426769 58.108116 -25.066843 4294967295
-39.42556 57.95454 -25.034645 4294967295
-39.42318 57.493008 -24.947458 4294967295
-39.415005 59.040871 -25.116291 4294967295
-39.406853 58.274273 -24.939398 4294967295
-39.405674 58.892223 -25.022739 4294967295
-39.405064 60.126801 -25.202543 4294967295
-39.403908 58.430351 -24.940212 4294967295
-39.400806 59.820904 -25.124283 4294967295
-39.399281 59.204693 -25.02055 4294967295
-39.398632 57.198654 -24.715773 4294967295
-39.39785 59.514153 -25.055855 4294967295
-39.396973 57.354004 -24.726318 4294967295
-39.39563 60.2869 -25.154343 4294967295
-39.394516 57.818558 -24.776979 4294967295
-39.383743 59.368454 -24.926226 4294967295
-39.373127 60.918034 -25.076605 4294967295
-39.367645 60.45858 -24.966024 4294967295
-39.36639 59.687721 -24.841276 4294967295
-39.36377 61.232494 -25.052042 4294967295
-39.363136 60.770008 -24.978106 4294967295
-39.362751 62.004498 -25.159561 4294967295
-39.354481 61.392666 -25.004932 4294967295
-39.350376 60.623665 -24.858685 4294967295
-39.35009 63.40089 -25.27133 4294967295
-39.349464 61.550148 -24.990101 4294967295
-39.346203 62.63221 -25.126822 4294967295
-39.341526 62.326691 -25.045429 4294967295
-39.339115 61.71104 -24.935032 4294967295
-39.336975 63.101013 -25.126266 4294967295
-39.334385 62.176998 -24.968447 4294967295
-39.333679 62.948898 -25.078358 4294967295
-39.330414 63.568104 -25.145863 4294967295
-39.329582 63.722904 -25.162619 4294967295
-39.320335 63.883289 -25.1159 4294967295
-39.31831 61.878654 -24.801003 4294967295
-39.311256 63.272156 -24.955194 4294967295
-39.284172 58.407104 -25.218199 4294967295
-39.270676 57.952271 -25.047312 4294967295
-39.267399 57.182575 -24.907356 4294967295
-39.259052 57.650475 -24.913544 4294967295
-39.255943 58.886864 -25.074404 4294967295
-39.254353 59.042118 -25.085455 4294967295
-39.25272 57.036736 -24.773586 4294967295
-39.250999 57.809555 -24.87583 4294967295
-39.242817 57.351254 -24.744982 4294967295
-39.241955 58.740963 -24.945879 4294967295
-39.238811 58.279823 -24.853043 4294967295
-39.237652 61.057892 -25.258902 4294967295
-39.237518 60.132404 -25.119755 4294967295
-39.232571 58.592247 -24.852093 4294967295
-39.232113 60.90712 -25.194136 4294967295
-39.231358 60.290497 -25.096333 4294967295
-39.228195 60.755302 -25.141581 4294967295
-39.225815 59.522369 -24.939383 4294967295
-39.220665 59.988495 -24.969681 4294967295
-39.220516 61.222939 -25.152796 4294967295
-39.218857 59.68095 -24.909973 4294967295
-39.214684 60.455135 -24.993692 4294967295
-39.209404 59.378017 -24.792614 4294967295
-39.208923 59.841377 -24.858114 4294967295
-39.201893 63.856964 -25.403711 4294967295
-39.199642 63.241589 -25.294743 4294967295
-39.199493 61.544804 -25.04039 4294967295
-39.195663 60.6213 -24.873331 4294967295
-39.194187 62.473896 -25.138556 4294967295
-39.185162 62.325432 -25.047544 4294967295
-39.181557 63.561951 -25.204527 4294967295
-39.170536 61.408817 -24.799152 4294967295
-39.169563 62.026821 -24.883959 4294967295
-39.168774 62.644619 -24.970118 4294967295
-39.16637 62.183201 -24.882917 4294967295
-39.166225 63.417774 -25.066027 4294967295
-39.15197 62.964176 -24.889572 4294967295
-39.151348 63.118908 -24.907911 4294967295
-39.120491 57.17564 -24.980305 4294967295
-39.112709 58.877605 -25.174891 4294967295
-39.112434 57.643333 -24.988701 4294967295
-39.111359 57.026588 -24.8885 4294967295
-39.099083 57.959854 -24.934229 4294967295
-39.090939 58.119011 -24.895962 4294967295
-39.088455 58.583523 -24.946325 4294967295
-39.085651 59.202518 -25.017281 4294967295
-39.084759 59.048733 -24.987568 4294967295
-39.076927 59.516453 -24.997658 4294967295
-39.070881 58.285267 -24.767986 4294967295
-39.06749 58.75042 -24.811531 4294967295
-39.062069 61.840046 -25.230974 4294967295
-39.061417 60.297569 -24.99601 4294967295
-39.061275 60.606285 -25.040997 4294967295
-39.061226 61.686321 -25.201641 4294967295
-39.055107 60.455799 -24.971554 4294967295
-39.053802 61.228172 -25.076796 4294967295
-39.053551 61.536915 -25.120901 4294967295
-39.052124 59.685913 -24.834049 4294967295
-39.046459 62.775593 -25.251558 4294967295
-39.044849 59.999096 -24.825336 4294967295
-39.044235 63.239769 -25.30381 4294967295
-39.03746 60.92979 -24.907837 4294967295
-39.03286 61.087013 -24.89625 4294967295
-39.032555 60.778503 -24.847933 4294967295
-39.03241 62.938972 -25.168917 4294967295
-39.031601 62.013763 -25.02482 4294967295
-39.028221 62.478836 -25.068434 4294967295
-39.027023 63.559544 -25.220411 4294967295
-39.014805 63.721855 -25.151535 4294967295
-39.007343 63.881058 -25.118452 4294967295
-39.0019 62.650143 -24.893505 4294967295
-38.995663 63.425854 -24.96162 4294967295
-38.94426 57.803169 -24.924706 4294967295
-38.940273 58.885887 -25.055754 4294967295
-38.940166 57.496838 -24.84796 4294967295
-38.939541 58.114655 -24.935251 4294967295
-38.938774 57.188885 -24.791454 4294967295
-38.937172 57.3442 -24.802427 4294967295
-38.935005 59.043373 -25.03916 4294967295
-38.929199 58.583843 -24.926565 4294967295
-38.927334 58.430595 -24.889563 4294967295
-38.926037 57.041847 -24.672728 4294967295
-38.923351 60.439228 -25.15856 4294967295
-38.914906 58.283596 -24.773159 4294967295
-38.911957 59.211605 -24.889053 4294967295
-38.911797 60.137745 -25.02581 4294967295
-38.905563 60.604553 -25.047964 4294967295
-38.905434 59.987324 -24.955017 4294967295
-38.90443 60.913876 -25.085445 4294967295
-38.897667 61.072414 -25.057646 4294967295
-38.89201 60.304272 -24.900202 4294967295
-38.887592 63.238743 -25.303715 4294967295
-38.887226 59.844109 -24.795286 4294967295
-38.884506 60.771973 -24.912857 4294967295
-38.883316 59.537712 -24.719913 4294967295
-38.878925 61.238499 -24.939915 4294967295
-38.877296 61.393864 -24.950666 4294967295
-38.876648 61.857258 -25.01478 4294967295
-38.869724 61.707325 -24.9398 4294967295
-38.862595 61.557487 -24.863287 4294967295
-38.861813 62.175373 -24.949379 4294967295
-38.861141 62.484463 -24.990307 4294967295
-38.858204 63.720795 -25.152103 4294967295
-38.856842 63.104507 -25.049974 4294967295
-38.856743 62.332954 -24.934317 4294967295
-38.855045 63.568584 -25.105415 4294967295
-38.854221 62.797577 -24.984329 4294967295
-38.848129 62.029758 -24.823687 4294967295
-38.846626 62.648148 -24.904364 4294967295
-38.832733 63.891888 -24.983955 4294967295
-38.827526 63.432301 -24.87594 4294967295
-38.813786 57.632252 -25.097895 4294967295
-38.775967 57.345535 -24.768276 4294967295
-38.775745 58.580696 -24.950493 4294967295
-38.773415 57.038185 -24.703175 4294967295
-38.768894 57.967255 -24.807201 4294967295
-38.767422 59.974724 -25.094854 4294967295
-38.764988 59.204544 -24.96175 4294967295
-38.76215 58.125618 -24.779608 4294967295
-38.762131 60.595207 -25.147072 4294967295
-38.7593 58.281696 -24.781225 4294967295
-38.754951 59.673668 -24.955437 4294967295
-38.754154 57.512627 -24.627672 4294967295
-38.752125 59.057915 -24.842344 4294967295
-38.745003 58.444572 -24.696989 4294967295
-38.743053 60.915684 -25.05002 4294967295
-38.741547 59.373058 -24.808985 4294967295
-38.73954 61.535141 -25.115547 4294967295
-38.735336 61.692101 -25.107016 4294967295
-38.73362 60.304153 -24.887426 4294967295
-38.723873 60.464535 -24.837353 4294967295
-38.718056 63.091831 -25.184164 4294967295
-38.717686 63.246353 -25.204357 4294967295
-38.705044 62.945972 -25.063757 4294967295
-38.704506 60.785309 -24.738167 4294967295
-38.70269 61.404007 -24.816463 4294967295
-38.700287 62.331715 -24.93626 4294967295
-38.692265 61.873734 -24.807251 4294967295
-38.691227 62.491871 -24.891375 4294967295
-38.690845 62.183388 -24.842564 4294967295
-38.689827 62.647129 -24.903839 4294967295
-38.688839 63.728111 -25.057171 4294967295
-38.677525 62.809425 -24.834667 4294967295
-38.674538 63.428814 -24.904142 4294967295
-38.641567 57.022579 -24.889135 4294967295
-38.636082 58.569355 -25.077667 4294967295
-38.632721 57.336452 -24.868839 4294967295
-38.626331 58.112068 -24.935822 4294967295
-38.620682 57.189011 -24.755724 4294967295
-38.611511 59.201405 -24.985598 4294967295
-38.608139 57.505112 -24.707792 4294967295
-38.606487 59.05006 -24.925066 4294967295
-38.604019 59.360275 -24.952496 4294967295
-38.602745 59.515404 -24.965908 4294967295
-38.602337 58.280594 -24.7792 4294967295
-38.594929 60.137566 -24.999249 4294967295
-38.594921 59.674507 -24.930319 4294967295
-38.591034 57.669506 -24.602695 4294967295
-38.589062 60.449863 -25.001263 4294967295
-38.589043 57.979565 -24.633736 4294967295
-38.584583 60.606976 -24.990698 4294967295
-38.584255 61.070194 -25.057089 4294967295
-38.580051 60.76413 -24.979763 4294967295
-38.573772 59.99614 -24.818001 4294967295
-38.571953 60.30603 -24.8503 4294967295
-38.568573 63.240395 -25.260948 4294967295
-38.562393 62.164276 -25.054192 4294967295
-38.556427 60.93317 -24.826002 4294967295
-38.556038 61.396553 -24.89193 4294967295
-38.551506 61.708138 -24.90395 4294967295
-38.550842 62.48032 -25.013708 4294967295
-38.550175 61.554611 -24.871029 4294967295
-38.547798 62.790939 -25.036823 4294967295
-38.544304 63.101856 -25.05657 4294967295
-38.543556 63.410976 -25.096865 4294967295
-38.537079 61.871639 -24.818998 4294967295
-38.53371 62.64566 -24.908562 4294967295
-38.531662 63.573063 -25.030893 4294967295
-38.528706 63.729328 -25.031733 4294967295
-38.496639 57.477608 -25.04557 4294967295
-38.490089 58.253143 -25.111309 4294967295
-38.483528 58.41135 -25.085232 4294967295
-38.476032 57.180759 -24.845728 4294967295
-38.471207 57.801136 -24.901438 4294967295
-38.467258 59.19273 -25.078352 4294967295
-38.463684 59.657879 -25.120466 4294967295
-38.45575 58.118973 -24.831827 4294967295
-38.455406 57.347076 -24.714556 4294967295
-38.455379 58.891129 -24.943768 4294967295
-38.454903 59.354504 -25.009026 4294967295
-38.453545 57.965855 -24.792437 4294967295
-38.452827 57.657436 -24.741165 4294967295
-38.452419 60.282047 -25.12804 4294967295
-38.45116 58.739262 -24.889324 4294967295
-38.443184 60.905022 -25.150772 4294967295
-38.442993 59.516052 -24.942989 4294967295
-38.44083 59.054203 -24.85804 4294967295
-38.433315 59.985035 -24.939531 4294967295
-38.431728 60.603447 -25.019392 4294967295
-38.428143 60.760014 -25.015558 4294967295
-38.422279 61.226696 -25.040546 4294967295
-38.418434 60.148502 -24.851355 4294967295
-38.413929 62.312263 -25.138672 4294967295
-38.412319 61.695972 -25.034971 4294967295
-38.4104 62.623142 -25.158182 4294967295
-38.406315 61.545399 -24.967232 4294967295
-38.40366 62.9361 -25.15369 4294967295
-38.402035 63.400055 -25.210306 4294967295
-38.390755 63.561707 -25.149069 4294967295
-38.389015 63.871456 -25.181892 4294967295
-38.388969 61.093094 -24.768957 4294967295
-38.37532 63.263092 -24.988075 4294967295
-38.370747 63.111698 -24.931017 4294967295
-38.367771 62.496094 -24.817122 4294967295
-38.349949 63.742722 -24.867525 4294967295
-38.3283 58.25491 -25.072903 4294967295
-38.32814 57.174397 -24.911268 4294967295
-38.326015 58.410603 -25.078779 4294967295
-38.324444 57.022114 -24.860788 4294967295
-38.31852 57.334335 -24.86244 4294967295
-38.316921 57.952843 -24.942211 4294967295
-38.313023 59.035709 -25.073553 4294967295
-38.300373 58.11692 -24.841734 4294967295
-38.296432 57.655952 -24.743578 4294967295
-38.283905 60.596821 -25.08559 4294967295
-38.280552 57.510704 -24.602224 4294967295
-38.274879 59.676121 -24.880857 4294967295
-38.265575 60.299347 -24.903166 4294967295
-38.265137 59.373173 -24.762403 4294967295
-38.264561 58.91021 -24.689348 4294967295
-38.263508 59.991817 -24.841944 4294967295
-38.263027 59.528866 -24.769602 4294967295
-38.26276 61.844692 -25.111258 4294967295
-38.26231 61.536301 -25.062103 4294967295
-38.258663 61.384232 -25.012022 4294967295
-38.250195 63.395863 -25.246582 4294967295
-38.247528 61.236813 -24.90616 4294967295
-38.245991 62.781338 -25.123707 4294967295
-38.245827 60.157009 -24.73307 4294967295
-38.244171 60.930111 -24.835318 4294967295
-38.236706 63.095974 -25.100353 4294967295
-38.233932 62.326008 -24.965197 4294967295
-38.231968 63.562027 -25.133745 4294967295
-38.231869 62.481689 -24.972736 4294967295
-38.231823 62.172974 -24.9266 4294967295
-38.225914 63.25729 -25.042879 4294967295
-38.223907 62.023602 -24.844723 4294967295
-38.221355 63.723274 -25.077631 4294967295
-38.217735 62.645096 -24.890369 4294967295
-38.213585 63.882698 -25.042658 4294967295
-38.203026 62.963326 -24.826628 4294967295
-38.18021 57.476822 -25.022223 4294967295
-38.178875 57.168827 -24.966476 4294967295
-38.164974 58.411922 -25.046196 4294967295
-38.15678 57.33593 -24.824911 4294967295
-38.14917 57.031422 -24.722445 4294967295
-38.145576 58.88652 -24.97051 4294967295
-38.145294 59.041069 -24.99131 4294967295
-38.140816 58.117313 -24.820595 4294967295
-38.14064 57.654114 -24.750589 4294967295
-38.134712 60.12801 -25.072807 4294967295
-38.129936 58.586979 -24.808331 4294967295
-38.122707 60.444065 -25.029278 4294967295
-38.119091 59.211113 -24.819252 4294967295
-38.116013 58.749645 -24.727638 4294967295
-38.112358 60.60479 -24.975187 4294967295
-38.112206 60.296112 -24.928284 4294967295
-38.109703 58.289986 -24.611963 4294967295
-38.108715 59.680611 -24.810736 4294967295
-38.100822 59.530933 -24.72912 4294967295
-38.098671 59.84111 -24.758907 4294967295
-38.095116 59.379913 -24.66375 4294967295
-38.09481 61.696301 -25.004879 4294967295
-38.089737 60.773113 -24.829815 4294967295
-38.089283 63.24324 -25.192547 4294967295
-38.087463 61.392136 -24.904491 4294967295
-38.083916 62.011902 -24.969629 4294967295
-38.081978 60.005676 -24.657633 4294967295
-38.079456 62.169098 -24.959364 4294967295
-38.077637 62.633366 -25.014482 4294967295
-38.076527 61.090122 -24.777359 4294967295
-38.075554 62.480328 -24.97613 4294967295
-38.074699 61.245682 -24.786667 4294967295
