# .PCD v0.7 - Point Cloud Data file format
VERSION 0.7
FIELDS x y z rgb
SIZE 4 4 4 4
TYPE F F F U
COUNT 1 1 1 1
WIDTH 1121
HEIGHT 1
VIEWPOINT 0 0 0 1 0 0 0
POINTS 1121
DATA ascii
-26.316469 85.758453 -24.306833 4294967295
-26.301212 87.012062 -24.379852 4294967295
-26.284122 86.250084 -24.160698 4294967295
-26.125256 85.629486 -24.072134 4294967295
-26.124357 87.802971 -24.367889 4294967295
-25.990696 85.610291 -24.22785 4294967295
-25.985964 85.924492 -24.240166 4294967295
-25.96574 87.803146 -24.367104 4294967295
-25.81951 86.551689 -24.274672 4294967295
-25.807468 86.716637 -24.218102 4294967295
-25.777777 87.361694 -24.111643 4294967295
-25.677465 85.607216 -24.252398 4294967295
-25.674608 85.919922 -24.276886 4294967295
-25.646894 86.563072 -24.183453 4294967295
-25.638493 88.122063 -24.344004 4294967295
-25.636772 87.036964 -24.182419 4294967295
-25.622423 88.290504 -24.261509 4294967295
-25.620953 86.894539 -24.058531 4294967295
-25.489332 85.786011 -24.082504 4294967295
-25.343163 85.620842 -24.141176 4294967295
-25.337856 87.798332 -24.407417 4294967295
-25.337059 86.246735 -24.187656 4294967295
-25.323578 85.791687 -24.036261 4294967295
-25.31715 87.504776 -24.230942 4294967295
-25.15107 88.13192 -24.268543 4294967295
-25.142265 88.29438 -24.233305 4294967295
-25.014658 87.182472 -24.282728 4294967295
-25.013464 86.251854 -24.146446 4294967295
-25.012899 86.097015 -24.121374 4294967295
-25.011726 87.805801 -24.34959 4294967295
-25.002714 87.347382 -24.227364 4294967295
-24.992201 85.802856 -23.945368 4294967295
-24.854631 88.115105 -24.402107 4294967295
-24.822157 86.433228 -23.958042 4294967295
-24.811518 87.218422 -23.996883 4294967295
-24.705137 87.486839 -24.374954 4294967295
-24.694054 85.94294 -24.089888 4294967295
-24.689909 88.120171 -24.362963 4294967295
-24.683208 85.640862 -23.977533 4294967295
-24.68116 86.419128 -24.071466 4294967295
-24.680298 87.817467 -24.258585 4294967295
-24.656651 87.215378 -24.021433 4294967295
-24.584095 85.749161 -24.380205 4294967295
-24.526363 87.192581 -24.203255 4294967295
-24.508312 87.051765 -24.066366 4294967295
-24.419151 86.21991 -24.403786 4294967295
-24.402351 86.388504 -24.317827 4294967295
-24.400335 85.768959 -24.219448 4294967295
-24.380402 86.561249 -24.198965 4294967295
-24.372299 88.275864 -24.382282 4294967295
-24.372198 87.965416 -24.338902 4294967295
-24.370459 87.500992 -24.263689 4294967295
-24.361679 85.644058 -23.951073 4294967295
-24.341816 87.368729 -24.059366 4294967295
-24.341442 86.126137 -23.885931 4294967295
-24.322229 87.850563 -23.998404 4294967295
-24.210718 86.259338 -24.08605 4294967295
-24.187311 86.899338 -24.022224 4294967295
-24.178934 86.750648 -23.947433 4294967295
-24.172123 85.823654 -23.775755 4294967295
-24.083525 87.010857 -24.393482 4294967295
-24.075384 85.774902 -24.170908 4294967295
-24.067911 86.402092 -24.208696 4294967295
-24.062677 86.095566 -24.132681 4294967295
-24.05842 87.652115 -24.319004 4294967295
-24.057781 85.633362 -24.037455 4294967295
-24.051437 87.96833 -24.317225 4294967295
-24.039431 86.269272 -24.005995 4294967295
-24.033821 85.962936 -23.92757 4294967295
-24.027966 87.365921 -24.082441 4294967295
-24.01322 86.911591 -23.924503 4294967295
-23.874155 86.58519 -24.007185 4294967295
-23.850374 85.826866 -23.749296 4294967295
-23.847998 87.849106 -24.011608 4294967295
-23.771137 86.075188 -24.29711 4294967295
-23.756006 86.863708 -24.307632 4294967295
-23.735857 85.79216 -24.030529 4294967295
-23.725676 87.353851 -24.179094 4294967295
-23.717186 87.205276 -24.103905 4294967295
-23.710245 85.967628 -23.889284 4294967295
-23.70858 87.833603 -24.134562 4294967295
-23.707743 86.746635 -23.980017 4294967295
-23.704958 87.681152 -24.090258 4294967295
-23.69969 87.996117 -24.099466 4294967295
-23.580387 86.255699 -24.115337 4294967295
-23.54385 87.372299 -24.032953 4294967295
-23.537483 85.823097 -23.779522 4294967295
-23.412519 85.952042 -24.015177 4294967295
-23.411327 86.885315 -24.135368 4294967295
-23.397213 87.362656 -24.109959 4294967295
-23.392595 86.433899 -23.953011 4294967295
-23.39036 87.989639 -24.151743 4294967295
-23.387781 87.836334 -24.114153 4294967295
-23.384712 86.750961 -23.945724 4294967295
-23.38349 87.062759 -23.980581 4294967295
-23.381544 85.665344 -23.7766 4294967295
-23.2775 85.933456 -24.1654 4294967295
-23.270653 86.56031 -24.207233 4294967295
-23.239138 87.517509 -24.135832 4294967295
-23.234585 85.656059 -23.851755 4294967295
-23.234262 87.676781 -24.126324 4294967295
-23.21052 88.161987 -24.040224 4294967295
-23.206635 86.144264 -23.739061 4294967295
-23.11763 85.623512 -24.115999 4294967295
-23.110161 86.095512 -24.132671 4294967295
-23.093737 86.729973 -24.114136 4294967295
-23.088079 86.423599 -24.035954 4294967295
-23.074461 86.900574 -24.013866 4294967295
-23.074434 88.143822 -24.183748 4294967295
-23.071201 87.524818 -24.078346 4294967295
-23.071083 87.835716 -24.12011 4294967295
-23.067957 85.973007 -23.845261 4294967295
-23.063778 87.996956 -24.095322 4294967295
-23.053059 88.316368 -24.070263 4294967295
-22.87698 86.464516 -23.706923 4294967295
-22.863224 87.563881 -23.769127 4294967295
-22.782469 85.637016 -24.005693 4294967295
-22.780228 87.348351 -24.225117 4294967295
-22.775894 86.57473 -24.091759 4294967295
-22.775768 85.953102 -24.006041 4294967295
-22.771185 86.422989 -24.040926 4294967295
-22.753124 86.903473 -23.991106 4294967295
-22.7514 87.215714 -24.022739 4294967295
-22.747694 87.684959 -24.063137 4294967295
-22.729776 88.165543 -24.014242 4294967295
-22.699478 87.101181 -23.675207 4294967295
-22.602327 87.82972 -24.16914 4294967295
-22.578791 85.827126 -23.745615 4294967295
-22.557486 86.465775 -23.696835 4294967295
-22.535578 87.260635 -23.665514 4294967295
-22.478922 85.781456 -24.115765 4294967295
-22.463146 87.814163 -24.29249 4294967295
-22.45163 86.113487 -23.987162 4294967295
-22.44866 86.893082 -24.074581 4294967295
-22.435005 87.370155 -24.052639 4294967295
-22.424721 86.445374 -23.860987 4294967295
-22.422932 86.602264 -23.870989 4294967295
-22.418352 85.98378 -23.757454 4294967295
-22.417297 87.695068 -23.984137 4294967295
-22.392841 86.781288 -23.703693 4294967295
-22.370434 87.576622 -23.669394 4294967295
-22.274906 87.99295 -24.129942 4294967295
-22.258133 85.829201 -23.728361 4294967295
-22.243301 86.307312 -23.69919 4294967295
-22.231098 86.939011 -23.707659 4294967295
-22.2131 87.4198 -23.658691 4294967295
-22.108561 87.843445 -24.062393 4294967295
-22.108534 87.377045 -23.998714 4294967295
-22.079096 86.311348 -23.666645 4294967295
-22.073959 87.093132 -23.740484 4294967295
-22.067318 86.787201 -23.656651 4294967295
-22.062654 87.257545 -23.691086 4294967295
-22.061457 88.191765 -23.81069 4294967295
-21.98057 86.264542 -24.043804 4294967295
-21.978142 87.976425 -24.261351 4294967295
-21.977106 87.200035 -24.149149 4294967295
-21.957642 85.971237 -23.858519 4294967295
-21.947908 86.911888 -23.924818 4294967295
-21.9457 86.602577 -23.868723 4294967295
-21.919706 85.844879 -23.60079 4294967295
-21.828045 87.19236 -24.210552 4294967295
-21.819487 85.9552 -23.988134 4294967295
-21.815487 86.269287 -24.005531 4294967295
-21.803749 85.656242 -23.847858 4294967295
-21.801685 86.590973 -23.961918 4294967295
-21.786119 87.380653 -23.970762 4294967295
-21.783436 87.071724 -23.911768 4294967295
-21.780043 87.540932 -23.954082 4294967295
-21.77421 88.012054 -23.981222 4294967295
-21.734381 87.887932 -23.712219 4294967295
-21.658829 87.355904 -24.167723 4294967295
-21.609362 86.616806 -23.754669 4294967295
-21.608912 85.994827 -23.667311 4294967295
-21.602726 86.310776 -23.671154 4294967295
-21.517775 64.725418 -23.207455 4294967295
-21.455675 64.603973 -22.800344 4294967295
-21.355404 64.570656 -23.164101 4294967295
-21.194862 64.414841 -23.132265 4294967295
-21.020435 64.733917 -23.078115 4294967295
-20.968815 64.606491 -22.7377 4294967295
-20.834181 64.747971 -22.909025 4294967295
-20.800858 64.454529 -22.66098 4294967295
-20.643291 64.60862 -22.69087 4294967295
-20.338041 64.599625 -22.769297 4294967295
-20.190399 64.748291 -22.860113 4294967295
-20.146 64.616608 -22.566593 4294967295
-20.044384 64.428467 -22.897551 4294967295
-19.881538 64.585411 -22.895088 4294967295
-19.38966 64.746269 -22.826134 4294967295
-19.073112 64.743362 -22.836084 4294967295
-19.060347 64.594299 -22.737621 4294967295
-18.886332 64.44529 -22.626484 4294967295
-18.863523 64.613556 -22.509247 4294967295
-18.529387 64.463867 -22.393419 4294967295
-18.519991 64.624977 -22.357616 4294967295
-18.207613 64.619629 -22.394901 4294967295
-18.044252 64.464668 -22.349548 4294967295
-17.884649 64.619904 -22.368761 4294967295
-17.616999 64.746803 -22.695051 4294967295
-17.560467 64.620781 -22.335846 4294967295
-17.418259 64.454529 -22.417557 4294967295
-17.351295 64.646172 -22.038252 4294967295
-17.202032 64.639748 -22.09911 4294967295
-17.067947 64.625305 -22.250309 4294967295
-16.923086 64.616592 -22.337019 4294967295
-16.809669 64.747421 -22.631109 4294967295
-16.645382 64.592873 -22.581179 4294967295
-16.456989 64.450897 -22.388733 4294967295
-16.426998 64.622849 -22.231924 4294967295
-16.269514 64.464523 -22.223099 4294967295
-16.263758 64.623779 -22.209835 4294967295
-16.098305 64.469604 -22.15407 4294967295
-16.091284 64.629539 -22.133389 4294967295
-15.949219 64.619362 -22.236496 4294967295
-15.911043 64.483025 -21.990736 4294967295
-15.809389 64.451813 -22.33181 4294967295
-15.769604 64.628822 -22.118397 4294967295
-15.472566 64.458954 -22.227718 4294967295
-15.47187 64.615593 -22.244349 4294967295
-15.291393 64.469109 -22.101276 4294967295
-15.180083 64.599312 -22.404673 4294967295
-15.146211 64.460594 -22.185843 4294967295
-14.964508 64.470963 -22.056929 4294967295
-14.848176 64.603851 -22.330397 4294967295
-14.699533 64.440865 -22.373722 4294967295
-21.583956 65.401123 -22.715916 4294967295
-21.574432 70.546532 -23.355793 4294967295
-21.572081 67.589165 -22.938778 4294967295
-21.548618 70.406624 -23.17415 4294967295
-21.541817 67.918434 -22.792912 4294967295
-21.51239 65.662651 -23.301022 4294967295
-21.505152 71.679298 -23.073362 4294967295
-21.486038 64.898743 -23.03141 4294967295
-21.483141 70.914055 -22.83066 4294967295
-21.482483 65.367989 -23.072855 4294967295
-21.477964 65.837769 -23.108299 4294967295
-21.470005 65.2192 -22.974142 4294967295
-21.457275 66.472504 -23.064474 4294967295
-21.449539 66.788437 -23.058765 4294967295
-21.447575 67.101067 -23.088902 4294967295
-21.447115 66.010971 -22.937822 4294967295
-21.443544 67.25914 -23.085045 4294967295
-21.442467 68.038452 -23.184191 4294967295
-21.44083 68.350853 -23.216356 4294967295
-21.427 69.916115 -23.342089 4294967295
-21.426552 69.760696 -23.318153 4294967295
-21.421923 67.583206 -22.993107 4294967295
-21.417686 68.20874 -23.051479 4294967295
-21.416746 68.832283 -23.130308 4294967295
-21.409124 69.45977 -23.167652 4294967295
-21.402748 70.865036 -23.318497 4294967295
-21.386721 67.915321 -22.816837 4294967295
-21.384962 70.408783 -23.144638 4294967295
-21.382395 69.008484 -22.938198 4294967295
-21.378468 69.322395 -22.956165 4294967295
-21.377872 70.568848 -23.121784 4294967295
-21.363415 70.266151 -22.989725 4294967295
-21.358414 71.203789 -23.085674 4294967295
-21.34013 65.513535 -23.196299 4294967295
-21.308445 67.244522 -23.232487 4294967295
-21.276987 68.97583 -23.270082 4294967295
-21.273846 68.666252 -23.208321 4294967295
-21.257282 66.33918 -22.788216 4294967295
-21.231266 71.650574 -23.346149 4294967295
-21.224966 67.916092 -22.799494 4294967295
-21.221775 69.78759 -23.033611 4294967295
-21.21501 68.233582 -22.780096 4294967295
-21.190434 70.58551 -22.94515 4294967295
-21.190298 70.273994 -22.902002 4294967295
-21.182585 65.044617 -23.140808 4294967295
-21.179594 65.669258 -23.206861 4294967295
-21.173929 65.205185 -23.108335 4294967295
-21.151861 67.242325 -23.246531 4294967295
-21.146427 65.99942 -23.043739 4294967295
-21.144053 66.779594 -23.13476 4294967295
-21.142115 65.846069 -22.995884 4294967295
-21.14156 66.46949 -23.077034 4294967295
-21.136372 68.185654 -23.277451 4294967295
-21.133789 67.56424 -23.176928 4294967295
-21.127317 67.100708 -23.073427 4294967295
-21.125881 65.543571 -22.853039 4294967295
-21.108822 69.291992 -23.254866 4294967295
-21.101528 68.050293 -23.040638 4294967295
-21.097338 68.520073 -23.078123 4294967295
-21.089592 70.082176 -23.241524 4294967295
-21.08102 68.685478 -22.998259 4294967295
-21.078533 69.621605 -23.109703 4294967295
-21.071913 70.248619 -23.153273 4294967295
-21.069962 69.003609 -22.972095 4294967295
-21.066992 67.91465 -22.805698 4294967295
-21.040878 68.865036 -22.77096 4294967295
-21.033855 71.206459 -23.044624 4294967295
-21.032354 71.674698 -23.098734 4294967295
-21.031828 71.051918 -23.010944 4294967295
-21.026869 69.808441 -22.811142 4294967295
-21.00729 65.98735 -23.165886 4294967295
-20.957327 68.819595 -23.237289 4294967295
-20.954416 67.263641 -23.008043 4294967295
-20.951674 67.576805 -23.03335 4294967295
-20.947845 65.553268 -22.7349 4294967295
-20.910126 71.184074 -23.262426 4294967295
-20.907116 69.316704 -22.990408 4294967295
-20.859549 65.512886 -23.171265 4294967295
-20.859356 65.824501 -23.212307 4294967295
-20.85482 71.685501 -22.984213 4294967295
-20.844826 70.756683 -22.795748 4294967295
-20.83946 65.056686 -22.983875 4294967295
-20.83861 66.303459 -23.147579 4294967295
-20.83284 65.995155 -23.069731 4294967295
-20.826948 71.546913 -22.790964 4294967295
-20.820374 65.378906 -22.908276 4294967295
-20.818052 66.938232 -23.105148 4294967295
-20.803831 67.413734 -23.080721 4294967295
-20.795071 66.795555 -22.942188 4294967295
-20.791918 69.912773 -23.344919 4294967295
-20.787682 68.825111 -23.171078 4294967295
-20.784607 65.710548 -22.729715 4294967295
-20.782442 67.893494 -23.012077 4294967295
-20.780525 65.245178 -22.641111 4294967295
-20.775148 68.676727 -23.072636 4294967295
-20.771385 66.497337 -22.753746 4294967295
-20.767548 69.148575 -23.089075 4294967295
-20.767498 69.615936 -23.152092 4294967295
-20.767067 70.394966 -23.254946 4294967295
-20.762825 71.020493 -23.313177 4294967295
-20.759117 69.465164 -23.079287 4294967295
-20.745552 70.096443 -23.08005 4294967295
-20.74534 67.603317 -22.740879 4294967295
-20.743948 69.78582 -23.027937 4294967295
-20.733927 70.259247 -23.029459 4294967295
-20.73023 71.19622 -23.133289 4294967295
-20.729471 68.391899 -22.748577 4294967295
-20.707026 70.898827 -22.94799 4294967295
-20.698412 70.592407 -22.85264 4294967295
-20.686228 65.831528 -23.124447 4294967295
-20.669844 66.775444 -23.150074 4294967295
-20.658497 67.249252 -23.143452 4294967295
-20.637545 65.547058 -22.782148 4294967295
-20.622211 66.179115 -22.772104 4294967295
-20.621965 66.490982 -22.812809 4294967295
-20.62051 67.58271 -22.951605 4294967295
-20.619465 69.297096 -23.177238 4294967295
-20.611549 68.52282 -23.023008 4294967295
-20.593298 71.181984 -23.269156 4294967295
-20.5884 71.49649 -23.28117 4294967295
-20.58087 67.449692 -22.686241 4294967295
-20.57486 68.076714 -22.73366 4294967295
-20.534748 70.59446 -22.824305 4294967295
-20.52577 70.444031 -22.747917 4294967295
-20.515408 64.90229 -22.924589 4294967295
-20.514343 65.682007 -23.023518 4294967295
-20.511564 66.618378 -23.132957 4294967295
-20.505793 65.219269 -22.907612 4294967295
-20.499901 65.534218 -22.913544 4294967295
-20.492434 65.070786 -22.804285 4294967295
-20.486452 66.320946 -22.936262 4294967295
-20.485046 66.165894 -22.906513 4294967295
-20.48049 67.259285 -23.026125 4294967295
-20.46846 67.110344 -22.931028 4294967295
-20.453894 66.806931 -22.799221 4294967295
-20.452665 69.768288 -23.192308 4294967295
-20.449177 68.835602 -23.044382 4294967295
-20.441732 68.060806 -22.89315 4294967295
-20.440762 69.308006 -23.055872 4294967295
-20.433542 71.181755 -23.264395 4294967295
-20.42902 68.379913 -22.857151 4294967295
-20.427517 70.25074 -23.100918 4294967295
-20.425539 67.446671 -22.709162 4294967295
-20.417971 67.762817 -22.7048 4294967295
-20.415161 70.881416 -23.109266 4294967295
-20.414783 69.167557 -22.875038 4294967295
-20.40658 69.951683 -22.930025 4294967295
-20.386805 69.651779 -22.766254 4294967295
-20.379011 70.124084 -22.781616 4294967295
-20.378754 71.68277 -22.990858 4294967295
-20.314978 65.391754 -22.733013 4294967295
-20.292379 69.924072 -23.205402 4294967295
-20.289322 66.96505 -22.786255 4294967295
-20.283449 66.34478 -22.665831 4294967295
-20.262203 68.227722 -22.788349 4294967295
-20.254652 68.543892 -22.784136 4294967295
-20.240038 69.331909 -22.799789 4294967295
-20.196697 66.1474 -23.088352 4294967295
-20.193285 71.386559 -22.786766 4294967295
-20.191122 65.215485 -22.927763 4294967295
-20.177908 66.313774 -22.994162 4294967295
-20.164724 67.10041 -23.018612 4294967295
-20.162088 65.543274 -22.791773 4294967295
-20.149357 68.044212 -23.050735 4294967295
-20.145569 69.604469 -23.238037 4294967295
-20.145094 67.735008 -22.982477 4294967295
-20.141911 69.295067 -23.173506 4294967295
-20.141878 68.983482 -23.131207 4294967295
-20.138269 65.712395 -22.666723 4294967295
-20.125179 67.278831 -22.797153 4294967295
-20.125137 66.811157 -22.733686 4294967295
-20.118164 68.841583 -22.964775 4294967295
-20.108606 67.600113 -22.737669 4294967295
-20.104984 69.784431 -23.010319 4294967295
-20.091698 68.389412 -22.739325 4294967295
-20.088104 70.573746 -23.01214 4294967295
-20.087688 71.197311 -23.093788 4294967295
-20.081081 69.486916 -22.821693 4294967295
-20.068226 69.962227 -22.80608 4294967295
-20.062325 71.056915 -22.917311 4294967295
-20.052166 70.283638 -22.749773 4294967295
-20.027681 65.37281 -22.921579 4294967295
-19.994913 67.261513 -22.973513 4294967295
-19.978539 66.023651 -22.704805 4294967295
-19.977327 65.088699 -22.570992 4294967295
-19.965332 68.213684 -22.918694 4294967295
-19.958374 70.555321 -23.19171 4294967295
-19.947128 67.132828 -22.659876 4294967295
-19.9433 70.096909 -23.036366 4294967295
-19.938972 67.91713 -22.715218 4294967295
-19.92831 70.261734 -22.965683 4294967295
-19.921497 71.512604 -23.092299 4294967295
-19.915428 69.178185 -22.739525 4294967295
-19.879267 65.989388 -23.070539 4294967295
-19.857756 65.377846 -22.854841 4294967295
-19.854753 64.755875 -22.752291 4294967295
-19.844433 67.411598 -23.04686 4294967295
-19.840139 67.725739 -23.062689 4294967295
-19.839891 65.075836 -22.703485 4294967295
-19.8346 66.949608 -22.923653 4294967295
-19.832432 65.703644 -22.742058 4294967295
-19.816963 65.556267 -22.626413 4294967295
-19.810171 68.054695 -22.921568 4294967295
-19.80665 66.341721 -22.668589 4294967295
-19.806152 68.680504 -22.981134 4294967295
-19.800219 66.657204 -22.671364 4294967295
-19.799839 69.151779 -23.005636 4294967295
-19.798962 69.775681 -23.084383 4294967295
-19.797962 69.308739 -23.015192 4294967295
-19.792118 67.90921 -22.790176 4294967295
-19.788202 70.405449 -23.102736 4294967295
-19.787445 71.496613 -23.245241 4294967295
-19.783106 70.096809 -23.029558 4294967295
-19.772758 68.855888 -22.798079 4294967295
-19.768143 70.885048 -23.043255 4294967295
-19.767836 68.390999 -22.70488 4294967295
-19.756468 68.553543 -22.656443 4294967295
-19.748947 69.493553 -22.736719 4294967295
-19.746582 71.365707 -22.974634 4294967295
-19.745195 70.587151 -22.861032 4294967295
-19.714079 66.615257 -23.116861 4294967295
-19.687546 66.474297 -22.933872 4294967295
-19.686047 65.851562 -22.840607 4294967295
-19.662199 68.203308 -23.010384 4294967295
-19.655567 69.76561 -23.180042 4294967295
-19.647779 66.1847 -22.649036 4294967295
-19.643688 70.24015 -23.170597 4294967295
-19.640251 70.553848 -23.191637 4294967295
-19.629839 70.871765 -23.170147 4294967295
-19.579706 70.122459 -22.759293 4294967295
-19.570446 71.687141 -22.91297 4294967295
-19.555632 71.540283 -22.80162 4294967295
-19.553137 65.212585 -22.916054 4294967295
-19.548151 65.527107 -22.927689 4294967295
-19.535988 64.910126 -22.769464 4294967295
-19.524935 67.098885 -22.996277 4294967295
-19.522057 68.03569 -23.10475 4294967295
-19.519764 67.25769 -22.985771 4294967295
-19.514742 66.169228 -22.808086 4294967295
-19.509771 65.860123 -22.735744 4294967295
-19.506565 68.356339 -23.052372 4294967295
-19.501011 65.397095 -22.619278 4294967295
-19.499434 68.672195 -23.05092 4294967295
-19.497089 66.490936 -22.742512 4294967295
-19.496223 66.647362 -22.758251 4294967295
-19.49585 69.141853 -23.092081 4294967295
-19.493139 69.922653 -23.180555 4294967295
-19.482824 70.707947 -23.222689 4294967295
-19.477032 66.970047 -22.683311 4294967295
-19.466097 70.873848 -23.141817 4294967295
-19.464314 69.628006 -22.96298 4294967295
-19.463017 70.252281 -23.039078 4294967295
-19.457386 69.320297 -22.878782 4294967295
-19.454189 67.450882 -22.607164 4294967295
-19.444269 70.575241 -22.966904 4294967295
-19.443882 71.66655 -23.111498 4294967295
-19.431534 71.050575 -22.952341 4294967295
-19.409454 71.375748 -22.8599 4294967295
-19.37697 66.312317 -22.958906 4294967295
-19.359926 66.789543 -22.918171 4294967295
-19.356297 65.076294 -22.665041 4294967295
-19.326311 64.936623 -22.461489 4294967295
-19.32107 69.929581 -23.101574 4294967295
-19.313919 67.5952 -22.743225 4294967295
-19.309467 68.221512 -22.800135 4294967295
-19.296309 68.852859 -22.80407 4294967295
-19.26001 70.433609 -22.793243 4294967295
-19.219528 65.998665 -22.926912 4294967295
-19.211123 67.562263 -23.08563 4294967295
-19.202847 65.696014 -22.78356 4294967295
-19.202761 66.319801 -22.866993 4294967295
-19.192127 65.389984 -22.676422 4294967295
-19.19104 66.17038 -22.774784 4294967295
-19.190496 66.638496 -22.83444 4294967295
-19.188978 67.263039 -22.909151 4294967295
-19.184706 68.51265 -23.05102 4294967295
-19.182617 69.137344 -23.122215 4294967295
-19.172632 67.116348 -22.788866 4294967295
-19.166761 68.055283 -22.879095 4294967295
-19.166231 64.936104 -22.456039 4294967295
-19.160467 69.306175 -23.00869 4294967295
-19.15538 69.620941 -23.019743 4294967295
-19.15218 68.8433 -22.895426 4294967295
-19.139105 70.877655 -23.088675 4294967295
-19.13773 70.566727 -23.038391 4294967295
-19.13488 71.347801 -23.125929 4294967295
-19.133429 67.450462 -22.59267 4294967295
-19.128922 71.663147 -23.131689 4294967295
-19.113966 70.425011 -22.873152 4294967295
-19.10947 67.7761 -22.489117 4294967295
-19.075924 71.539452 -22.789049 4294967295
-19.047459 67.096306 -22.995001 4294967295
-19.01462 65.087013 -22.523069 4294967295
-19.004038 66.65284 -22.66869 4294967295
-19.002531 70.395821 -23.162693 4294967295
-18.998995 67.903412 -22.805883 4294967295
-18.994715 70.868073 -23.178173 4294967295
-18.984869 66.039459 -22.468462 4294967295
-18.975275 70.100235 -22.955566 4294967295
-18.970871 68.543388 -22.719212 4294967295
-18.944803 70.274239 -22.791817 4294967295
-18.93495 70.592018 -22.774015 4294967295
-18.90056 71.39254 -22.670406 4294967295
-18.891167 65.534515 -22.802553 4294967295
-18.884033 66.630058 -22.906059 4294967295
-18.875452 66.011024 -22.770239 4294967295
-18.875418 66.32296 -22.811951 4294967295
-18.86162 67.422318 -22.875086 4294967295
-18.840315 66.810432 -22.66222 4294967295
-18.839218 65.094803 -22.424902 4294967295
-18.83803 69.930603 -23.067444 4294967295
-18.836723 67.280418 -22.70335 4294967295
-18.834122 67.125893 -22.666637 4294967295
-18.817535 68.695129 -22.775787 4294967295
-18.811892 70.725624 -23.01395 4294967295
-18.811819 69.634186 -22.866901 4294967295
-18.803745 71.198227 -23.027477 4294967295
-18.802011 68.080101 -22.597958 4294967295
-18.800911 69.016708 -22.717058 4294967295
-18.800114 68.237198 -22.607424 4294967295
-18.791327 71.049774 -22.931387 4294967295
-18.790339 67.774712 -22.485348 4294967295
-18.789589 69.491249 -22.711386 4294967295
-18.789062 69.803513 -22.750101 4294967295
-18.785538 67.621391 -22.435307 4294967295
-18.774063 70.280304 -22.722172 4294967295
-18.771776 70.905556 -22.792137 4294967295
-18.760618 71.536125 -22.808413 4294967295
-18.759153 70.133141 -22.610987 4294967295
-18.714998 65.074837 -22.636749 4294967295
-18.712023 67.571953 -22.953915 4294967295
-18.69183 68.674973 -22.978384 4294967295
-18.679192 64.782104 -22.378202 4294967295
-18.674334 65.877136 -22.495554 4294967295
-18.671053 65.410774 -22.412832 4294967295
-18.574911 70.61525 -22.523046 4294967295
-18.568373 71.087265 -22.546371 4294967295
-18.566816 66.471649 -22.891714 4294967295
-18.554527 65.542557 -22.6919 4294967295
-18.546938 66.326691 -22.750757 4294967295
-18.543041 65.704834 -22.643467 4294967295
-18.542265 66.953209 -22.806267 4294967295
-18.540039 66.798477 -22.771893 4294967295
-18.526382 65.089752 -22.459078 4294967295
-18.526129 66.182175 -22.604158 4294967295
-18.515604 65.251648 -22.414919 4294967295
-18.513962 67.437057 -22.698189 4294967295
-18.496319 71.190201 -23.093855 4294967295
-18.495903 67.603264 -22.6101 4294967295
-18.488596 66.046791 -22.35655 4294967295
-18.486958 69.168434 -22.765432 4294967295
-18.483006 66.674202 -22.406588 4294967295
-18.478598 67.925133 -22.547504 4294967295
-18.478024 70.421448 -22.878912 4294967295
-18.477919 70.733421 -22.920113 4294967295
-18.470732 67.773552 -22.479086 4294967295
-18.468603 68.711021 -22.591856 4294967295
-18.468229 69.803322 -22.73612 4294967295
-18.468079 71.674973 -22.986242 4294967295
-18.466856 70.895973 -22.874289 4294967295
-18.462774 69.338486 -22.640419 4294967295
-18.456226 70.278374 -22.726475 4294967295
-18.449877 68.409683 -22.436956 4294967295
-18.448608 70.594879 -22.722366 4294967295
-18.446791 69.971916 -22.627684 4294967295
-18.43734 71.381592 -22.758997 4294967295
-18.344509 65.725327 -22.406452 4294967295
-18.333044 68.384529 -22.693081 4294967295
-18.315315 66.990112 -22.3979 4294967295
-18.246529 65.222916 -22.712912 4294967295
-18.242664 66.472984 -22.856909 4294967295
-18.238146 65.539482 -22.704266 4294967295
-18.228546 64.920547 -22.562796 4294967295
-18.212566 67.73764 -22.842979 4294967295
-18.210268 65.866745 -22.578243 4294967295
-18.209946 68.363022 -22.910812 4294967295
-18.208931 66.80368 -22.695665 4294967295
-18.207729 65.087814 -22.458363 4294967295
-18.206865 66.960846 -22.704145 4294967295
-18.201712 66.183533 -22.568565 4294967295
-18.195345 65.718834 -22.467485 4294967295
-18.193331 67.592491 -22.70632 4294967295
-18.192877 69.152664 -22.912594 4294967295
-18.192823 68.060806 -22.765974 4294967295
-18.186344 68.844482 -22.831495 4294967295
-18.1833 67.286072 -22.604124 4294967295
-18.181787 69.782967 -22.929457 4294967295
-18.180637 66.039032 -22.42078 4294967295
-18.17684 65.416702 -22.314217 4294967295
-18.175137 70.87854 -23.035688 4294967295
-18.173975 68.227539 -22.67346 4294967295
-18.17271 66.355568 -22.414892 4294967295
-18.170185 70.72554 -22.98502 4294967295
-18.153671 69.955414 -22.781223 4294967295
-18.147467 69.334969 -22.660303 4294967295
-18.146593 71.675369 -22.968475 4294967295
-18.144306 70.272919 -22.766691 4294967295
-18.143801 68.556854 -22.53371 4294967295
-18.131111 68.7202 -22.478271 4294967295
-18.121979 71.222214 -22.757786 4294967295
-18.119539 70.599586 -22.659529 4294967295
-18.113276 69.042633 -22.412783 4294967295
-18.112358 69.667496 -22.490904 4294967295
-18.107141 71.543137 -22.710352 4294967295
-18.081141 65.22525 -22.675877 4294967295
-18.073071 66.321777 -22.773649 4294967295
-18.069517 67.883598 -22.961176 4294967295
-18.040632 69.459724 -22.996464 4294967295
-18.027418 69.935295 -22.979731 4294967295
-18.005363 70.260178 -22.889032 4294967295
-17.997669 66.987717 -22.404076 4294967295
-17.992498 69.175613 -22.665567 4294967295
-17.964642 70.908264 -22.728025 4294967295
-17.913738 65.696777 -22.689619 4294967295
-17.912998 71.563324 -22.501492 4294967295
-17.899858 64.923973 -22.501854 4294967295
-17.898079 67.889618 -22.887953 4294967295
-17.897696 66.485733 -22.69776 4294967295
-17.896955 66.798203 -22.735079 4294967295
-17.889578 66.958321 -22.711691 4294967295
-17.886766 65.399277 -22.485945 4294967295
-17.881941 67.742722 -22.770269 4294967295
-17.875549 68.99437 -22.898912 4294967295
-17.870573 68.685234 -22.827316 4294967295
-17.870499 65.564178 -22.409195 4294967295
-17.861486 69.62645 -22.898048 4294967295
-17.852301 66.666847 -22.446236 4294967295
-17.84218 67.452942 -22.489952 4294967295
-17.837561 71.044365 -22.942366 4294967295
-17.837559 68.392014 -22.587532 4294967295
-17.832796 71.515137 -22.976395 4294967295
-17.82835 70.113808 -22.761944 4294967295
-17.823587 69.336388 -22.629005 4294967295
-17.822485 68.088409 -22.455334 4294967295
-17.810333 70.74852 -22.737396 4294967295
-17.806129 68.878212 -22.461655 4294967295
-17.801054 68.256668 -22.347666 4294967295
-17.800154 70.442444 -22.634624 4294967295
-17.79702 71.224525 -22.720192 4294967295
-17.794628 68.572571 -22.350901 4294967295
-17.789581 69.824348 -22.487705 4294967295
-17.73341 67.735794 -22.83474 4294967295
-17.725504 68.520279 -22.891684 4294967295
-17.718338 65.247093 -22.410477 4294967295
-17.715734 66.029022 -22.499268 4294967295
-17.707899 67.906181 -22.702787 4294967295
-17.705055 70.247925 -22.998619 4294967295
-17.6929 69.163002 -22.779856 4294967295
-17.672464 66.208786 -22.260859 4294967295
-17.617693 70.923538 -22.559042 4294967295
-17.617195 70.143349 -22.451742 4294967295
-17.6105 70.459496 -22.453394 4294967295
-17.604994 70.618843 -22.441296 4294967295
-17.586697 65.699432 -22.638882 4294967295
-17.57209 66.643784 -22.676638 4294967295
-17.569088 66.333305 -22.616959 4294967295
-17.566055 66.022797 -22.557098 4294967295
-17.559223 65.558205 -22.453627 4294967295
-17.550322 67.592216 -22.671558 4294967295
-17.549995 69.62075 -22.940619 4294967295
-17.543907 67.439743 -22.612329 4294967295
-17.54101 67.909569 -22.657578 4294967295
-17.540918 69.470001 -22.865507 4294967295
-17.529512 64.949593 -22.192333 4294967295
-17.516741 67.29879 -22.428986 4294967295
-17.516047 67.143059 -22.403959 4294967295
-17.512426 68.550049 -22.570053 4294967295
-17.511677 68.238289 -22.523855 4294967295
-17.510431 71.047958 -22.891665 4294967295
-17.508366 68.864532 -22.587479 4294967295
-17.499834 70.742188 -22.78665 4294967295
-17.495565 66.529762 -22.197964 4294967295
-17.495285 70.276726 -22.696928 4294967295
-17.491648 68.717979 -22.466652 4294967295
-17.48802 68.095543 -22.361517 4294967295
-17.485971 69.18956 -22.495289 4294967295
-17.478466 69.818306 -22.533831 4294967295
-17.478186 71.535233 -22.761471 4294967295
-17.471708 69.978333 -22.514288 4294967295
-17.471071 69.354256 -22.427059 4294967295
-17.463562 71.231834 -22.632389 4294967295
-17.455812 70.924255 -22.544374 4294967295
-17.455093 70.144135 -22.43582 4294967295
-17.444559 70.618683 -22.43541 4294967295
-17.437544 70.466675 -22.372625 4294967295
-17.42556 65.075104 -22.544601 4294967295
-17.385231 65.877396 -22.407915 4294967295
-17.366041 66.043968 -22.314131 4294967295
-17.269674 64.916153 -22.544394 4294967295
-17.263618 67.104485 -22.799919 4294967295
-17.263121 71.255463 -22.387655 4294967295
-17.262772 67.260994 -22.815695 4294967295
-17.260305 66.794212 -22.738503 4294967295
-17.257988 65.390724 -22.537182 4294967295
-17.232351 66.497391 -22.530121 4294967295
-17.231602 66.966118 -22.58815 4294967295
-17.230976 65.092918 -22.334352 4294967295
-17.230621 68.83947 -22.832218 4294967295
-17.227491 68.997292 -22.834385 4294967295
-17.226217 66.188499 -22.451862 4294967295
-17.223188 68.219475 -22.70462 4294967295
-17.215368 67.599525 -22.574677 4294967295
-17.212072 68.53791 -22.679993 4294967295
-17.208908 69.163986 -22.744423 4294967295
-17.206226 67.448509 -22.499336 4294967295
-17.201582 67.919449 -22.534145 4294967295
-17.192926 69.485298 -22.690809 4294967295
-17.181522 71.208572 -22.851839 4294967295
-17.176516 70.431259 -22.71793 4294967295
-17.170982 71.682945 -22.851479 4294967295
-17.167755 68.406898 -22.394958 4294967295
-17.160696 71.376976 -22.748566 4294967295
-17.160221 70.90905 -22.683292 4294967295
-17.15863 70.753906 -22.652988 4294967295
-17.149967 69.978447 -22.497244 4294967295
-17.137573 71.546814 -22.631632 4294967295
-17.135466 70.299149 -22.452482 4294967295
-17.130714 70.614197 -22.465818 4294967295
-17.130423 69.677483 -22.339106 4294967295
-17.120209 70.151894 -22.340729 4294967295
-17.112932 65.850327 -22.684889 4294967295
-17.099495 66.169777 -22.64649 4294967295
-17.093338 67.733864 -22.817976 4294967295
-17.07749 65.557213 -22.432144 4294967295
-17.061823 66.346405 -22.44297 4294967295
-17.039574 70.26133 -22.830873 4294967295
-17.031977 67.143547 -22.36937 4294967295
-17.023584 66.679649 -22.25691 4294967295
-17.023203 65.430176 -22.087957 4294967295
-17.014921 69.651314 -22.600954 4294967295
-17.010963 67.311356 -22.265085 4294967295
-16.998907 68.56752 -22.359915 4294967295
-16.928925 67.735809 -22.787914 4294967295
-16.91876 66.961021 -22.62348 4294967295
-16.917406 66.493423 -22.553013 4294967295
-16.915916 68.991577 -22.876957 4294967295
-16.913239 65.402672 -22.382536 4294967295
-16.911631 65.715858 -22.414614 4294967295
-16.90777 66.030251 -22.433277 4294967295
-16.907446 67.27948 -22.59783 4294967295
-16.896997 70.094742 -22.910061 4294967295
-16.896635 67.909935 -22.616779 4294967295
-16.892742 68.224327 -22.635246 4294967295
-16.886806 69.320335 -22.745558 4294967295
-16.879513 66.357925 -22.306883 4294967295
-16.871449 70.421707 -22.799847 4294967295
-16.863716 66.835129 -22.275417 4294967295
-16.862492 68.08519 -22.434631 4294967295
-16.855556 68.713699 -22.476645 4294967295
-16.853148 69.807976 -22.607943 4294967295
-16.851778 68.403534 -22.412575 4294967295
-16.850975 70.745834 -22.719809 4294967295
-16.835125 70.91124 -22.646442 4294967295
-16.833628 69.506958 -22.450352 4294967295
-16.833487 69.975471 -22.511929 4294967295
-16.810398 69.676483 -22.333124 4294967295
-16.808764 71.55127 -22.573038 4294967295
-16.802511 65.063438 -22.63019 4294967295
-16.799044 70.620125 -22.390505 4294967295
-16.798637 71.088844 -22.450489 4294967295
-16.791649 71.24913 -22.429777 4294967295
-16.76507 68.205643 -22.823692 4294967295
-16.764805 66.020386 -22.531065 4294967295
-16.760115 66.803574 -22.607197 4294967295
-16.723877 67.291924 -22.454477 4294967295
-16.717447 67.763954 -22.478693 4294967295
-16.712032 64.955284 -22.07206 4294967295
-16.709934 65.581375 -22.142857 4294967295
-16.708843 65.269478 -22.094749 4294967295
-16.670609 71.381805 -22.678904 4294967295
-16.633141 71.560127 -22.477474 4294967295
-16.608917 65.705231 -22.510466 4294967295
-16.606136 66.799675 -22.639463 4294967295
-16.60401 64.927017 -22.377426 4294967295
-16.596039 67.117455 -22.621164 4294967295
-16.590782 67.744827 -22.673122 4294967295
-16.589899 67.901428 -22.688667 4294967295
-16.584747 68.372627 -22.720459 4294967295
-16.582989 66.031517 -22.398329 4294967295
-16.582697 69.154228 -22.812153 4294967295
-16.577757 67.283661 -22.533594 4294967295
-16.570486 66.350647 -22.365789 4294967295
-16.565369 70.412766 -22.87562 4294967295
-16.561577 68.541786 -22.603939 4294967295
-16.553801 65.891045 -22.204496 4294967295
-16.540501 66.679375 -22.229624 4294967295
-16.538557 71.052734 -22.799875 4294967295
-16.528334 71.68309 -22.82239 4294967295
-16.525333 70.279922 -22.617731 4294967295
-16.524357 67.000664 -22.175516 4294967295
-16.519737 70.751556 -22.646898 4294967295
-16.514458 67.631058 -22.20002 4294967295
-16.512842 71.223961 -22.66836 4294967295
-16.508675 68.259178 -22.248915 4294967295
-16.505566 69.354355 -22.375984 4294967295
-16.502361 71.542389 -22.647835 4294967295
-16.493885 69.82962 -22.369133 4294967295
-16.486746 64.903717 -22.627239 4294967295
-16.454252 70.633621 -22.238287 4294967295
-16.430706 65.401939 -22.357794 4294967295
-16.397743 69.480171 -22.70269 4294967295
-16.381653 68.083923 -22.420639 4294967295
-16.380692 65.584862 -22.082485 4294967295
-16.368067 69.809448 -22.568687 4294967295
-16.364885 67.312187 -22.217546 4294967295
-16.361084 66.689278 -22.111925 4294967295
-16.349058 68.570801 -22.290112 4294967295
-16.342009 68.887215 -22.289942 4294967295
-16.338909 67.482765 -22.084614 4294967295
-16.33757 70.139351 -22.429842 4294967295
-16.304663 70.314598 -22.255995 4294967295
-16.292374 71.102882 -22.287157 4294967295
-16.27676 67.584251 -22.681137 4294967295
-16.262232 65.249512 -22.283895 4294967295
-16.26173 66.81176 -22.488564 4294967295
-16.25905 66.188477 -22.389687 4294967295
-16.257618 65.720627 -22.318922 4294967295
-16.244312 67.133652 -22.427153 4294967295
-16.243322 69.164246 -22.691082 4294967295
-16.231794 66.359421 -22.249371 4294967295
-16.224047 68.394363 -22.47348 4294967295
-16.223156 65.426529 -22.073689 4294967295
-16.220066 68.084213 -22.408455 4294967295
-16.216642 65.898827 -22.097504 4294967295
-16.216055 65.117722 -21.990152 4294967295
-16.202896 67.468864 -22.223969 4294967295
-16.199757 70.438347 -22.599764 4294967295
-16.199657 66.689354 -22.100992 4294967295
-16.197796 68.565292 -22.339163 4294967295
-16.197117 70.596031 -22.604921 4294967295
-16.191845 69.037277 -22.366285 4294967295
-16.191059 67.31913 -22.133257 4294967295
-16.190683 69.662727 -22.442448 4294967295
-16.17676 70.139305 -22.42247 4294967295
-16.158211 70.306221 -22.3337 4294967295
-16.153746 69.371376 -22.182779 4294967295
-16.146257 71.562859 -22.429132 4294967295
-16.130074 65.546394 -22.486874 4294967295
-16.117212 65.240837 -22.369469 4294967295
-16.1078 68.213165 -22.70805 4294967295
-16.084524 68.694618 -22.632977 4294967295
-16.069164 70.108597 -22.728983 4294967295
-16.062206 69.800323 -22.646494 4294967295
-16.053499 66.056053 -22.097227 4294967295
-16.046799 70.902206 -22.70076 4294967295
-16.040253 71.374435 -22.724356 4294967295
-16.015438 67.952171 -22.121756 4294967295
-16.012686 67.797417 -22.084759 4294967295
-16.009775 70.61142 -22.441027 4294967295
-15.991288 69.215912 -22.145334 4294967295
-15.939784 65.249321 -22.263872 4294967295
-15.939143 66.030823 -22.363798 4294967295
-15.935789 68.375443 -22.654999 4294967295
-15.92979 64.942078 -22.163485 4294967295
-15.926496 66.974953 -22.413704 4294967295
-15.92592 66.819054 -22.389576 4294967295
-15.923694 69.631386 -22.749523 4294967295
-15.920662 67.759163 -22.482996 4294967295
-15.920216 66.353462 -22.293758 4294967295
-15.920007 67.447128 -22.437675 4294967295
-15.919698 69.009094 -22.643122 4294967295
-15.915193 68.074577 -22.492243 4294967295
-15.906807 67.923035 -22.422121 4294967295
-15.897886 71.051407 -22.784019 4294967295
-15.896991 65.74086 -22.073931 4294967295
-15.896155 65.428703 -22.027506 4294967295
-15.887684 66.683578 -22.143572 4294967295
-15.878268 70.282051 -22.56496 4294967295
-15.871034 66.223679 -21.983231 4294967295
-15.870239 68.724556 -22.310421 4294967295
-15.868536 67.319145 -22.113741 4294967295
-15.860186 69.355171 -22.334148 4294967295
-15.853385 69.515274 -22.314837 4294967295
-15.847455 69.987366 -22.342112 4294967295
-15.845318 68.269707 -22.101439 4294967295
-15.844669 71.551071 -22.532948 4294967295
-15.842968 70.771065 -22.419327 4294967295
-15.840265 68.897675 -22.154644 4294967295
-15.824654 65.537224 -22.566708 4294967295
-15.81918 71.409843 -22.362213 4294967295
-15.810141 65.701134 -22.502037 4294967295
-15.806974 70.948242 -22.228188 4294967295
-15.797078 66.48909 -22.528791 4294967295
-15.787705 67.431274 -22.597952 4294967295
-15.74692 69.952744 -22.68948 4294967295
-15.740252 69.488052 -22.58816 4294967295
-15.727072 70.744957 -22.676331 4294967295
-15.723453 66.372551 -22.074934 4294967295
-15.717655 68.876015 -22.37245 4294967295
-15.714371 71.376991 -22.684496 4294967295
-15.710644 68.254951 -22.248341 4294967295
-15.698229 70.44928 -22.465391 4294967295
-15.695902 67.169044 -22.016537 4294967295
-15.644488 70.167709 -22.108067 4294967295
-15.640705 66.017853 -22.48518 4294967295
-15.614305 65.875725 -22.309378 4294967295
-15.610955 68.220787 -22.600309 4294967295
-15.601876 68.069641 -22.526299 4294967295
-15.598805 68.539932 -22.570368 4294967295
-15.597314 69.009315 -22.623707 4294967295
-15.593696 67.13681 -22.354019 4294967295
-15.592235 67.762543 -22.428276 4294967295
-15.591748 69.949463 -22.715195 4294967295
-15.588747 66.670738 -22.262819 4294967295
-15.580496 66.36264 -22.172922 4294967295
-15.571726 71.054077 -22.742512 4294967295
-15.567533 66.213303 -22.076057 4294967295
-15.56418 68.715508 -22.387781 4294967295
-15.562055 69.341606 -22.458111 4294967295
-15.554996 67.939339 -22.230307 4294967295
-15.544624 70.757469 -22.542086 4294967295
-15.535449 71.387596 -22.571016 4294967295
-15.530518 69.828232 -22.335094 4294967295
-15.529698 71.547165 -22.557966 4294967295
-15.523059 68.425934 -22.104921 4294967295
-15.496867 70.316299 -22.199701 4294967295
-15.495229 71.254883 -22.314312 4294967295
-15.474987 66.64505 -22.531729 4294967295
-15.464106 65.08847 -22.26091 4294967295
-15.444943 67.442459 -22.459007 4294967295
-15.43858 65.570778 -22.173283 4294967295
-15.429763 68.231934 -22.473461 4294967295
-15.423147 64.797302 -21.979187 4294967295
-15.415771 65.270187 -21.998056 4294967295
-15.413003 66.365913 -22.126795 4294967295
-15.343675 71.093163 -22.341295 4294967295
-15.336364 70.784866 -22.257076 4294967295
-15.33479 71.567123 -22.351299 4294967295
-15.294591 66.342857 -22.368324 4294967295
-15.293185 64.7808 -22.153172 4294967295
-15.292739 65.718781 -22.274727 4294967295
-15.288049 67.127625 -22.433435 4294967295
-15.27873 68.538757 -22.564983 4294967295
-15.273708 66.822884 -22.308096 4294967295
-15.266523 67.451851 -22.348766 4294967295
-15.256017 69.020103 -22.494059 4294967295
-15.250382 66.522873 -22.130123 4294967295
-15.247849 70.743004 -22.673626 4294967295
-15.236321 65.435966 -21.902872 4294967295
-15.231775 68.408623 -22.269444 4294967295
-15.229946 66.221161 -21.969044 4294967295
-15.2253 69.662392 -22.396988 4294967295
-15.223032 68.100876 -22.176888 4294967295
-15.222506 69.507713 -22.359955 4294967295
-15.220335 66.695389 -21.974859 4294967295
-15.213963 67.94957 -22.103106 4294967295
-15.211672 71.388809 -22.54464 4294967295
-15.209862 70.139946 -22.368677 4294967295
-15.202571 70.6129 -22.388039 4294967295
-15.193082 68.899101 -22.105013 4294967295
-15.192595 70.306099 -22.288319 4294967295
-15.164981 71.259758 -22.250822 4294967295
-15.162855 69.854149 -22.052235 4294967295
-15.162416 65.077293 -22.363356 4294967295
-15.15541 70.952705 -22.153463 4294967295
-15.149882 70.486916 -22.059072 4294967295
-15.125778 68.221794 -22.562527 4294967295
-15.106438 67.763733 -22.38747 4294967295
-15.094507 68.864098 -22.462402 4294967295
-15.083661 66.994698 -22.150946 4294967295
-15.078485 65.903091 -21.975897 4294967295
-15.07128 68.720802 -22.305983 4294967295
-15.051426 68.419235 -22.1486 4294967295
-15.022505 71.092735 -22.33098 4294967295
-14.994435 66.018272 -22.438379 4294967295
-14.958127 65.881264 -22.205708 4294967295
-14.95481 67.914711 -22.454931 4294967295
-14.95157 65.57209 -22.126078 4294967295
-14.949631 64.791382 -22.011381 4294967295
-14.934031 69.644928 -22.560816 4294967295
-14.931809 68.239906 -22.361996 4294967295
-14.93145 66.83342 -22.173948 4294967295
-14.929646 66.67807 -22.142748 4294967295
-14.927211 67.304665 -22.211193 4294967295
-14.919889 66.214256 -22.023773 4294967295
-14.908457 69.50312 -22.390953 4294967295
-14.901468 66.536835 -21.957567 4294967295
-14.897805 67.633339 -22.080877 4294967295
-14.897036 68.571754 -22.200367 4294967295
-14.893644 67.479263 -22.035921 4294967295
-14.884448 67.171524 -21.940893 4294967295
-14.877057 68.739189 -22.104437 4294967295
-14.873769 70.30423 -22.29184 4294967295
-14.873066 69.835716 -22.225773 4294967295
-14.872194 69.054581 -22.117386 4294967295
-14.870644 71.087456 -22.376862 4294967295
-14.868488 70.776138 -22.322992 4294967295
-14.850563 70.161156 -22.135801 4294967295
-14.831226 65.081535 -22.293514 4294967295
-14.830178 71.579857 -22.202801 4294967295
-14.800366 67.910988 -22.485258 4294967295
-14.793404 67.602272 -22.403389 4294967295
-14.787533 68.85556 -22.534302 4294967295
-14.780865 66.98391 -22.247713 4294967295
-14.778126 65.89106 -22.087168 4294967295
-14.755996 70.592003 -22.577538 4294967295
-14.7224 69.986099 -22.299299 4294967295
-14.696404 71.251419 -22.312994 4294967295
-14.679357 69.541405 -21.986599 4294967295
-14.670898 70.1717 -22.019932 4294967295
-14.663058 66.491623 -22.429634 4294967295
-21.585978 75.467865 -23.095705 4294967295
-21.581524 75.003563 -23.004469 4294967295
-21.580976 76.716942 -23.233995 4294967295
-21.564854 75.32608 -22.943142 4294967295
-21.525547 77.844711 -23.03756 4294967295
-21.514744 71.984772 -23.175314 4294967295
-21.507477 73.546371 -23.341812 4294967295
-21.493193 72.776978 -23.147245 4294967295
-21.489176 72.156548 -23.0376 4294967295
-21.486635 72.936867 -23.127665 4294967295
-21.467804 73.260353 -23.053005 4294967295
-21.465797 74.507507 -23.209862 4294967295
-21.463371 74.820511 -23.237118 4294967295
-21.462225 75.288368 -23.293476 4294967295
-21.45863 74.044983 -23.101851 4294967295
-21.457449 71.864853 -22.798073 4294967295
-21.454935 74.358856 -23.121235 4294967295
-21.452402 77.941132 -23.592001 4294967295
-21.448332 78.410774 -23.630156 4294967295
-21.445623 75.766441 -23.253851 4294967295
-21.436716 76.55088 -23.304323 4294967295
-21.436434 77.01812 -23.36602 4294967295
-21.436201 76.23983 -23.258818 4294967295
-21.434195 77.330986 -23.394419 4294967295
-21.433233 77.487305 -23.409594 4294967295
-21.415987 75.630371 -23.048668 4294967295
-21.409048 76.102242 -23.069065 4294967295
-21.405165 75.949074 -23.023794 4294967295
-21.404875 76.416527 -23.085484 4294967295
-21.400856 78.287872 -23.314386 4294967295
-21.330626 72.778625 -23.124834 4294967295
-21.329737 73.246399 -23.182781 4294967295
-21.317387 74.344376 -23.254227 4294967295
-21.316612 73.877724 -23.185982 4294967295
-21.286869 74.519936 -23.086119 4294967295
-21.285744 75.610825 -23.227175 4294967295
-21.284927 74.988441 -23.137527 4294967295
-21.271339 77.800217 -23.433813 4294967295
-21.22934 78.451805 -23.258104 4294967295
-21.178343 72.150757 -23.081722 4294967295
-21.170549 74.335953 -23.329365 4294967295
-21.165775 74.494751 -23.320934 4294967295
-21.164581 73.405472 -23.165604 4294967295
-21.163946 74.807343 -23.351864 4294967295
-21.158443 73.253632 -23.106455 4294967295
-21.155245 75.747177 -23.424759 4294967295
-21.154484 75.124924 -23.335541 4294967295
-21.148001 72.792946 -22.978357 4294967295
-21.147137 72.637703 -22.951857 4294967295
-21.143965 73.885925 -23.101358 4294967295
-21.140123 73.732635 -23.056433 4294967295
-21.134838 76.694847 -23.425177 4294967295
-21.12657 77.32312 -23.458494 4294967295
-21.119192 72.499481 -22.757618 4294967295
-21.118242 78.418427 -23.554762 4294967295
-21.117611 76.083549 -23.234074 4294967295
-21.113043 74.684776 -23.015589 4294967295
-21.112947 73.126785 -22.803555 4294967295
-21.10371 77.805702 -23.380405 4294967295
-21.099354 77.652977 -23.332333 4294967295
-21.093155 78.124313 -23.357346 4294967295
-21.081005 77.042496 -23.134304 4294967295
-21.04406 71.97892 -23.213388 4294967295
-21.037565 72.450188 -23.236595 4294967295
-21.004116 71.848022 -22.94521 4294967295
-20.980196 76.84716 -23.473164 4294967295
-20.966129 74.987869 -23.132887 4294967295
-20.96423 78.103325 -23.543327 4294967295
-20.955933 75.46183 -23.133234 4294967295
-20.949749 77.023331 -23.306152 4294967295
-20.944912 78.42791 -23.466217 4294967295
-20.936245 75.318985 -22.990433 4294967295
-20.924217 76.573227 -23.08507 4294967295
-20.912197 77.515923 -23.137497 4294967295
-20.910372 77.20562 -23.083994 4294967295
-20.863043 73.549507 -23.288336 4294967295
-20.852789 72.309937 -23.056152 4294967295
-20.846348 74.961739 -23.3752 4294967295
-20.839012 74.187859 -23.224424 4294967295
-20.837927 74.655777 -23.281036 4294967295
-20.836779 75.123695 -23.337246 4294967295
-20.83366 72.010262 -22.895788 4294967295
-20.833345 74.035759 -23.168339 4294967295
-20.832834 73.10144 -23.038513 4294967295
-20.82382 77.000633 -23.510422 4294967295
-20.819706 73.888741 -23.06304 4294967295
-20.818487 77.78257 -23.582949 4294967295
-20.817818 74.357292 -23.114714 4294967295
-20.815218 78.096107 -23.604956 4294967295
-20.81465 72.645477 -22.862896 4294967295
-20.809074 73.739754 -22.976309 4294967295
-20.802889 73.276237 -22.874767 4294967295
-20.799564 76.394043 -23.276426 4294967295
-20.794378 77.487564 -23.392084 4294967295
-20.789925 75.777435 -23.132545 4294967295
