# .PCD v0.7 - Point Cloud Data file format
VERSION 0.7
FIELDS x y z rgb
SIZE 4 4 4 4
TYPE F F F U
COUNT 1 1 1 1
WIDTH 1147
HEIGHT 1
VIEWPOINT 0 0 0 1 0 0 0
POINTS 1147
DATA ascii
38.2314 100.13914 -18.247591 4294967295
38.253651 104.73454 -18.016079 4294967295
38.268223 101.28149 -18.230114 4294967295
38.279755 103.69082 -18.456207 4294967295
38.280766 100.96829 -18.144867 4294967295
38.281105 101.76951 -18.233978 4294967295
38.292427 101.45564 -18.153505 4294967295
38.29398 104.50002 -18.490976 4294967295
38.300236 100.49873 -18.014425 4294967295
38.306946 102.10488 -18.169067 4294967295
38.328831 102.7585 -18.155806 4294967295
38.334679 105.80567 -18.476467 4294967295
38.343658 102.44668 -18.061634 4294967295
38.343811 106.29169 -18.494995 4294967295
38.3447 100.84465 -17.876654 4294967295
38.355408 100.11573 -18.412815 4294967295
38.359501 101.65455 -17.909214 4294967295
38.380127 103.5898 -18.04563 4294967295
38.391869 101.73808 -18.451036 4294967295
38.40419 104.40535 -18.041979 4294967295
38.469677 101.30231 -18.092739 4294967295
38.478523 101.14715 -18.040092 4294967295
38.481419 103.07159 -18.245749 4294967295
38.48288 105.47527 -18.511129 4294967295
38.484711 104.51532 -18.395569 4294967295
38.485771 100.34998 -17.921328 4294967295
38.502762 102.28288 -18.071964 4294967295
38.506344 101.64392 -17.985624 4294967295
38.524704 105.01976 -18.293585 4294967295
38.525883 106.30209 -18.433563 4294967295
38.530163 103.9014 -18.14572 4294967295
38.531986 105.18433 -18.283218 4294967295
38.539021 105.82942 -18.328043 4294967295
38.562424 104.241 -18.055872 4294967295
38.567188 101.42361 -18.379583 4294967295
38.586231 101.75494 -18.341375 4294967295
38.593624 101.59901 -18.294449 4294967295
38.599232 102.72357 -18.399048 4294967295
38.608871 103.85043 -18.487892 4294967295
38.610878 102.89055 -18.371658 4294967295
38.611919 100.80843 -18.132662 4294967295
38.615406 102.09219 -18.263638 4294967295
38.621544 100.49343 -18.058931 4294967295
38.632473 100.98042 -18.070484 4294967295
38.643375 105.31243 -18.515841 4294967295
38.6441 106.27383 -18.621389 4294967295
38.656513 101.95573 -18.08511 4294967295
38.668915 102.44369 -18.090929 4294967295
38.672047 104.20814 -18.277521 4294967295
38.67255 105.4901 -18.420094 4294967295
38.674549 103.5687 -18.195469 4294967295
38.738697 100.30585 -18.232801 4294967295
38.750027 105.05576 -18.063637 4294967295
38.779655 100.00857 -18.036896 4294967295
38.811237 103.07133 -18.257063 4294967295
38.814774 102.75293 -18.20714 4294967295
38.838146 105.00985 -18.368942 4294967295
38.840939 101.00507 -17.906321 4294967295
38.847118 104.37428 -18.261726 4294967295
38.847897 105.49632 -18.38513 4294967295
38.858597 105.34251 -18.325375 4294967295
38.861298 103.90192 -18.152252 4294967295
38.877571 104.23206 -18.124958 4294967295
38.877979 103.43091 -18.033007 4294967295
38.888474 102.15458 -17.847496 4294967295
38.888927 106.32214 -18.315565 4294967295
38.917164 101.75526 -18.348059 4294967295
38.931065 100.8019 -18.185541 4294967295
38.93206 102.56487 -18.380327 4294967295
38.936073 101.12523 -18.202154 4294967295
38.93951 100.16571 -18.080368 4294967295
38.949497 103.85662 -18.456871 4294967295
38.966667 101.30299 -18.101027 4294967295
38.977669 101.62982 -18.094299 4294967295
38.983311 105.15821 -18.469643 4294967295
39.009544 103.57146 -18.186922 4294967295
39.010757 102.77084 -18.091883 4294967295
39.013565 100.52826 -17.827959 4294967295
39.017784 106.30032 -18.461834 4294967295
39.087215 105.54081 -18.101265 4294967295
39.092529 104.90276 -18.008322 4294967295
39.098469 101.60428 -18.271805 4294967295
39.10083 100.48394 -18.136198 4294967295
39.109688 106.03519 -18.06798 4294967295
39.117428 102.25613 -18.270247 4294967295
39.132236 100.18117 -17.977833 4294967295
39.135536 101.46529 -18.109486 4294967295
39.138393 103.87063 -18.369209 4294967295
39.143688 101.95078 -18.131945 4294967295
39.156059 104.84238 -18.408802 4294967295
39.164177 104.52675 -18.341125 4294967295
39.166943 100.68175 -17.89694 4294967295
39.169231 105.33089 -18.41172 4294967295
39.169907 101.80559 -18.011856 4294967295
39.186226 102.77679 -18.056726 4294967295
39.194218 104.22401 -18.188173 4294967295
39.194756 105.9871 -18.384668 4294967295
39.201595 106.15144 -18.376118 4294967295
39.202862 101.34354 -17.829411 4294967295
39.211052 105.51613 -18.267139 4294967295
39.215534 104.07629 -18.087198 4294967295
39.239559 103.44914 -17.921488 4294967295
39.241028 102.16722 -17.77124 4294967295
39.248028 102.49199 -17.780136 4294967295
39.275082 101.13004 -18.177853 4294967295
39.278545 105.71682 -18.022732 4294967295
39.291035 101.45968 -18.151939 4294967295
39.29908 100.82316 -18.048441 4294967295
39.301449 102.42724 -18.219782 4294967295
39.307648 103.23209 -18.28594 4294967295
39.317947 105.64157 -18.516588 4294967295
39.336483 103.56947 -18.209965 4294967295
39.34391 102.1312 -18.018618 4294967295
39.371647 101.02477 -17.784359 4294967295
39.391918 103.92256 -18.030663 4294967295
39.407818 105.05415 -18.095255 4294967295
39.42049 105.54264 -18.100189 4294967295
39.461319 100.18018 -17.992542 4294967295
39.46701 101.62606 -18.132889 4294967295
39.467041 102.26717 -18.204971 4294967295
39.477001 102.914 -18.238476 4294967295
39.480267 100.03054 -17.900883 4294967295
39.486607 103.88116 -18.309448 4294967295
39.493275 103.24401 -18.21139 4294967295
39.49369 102.44284 -18.11953 4294967295
39.494129 104.5266 -18.352423 4294967295
39.511406 101.1705 -17.906315 4294967295
39.514885 100.8518 -17.856695 4294967295
39.527584 101.98144 -17.933765 4294967295
39.528145 103.58495 -18.112108 4294967295
39.532299 105.19027 -18.27644 4294967295
39.534508 104.06958 -18.141544 4294967295
39.53804 104.87312 -18.218065 4294967295
39.538742 103.75146 -18.089018 4294967295
39.538769 101.02573 -17.781994 4294967295
39.546558 102.63374 -17.932304 4294967295
39.546974 105.67985 -18.273615 4294967295
39.549099 104.23847 -18.102957 4294967295
39.551308 102.15543 -17.859703 4294967295
39.561947 104.72699 -18.107239 4294967295
39.566345 106.01202 -18.234533 4294967295
39.56908 105.53277 -18.169781 4294967295
39.58643 103.13795 -17.831673 4294967295
39.622543 104.4421 -17.83593 4294967295
39.623657 105.40498 -17.939939 4294967295
39.65612 103.56318 -18.261484 4294967295
39.684517 101.65592 -17.934816 4294967295
39.710087 102.95338 -17.980009 4294967295
39.761276 105.22823 -18.034153 4294967295
39.770927 106.03569 -18.08696 4294967295
39.791187 100.50024 -18.040474 4294967295
39.806072 103.07346 -18.271385 4294967295
39.821133 104.68494 -18.393349 4294967295
39.827087 100.03945 -17.847178 4294967295
39.83186 100.20249 -17.846724 4294967295
39.834236 101.32629 -17.963833 4294967295
39.834278 103.89132 -18.252285 4294967295
39.841389 102.45271 -18.062401 4294967295
39.845921 99.889656 -17.756113 4294967295
39.849945 104.86224 -18.299797 4294967295
39.855797 102.30068 -17.988523 4294967295
39.860306 104.06687 -18.169491 4294967295
39.869148 101.50655 -17.846567 4294967295
39.871719 105.03542 -18.233484 4294967295
39.874706 103.75467 -18.077629 4294967295
39.877029 105.51947 -18.267023 4294967295
39.877941 101.83233 -17.848581 4294967295
39.881466 102.79655 -17.94319 4294967295
39.895157 101.04019 -17.691612 4294967295
39.90477 103.45152 -17.925077 4294967295
39.911026 106.34132 -18.225542 4294967295
39.922264 106.18775 -18.163982 4294967295
39.935425 105.71461 -18.058912 4294967295
39.962608 105.41006 -17.917555 4294967295
39.967068 104.28992 -17.773962 4294967295
39.969166 104.61198 -17.801937 4294967295
39.971046 101.79095 -18.132944 4294967295
39.980541 106.06231 -17.920273 4294967295
39.989494 105.26565 -17.795376 4294967295
40.073273 101.52861 -17.701103 4294967295
40.076504 100.56787 -17.580318 4294967295
40.102871 104.11221 -17.875221 4294967295
40.1054 102.50957 -17.685001 4294967295
40.107338 103.15237 -17.74968 4294967295
40.112728 102.19291 -17.620548 4294967295
40.113052 106.20312 -18.070288 4294967295
40.121273 103.00003 -17.67771 4294967295
40.127563 104.76832 -17.851826 4294967295
40.136814 104.29252 -17.761909 4294967295
40.141426 103.71743 -18.334238 4294967295
40.14201 101.15284 -18.04356 4294967295
40.148861 100.67569 -17.962973 4294967295
40.154053 104.94437 -17.767368 4294967295
40.171352 102.29196 -18.056297 4294967295
40.172825 101.00996 -17.906355 4294967295
40.173679 103.09497 -18.137438 4294967295
40.178825 104.22019 -18.243715 4294967295
40.183823 103.58184 -18.152304 4294967295
40.185875 100.21541 -17.765678 4294967295
40.202576 102.791 -17.989655 4294967295
40.20652 101.67064 -17.848171 4294967295
40.20742 100.06709 -17.664291 4294967295
40.208046 100.54869 -17.716005 4294967295
40.215305 100.87362 -17.724007 4294967295
40.220779 104.08445 -18.063507 4294967295
40.228176 101.52258 -17.74638 4294967295
40.229855 105.21221 -18.154625 4294967295
40.23452 103.29062 -17.92024 4294967295
40.235035 102.48895 -17.828077 4294967295
40.238079 103.45306 -17.924513 4294967295
40.241623 101.85109 -17.73045 4294967295
40.251179 104.423 -17.982059 4294967295
40.252613 105.38605 -18.084692 4294967295
40.255482 105.06703 -18.037537 4294967295
40.256897 106.03002 -18.140232 4294967295
40.267868 105.87621 -18.079807 4294967295
40.280766 102.67572 -17.669277 4294967295
40.29015 103.96464 -17.777308 4294967295
40.377319 104.72071 -18.174376 4294967295
40.43998 106.04071 -18.076611 4294967295
40.452095 103.3209 -17.723366 4294967295
40.452385 103.96281 -17.794376 4294967295
40.452759 104.44431 -17.847023 4294967295
40.455513 102.03921 -17.565876 4294967295
40.469322 100.02831 -17.939625 4294967295
40.471432 105.57825 -17.901127 4294967295
40.474548 100.67271 -17.991543 4294967295
40.476479 106.38331 -17.971764 4294967295
40.477592 104.61932 -17.769161 4294967295
40.478672 105.74297 -17.891201 4294967295
40.506588 100.36997 -17.831823 4294967295
40.520203 102.30234 -17.99555 4294967295
40.525948 101.1829 -17.847212 4294967295
40.529587 100.5433 -17.761066 4294967295
40.53233 105.67665 -18.327078 4294967295
40.536652 105.03791 -18.238365 4294967295
40.540825 101.99337 -17.879919 4294967295
40.541611 101.03135 -17.76873 4294967295
40.551163 103.60322 -18.020247 4294967295
40.557533 101.68208 -17.779377 4294967295
40.560112 102.64604 -17.877586 4294967295
40.56245 102.9682 -17.904608 4294967295
40.563347 105.85542 -18.22547 4294967295
40.569599 100.24488 -17.570538 4294967295
40.572113 103.13419 -17.885353 4294967295
40.592896 104.91072 -18.003403 4294967295
40.608368 104.27818 -17.871645 4294967295
40.625244 102.20209 -17.572165 4294967295
40.648685 103.98085 -17.680054 4294967295
40.649124 104.14157 -17.696388 4294967295
40.651386 102.28273 -18.132061 4294967295
40.68866 104.8698 -18.276539 4294967295
40.695721 101.50613 -17.871052 4294967295
40.728039 101.36404 -17.728422 4294967295
40.752068 100.09381 -17.491556 4294967295
40.757885 106.19363 -18.153889 4294967295
40.775169 100.17457 -18.062775 4294967295
40.783695 103.64223 -17.76619 4294967295
40.78616 104.60633 -17.864805 4294967295
40.78809 105.24918 -17.929436 4294967295
40.792843 103.32662 -17.694895 4294967295
40.799862 105.89784 -17.956144 4294967295
40.808113 105.42145 -17.870302 4294967295
40.81218 103.81925 -17.674425 4294967295
40.815723 100.03685 -17.888531 4294967295
40.828262 106.39606 -17.900784 4294967295
40.832645 101.48991 -17.985455 4294967295
40.835899 100.52936 -17.864851 4294967295
40.84301 101.81658 -17.981558 4294967295
40.854881 103.4272 -18.115917 4294967295
40.856483 102.46584 -18.001703 4294967295
40.862537 105.61414 -17.678644 4294967295
40.863174 103.27162 -18.065987 4294967295
40.867104 102.31152 -17.942804 4294967295
40.881786 103.60317 -18.030342 4294967295
40.887196 106.01189 -18.279585 4294967295
40.896473 99.921455 -17.559402 4294967295
40.897713 104.89557 -18.113085 4294967295
40.91008 103.94042 -17.957418 4294967295
40.910873 106.34673 -18.224455 4294967295
40.91407 104.74479 -18.032116 4294967295
40.91571 101.37656 -17.647493 4294967295
40.915936 102.98125 -17.826813 4294967295
40.917809 101.05679 -17.603374 4294967295
40.918156 102.01982 -17.710157 4294967295
40.919983 100.73705 -17.558962 4294967295
40.957119 102.8445 -17.650202 4294967295
40.973106 101.15499 -18.050066 4294967295
40.974789 104.13857 -17.726324 4294967295
40.99168 101.00508 -17.960598 4294967295
41.01223 106.24677 -17.816397 4294967295
41.078651 105.70674 -18.148142 4294967295
41.087093 104.10762 -17.935652 4294967295
41.088928 101.70185 -17.658445 4294967295
41.102745 105.88142 -18.0735 4294967295
41.113998 101.55557 -17.543964 4294967295
41.121281 104.28799 -17.822189 4294967295
41.12957 104.4533 -17.808317 4294967295
41.130291 105.41645 -17.913584 4294967295
41.138306 105.10027 -17.846752 4294967295
41.14323 106.38678 -17.971861 4294967295
41.154236 101.64498 -18.048231 4294967295
41.161026 101.32803 -17.986132 4294967295
41.162636 100.36646 -17.871927 4294967295
41.176201 103.26138 -18.143778 4294967295
41.178829 106.08705 -17.799004 4294967295
41.187935 99.899246 -17.72064 4294967295
41.20892 103.11985 -18.000061 4294967295
41.210644 103.76247 -18.065426 4294967295
41.210888 102.15843 -17.884481 4294967295
41.214031 102.96237 -17.962421 4294967295
41.218498 100.87912 -17.711201 4294967295
41.232761 102.65226 -17.854439 4294967295
41.234497 103.45545 -17.937777 4294967295
41.235607 106.18298 -18.239435 4294967295
41.245499 100.25228 -17.535355 4294967295
41.246433 100.57382 -17.567787 4294967295
41.247448 102.50021 -17.779991 4294967295
41.259762 101.22333 -17.588594 4294967295
41.278919 103.6416 -17.785091 4294967295
41.287716 104.93044 -17.895329 4294967295
41.292274 102.36534 -17.589718 4294967295
41.317783 104.30612 -17.7078 4294967295
41.358788 101.82755 -17.920622 4294967295
41.409489 102.0168 -17.743956 4294967295
41.420727 102.82559 -17.790813 4294967295
41.423878 104.27155 -17.940691 4294967295
41.430561 104.59634 -17.951025 4294967295
41.433834 103.31455 -17.794485 4294967295
41.444214 102.35756 -17.646635 4294967295
41.449379 103.16302 -17.716825 4294967295
41.451046 105.25015 -17.944405 4294967295
41.452789 106.21385 -18.045668 4294967295
41.474277 101.41143 -17.423155 4294967295
41.478123 105.58704 -17.876492 4294967295
41.48954 105.91473 -17.868679 4294967295
41.51017 101.01735 -17.889353 4294967295
41.51722 105.4496 -17.708475 4294967295
41.521523 104.97056 -17.637964 4294967295
41.543594 102.64072 -17.941057 4294967295
41.545521 103.92527 -18.07757 4294967295
41.546028 101.51892 -17.805777 4294967295
41.546154 100.71661 -17.715313 4294967295
41.546249 102.32134 -17.894894 4294967295
41.548561 103.44576 -18.011961 4294967295
41.551571 102.00346 -17.838495 4294967295
41.556362 104.73365 -18.125937 4294967295
41.556931 100.08064 -17.601978 4294967295
41.575222 106.18842 -18.215488 4294967295
41.585453 101.22018 -17.618547 4294967295
41.666283 103.67419 -17.578568 4294967295
41.671631 102.8745 -17.468039 4294967295
41.67305 100.53447 -17.849983 4294967295
41.704174 101.35425 -17.820663 4294967295
41.719231 100.39975 -17.655012 4294967295
41.727802 101.84903 -17.784092 4294967295
41.740005 105.38605 -18.13299 4294967295
41.747177 102.66248 -17.799807 4294967295
41.752903 100.73959 -17.561953 4294967295
41.75898 100.90353 -17.556652 4294967295
41.765167 101.22807 -17.568943 4294967295
41.766937 103.95771 -17.868017 4294967295
41.769855 102.51492 -17.694925 4294967295
41.769897 104.60133 -17.928617 4294967295
41.782497 104.12721 -17.826406 4294967295
41.786354 103.32693 -17.721678 4294967295
41.82917 103.51212 -17.575668 4294967295
41.841805 105.12486 -17.707199 4294967295
41.862938 101.18992 -17.833172 4294967295
41.865517 101.67278 -17.877258 4294967295
41.877693 100.23521 -17.668768 4294967295
41.878902 105.9494 -17.655102 4294967295
41.88018 106.27125 -17.686188 4294967295
41.889282 103.61186 -18.00206 4294967295
41.891777 100.08251 -17.596848 4294967295
41.916939 103.30685 -17.860264 4294967295
41.921917 102.02568 -17.697334 4294967295
41.93615 104.92276 -17.966564 4294967295
41.943729 105.56908 -18.009478 4294967295
41.951653 102.84522 -17.67346 4294967295
41.955486 105.73647 -17.982477 4294967295
41.967762 104.2992 -17.773699 4294967295
41.986839 104.79186 -17.75465 4294967295
41.99268 100.36749 -17.884798 4294967295
41.996178 104.47623 -17.682966 4294967295
42.024117 100.86645 -17.818499 4294967295
42.024658 101.99007 -17.942255 4294967295
42.034664 105.46203 -17.643644 4294967295
42.046314 102.3233 -17.895401 4294967295
42.072258 102.81953 -17.850151 4294967295
42.077362 101.69888 -17.704777 4294967295
42.077847 100.09377 -17.523077 4294967295
42.080368 104.58946 -18.016861 4294967295
42.088852 104.75487 -18.002413 4294967295
42.098259 101.87121 -17.642843 4294967295
42.100143 102.5144 -17.707575 4294967295
42.107727 103.80289 -17.822416 4294967295
42.107788 103.16087 -17.750265 4294967295
42.131245 105.90308 -17.966215 4294967295
42.132477 101.40881 -17.458036 4294967295
42.135872 101.08955 -17.409075 4294967295
42.136528 100.60812 -17.352589 4294967295
42.14476 103.02149 -17.590937 4294967295
42.145172 104.46664 -17.751202 4294967295
42.156384 106.23892 -17.906101 4294967295
42.159626 105.59878 -17.821806 4294967295
42.160885 102.22779 -17.439356 4294967295
42.161812 106.40264 -17.903339 4294967295
42.170475 100.85566 -17.89641 4294967295
42.171764 101.59152 -17.325796 4294967295
42.172047 104.16113 -17.612518 4294967295
42.193897 103.53142 -17.457058 4294967295
42.200577 102.15639 -17.92519 4294967295
42.212334 105.30861 -17.584429 4294967295
42.231747 100.40828 -17.608379 4294967295
42.235878 103.1394 -17.898186 4294967295
42.247589 105.81109 -17.503666 4294967295
42.258305 101.3864 -17.614796 4294967295
42.268055 103.47887 -17.811247 4294967295
42.270832 102.35675 -17.67481 4294967295
42.286827 100.27829 -17.379938 4294967295
42.302704 103.65932 -17.696903 4294967295
42.324429 103.99295 -17.649895 4294967295
42.348389 104.80968 -17.648291 4294967295
42.366776 101.35428 -17.837538 4294967295
42.379021 103.38198 -17.369499 4294967295
42.385967 106.27687 -17.666634 4294967295
42.38998 100.56464 -17.659115 4294967295
42.391781 102.49191 -17.867887 4294967295
42.413986 105.81161 -17.505743 4294967295
42.414799 101.54177 -17.672232 4294967295
42.422764 100.42229 -17.516003 4294967295
42.423119 102.83076 -17.784246 4294967295
42.428024 105.56212 -18.070925 4294967295
42.433479 103.96035 -17.870487 4294967295
42.437107 104.76499 -17.94647 4294967295
42.440159 103.32209 -17.773148 4294967295
42.440693 103.64346 -17.807047 4294967295
42.448982 101.23982 -17.505829 4294967295
42.450462 102.6858 -17.661951 4294967295
42.452328 102.36573 -17.618889 4294967295
42.45797 105.25867 -17.920797 4294967295
42.469185 102.05412 -17.518621 4294967295
42.46941 103.49941 -17.679527 4294967295
42.473045 106.39109 -17.989052 4294967295
42.48843 105.91862 -17.876493 4294967295
42.49028 105.11702 -17.779617 4294967295
42.493504 100.94349 -17.299948 4294967295
42.50156 104.16019 -17.628769 4294967295
42.50948 101.75562 -17.32889 4294967295
42.510792 104.96842 -17.683411 4294967295
42.519566 103.8494 -17.524137 4294967295
42.569298 104.52061 -17.406338 4294967295
42.576591 100.89735 -17.619593 4294967295
42.579029 100.73814 -17.592329 4294967295
42.59444 100.10436 -17.461689 4294967295
42.630344 104.46004 -17.809956 4294967295
42.643085 106.23332 -17.958973 4294967295
42.64616 104.62976 -17.767651 4294967295
42.660645 101.2655 -17.335081 4294967295
42.661217 100.62324 -17.26099 4294967295
42.680279 103.04351 -17.45796 4294967295
42.732567 100.08905 -17.571222 4294967295
42.744308 105.65054 -17.501526 4294967295
42.762093 105.82162 -17.451736 4294967295
42.763847 101.8728 -17.649677 4294967295
42.766636 103.80102 -17.854568 4294967295
42.767849 106.04888 -18.101278 4294967295
42.774197 100.27265 -17.430595 4294967295
42.77512 100.75499 -17.480991 4294967295
42.776642 101.39824 -17.54706 4294967295
42.780949 101.72184 -17.566586 4294967295
42.791389 102.2095 -17.580727 4294967295
42.800655 102.69652 -17.599327 4294967295
42.803261 104.94597 -17.840845 4294967295
42.820698 103.67149 -17.6308 4294967295
42.827255 104.79935 -17.731567 4294967295
42.836872 103.35956 -17.533298 4294967295
42.839306 102.3972 -17.416227 4294967295
42.842636 105.93232 -17.798735 4294967295
42.853668 104.33287 -17.577145 4294967295
42.854057 105.77845 -17.737316 4294967295
42.873997 104.66587 -17.535696 4294967295
42.913048 104.52784 -17.36908 4294967295
42.922852 100.90553 -17.571899 4294967295
42.97002 104.46501 -17.787521 4294967295
42.992661 105.60213 -17.827095 4294967295
43.039257 102.41653 -17.290716 4294967295
43.063976 100.08889 -17.580116 4294967295
43.076504 105.16921 -17.454468 4294967295
43.086849 105.01456 -17.397161 4294967295
43.116222 101.2421 -17.507196 4294967295
43.121498 100.92378 -17.451233 4294967295
43.130531 105.42544 -17.919535 4294967295
43.135624 101.5742 -17.46937 4294967295
43.135818 104.30457 -17.773823 4294967295
43.148602 104.95427 -17.797052 4294967295
43.1572 102.3895 -17.477158 4294967295
43.164574 101.91171 -17.395269 4294967295
43.176762 102.88249 -17.456701 4294967295
43.178997 105.29311 -17.717503 4294967295
43.191807 103.85493 -17.50728 4294967295
43.193474 102.57065 -17.357273 4294967295
43.19379 104.81987 -17.607464 4294967295
43.194569 103.21392 -17.424957 4294967295
43.201889 103.70007 -17.451008 4294967295
43.208954 106.27426 -17.711424 4294967295
43.238888 102.2749 -17.148767 4294967295
43.245754 101.79658 -17.068768 4294967295
43.251175 102.12109 -17.08411 4294967295
43.296677 106.38908 -18.030083 4294967295
43.31176 106.23741 -17.954927 4294967295
43.32085 101.42439 -17.38205 4294967295
43.322525 104.47733 -17.716732 4294967295
43.327171 100.30315 -17.232347 4294967295
43.338051 103.52253 -17.55014 4294967295
43.343731 103.20448 -17.492668 4294967295
43.355267 105.45995 -17.700169 4294967295
43.389538 105.15862 -17.534235 4294967295
43.401329 102.11224 -17.148335 4294967295
43.409241 102.59888 -17.172178 4294967295
43.431427 103.73657 -17.21368 4294967295
43.44178 104.3854 -17.246223 4294967295
43.44186 104.064 -17.210009 4294967295
43.46096 102.94965 -17.011772 4294967295
43.491081 104.80024 -17.746592 4294967295
43.494347 100.30382 -17.231722 4294967295
43.501713 100.62929 -17.239683 4294967295
43.515076 103.047 -17.458252 4294967295
43.528244 105.62489 -17.695423 4294967295
43.531494 103.217 -17.413944 4294967295
43.533642 104.18224 -17.513485 4294967295
43.554306 104.51546 -17.471027 4294967295
43.569809 102.91734 -17.232752 4294967295
43.58136 101.63792 -17.045292 4294967295
43.581497 101.79876 -17.062733 4294967295
43.591225 102.60799 -17.115637 4294967295
43.604042 102.13293 -17.013151 4294967295
43.610466 103.42265 -17.13246 4294967295
43.652939 101.51708 -16.755836 4294967295
43.686172 105.94167 -17.765697 4294967295
43.694874 106.268 -17.768616 4294967295
43.717838 103.71078 -17.394651 4294967295
43.723797 105.803 -17.60531 4294967295
43.730808 100.82492 -17.022425 4294967295
43.734386 104.68443 -17.439638 4294967295
43.734531 100.50543 -16.972395 4294967295
43.738365 105.0081 -17.460449 4294967295
43.738785 105.65107 -17.530624 4294967295
43.739487 102.27656 -17.151119 4294967295
43.763992 102.4511 -17.076229 4294967295
43.775856 103.90464 -17.192852 4294967295
43.776375 104.06568 -17.208838 4294967295
43.777321 101.49387 -16.917988 4294967295
43.782394 105.19431 -17.311665 4294967295
43.78347 105.35566 -17.325539 4294967295
43.800323 103.27552 -17.028357 4294967295
43.80196 104.2411 -17.129883 4294967295
43.804115 101.83044 -16.852388 4294967295
43.831657 102.97167 -16.873745 4294967295
43.837471 101.04479 -16.636164 4294967295
43.850426 101.21285 -16.605045 4294967295
43.859287 101.70042 -16.625366 4294967295
43.878433 102.03288 -16.588762 4294967295
43.883068 104.67461 -17.509233 4294967295
43.89814 105.32605 -17.523954 4294967295
43.921501 100.03452 -16.843361 4294967295
43.945953 106.15739 -17.432774 4294967295
43.946098 101.17378 -16.875921 4294967295
43.952572 102.30305 -16.977079 4294967295
43.975399 103.44153 -17.016346 4294967295
43.986904 104.89521 -17.134342 4294967295
43.989693 100.71537 -16.657015 4294967295
44.043453 101.06686 -16.489412 4294967295
44.049908 103.8056 -16.770311 4294967295
44.051495 106.12226 -17.66548 4294967295
44.055668 100.3386 -17.004034 4294967295
44.069275 105.97197 -17.580368 4294967295
44.071739 103.01358 -16.597908 4294967295
44.072498 99.865425 -16.886522 4294967295
44.087074 105.66095 -17.477253 4294967295
44.098263 104.54235 -17.309437 4294967295
44.098686 104.86407 -17.343712 4294967295
44.121922 101.34002 -16.861143 4294967295
44.139526 105.53069 -17.261112 4294967295
44.139805 101.1891 -16.775557 4294967295
44.149178 105.85782 -17.260521 4294967295
44.153618 104.09176 -17.046396 4294967295
44.163403 104.74058 -17.081179 4294967295
44.166416 102.65159 -16.836491 4294967295
44.169716 105.38741 -17.129095 4294967295
44.170563 100.72349 -16.60537 4294967295
44.179565 105.0715 -17.05599 4294967295
44.195545 102.34623 -16.690456 4294967295
44.20496 101.70792 -16.583035 4294967295
44.219906 104.45138 -16.831745 4294967295
44.226444 101.07616 -16.429945 4294967295
44.230186 103.49198 -16.685177 4294967295
44.234138 103.33333 -16.652277 4294967295
44.281532 104.23085 -17.212677 4294967295
44.284477 100.69471 -16.806885 4294967295
44.300259 106.01005 -17.33922 4294967295
44.301739 105.20709 -17.243994 4294967295
44.347206 100.40742 -16.533964 4294967295
44.37011 105.08576 -16.967937 4294967295
44.386803 103.96931 -16.779308 4294967295
44.390591 106.28753 -17.664848 4294967295
44.405273 100.60025 -16.332527 4294967295
44.40657 105.65405 -17.532923 4294967295
44.422493 103.5069 -16.590687 4294967295
44.448338 105.83904 -17.393339 4294967295
44.457985 103.68798 -16.474598 4294967295
44.458908 106.16668 -17.389324 4294967295
44.482784 100.7124 -16.689503 4294967295
44.516365 100.40903 -16.526857 4294967295
44.518982 104.7543 -17.00141 4294967295
44.552086 104.12981 -16.804798 4294967295
44.564949 105.4242 -16.899784 4294967295
44.595348 104.63725 -16.695435 4294967295
44.700291 104.28055 -16.894688 4294967295
44.704769 104.92658 -16.94953 4294967295
44.709362 105.25095 -16.96809 4294967295
44.724464 106.38569 -17.036701 4294967295
44.732876 105.74714 -16.933294 4294967295
44.738632 104.62424 -16.786072 4294967295
44.799667 106.1721 -17.365349 4294967295
44.898247 105.58597 -16.922686 4294967295
44.950245 106.09881 -16.780781 4294967295
44.951035 104.81177 -16.634344 4294967295
44.958244 105.13781 -16.643087 4294967295
45.023384 105.72327 -17.099249 4294967295
45.030056 106.37052 -17.145824 4294967295
45.05872 106.22634 -17.020145 4294967295
45.121681 105.29729 -16.675896 4294967295
45.146248 105.63338 -16.619379 4294967295
45.41489 106.24052 -16.939539 4294967295
45.473545 106.11359 -16.701557 4294967295
45.49194 105.80226 -16.596706 4294967295
45.672508 105.97166 -16.565529 4294967295
45.71365 105.67332 -16.375475 4294967295
45.7145 105.83486 -16.390209 4294967295
45.814945 106.28003 -16.695177 4294967295
46.011986 106.29798 -16.584633 4294967295
46.057938 106.16349 -16.394838 4294967295
53.29026 106.36817 -16.369942 4294967295
53.363689 106.24738 -16.088953 4294967295
53.836433 105.90901 -16.169271 4294967295
53.86359 106.08551 -16.089884 4294967295
54.012203 106.07545 -16.160561 4294967295
54.069122 105.78361 -15.921842 4294967295
54.220074 105.45165 -15.948913 4294967295
54.220409 105.93662 -16.000799 4294967295
54.321041 105.57716 -16.207216 4294967295
54.339787 106.39517 -16.228813 4294967295
54.423195 106.11793 -15.896094 4294967295
54.441277 105.15794 -15.725451 4294967295
54.443451 105.80576 -15.78848 4294967295
54.475189 106.21632 -16.328712 4294967295
54.505459 106.07142 -16.20323 4294967295
54.514004 105.75298 -16.13744 4294967295
54.525707 104.95143 -16.007322 4294967295
54.570732 105.1375 -15.864624 4294967295
54.59486 105.63558 -15.831749 4294967295
54.648705 105.73535 -16.257505 4294967295
54.688454 99.938004 -15.479272 4294967295
54.689938 106.08106 -16.146135 4294967295
54.718403 104.6421 -15.885709 4294967295
54.734901 100.1236 -15.331524 4294967295
54.753078 104.49917 -15.744606 4294967295
54.759438 99.888504 -15.826335 4294967295
54.782494 104.83842 -15.675286 4294967295
54.802425 100.39552 -15.72642 4294967295
54.841068 104.77973 -16.066364 4294967295
54.846062 105.91357 -16.172335 4294967295
54.864109 100.10393 -15.471541 4294967295
54.866741 104.63199 -15.957407 4294967295
54.867195 103.98571 -15.885067 4294967295
54.891663 106.10014 -16.027914 4294967295
54.908722 100.77383 -15.383579 4294967295
54.911957 105.14138 -15.849691 4294967295
54.914459 105.78935 -15.91151 4294967295
54.939632 104.34795 -15.662852 4294967295
54.945663 103.86607 -15.588347 4294967295
54.955463 99.903191 -15.728234 4294967295
54.957817 104.51945 -15.615884 4294967295
55.024567 105.59669 -16.101358 4294967295
55.064072 100.12062 -15.359804 4294967295
55.070183 100.609 -15.391163 4294967295
55.082329 103.20294 -15.631009 4294967295
55.094963 101.10708 -15.356148 4294967295
55.096684 103.69571 -15.633055 4294967295
55.121094 100.71052 -15.826732 4294967295
55.124638 100.5507 -15.796467 4294967295
55.146984 100.40056 -15.699434 4294967295
55.157715 101.53778 -15.785067 4294967295
55.163002 105.25797 -16.172705 4294967295
55.172272 103.9701 -15.998478 4294967295
55.172462 104.45506 -16.050812 4294967295
55.177433 103.00302 -15.874132 4294967295
55.179039 105.75147 -16.168798 4294967295
55.183601 102.68298 -15.816889 4294967295
55.196815 101.23476 -15.610861 4294967295
55.217739 104.96437 -15.943137 4294967295
55.226486 100.92672 -15.47014 4294967295
55.236263 101.90218 -15.541528 4294967295
55.236515 106.26775 -16.01787 4294967295
55.243443 103.84649 -15.728202 4294967295
55.252213 105.95303 -15.92684 4294967295
55.255379 105.63142 -15.880264 4294967295
55.255547 104.17636 -15.720596 4294967295
55.25935 102.23775 -15.494923 4294967295
55.26519 100.69851 -15.913258 4294967295
55.276001 104.83417 -15.718711 4294967295
55.290218 106.20573 -16.42495 4294967295
55.301384 102.42159 -15.363378 4294967295
55.305737 100.07276 -15.698707 4294967295
55.308769 105.40804 -16.270912 4294967295
55.323032 104.12297 -16.079071 4294967295
55.364059 103.65997 -15.880592 4294967295
55.405731 105.29901 -15.909522 4294967295
55.412395 103.03887 -15.638499 4294967295
55.430801 101.59286 -15.414098 4294967295
55.431484 99.889763 -15.832667 4294967295
55.478611 100.23723 -15.700937 4294967295
55.493153 101.53819 -15.790753 4294967295
55.49675 105.25782 -16.18421 4294967295
55.496853 103.96493 -16.042585 4294967295
55.510571 100.73876 -15.640673 4294967295
55.512451 103.00333 -15.88136 4294967295
55.521515 103.16979 -15.86691 4294967295
55.539471 100.1826 -16.082277 4294967295
55.54121 100.9163 -15.549747 4294967295
55.546982 104.80005 -15.953325 4294967295
55.553829 101.89322 -15.611053 4294967295
55.556324 103.34993 -15.761247 4294967295
55.557732 103.51237 -15.773921 4294967295
55.557919 102.2188 -15.631904 4294967295
55.564991 101.09033 -15.48313 4294967295
55.576576 104.6543 -15.830828 4294967295
55.579208 104.49403 -15.803843 4294967295
55.579819 101.42153 -15.465924 4294967295
55.584915 106.11395 -15.960274 4294967295
55.587776 102.55794 -15.561457 4294967295
55.596272 104.17976 -15.708063 4294967295
55.597137 100.05051 -15.860402 4294967295
55.622284 102.32652 -16.018581 4294967295
55.624378 105.72123 -16.381826 4294967295
55.62529 99.903229 -15.743028 4294967295
55.627907 102.41726 -15.401576 4294967295
55.669312 101.38108 -15.746119 4294967295
55.669323 100.41087 -15.640094 4294967295
55.683468 105.43011 -16.137459 4294967295
55.690605 106.40372 -16.218117 4294967295
55.696335 105.11379 -16.056625 4294967295
55.696381 106.24526 -16.180035 4294967295
55.761055 101.34187 -16.017883 4294967295
55.768574 102.88852 -15.553701 4294967295
55.787582 101.67892 -15.959344 4294967295
55.804535 103.46587 -16.093559 4294967295
55.809155 104.7613 -16.218399 4294967295
55.814529 104.60258 -16.181751 4294967295
55.814846 106.21877 -16.357073 4294967295
55.817917 102.98802 -15.993291 4294967295
55.825901 106.3864 -16.335648 4294967295
55.828205 105.74125 -16.256929 4294967295
55.829193 101.86226 -15.829826 4294967295
55.832336 105.09702 -16.171749 4294967295
55.836334 101.54259 -15.769251 4294967295
55.837326 102.02819 -15.818709 4294967295
55.843567 100.73779 -15.655366 4294967295
55.844654 105.2653 -16.145853 4294967295
55.846802 105.42809 -16.155903 4294967295
55.855927 104.13981 -15.98245 4294967295
55.860996 102.52567 -15.787971 4294967295
55.864677 104.95281 -16.03977 4294967295
55.866039 104.46855 -15.981998 4294967295
55.86808 101.23562 -15.621635 4294967295
55.878872 102.37333 -15.707088 4294967295
55.880539 103.34447 -15.807155 4294967295
55.880665 100.18591 -16.067183 4294967295
55.887409 100.67421 -16.096285 4294967295
55.906456 103.68165 -15.750829 4294967295
55.908443 104.00614 -15.779107 4294967295
55.911991 106.11012 -15.996088 4294967295
55.919231 100.04398 -15.913216 4294967295
55.921463 105.9536 -15.944955 4294967295
55.959839 101.19649 -15.893246 4294967295
55.965084 103.13908 -16.086493 4294967295
55.970772 102.65714 -16.01346 4294967295
55.971996 101.68781 -15.903236 4294967295
55.987202 103.47408 -16.043644 4294967295
55.990887 100.88914 -15.748209 4294967295
55.991272 102.18288 -15.888069 4294967295
56.05381 103.83279 -15.843643 4294967295
56.079727 104.17002 -15.787404 4294967295
56.082035 101.42145 -15.479062 4294967295
56.086563 102.87972 -15.622008 4294967295
56.094822 100.85645 -15.976502 4294967295
56.100479 101.5928 -15.431538 4294967295
56.119659 100.2225 -15.818213 4294967295
56.139183 106.37514 -16.419611 4294967295
56.145267 104.11581 -16.151257 4294967295
56.14772 103.79383 -16.107334 4294967295
56.149132 104.76442 -16.208183 4294967295
56.149235 105.89581 -16.331253 4294967295
56.152298 102.8263 -15.985319 4294967295
56.152733 103.14986 -16.019072 4294967295
56.1562 105.41473 -16.253786 4294967295
56.175056 101.2212 -15.728506 4294967295
56.184563 101.06438 -15.677293 4294967295
56.184635 100.41745 -15.606415 4294967295
56.191502 102.20006 -15.776343 4294967295
56.19371 104.62667 -16.033236 4294967295
56.195732 105.27443 -16.096663 4294967295
56.20356 106.08697 -16.157249 4294967295
56.205658 101.5605 -15.655759 4294967295
56.212994 103.50509 -15.841678 4294967295
56.226265 99.868126 -16.001545 4294967295
56.228367 100.83904 -16.099962 4294967295
56.257542 103.36691 -15.666804 4294967295
56.260098 100.20869 -15.917464 4294967295
56.264668 102.07647 -15.500403 4294967295
56.280605 100.54253 -15.880409 4294967295
56.286552 104.35289 -15.670331 4294967295
56.309414 101.8509 -15.919922 4294967295
56.36372 104.78988 -16.04594 4294967295
56.378685 103.01907 -15.799126 4294967295
56.393017 106.09914 -16.083773 4294967295
56.400452 102.54527 -15.669436 4294967295
56.401443 103.67802 -15.789462 4294967295
56.409645 104.00584 -15.795839 4294967295
56.443508 105.15616 -15.79997 4294967295
56.447266 103.4521 -16.204563 4294967295
56.447968 106.03826 -16.484087 4294967295
56.455429 102.32482 -16.052385 4294967295
56.466301 102.65384 -16.049362 4294967295
56.483143 103.30938 -16.060555 4294967295
56.486252 102.98766 -16.014336 4294967295
56.489761 104.9295 -16.213547 4294967295
56.499199 101.37738 -15.792337 4294967295
56.499268 101.70086 -15.827389 4294967295
56.501446 103.80408 -16.048985 4294967295
56.506634 105.58517 -16.224646 4294967295
56.509792 103.64682 -16.001947 4294967295
56.513897 105.10412 -16.146179 4294967295
56.525032 104.46337 -16.036442 4294967295
56.537453 101.07362 -15.622245 4294967295
56.54295 102.85573 -15.796956 4294967295
56.551167 102.53654 -15.73273 4294967295
56.553589 102.2143 -15.688908 4294967295
56.554337 100.75874 -15.527449 4294967295
56.561485 103.18895 -15.766943 4294967295
56.562229 105.45351 -16.011234 4294967295
56.580826 101.00978 -16.063404 4294967295
56.585335 102.06905 -15.559402 4294967295
56.596443 102.6344 -16.184706 4294967295
56.607021 105.80115 -15.888779 4294967295
56.614315 105.31985 -15.810184 4294967295
56.619423 106.29309 -15.898033 4294967295
56.621181 103.29398 -16.168139 4294967295
56.623577 104.26512 -16.265448 4294967295
56.627426 103.45893 -16.163786 4294967295
56.627701 102.16573 -16.021801 4294967295
56.636528 99.906372 -15.743847 4294967295
56.6423 106.21471 -16.411018 4294967295
56.645405 102.01324 -15.94184 4294967295
56.66502 106.38869 -16.348719 4294967295
56.673504 101.70439 -15.807657 4294967295
56.680237 100.41387 -15.642852 4294967295
56.687992 105.75455 -16.197422 4294967295
56.740562 104.16566 -15.836176 4294967295
56.754429 100.20456 -15.957581 4294967295
56.75853 100.04495 -15.925531 4294967295
56.759983 104.4995 -15.803101 4294967295
56.78886 103.86774 -15.630932 4294967295
56.793377 100.87126 -15.891091 4294967295
56.797722 101.19691 -15.911066 4294967295
56.806149 103.46499 -16.128195 4294967295
56.807236 104.43555 -16.230091 4294967295
56.834763 102.02465 -15.86894 4294967295
56.840389 103.80645 -16.043056 4294967295
56.847466 103.32507 -15.965293 4294967295
56.862629 102.52437 -15.823839 4294967295
56.863777 102.20147 -15.784535 4294967295
56.865955 100.7467 -15.618154 4294967295
56.867348 101.71805 -15.719079 4294967295
56.879219 105.12077 -16.047548 4294967295
56.880276 104.15102 -15.938085 4294967295
56.89156 101.08341 -15.563373 4294967295
56.899441 105.45506 -16.011723 4294967295
56.900421 101.41157 -15.567476 4294967295
56.906261 106.26733 -16.075874 4294967295
56.906281 104.81181 -15.917176 4294967295
56.908756 104.00439 -15.820325 4294967295
56.925671 102.88086 -15.637425 4294967295
56.942142 103.28686 -16.225189 4294967295
56.956589 101.67761 -15.998259 4294967295
56.95723 100.06078 -15.819757 4294967295
56.958157 104.67776 -15.71719 4294967295
56.961319 102.16516 -16.034496 4294967295
56.968258 105.5638 -16.380053 4294967295
56.987 105.73555 -16.331854 4294967295
56.997383 100.24294 -15.696263 4294967295
57.003502 106.22944 -16.326746 4294967295
57.019859 102.84254 -15.899332 4294967295
57.05632 105.93466 -16.106077 4294967295
57.065628 100.03077 -16.031321 4294967295
57.070145 101.48814 -16.173998 4294967295
57.075386 103.51871 -15.774782 4294967295
57.079212 101.81615 -16.177395 4294967295
57.113148 104.09712 -16.304836 4294967295
57.116032 103.45201 -16.224285 4294967295
57.119659 106.13067 -15.901307 4294967295
57.131989 100.87312 -15.886422 4294967295
57.133366 102.81438 -16.092997 4294967295
57.133621 100.38875 -15.827819 4294967295
57.1357 100.55155 -15.83814 4294967295
57.138294 101.19981 -15.899529 4294967295
57.140923 102.65663 -16.048859 4294967295
57.151192 101.69165 -15.907108 4294967295
57.151299 102.33862 -15.977207 4294967295
57.15976 103.63673 -16.088449 4294967295
57.165184 105.57986 -16.280756 4294967295
57.177216 101.05804 -15.745253 4294967295
57.180866 103.16268 -15.961528 4294967295
57.182465 101.38427 -15.762085 4294967295
57.19334 100.74274 -15.653395 4294967295
57.195377 102.03801 -15.787252 4294967295
57.199585 100.26053 -15.578579 4294967295
57.199718 103.81953 -15.965843 4294967295
57.209648 104.47174 -16.001461 4294967295
57.224899 104.80334 -15.983196 4294967295
57.230995 100.02968 -16.042694 4294967295
57.240925 105.13539 -15.9622 4294967295
57.245663 102.22588 -15.628364 4294967295
57.24699 105.46214 -15.976167 4294967295
57.266258 102.63472 -16.200783 4294967295
57.271034 105.96035 -15.944673 4294967295
57.285645 105.23149 -16.41448 4294967295
57.300922 104.35846 -15.663588 4294967295
57.312393 101.85016 -15.950939 4294967295
57.317684 104.76363 -16.249371 4294967295
57.32737 99.91674 -15.686996 4294967295
57.340115 105.74574 -16.276386 4294967295
57.421795 104.3338 -15.831602 4294967295
57.4244 102.7916 -16.255144 4294967295
57.427578 104.01328 -15.776088 4294967295
57.430897 103.69144 -15.729209 4294967295
57.452477 106.12981 -15.917835 4294967295
57.452957 104.51214 -15.739984 4294967295
57.460777 105.55908 -16.426914 4294967295
57.46104 100.38483 -15.862659 4294967295
57.469444 104.43205 -16.273378 4294967295
57.470631 106.21098 -16.462807 4294967295
57.476383 104.27405 -16.231485 4294967295
57.480438 102.65913 -16.041231 4294967295
57.483311 101.52847 -15.907897 4294967295
57.488892 100.56076 -15.78266 4294967295
57.501842 103.80239 -16.089508 4294967295
57.503452 106.3904 -16.365492 4294967295
57.504417 101.37755 -15.816336 4294967295
57.510635 103.48357 -16.023497 4294967295
57.511414 101.05759 -15.756587 4294967295
57.518574 101.87016 -15.819575 4294967295
57.522179 101.71024 -15.789335 4294967295
57.529667 104.14055 -16.027262 4294967295
57.53907 105.27769 -16.117584 4294967295
57.545101 104.79571 -16.04365 4294967295
57.550159 105.76882 -16.131569 4294967295
57.553856 103.3445 -15.854494 4294967295
57.570415 103.02959 -15.761268 4294967295
57.581554 102.38815 -15.651778 4294967295
57.600674 103.20723 -15.67289 4294967295
57.609169 103.28577 -16.25149 4294967295
57.6194 104.0262 -15.695382 4294967295
57.622955 101.35242 -15.992025 4294967295
57.637993 100.06606 -15.798525 4294967295
57.64278 105.49503 -15.772057 4294967295
57.645199 101.04031 -15.878947 4294967295
57.667126 105.90351 -16.33025 4294967295
57.668484 101.86108 -15.88548 4294967295
57.686142 102.19375 -15.858879 4294967295
57.692898 103.00611 -15.923274 4294967295
57.755436 102.55328 -15.651584 4294967295
57.76189 104.49847 -15.840324 4294967295
57.763535 102.79394 -16.248718 4294967295
57.776627 100.05141 -15.903762 4294967295
57.790791 106.29369 -15.932903 4294967295
57.791904 100.38265 -15.885533 4294967295
57.79491 103.45712 -16.209391 4294967295
57.800438 99.901657 -15.802868 4294967295
57.801819 103.94586 -16.238028 4294967295
57.805439 104.91794 -16.330919 4294967295
57.80764 105.49372 -15.785933 4294967295
57.809414 101.68565 -15.965115 4294967295
57.810333 103.14176 -16.120289 4294967295
57.811409 102.33366 -16.028542 4294967295
57.812107 101.36352 -15.920492 4294967295
57.816658 100.55698 -15.816559 4294967295
57.823818 106.05957 -16.389818 4294967295
57.850292 102.03024 -15.857362 4294967295
57.861343 101.87415 -15.801117 4294967295
57.874203 100.26256 -15.580051 4294967295
57.880718 105.44328 -16.120609 4294967295
57.880924 103.664 -15.926299 4294967295
57.882393 102.69404 -15.815535 4294967295
57.88274 105.92958 -16.16633 4294967295
57.888565 100.91721 -15.600263 4294967295
57.890057 104.63947 -15.999975 4294967295
57.89716 102.21626 -15.711084 4294967295
57.908554 105.2964 -16.005724 4294967295
57.909992 103.03203 -15.754251 4294967295
57.914375 104.81416 -15.932583 4294967295
57.944061 102.47737 -16.17214 4294967295
57.945072 100.53709 -15.957484 4294967295
57.954975 103.3792 -15.632207 4294967295
57.960976 104.42667 -16.324129 4294967295
57.981979 100.87939 -15.863705 4294967295
57.992809 102.9879 -16.054634 4294967295
57.995007 105.41496 -16.310818 4294967295
58.027702 104.30023 -16.073511 4294967295
58.045689 101.23551 -15.676306 4294967295
58.077488 103.84113 -15.846855 4294967295
58.104282 104.17887 -15.788479 4294967295
58.107716 102.40035 -15.582833 4294967295
58.114437 104.83155 -15.823421 4294967295
58.119854 101.02602 -15.989094 4294967295
58.120049 104.02534 -15.715824 4294967295
58.123535 103.70348 -15.668435 4294967295
58.126278 104.99967 -15.799678 4294967295
58.131882 100.54684 -15.894324 4294967295
58.152214 104.76278 -16.280685 4294967295
58.15345 99.910568 -15.748644 4294967295
58.161293 102.8267 -16.037971 4294967295
58.176449 104.12867 -16.125792 4294967295
58.187042 102.19292 -15.877723 4294967295
58.189034 102.67934 -15.923557 4294967295
58.19722 105.59541 -16.211609 4294967295
58.198406 101.71336 -15.78528 4294967295
58.219414 101.23863 -15.659142 4294967295
58.227306 105.93504 -16.141838 4294967295
58.230099 105.45123 -16.079332 4294967295
58.231941 106.26105 -16.160841 4294967295
58.232021 103.1871 -15.826333 4294967295
58.24173 103.83945 -15.862839 4294967295
58.251244 101.97793 -16.224859 4294967295
58.252529 103.35964 -15.772359 4294967295
58.270882 105.14939 -15.901889 4294967295
58.282669 102.31759 -16.150442 4294967295
58.286926 102.80499 -16.188341 4294967295
58.29565 103.45644 -16.228252 4294967295
58.298706 103.06001 -15.576022 4294967295
58.319817 105.73324 -16.390118 4294967295
58.322582 100.39673 -15.800184 4294967295
58.322777 104.60281 -16.256754 4294967295
58.346931 101.86539 -15.873604 4294967295
58.35437 100.57464 -15.706903 4294967295
58.403793 103.67482 -15.868845 4294967295
58.434769 101.82446 -16.155678 4294967295
58.442772 104.50447 -15.820928 4294967295
58.447216 105.63965 -15.928576 4294967295
58.447559 100.21338 -15.935282 4294967295
58.448715 102.4786 -16.177397 4294967295
58.460888 101.99963 -16.08226 4294967295
58.469658 100.06272 -15.84069 4294967295
58.471256 102.32849 -16.081301 4294967295
58.473328 105.16806 -15.784799 4294967295
58.475048 101.19801 -15.945018 4294967295
58.485954 103.79193 -16.188318 4294967295
58.487099 104.76296 -16.289787 4294967295
58.508076 99.920227 -15.689212 4294967295
58.514187 103.9685 -16.107578 4294967295
58.515381 100.89493 -15.769311 4294967295
58.536568 103.33307 -15.959296 4294967295
58.540085 100.42191 -15.630446 4294967295
58.543762 106.08713 -16.233103 4294967295
58.556042 100.75372 -15.610031 4294967295
58.556267 104.96139 -16.066526 4294967295
58.55687 104.63812 -16.029257 4294967295
58.562386 103.50836 -15.886969 4294967295
58.578514 103.19311 -15.795618 4294967295
58.594921 101.01196 -16.097702 4294967295
58.598289 102.87968 -15.691549 4294967295
58.600044 101.49982 -16.132597 4294967295
58.607285 105.15029 -15.906459 4294967295
58.612091 103.12344 -16.266397 4294967295
58.614864 102.24072 -15.563435 4294967295
58.622066 102.73012 -15.591138 4294967295
58.623016 105.80602 -15.922029 4294967295
58.627655 106.29399 -15.958632 4294967295
58.634411 103.62029 -16.241453 4294967295
58.642456 102.97747 -16.143162 4294967295
58.658058 102.66202 -16.053713 4294967295
58.658638 100.55891 -15.823157 4294967295
58.672001 105.25753 -16.286383 4294967295
58.703178 104.30342 -16.072483 4294967295
58.73457 102.05418 -15.71711 4294967295
58.754852 101.74084 -15.611339 4294967295
58.76321 105.46786 -15.986688 4294967295
58.772026 101.82561 -16.15653 4294967295
58.773022 103.85462 -15.776742 4294967295
58.773041 104.98759 -15.899753 4294967295
58.788795 102.56777 -15.581152 4294967295
58.790672 100.05549 -15.898375 4294967295
58.800987 100.70791 -15.932797 4294967295
58.817627 102.33435 -16.050692 4294967295
58.822109 101.04224 -15.894495 4294967295
58.829338 102.50218 -16.02754 4294967295
58.830231 102.82623 -16.059586 4294967295
58.83036 105.98927 -15.805865 4294967295
58.834282 99.915558 -15.729099 4294967295
58.838425 104.61005 -16.224379 4294967295
58.840477 100.88973 -15.813037 4294967295
58.844193 101.21529 -15.835276 4294967295
58.845837 106.06976 -16.35671 4294967295
58.849934 105.5867 -16.289776 4294967295
58.857285 103.64927 -16.053402 4294967295
58.874115 103.98168 -16.030041 4294967295
58.874249 105.11433 -16.152575 4294967295
58.875843 100.26017 -15.619703 4294967295
58.876316 100.58417 -15.653222 4294967295
58.887085 102.04643 -15.774019 4294967295
58.892452 105.77116 -16.159594 4294967295
58.901127 104.15767 -15.953723 4294967295
58.90686 105.29343 -16.056805 4294967295
58.907505 103.35181 -15.84366 4294967295
58.943245 101.50396 -16.112919 4294967295
58.945568 105.96136 -15.992594 4294967295
58.961388 104.83681 -15.814573 4294967295
58.967934 103.22136 -15.616008 4294967295
58.979862 104.27289 -16.284327 4294967295
58.986694 104.5264 -15.691455 4294967295
59.016346 101.86493 -15.894098 4294967295
59.024685 101.38367 -15.812405 4294967295
59.070427 104.64413 -16.004976 4294967295
59.083199 102.5467 -15.732164 4294967295
59.087864 105.13885 -15.997143 4294967295
59.090244 104.16904 -15.883451 4294967295
59.094425 106.27513 -16.09734 4294967295
59.098122 105.79163 -16.031805 4294967295
59.114609 101.75331 -15.535145 4294967295
59.135921 100.06041 -15.871917 4294967295
59.157284 101.52765 -15.955887 4294967295
59.161705 100.2352 -15.799976 4294967295
59.163948 102.34014 -16.020586 4294967295
59.164375 104.53176 -15.66117 4294967295
59.165806 103.63551 -16.154642 4294967295
