# .PCD v0.7 - Point Cloud Data file format
VERSION 0.7
FIELDS x y z rgb
SIZE 4 4 4 4
TYPE F F F U
COUNT 1 1 1 1
WIDTH 1120
HEIGHT 1
VIEWPOINT 0 0 0 1 0 0 0
POINTS 1120
DATA ascii
-26.645079 28.119818 -21.591406 4294967295
-26.630642 29.837482 -21.735935 4294967295
-26.624062 30.306488 -21.757978 4294967295
-26.615601 29.06118 -21.528355 4294967295
-26.60981 30.153717 -21.642649 4294967295
-26.607189 32.336208 -21.929937 4294967295
-26.595175 29.533199 -21.459494 4294967295
-26.587553 31.405752 -21.670561 4294967295
-26.584885 34.055561 -22.022703 4294967295
-26.582874 31.095045 -21.596327 4294967295
-26.579224 31.87532 -21.681141 4294967295
-26.576109 30.005079 -21.399578 4294967295
-26.572456 32.656273 -21.745474 4294967295
-26.572069 30.629723 -21.460117 4294967295
-26.570694 33.903412 -21.907862 4294967295
-26.56901 32.501244 -21.701099 4294967295
-26.566956 33.281036 -21.79636 4294967295
-26.561966 33.593975 -21.807112 4294967295
-26.557634 31.56856 -21.495918 4294967295
-26.546009 33.130386 -21.637161 4294967295
-26.543364 32.975151 -21.598047 4294967295
-26.534101 33.756916 -21.646029 4294967295
-26.528948 33.446438 -21.568712 4294967295
-26.486744 28.117186 -21.589531 4294967295
-26.482462 30.144472 -21.84408 4294967295
-26.481611 28.897711 -21.664589 4294967295
-26.472664 30.614147 -21.845055 4294967295
-26.458967 28.278555 -21.429111 4294967295
-26.458462 30.929014 -21.795431 4294967295
-26.451942 29.371534 -21.535288 4294967295
-26.451782 31.553936 -21.838577 4294967295
-26.445877 32.022839 -21.865078 4294967295
-26.443371 31.400021 -21.761724 4294967295
-26.408358 32.966991 -21.749626 4294967295
-26.375349 34.06641 -21.685518 4294967295
-26.329247 29.517414 -21.788759 4294967295
-26.302443 28.587461 -21.482931 4294967295
-26.28759 28.434454 -21.363956 4294967295
-26.277494 31.243382 -21.689016 4294967295
-26.275831 29.684553 -21.460865 4294967295
-26.271629 31.556505 -21.694086 4294967295
-26.264404 32.961044 -21.842272 4294967295
-26.262268 30.311256 -21.459034 4294967295
-26.256231 30.78042 -21.484716 4294967295
-26.253948 30.624981 -21.448046 4294967295
-26.252794 32.340378 -21.67947 4294967295
-26.24918 34.055767 -21.89468 4294967295
-26.244736 33.745216 -21.822197 4294967295
-26.216375 33.440605 -21.593309 4294967295
-26.214598 33.908768 -21.646837 4294967295
-26.21047 34.221619 -21.663284 4294967295
-26.163862 27.957176 -21.52375 4294967295
-26.153393 28.427048 -21.520464 4294967295
-26.14768 30.2992 -21.743673 4294967295
-26.139206 28.741772 -21.471174 4294967295
-26.138319 29.365732 -21.552246 4294967295
-26.132648 29.990637 -21.602037 4294967295
-26.127254 29.05611 -21.436506 4294967295
-26.122248 31.55196 -21.751154 4294967295
-26.120934 32.175755 -21.829372 4294967295
-26.120605 31.39645 -21.718733 4294967295
-26.114731 32.488956 -21.832268 4294967295
-26.113159 33.11274 -21.908787 4294967295
-26.095699 33.584633 -21.859871 4294967295
-26.091583 32.650414 -21.702808 4294967295
-26.077465 33.277447 -21.697437 4294967295
-26.068611 31.876249 -21.444252 4294967295
-25.98316 27.802834 -21.354574 4294967295
-25.957073 32.330486 -21.813581 4294967295
-25.954491 29.212433 -21.362858 4294967295
-25.953243 33.266575 -21.918692 4294967295
-25.952135 33.422691 -21.933147 4294967295
-25.94351 32.957253 -21.811897 4294967295
-25.939398 31.399185 -21.568213 4294967295
-25.938887 30.619549 -21.456392 4294967295
-25.935282 32.023849 -21.628132 4294967295
-25.934072 33.738934 -21.858774 4294967295
-25.929781 30.9335 -21.440411 4294967295
-25.920494 31.559465 -21.466633 4294967295
-25.915445 32.652275 -21.585569 4294967295
-25.915222 32.808258 -21.605801 4294967295
-25.888756 34.218178 -21.628489 4294967295
-25.850639 28.574974 -21.630039 4294967295
-25.84314 29.044266 -21.64624 4294967295
-25.84075 27.953102 -21.478888 4294967295
-25.836226 29.825289 -21.709599 4294967295
-25.822823 31.075397 -21.795702 4294967295
-25.81951 31.543793 -21.839144 4294967295
-25.819357 29.205065 -21.513014 4294967295
-25.810146 30.298639 -21.604795 4294967295
-25.809305 32.013786 -21.837725 4294967295
-25.789797 32.641945 -21.797419 4294967295
-25.789478 29.523197 -21.361782 4294967295
-25.766352 33.115341 -21.709837 4294967295
-25.749329 34.21093 -21.750746 4294967295
-25.732176 33.435661 -21.530792 4294967295
-25.688719 29.664532 -21.756977 4294967295
-25.685139 28.417812 -21.560383 4294967295
-25.668671 30.292442 -21.713264 4294967295
-25.666288 27.953529 -21.372766 4294967295
-25.651247 28.580481 -21.361637 4294967295
-25.634987 29.519798 -21.385946 4294967295
-25.622505 30.926342 -21.499821 4294967295
-25.616282 33.110886 -21.76259 4294967295
-25.610477 33.424122 -21.768192 4294967295
-25.608896 34.203953 -21.866159 4294967295
-25.607159 31.397717 -21.465067 4294967295
-25.5965 31.868101 -21.460802 4294967295
-25.578094 32.964298 -21.492838 4294967295
-25.539314 28.256771 -21.618757 4294967295
-25.533445 28.725765 -21.645597 4294967295
-25.516886 29.040995 -21.581394 4294967295
-25.515942 30.600502 -21.791719 4294967295
-25.509251 28.106617 -21.401901 4294967295
-25.496531 31.540264 -21.795599 4294967295
-25.493582 30.761335 -21.668259 4294967295
-25.489513 29.514524 -21.468666 4294967295
-25.488369 32.789272 -21.915724 4294967295
-25.486567 32.010273 -21.795862 4294967295
-25.48653 30.450989 -21.579208 4294967295
-25.481451 29.360195 -21.39467 4294967295
-25.476242 32.324512 -21.772167 4294967295
-25.47397 29.98576 -21.432734 4294967295
-25.463747 33.730591 -21.885826 4294967295
-25.458006 32.484768 -21.675503 4294967295
-25.456669 32.173206 -21.623541 4294967295
-25.40497 34.05732 -21.547928 4294967295
-25.324671 29.20125 -21.382402 4294967295
-25.303394 31.233774 -21.525818 4294967295
-25.299082 32.794315 -21.714167 4294967295
-25.297314 33.886127 -21.854055 4294967295
-25.294724 32.483482 -21.642691 4294967295
-25.291718 31.704369 -21.515083 4294967295
-25.287584 32.017281 -21.531572 4294967295
-25.286037 33.109352 -21.672937 4294967295
-25.276497 32.95573 -21.589539 4294967295
-25.27335 34.204041 -21.742144 4294967295
-25.256689 33.584469 -21.547783 4294967295
-25.25548 34.052662 -21.604841 4294967295
-25.237694 33.745209 -21.446438 4294967295
-25.218792 28.408188 -21.613102 4294967295
-25.189936 30.597464 -21.729031 4294967295
-25.188744 31.221428 -21.807751 4294967295
-25.186325 29.818478 -21.597601 4294967295
-25.18191 29.351452 -21.504171 4294967295
-25.177837 29.508284 -21.499451 4294967295
-25.176584 32.003761 -21.837149 4294967295
-25.174215 32.472019 -21.886648 4294967295
-25.173681 32.160347 -21.839991 4294967295
-25.166283 30.758596 -21.597654 4294967295
-25.159237 33.099209 -21.876211 4294967295
-25.13847 32.324566 -21.633924 4294967295
-25.138 30.920826 -21.436342 4294967295
-25.03026 28.56745 -21.438623 4294967295
-25.01878 28.881769 -21.407684 4294967295
-25.016592 30.130259 -21.566402 4294967295
-24.998169 29.666115 -21.382599 4294967295
-24.993931 33.410297 -21.873566 4294967295
-24.970236 31.700449 -21.483097 4294967295
-24.96554 32.013535 -21.495985 4294967295
-24.951742 33.108768 -21.558109 4294967295
-24.948837 32.797485 -21.496174 4294967295
-24.948282 32.329594 -21.42778 4294967295
-24.942249 33.735035 -21.583239 4294967295
-24.924406 34.207493 -21.532881 4294967295
-24.890718 29.652935 -21.710358 4294967295
-24.881163 28.874992 -21.540791 4294967295
-24.875862 29.96797 -21.657726 4294967295
-24.863302 29.346617 -21.490379 4294967295
-24.862823 30.126707 -21.595243 4294967295
-24.828291 30.602146 -21.437365 4294967295
-24.827868 31.382292 -21.542578 4294967295
-24.824968 30.290798 -21.372755 4294967295
-24.819773 31.072088 -21.447218 4294967295
-24.817122 33.100536 -21.710707 4294967295
-24.79356 32.638275 -21.494141 4294967295
-24.779463 33.421722 -21.511221 4294967295
-24.735811 28.401781 -21.559042 4294967295
-24.726412 28.09156 -21.455362 4294967295
-24.714937 28.561872 -21.446205 4294967295
-24.713882 29.498178 -21.568874 4294967295
-24.654314 33.723003 -21.767813 4294967295
-24.649519 32.008373 -21.499763 4294967295
-24.647112 32.788956 -21.592119 4294967295
-24.643747 31.697649 -21.419487 4294967295
-24.639856 33.258678 -21.610144 4294967295
-24.639177 32.322819 -21.476372 4294967295
-24.617565 33.576164 -21.509878 4294967295
-24.615118 34.200787 -21.580404 4294967295
-24.581188 28.86639 -21.646961 4294967295
-24.560698 27.778177 -21.364288 4294967295
-24.549923 30.276733 -21.640001 4294967295
-24.548737 29.34094 -21.503044 4294967295
-24.542194 30.590374 -21.633448 4294967295
-24.525393 29.501757 -21.374559 4294967295
-24.525364 30.906046 -21.568407 4294967295
-24.521006 32.622818 -21.777452 4294967295
-24.519459 33.558815 -21.896765 4294967295
-24.500477 31.2236 -21.451628 4294967295
-24.496157 33.876488 -21.790215 4294967295
-24.487507 34.190567 -21.77775 4294967295
-24.472109 33.726524 -21.614254 4294967295
-24.468082 32.479355 -21.415981 4294967295
-24.370804 29.654415 -21.420065 4294967295
-24.360056 32.309025 -21.717283 4294967295
-24.345825 33.248245 -21.755213 4294967295
-24.338121 30.753769 -21.361214 4294967295
-24.321276 32.16206 -21.447065 4294967295
-24.307993 34.193527 -21.641859 4294967295
-24.307911 32.633339 -21.425974 4294967295
-24.29402 33.572964 -21.466145 4294967295
-24.288324 33.886452 -21.472712 4294967295
-24.273642 33.734062 -21.357042 4294967295
-24.245083 28.552876 -21.478252 4294967295
-24.242393 29.177559 -21.547138 4294967295
-24.240257 30.426069 -21.705648 4294967295
-24.239183 30.582287 -21.720293 4294967295
-24.233107 28.243067 -21.358438 4294967295
-24.231012 30.740046 -21.689486 4294967295
-24.208649 29.340435 -21.352484 4294967295
-24.203615 32.774002 -21.793762 4294967295
-24.200319 29.810375 -21.363726 4294967295
-24.20001 30.122578 -21.404816 4294967295
-24.199757 31.995005 -21.661488 4294967295
-24.194725 31.52812 -21.564709 4294967295
-24.190916 33.712837 -21.841547 4294967295
-24.187328 34.181576 -21.883112 4294967295
-24.181759 33.091202 -21.696882 4294967295
-24.180614 31.219202 -21.431299 4294967295
-24.082886 28.863068 -21.496401 4294967295
-24.082884 28.238825 -21.410316 4294967295
-24.065699 29.490732 -21.47253 4294967295
-24.041161 33.084457 -21.810276 4294967295
-24.021971 32.933086 -21.66614 4294967295
-24.014046 34.026966 -21.765987 4294967295
-23.99181 32.628201 -21.430368 4294967295
-23.980894 33.723213 -21.511158 4294967295
-23.974318 33.568787 -21.44763 4294967295
-23.923273 28.548531 -21.44516 4294967295
-23.9182 28.237349 -21.36974 4294967295
-23.908688 29.175695 -21.438023 4294967295
-23.907843 29.956161 -21.540113 4294967295
-23.905224 30.424833 -21.587887 4294967295
-23.898682 29.645943 -21.438629 4294967295
-23.8985 30.58231 -21.566458 4294967295
-23.895651 31.987085 -21.741682 4294967295
-23.89221 29.335098 -21.3543 4294967295
-23.88752 31.208853 -21.582338 4294967295
-23.883522 30.897646 -21.513834 4294967295
-23.876518 31.835453 -21.598093 4294967295
-23.863796 32.930569 -21.667328 4294967295
-23.858202 32.151737 -21.524176 4294967295
-23.856642 31.527851 -21.42824 4294967295
-23.832586 33.250149 -21.511177 4294967295
-23.816149 34.190495 -21.535248 4294967295
-23.716486 33.549412 -21.823677 4294967295
-23.715919 33.237579 -21.77714 4294967295
-23.71014 33.862938 -21.826193 4294967295
-23.663551 32.625912 -21.357651 4294967295
-23.593857 28.701742 -21.385704 4294967295
-23.576504 29.329599 -21.361143 4294967295
-23.570452 32.296036 -21.730457 4294967295
-23.561844 33.078091 -21.782982 4294967295
-23.555323 31.831411 -21.569849 4294967295
-23.5509 32.144524 -21.584642 4294967295
-23.550245 31.676502 -21.516088 4294967295
-23.544836 34.018223 -21.80353 4294967295
-23.539503 32.459274 -21.555067 4294967295
-23.522558 33.555676 -21.597519 4294967295
-23.502249 32.780197 -21.361059 4294967295
-23.454939 27.914824 -21.40218 4294967295
-23.445457 29.321453 -21.535032 4294967295
-23.437996 30.727472 -21.680666 4294967295
-23.43618 29.947617 -21.56189 4294967295
-23.413025 30.4207 -21.479128 4294967295
-23.401966 31.047411 -21.494692 4294967295
-23.379107 33.237499 -21.649765 4294967295
-23.376499 31.365213 -21.375839 4294967295
-23.372429 34.175312 -21.736004 4294967295
-23.355967 32.93092 -21.459957 4294967295
-23.344288 33.870235 -21.514486 4294967295
-23.287334 28.22608 -21.386568 4294967295
-23.279081 30.725014 -21.677221 4294967295
-23.275778 28.852766 -21.399025 4294967295
-23.263948 29.635675 -21.431187 4294967295
-23.25606 31.822384 -21.681242 4294967295
-23.249704 32.760025 -21.769501 4294967295
-23.246481 32.13665 -21.663357 4294967295
-23.235935 30.42207 -21.360703 4294967295
-23.23424 31.671246 -21.521448 4294967295
-23.234045 31.203024 -21.455915 4294967295
-23.208721 32.45752 -21.466827 4294967295
-23.208511 33.237968 -21.572649 4294967295
-23.207829 33.70631 -21.632607 4294967295
-23.203602 33.863403 -21.627245 4294967295
-23.176449 34.182297 -21.49802 4294967295
-23.108191 31.661442 -21.726547 4294967295
-23.097937 30.102942 -21.447435 4294967295
-23.086151 30.885962 -21.479925 4294967295
-23.0721 33.698299 -21.77644 4294967295
-23.066919 31.046251 -21.379587 4294967295
-22.948132 29.161827 -21.373619 4294967295
-22.944855 30.7236 -21.567001 4294967295
-22.935595 30.101145 -21.422817 4294967295
-22.933195 32.13081 -21.685904 4294967295
-22.927814 32.756248 -21.737492 4294967295
-22.927372 31.820005 -21.606314 4294967295
-22.927034 31.664005 -21.582775 4294967295
-22.917881 33.22673 -21.738903 4294967295
-22.886173 33.078247 -21.517166 4294967295
-22.885489 32.453976 -21.427233 4294967295
-22.87697 34.173084 -21.608818 4294967295
-22.872046 32.613235 -21.363686 4294967295
-22.871674 33.706139 -21.511171 4294967295
-22.866508 33.863503 -21.499941 4294967295
-22.812489 28.84243 -21.474907 4294967295
-22.788565 29.315536 -21.38805 4294967295
-22.779297 30.410326 -21.479317 4294967295
-22.772873 31.348335 -21.567127 4294967295
-22.764841 32.754829 -21.708904 4294967295
-22.753059 33.693947 -21.762857 4294967295
-22.739252 34.009438 -21.718529 4294967295
-22.62958 29.625277 -21.427626 4294967295
-22.618717 31.969164 -21.679806 4294967295
-22.61112 33.375416 -21.824242 4294967295
-22.604336 30.56735 -21.39682 4294967295
-22.596226 33.535057 -21.751795 4294967295
-22.587976 31.195456 -21.379257 4294967295
-22.586836 31.507994 -21.414841 4294967295
-22.581644 32.28981 -21.489006 4294967295
-22.580233 32.914577 -21.565615 4294967295
-22.576561 33.227642 -21.58522 4294967295
-22.285744 32.74823 -21.685928 4294967295
-22.284348 32.436371 -21.634491 4294967295
-22.279535 31.813013 -21.518902 4294967295
-22.263731 31.348072 -21.35561 4294967295
-22.248985 32.288364 -21.391115 4294967295
-22.238083 32.603199 -21.365362 4294967295
-22.158131 29.304251 -21.410423 4294967295
-22.146816 29.462673 -21.360781 4294967295
-22.145954 31.492697 -21.632723 4294967295
-22.141514 30.400745 -21.455561 4294967295
-22.137608 30.870014 -21.495066 4294967295
-21.972801 30.712618 -21.434519 4294967295
-21.962503 31.027157 -21.412682 4294967295
-21.838451 30.392626 -21.543289 4294967295
-21.799147 31.494148 -21.446747 4294967295
-21.797274 31.806894 -21.47765 4294967295
-21.663519 31.330421 -21.568771 4294967295
-21.653734 30.551674 -21.401255 4294967295
-21.646021 30.865685 -21.395706 4294967295
-21.644228 30.709871 -21.363226 4294967295
-21.501091 29.923042 -21.353273 4294967295
-21.352041 31.011763 -21.561634 4294967295
-21.326239 30.704863 -21.358604 4294967295
-21.198277 30.071077 -21.464199 4294967295
-21.183981 31.167398 -21.524137 4294967295
-21.177349 30.544016 -21.397953 4294967295
-21.161425 31.016031 -21.362799 4294967295
-20.691193 30.694603 -21.356302 4294967295
-20.540609 30.534075 -21.385237 4294967295
-38.516533 36.833324 -23.308611 4294967295
-38.492115 40.557255 -23.678513 4294967295
-38.432297 34.640419 -23.528326 4294967295
-38.391079 37.749542 -23.680304 4294967295
-38.386261 36.822392 -23.506197 4294967295
-38.381382 35.894924 -23.331551 4294967295
-38.379608 39.455769 -23.84758 4294967295
-38.37933 38.682175 -23.730505 4294967295
-38.378242 38.218258 -23.653343 4294967295
-38.377655 38.528 -23.694973 4294967295
-38.376705 34.812149 -23.135317 4294967295
-38.369446 37.292435 -23.449474 4294967295
-38.369038 40.233212 -23.883556 4294967295
-38.368816 35.124397 -23.122362 4294967295
-38.367382 36.209137 -23.272846 4294967295
-38.367115 37.912498 -23.524103 4294967295
-38.361839 37.449818 -23.415585 4294967295
-38.354076 40.702938 -23.840727 4294967295
-38.339802 40.398792 -23.688042 4294967295
-38.333485 39.627205 -23.525789 4294967295
-38.325893 40.094376 -23.53809 4294967295
-38.321953 40.560215 -23.577656 4294967295
-38.272789 34.638943 -23.506626 4294967295
-38.270275 35.413807 -23.602867 4294967295
-38.261703 35.106819 -23.492819 4294967295
-38.24456 35.731503 -23.456799 4294967295
-38.231403 36.355057 -23.450556 4294967295
-38.216728 38.991634 -23.731916 4294967295
-38.199818 39.771511 -23.720634 4294967295
-38.180561 39.468906 -23.530987 4294967295
-38.180557 38.385082 -23.369995 4294967295
-38.180428 38.849663 -23.438023 4294967295
-38.179581 38.075695 -23.316715 4294967295
-38.170609 37.76899 -23.203732 4294967295
-38.163765 40.868271 -23.61257 4294967295
-38.070404 36.044449 -23.372322 4294967295
-38.068401 38.212692 -23.679087 4294967295
-38.067089 35.580849 -23.278667 4294967295
-38.056347 37.597561 -23.497364 4294967295
-38.052773 39.920654 -23.815252 4294967295
-38.052692 36.514759 -23.309288 4294967295
-38.05019 35.741055 -23.175673 4294967295
-38.046635 38.065353 -23.493959 4294967295
-38.045464 39.149445 -23.646013 4294967295
-38.045132 36.981873 -23.321886 4294967295
-38.044621 38.530525 -23.547848 4294967295
-38.038502 37.4487 -23.341423 4294967295
-38.032452 36.211456 -23.112446 4294967295
-38.029587 37.916325 -23.343948 4294967295
-38.020638 40.396763 -23.644854 4294967295
-38.020454 39.622814 -23.528664 4294967295
-38.018375 38.694519 -23.375347 4294967295
-38.017597 38.385056 -23.32358 4294967295
-38.013039 40.089962 -23.542355 4294967295
-38.001591 38.855278 -23.273294 4294967295
-38.000187 40.713974 -23.538507 4294967295
-37.941551 34.794521 -23.395777 4294967295
-37.922676 36.503868 -23.507929 4294967295
-37.920757 35.420418 -23.33293 4294967295
-37.919071 34.491474 -23.182531 4294967295
-37.916698 35.731457 -23.348661 4294967295
-37.912674 38.984062 -23.800739 4294967295
-37.911217 35.268463 -23.238966 4294967295
-37.901291 37.130249 -23.440712 4294967295
-37.898838 34.962391 -23.100901 4294967295
-37.886875 37.909355 -23.448278 4294967295
-37.883926 40.38728 -23.793526 4294967295
-37.872711 39.307819 -23.549564 4294967295
-37.761299 36.038506 -23.404295 4294967295
-37.754173 36.81514 -23.466076 4294967295
-37.735519 39.298725 -23.69454 4294967295
-37.724937 39.457302 -23.638939 4294967295
-37.72279 38.374237 -23.4625 4294967295
-37.722527 36.360676 -23.162294 4294967295
-37.714153 38.067459 -23.352526 4294967295
-37.713001 39.616402 -23.573301 4294967295
-37.710796 37.294075 -23.2129 4294967295
-37.705147 38.844955 -23.400389 4294967295
-37.697865 37.763172 -23.185736 4294967295
-37.697777 38.227955 -23.253927 4294967295
-37.695503 40.706535 -23.603981 4294967295
-37.694252 40.242527 -23.525923 4294967295
-37.633423 34.323574 -23.365927 4294967295
-37.628529 35.718952 -23.535952 4294967295
-37.626202 35.255077 -23.449938 4294967295
-37.620209 34.482403 -23.290878 4294967295
-37.612392 35.569107 -23.393412 4294967295
-37.606091 36.19062 -23.438395 4294967295
-37.603531 37.894745 -23.671503 4294967295
-37.596371 35.419159 -23.251743 4294967295
-37.592705 36.81443 -23.430893 4294967295
-37.591022 37.279587 -23.487162 4294967295
-37.590122 34.801292 -23.113684 4294967295
-37.579723 35.889141 -23.197142 4294967295
-37.567513 38.99094 -23.565039 4294967295
-37.566154 37.597622 -23.348755 4294967295
-37.565388 40.384995 -23.755442 4294967295
-37.547726 37.448856 -23.189299 4294967295
-37.542442 36.675816 -23.035509 4294967295
-37.532581 39.158115 -23.32926 4294967295
-37.531422 40.552341 -23.526876 4294967295
-37.52663 38.385612 -23.170576 4294967295
-37.523758 38.851398 -23.218063 4294967295
-37.473942 34.631836 -23.391228 4294967295
-37.430447 35.264709 -23.16102 4294967295
-37.416317 39.760929 -23.720541 4294967295
-37.40506 40.074615 -23.683092 4294967295
-37.403759 39.920273 -23.650604 4294967295
-37.401115 37.288311 -23.241871 4294967295
-37.400257 38.218075 -23.372921 4294967295
-37.398155 37.75407 -23.288679 4294967295
-37.393673 38.530125 -23.370052 4294967295
-37.386398 38.377724 -23.293362 4294967295
-37.374546 38.071911 -23.159906 4294967295
-37.37236 40.551098 -23.510088 4294967295
-37.370674 39.312672 -23.314495 4294967295
-37.357212 38.69767 -23.123375 4294967295
-37.356789 40.24707 -23.349236 4294967295
-37.353989 40.867645 -23.420103 4294967295
-37.345482 40.715923 -23.334352 4294967295
-37.324921 34.472286 -23.425211 4294967295
-37.318306 35.093849 -23.46789 4294967295
-37.288708 35.722565 -23.34086 4294967295
-37.287159 37.271946 -23.558218 4294967295
-37.283989 35.414165 -23.260244 4294967295
-37.280186 34.640526 -23.117693 4294967295
-37.269371 34.798744 -23.060709 4294967295
-37.269066 36.503372 -23.310249 4294967295
-37.264061 36.814831 -23.319082 4294967295
-37.258636 39.294682 -23.64502 4294967295
-37.25782 35.267223 -23.044073 4294967295
-37.254143 37.902462 -23.406027 4294967295
-37.249466 36.044746 -23.09687 4294967295
-37.232449 37.444942 -23.177244 4294967295
-37.228973 38.995392 -23.380413 4294967295
-37.228668 36.20631 -22.966217 4294967295
-37.202137 40.089272 -23.34255 4294967295
-37.190556 39.783611 -23.21137 4294967295
-37.138134 35.873245 -23.409391 4294967295
-37.128666 36.495857 -23.431074 4294967295
-37.121319 36.808025 -23.422653 4294967295
-37.102921 34.644257 -22.966866 4294967295
-37.102364 39.911671 -23.740023 4294967295
-37.098858 35.110531 -23.00556 4294967295
-37.093868 35.422077 -23.014521 4294967295
-37.086205 38.678547 -23.438255 4294967295
-37.077663 38.836407 -23.398201 4294967295
-37.075985 37.287624 -23.157204 4294967295
-37.074299 36.203232 -22.984688 4294967295
-37.073898 39.612186 -23.484713 4294967295
-37.073006 37.443573 -23.158125 4294967295
-37.067654 38.065205 -23.210157 4294967295
-37.064892 40.544662 -23.555485 4294967295
-37.05925 39.152668 -23.308287 4294967295
-37.058601 38.378189 -23.18922 4294967295
-37.043179 39.313263 -23.212801 4294967295
-36.997398 34.626648 -23.34462 4294967295
-36.992901 35.092793 -23.380077 4294967295
-36.990803 35.403275 -23.410339 4294967295
-36.97654 36.337196 -23.442461 4294967295
-36.96711 36.495113 -23.395922 4294967295
-36.964539 38.044853 -23.605379 4294967295
-36.962204 35.567001 -23.222765 4294967295
-36.957672 37.737411 -23.509226 4294967295
-36.952187 38.978214 -23.651539 4294967295
-36.950417 35.260651 -23.090332 4294967295
-36.947559 35.881485 -23.160736 4294967295
-36.946835 34.951717 -23.018259 4294967295
-36.942944 37.432491 -23.355238 4294967295
-36.928535 38.521767 -23.40917 4294967295
-36.927303 36.817791 -23.148832 4294967295
-36.923595 35.733932 -22.961586 4294967295
-36.923153 36.199135 -23.026892 4294967295
-36.914669 37.906734 -23.215868 4294967295
-36.909927 39.302792 -23.38656 4294967295
-36.900551 37.136475 -22.997787 4294967295
-36.899426 40.081074 -23.423508 4294967295
-36.893749 38.843636 -23.199116 4294967295
-36.890804 40.703808 -23.451488 4294967295
-36.877529 40.553787 -23.331108 4294967295
-36.863316 40.249096 -23.180994 4294967295
-36.824104 34.319225 -23.177664 4294967295
-36.801399 34.945942 -23.102221 4294967295
-36.792145 36.343662 -23.239777 4294967295
-36.749126 40.231487 -23.494511 4294967295
-36.747059 39.92244 -23.433706 4294967295
-36.742363 39.304413 -23.30801 4294967295
-36.741859 40.389027 -23.463991 4294967295
-36.74091 37.445164 -23.023451 4294967295
-36.738449 37.290951 -22.982548 4294967295
-36.734798 37.912235 -23.047083 4294967295
-36.72995 38.378887 -23.080006 4294967295
-36.722263 39.001514 -23.114893 4294967295
-36.720406 40.551781 -23.329466 4294967295
-36.703156 40.868019 -23.248552 4294967295
-36.661697 36.333038 -23.433273 4294967295
-36.652771 36.645729 -23.413462 4294967295
-36.649609 35.407063 -23.20785 4294967295
-36.642506 35.254227 -23.132965 4294967295
-36.642021 36.029324 -23.243458 4294967295
-36.636108 34.946125 -23.04043 4294967295
-36.631516 39.286106 -23.645212 4294967295
-36.629356 34.793102 -22.968126 4294967295
-36.617947 36.811859 -23.181099 4294967295
-36.614449 34.487381 -22.813173 4294967295
-36.60878 36.504784 -23.0683 4294967295
-36.602661 37.281792 -23.137524 4294967295
-36.597488 36.198288 -22.939909 4294967295
-36.597187 38.988289 -23.348242 4294967295
-36.596512 38.058769 -23.206511 4294967295
-36.580715 38.839039 -23.204819 4294967295
-36.571438 39.61713 -23.250854 4294967295
-36.496441 34.628609 -23.120886 4294967295
-36.481514 37.267879 -23.399063 4294967295
-36.478622 37.888554 -23.469027 4294967295
-36.47287 38.355236 -23.495295 4294967295
-36.458961 35.415028 -22.960621 4294967295
-36.446461 40.842781 -23.666531 4294967295
-36.423183 40.076763 -23.382601 4294967295
-36.421452 38.992664 -23.210512 4294967295
-36.420845 38.21788 -23.09214 4294967295
-36.418983 38.683533 -23.146883 4294967295
-36.414219 40.389877 -23.362617 4294967295
-36.4118 37.600765 -22.934834 4294967295
-36.393509 40.707344 -23.256851 4294967295
-36.352123 35.552444 -23.349249 4294967295
-36.344463 36.329605 -23.40712 4294967295
-36.341282 35.090778 -23.201756 4294967295
-36.335484 34.782478 -23.113865 4294967295
-36.329033 35.869507 -23.226171 4294967295
-36.328568 34.62949 -23.040571 4294967295
-36.32468 36.490818 -23.285446 4294967295
-36.323544 34.475914 -22.981089 4294967295
-36.323345 38.815258 -23.617046 4294967295
-36.311993 38.044544 -23.420437 4294967295
-36.30748 36.186234 -23.114332 4294967295
-36.305634 36.806866 -23.191927 4294967295
-36.305325 37.581894 -23.303507 4294967295
-36.304829 39.131466 -23.527454 4294967295
-36.303692 38.512161 -23.428146 4294967295
-36.295311 34.94949 -22.843229 4294967295
-36.29324 37.740868 -23.23806 4294967295
-36.29282 39.910229 -23.553562 4294967295
-36.283619 35.728477 -22.871782 4294967295
-36.283211 37.279148 -23.09656 4294967295
-36.282558 35.418621 -22.818453 4294967295
-36.277828 40.690147 -23.557936 4294967295
-36.273216 36.041874 -22.841366 4294967295
-36.272076 39.452785 -23.333977 4294967295
-36.26609 39.609856 -23.313076 4294967295
-36.248192 38.376022 -23.000355 4294967295
-36.17791 36.640308 -23.381939 4294967295
-36.176254 35.555931 -23.210649 4294967295
-36.156136 37.577133 -23.359718 4294967295
-36.148479 39.284046 -23.554028 4294967295
-36.139454 35.257 -22.896868 4294967295
-36.118984 38.364437 -23.202808 4294967295
-36.104004 40.074451 -23.343838 4294967295
-36.094498 40.697723 -23.365555 4294967295
-36.033798 35.549217 -23.315762 4294967295
-36.018421 36.63887 -23.36298 4294967295
-36.015003 37.72467 -23.497156 4294967295
-36.011307 34.780838 -23.038433 4294967295
-36.010406 37.416283 -23.418291 4294967295
-36.009075 35.866802 -23.181353 4294967295
-36.007179 36.332436 -23.23575 4294967295
-35.996777 36.490723 -23.182802 4294967295
-35.995964 36.956017 -23.245075 4294967295
-35.991283 39.127083 -23.529119 4294967295
-35.990799 37.112682 -23.230251 4294967295
-35.990017 34.942223 -22.906252 4294967295
-35.986881 34.632942 -22.837948 4294967295
-35.986195 39.903446 -23.605648 4294967295
-35.980362 40.21534 -23.608665 4294967295
-35.977444 37.582058 -23.201305 4294967295
-35.977257 35.256237 -22.858902 4294967295
-35.974514 36.032536 -22.952669 4294967295
-35.968472 38.360073 -23.249693 4294967295
-35.952461 38.830528 -23.201464 4294967295
-35.951645 39.450802 -23.286407 4294967295
-35.951527 38.055721 -23.08103 4294967295
-35.949112 37.281219 -22.949795 4294967295
-35.935085 39.611614 -23.188742 4294967295
-35.926102 40.544827 -23.259773 4294967295
-35.907578 40.086452 -23.056988 4294967295
-35.890251 34.457882 -23.253691 4294967295
-35.859898 35.242001 -23.146816 4294967295
-35.82777 37.887451 -23.299608 4294967295
-35.826805 38.817642 -23.428793 4294967295
-35.824768 35.717834 -22.959841 4294967295
-35.796009 38.983192 -23.228033 4294967295
-35.757423 39.306614 -22.993467 4294967295
-35.750786 39.619072 -22.990734 4294967295
-35.741577 40.707752 -23.082863 4294967295
-35.726433 34.612556 -23.226244 4294967295
-35.689262 35.088696 -23.024839 4294967295
-35.689083 35.398895 -23.068954 4294967295
-35.688026 34.933979 -22.993174 4294967295
-35.687099 35.864681 -23.122667 4294967295
-35.686394 36.795113 -23.253698 4294967295
-35.685825 34.469326 -22.909109 4294967295
-35.684303 36.175644 -23.147779 4294967295
-35.682842 37.261288 -23.296028 4294967295
-35.675461 37.883701 -23.333275 4294967295
-35.673325 38.039406 -23.340479 4294967295
-35.665016 37.422089 -23.189547 4294967295
-35.661671 39.593109 -23.482841 4294967295
-35.661251 38.508434 -23.321062 4294967295
-35.658928 36.648777 -23.031958 4294967295
-35.657562 35.718639 -22.885864 4294967295
-35.655933 40.059986 -23.509291 4294967295
-35.655407 35.253918 -22.802114 4294967295
-35.649845 35.565865 -22.80723 4294967295
-35.64658 36.962856 -22.987888 4294967295
-35.645863 38.823669 -23.254961 4294967295
-35.645775 36.497833 -22.913937 4294967295
-35.642452 40.374714 -23.45701 4294967295
-35.638535 39.911201 -23.360632 4294967295
-35.618992 39.453041 -23.151083 4294967295
-35.61446 38.989464 -23.050203 4294967295
-35.613476 39.765049 -23.156487 4294967295
-35.61237 40.230518 -23.216526 4294967295
-35.583702 40.550907 -23.054333 4294967295
-35.543446 34.772888 -23.060293 4294967295
-35.519619 38.036121 -23.364027 4294967295
-35.512577 36.022842 -23.018391 4294967295
-35.491962 40.835117 -23.571861 4294967295
-35.4627 37.899906 -22.929777 4294967295
-35.396084 34.922775 -23.152483 4294967295
-35.391537 35.079189 -23.142288 4294967295
-35.38512 35.856403 -23.209236 4294967295
-35.380291 34.617237 -22.993063 4294967295
-35.374409 37.100021 -23.31308 4294967295
-35.372589 34.774597 -22.960102 4294967295
-35.366936 35.396698 -23.00993 4294967295
-35.359863 35.709034 -23.004162 4294967295
-35.359127 38.190086 -23.361263 4294967295
-35.358715 35.244049 -22.927891 4294967295
-35.352554 37.417126 -23.200607 4294967295
-35.35247 38.347317 -23.335878 4294967295
-35.338188 39.437195 -23.391283 4294967295
-35.337803 39.127331 -23.343216 4294967295
-35.336487 40.522606 -23.537436 4294967295
-35.33514 36.80241 -22.984274 4294967295
-35.333084 36.027458 -22.856106 4294967295
-35.331993 40.059315 -23.437109 4294967295
-35.331837 37.73399 -23.096357 4294967295
-35.318626 39.754036 -23.295412 4294967295
-35.314854 36.498547 -22.792463 4294967295
-35.310818 38.671417 -23.080559 4294967295
-35.308693 39.602486 -23.201096 4294967295
-35.278263 40.85368 -23.162701 4294967295
-35.267502 40.237282 -22.994492 4294967295
-35.259464 40.705433 -23.00448 4294967295
-35.215279 36.788387 -23.252342 4294967295
-35.209221 35.549683 -23.027584 4294967295
-35.201115 39.118198 -23.489611 4294967295
-35.19561 38.500092 -23.35951 4294967295
-35.194473 36.639881 -23.079773 4294967295
-35.19442 38.190456 -23.305691 4294967295
-35.170387 39.748825 -23.358784 4294967295
-35.170048 40.833855 -23.514616 4294967295
-35.162712 37.115269 -22.918783 4294967295
-35.158344 37.426918 -22.932587 4294967295
-35.151211 40.220646 -23.28853 4294967295
-35.13652 38.67506 -22.956465 4294967295
-35.127689 40.539139 -23.164413 4294967295
-35.079723 34.608601 -23.090036 4294967295
-35.078171 34.919239 -23.124105 4294967295
-35.076233 35.850243 -23.245861 4294967295
-35.068256 36.1628 -23.233704 4294967295
-35.057732 34.459843 -22.909143 4294967295
-35.047661 38.339863 -23.402079 4294967295
-35.040985 34.775005 -22.833872 4294967295
-35.030304 35.398796 -22.847525 4294967295
-35.025402 38.037178 -23.196779 4294967295
-35.022915 38.968285 -23.314539 4294967295
-35.022148 36.02187 -22.879345 4294967295
-35.019131 35.712479 -22.812397 4294967295
-35.018444 36.643566 -22.943201 4294967295
-35.017231 36.799076 -22.957083 4294967295
-35.006149 37.112846 -22.922615 4294967295
-35.005085 37.423443 -22.960222 4294967295
-35.003841 38.819717 -23.154797 4294967295
-34.993401 40.528862 -23.32836 4294967295
-34.991058 39.90955 -23.221132 4294967295
-34.990612 37.7384 -22.90135 4294967295
-34.985779 38.515621 -22.979702 4294967295
-34.985157 40.841881 -23.314314 4294967295
-34.984749 38.671082 -22.994902 4294967295
-34.98238 40.222721 -23.203968 4294967295
-34.978161 39.603924 -23.08322 4294967295
-34.972187 39.140686 -22.972425 4294967295
-34.962578 39.764458 -22.993811 4294967295
-34.956474 40.076817 -22.995157 4294967295
-34.921059 35.382175 -23.191219 4294967295
-34.906425 37.092319 -23.33466 4294967295
-34.890522 35.23616 -22.94928 4294967295
-34.883114 36.944664 -23.144686 4294967295
-34.882084 37.875401 -23.272823 4294967295
-34.879955 36.480366 -23.054211 4294967295
-34.868763 39.740223 -23.448206 4294967295
-34.866341 38.500824 -23.250191 4294967295
-34.864914 37.415752 -23.081799 4294967295
-34.861797 34.623878 -22.652479 4294967295
-34.851234 40.056396 -23.367592 4294967295
-34.846844 40.833015 -23.448963 4294967295
-34.838547 38.199905 -23.005482 4294967295
-34.756565 35.382076 -23.137665 4294967295
-34.735798 34.922832 -22.921 4294967295
-34.732864 37.405468 -23.26125 4294967295
-34.726788 35.701244 -22.969324 4294967295
-34.713573 34.463726 -22.693846 4294967295
-34.71154 35.240314 -22.79224 4294967295
-34.710133 37.878059 -23.166071 4294967295
-34.709496 36.016792 -22.890543 4294967295
-34.704781 40.205551 -23.466181 4294967295
-34.703621 36.639217 -22.938782 4294967295
-34.703178 37.104767 -23.003359 4294967295
-34.700508 34.777939 -22.645359 4294967295
-34.700092 35.088497 -22.687557 4294967295
-34.688568 36.799091 -22.85346 4294967295
-34.683144 39.437916 -23.1984 4294967295
-34.68222 38.197441 -23.011229 4294967295
-34.676155 38.819935 -23.058065 4294967295
-34.675064 38.510067 -23.005087 4294967295
-34.673759 37.579636 -22.860268 4294967295
-34.665848 38.668285 -22.961634 4294967295
-34.665516 38.978653 -23.004421 4294967295
-34.664791 40.684902 -23.247475 4294967295
-34.664764 37.737717 -22.818396 4294967295
-34.660999 39.910866 -23.107502 4294967295
-34.635914 40.385044 -22.99555 4294967295
-34.632519 40.075985 -22.926107 4294967295
-34.583466 36.160126 -23.135614 4294967295
-34.567631 36.940571 -23.135115 4294967295
-34.558727 35.547058 -22.868328 4294967295
-34.537643 40.517052 -23.439228 4294967295
-34.527695 38.194378 -23.02989 4294967295
-34.517975 38.973232 -23.073164 4294967295
-34.516666 36.335819 -22.680204 4294967295
-34.47237 40.850597 -23.017776 4294967295
-34.441971 34.912189 -23.066584 4294967295
-34.430668 36.466721 -23.211262 4294967295
-34.42979 34.760582 -22.957012 4294967295
-34.426113 34.451298 -22.885649 4294967295
-34.41642 35.229984 -22.929142 4294967295
-34.398746 36.166286 -22.938211 4294967295
-34.395672 35.546505 -22.826033 4294967295
-34.392136 37.874866 -23.138962 4294967295
-34.391724 35.85807 -22.842943 4294967295
-34.390179 37.565269 -23.079903 4294967295
-34.389935 37.099945 -23.01053 4294967295
-34.386787 36.790634 -22.94297 4294967295
-34.384941 38.65274 -23.200258 4294967295
-34.380703 36.637363 -22.876993 4294967295
-34.378475 38.344685 -23.109041 4294967295
-34.376003 40.051449 -23.339205 4294967295
-34.369659 37.41671 -22.910864 4294967295
-34.369305 38.968197 -23.133713 4294967295
-34.366474 37.728065 -22.933208 4294967295
-34.366165 39.43457 -23.178898 4294967295
-34.362167 38.039783 -22.947535 4294967295
-34.357136 40.368229 -23.24964 4294967295
-34.332973 40.687012 -23.122274 4294967295
-34.322224 39.139309 -22.820198 4294967295
-34.318787 39.761192 -22.885839 4294967295
-34.256996 36.31443 -23.070492 4294967295
-34.253426 36.780933 -23.112593 4294967295
-34.239193 38.181496 -23.213808 4294967295
-34.218857 35.394802 -22.663351 4294967295
-34.191624 39.903763 -23.122543 4294967295
-34.182606 38.665657 -22.878136 4294967295
-34.12656 35.062988 -23.080429 4294967295
-34.120228 34.909679 -23.01284 4294967295
-34.11758 34.600098 -22.948977 4294967295
-34.088303 35.384583 -22.853134 4294967295
-34.086452 36.626583 -23.020048 4294967295
-34.086365 36.781765 -23.041925 4294967295
-34.084877 36.006382 -22.918808 4294967295
-34.076038 38.801685 -23.260931 4294967295
-34.068085 37.563313 -23.024395 4294967295
-34.066883 35.235676 -22.678143 4294967295
-34.066734 38.029186 -23.08227 4294967295
-34.062489 37.409939 -22.962065 4294967295
-34.0583 37.10091 -22.887262 4294967295
-34.054871 37.877895 -22.975397 4294967295
-34.053467 36.481594 -22.762794 4294967295
-34.051483 39.895714 -23.243755 4294967295
-34.04966 38.500237 -23.028339 4294967295
-34.046421 35.862778 -22.622591 4294967295
-34.044838 40.828548 -23.331406 4294967295
-34.039795 38.968987 -23.025667 4294967295
-34.036617 39.59063 -23.093065 4294967295
-34.030003 40.058311 -23.113499 4294967295
-34.025108 38.663567 -22.876209 4294967295
-34.024975 39.12915 -22.942778 4294967295
-34.024963 37.266674 -22.672571 4294967295
-34.022251 40.371288 -23.103382 4294967295
-34.010067 39.444584 -22.881763 4294967295
-33.999214 40.689743 -22.984587 4294967295
-33.994221 40.226002 -22.881594 4294967295
-33.957451 35.52964 -23.062691 4294967295
-33.946915 35.998272 -23.055302 4294967295
-33.910152 34.456852 -22.569094 4294967295
-33.907829 34.923347 -22.620132 4294967295
-33.894531 36.169357 -22.70566 4294967295
-33.88895 36.947258 -22.778502 4294967295
-33.882557 38.03577 -22.890547 4294967295
-33.880844 38.501892 -22.945858 4294967295
-33.871727 36.642128 -22.611183 4294967295
-33.857319 39.906429 -22.981182 4294967295
-33.803715 35.060799 -23.019455 4294967295
-33.798836 34.751839 -22.939888 4294967295
-33.796387 35.528477 -23.034878 4294967295
-33.787544 35.220711 -22.92724 4294967295
-33.78532 34.600498 -22.82155 4294967295
-33.778004 35.999516 -22.971931 4294967295
-33.771793 37.39793 -23.130114 4294967295
-33.765457 37.244785 -23.062737 4294967295
-33.765362 35.382446 -22.792381 4294967295
-33.764912 36.93462 -23.013935 4294967295
-33.752533 37.869556 -23.060984 4294967295
-33.748348 36.474159 -22.829094 4294967295
-33.747513 38.026348 -23.047853 4294967295
-33.741081 39.734993 -23.249315 4294967295
-33.739525 36.166382 -22.721565 4294967295
-33.72942 39.428741 -23.121777 4294967295
-33.728657 40.514854 -23.273561 4294967295
-33.728146 38.963718 -23.045368 4294967295
-33.724461 40.050987 -23.17647 4294967295
-33.723312 38.189415 -22.898792 4294967295
-33.722103 37.724174 -22.82283 4294967295
-33.719639 38.345818 -22.895247 4294967295
-33.718952 40.828506 -23.249706 4294967295
-33.718025 38.811932 -22.951206 4294967295
-33.717144 39.122589 -22.989893 4294967295
-33.711628 39.589977 -23.018185 4294967295
-33.68684 40.684807 -22.999781 4294967295
-33.680595 39.911045 -22.843252 4294967295
-33.60009 34.916683 -22.66802 4294967295
-33.590271 38.644783 -23.13744 4294967295
-33.589657 34.6091 -22.549221 4294967295
-33.580795 37.561626 -22.913279 4294967295
-33.563335 37.25671 -22.744801 4294967295
-33.519722 40.531006 -22.907768 4294967295
-33.479866 34.903652 -22.929792 4294967295
-33.471127 34.440453 -22.80069 4294967295
-33.467838 35.528023 -22.934557 4294967295
-33.460529 35.840622 -22.927774 4294967295
-33.456699 35.220833 -22.810955 4294967295
-33.442837 36.932484 -22.959831 4294967295
-33.431442 39.41885 -23.238144 4294967295
-33.431267 37.556934 -22.967834 4294967295
-33.430168 35.694424 -22.690792 4294967295
-33.425766 38.800179 -23.1084 4294967295
-33.425468 36.161644 -22.724928 4294967295
-33.417519 37.716534 -22.893158 4294967295
-33.415398 38.493252 -22.990324 4294967295
-33.414253 36.47559 -22.690582 4294967295
-33.414082 38.959244 -23.048323 4294967295
-33.405651 37.099327 -22.71958 4294967295
-33.405491 39.893166 -23.122179 4294967295
-33.397213 38.033535 -22.794619 4294967295
-33.394421 40.672791 -23.156122 4294967295
-33.391003 40.518845 -23.109594 4294967295
-33.389 40.209213 -23.050621 4294967295
-33.385571 39.744843 -22.959139 4294967295
-33.382618 39.124996 -22.848577 4294967295
-33.375469 40.058727 -22.932695 4294967295
-33.351261 40.843281 -22.873941 4294967295
-33.289925 34.444843 -22.631599 4294967295
-33.288837 37.239616 -23.027517 4294967295
-33.288151 36.463779 -22.910606 4294967295
-33.287014 37.395382 -23.037069 4294967295
-33.269188 38.332249 -23.045856 4294967295
-33.238457 38.807983 -22.896473 4294967295
-33.218082 37.727783 -22.595911 4294967295
-33.217678 37.572605 -22.570639 4294967295
-33.206093 39.284546 -22.735617 4294967295
-33.205994 40.371273 -22.891796 4294967295
-33.152348 34.747444 -22.815248 4294967295
-33.142704 35.216003 -22.814568 4294967295
-33.140732 34.440182 -22.688629 4294967295
-33.13905 35.527588 -22.833633 4294967295
-33.122833 38.171314 -23.100243 4294967295
-33.122826 35.842915 -22.764212 4294967295
-33.122536 36.464043 -22.851807 4294967295
-33.10936 35.070374 -22.557369 4294967295
-33.108181 36.313141 -22.728352 4294967295
-33.103199 39.108875 -23.096397 4294967295
-33.101574 36.780991 -22.749052 4294967295
-33.100109 40.506348 -23.276072 4294967295
-33.099617 37.557903 -22.847286 4294967295
-33.09483 38.335625 -22.925564 4294967295
-33.090694 35.697151 -22.515583 4294967295
-33.088417 36.940342 -22.678843 4294967295
-33.083378 37.873592 -22.777788 4294967295
-33.079861 37.253593 -22.663422 4294967295
-33.079666 38.806297 -22.886047 4294967295
-33.079002 39.582623 -22.993351 4294967295
-33.075844 38.031284 -22.747171 4294967295
-33.071255 37.722195 -22.670073 4294967295
-33.064667 40.053165 -22.959652 4294967295
-33.059437 38.968269 -22.766136 4294967295
-33.055141 40.832531 -23.004612 4294967295
-33.041367 39.905956 -22.773376 4294967295
-33.033554 40.374439 -22.785627 4294967295
-33.027088 39.755577 -22.650562 4294967295
-32.975754 34.750587 -22.679382 4294967295
-32.958405 37.240105 -22.915642 4294967295
-32.957165 38.482231 -23.085905 4294967295
-32.956608 35.377338 -22.634378 4294967295
-32.943642 36.15773 -22.655212 4294967295
-32.9282 39.57827 -23.039091 4294967295
-32.926186 39.889355 -23.069668 4294967295
-32.911495 36.633461 -22.496492 4294967295
-32.879837 38.662857 -22.565165 4294967295
-32.8451 34.430099 -22.82173 4294967295
-32.821407 34.592068 -22.677849 4294967295
-32.812992 36.147415 -22.842516 4294967295
-32.80854 35.682899 -22.74416 4294967295
-32.795238 36.929165 -22.829792 4294967295
-32.792923 38.327095 -23.014788 4294967295
-32.792801 37.861446 -22.946875 4294967295
-32.792355 37.240589 -22.854311 4294967295
-32.789867 35.843731 -22.635534 4294967295
-32.789536 34.756439 -22.476555 4294967295
-32.788868 35.067345 -22.516649 4294967295
-32.788742 36.620598 -22.739504 4294967295
-32.773361 39.730492 -23.078808 4294967295
-32.771996 38.644394 -22.912766 4294967295
-32.771645 36.470497 -22.5972 4294967295
-32.768166 37.558746 -22.729382 4294967295
-32.764732 38.957279 -22.906572 4294967295
-32.762264 37.405308 -22.665642 4294967295
-32.755791 38.028572 -22.709726 4294967295
-32.747334 39.428856 -22.851675 4294967295
-32.740257 38.499512 -22.667906 4294967295
-32.7402 40.828453 -23.002836 4294967295
-32.739494 40.207783 -22.908495 4294967295
-32.73521 39.898754 -22.833761 4294967295
-32.726482 39.125282 -22.660776 4294967295
-32.7131 39.595711 -22.634087 4294967295
-32.71175 40.52795 -22.758783 4294967295
-32.672226 35.053291 -22.801971 4294967295
-32.659683 34.901581 -22.691744 4294967295
-32.641659 35.528069 -22.654949 4294967295
-32.62582 36.15406 -22.63345 4294967295
-32.607235 36.781025 -22.592733 4294967295
-32.606831 40.507534 -23.126064 4294967295
-32.592117 38.028378 -22.665716 4294967295
-32.550224 39.750736 -22.618376 4294967295
-32.528332 40.690247 -22.599279 4294967295
-32.496468 36.609211 -22.896357 4294967295
-32.487701 35.990696 -22.745777 4294967295
-32.486526 35.059078 -22.603529 4294967295
-32.483944 38.165634 -23.032078 4294967295
-32.480705 35.837452 -22.674528 4294967295
-32.480003 37.70116 -22.93758 4294967295
-32.477314 34.750984 -22.494436 4294967295
-32.476902 34.595722 -22.469215 4294967295
-32.473648 38.789898 -23.049398 4294967295
-32.460449 34.444942 -22.331804 4294967295
-32.45948 36.154442 -22.570827 4294967295
-32.454327 35.534492 -22.445446 4294967295
-32.450897 39.107899 -22.935114 4294967295
-32.44405 37.246559 -22.619352 4294967295
-32.435955 38.491699 -22.741423 4294967295
-32.432552 36.784039 -22.471987 4294967295
-32.429043 40.667789 -23.005629 4294967295
-32.422508 39.738503 -22.826099 4294967295
-32.421684 37.874981 -22.552397 4294967295
-32.419922 37.409447 -22.473082 4294967295
-32.416031 40.36182 -22.870144 4294967295
-32.413956 38.032806 -22.520727 4294967295
-32.412537 38.654663 -22.600164 4294967295
-32.409981 40.208637 -22.805557 4294967295
-32.407558 39.588268 -22.699364 4294967295
-32.405968 39.433487 -22.665924 4294967295
-32.377789 40.841045 -22.670046 4294967295
-32.308121 36.461018 -22.657719 4294967295
-32.270302 38.647503 -22.70632 4294967295
-32.242966 39.122509 -22.582628 4294967295
-32.170612 34.588581 -22.528723 4294967295
-32.158325 35.83506 -22.621563 4294967295
-32.155258 35.059086 -22.488684 4294967295
-32.150051 36.148224 -22.608555 4294967295
-32.147709 34.905834 -22.413786 4294967295
-32.137959 35.530262 -22.435099 4294967295
-32.137245 40.189934 -23.09886 4294967295
-32.13345 38.793896 -22.871946 4294967295
-32.127991 39.261547 -22.900799 4294967295
-32.125027 37.7094 -22.657276 4294967295
-32.115566 36.624725 -22.435289 4294967295
-32.115448 37.090939 -22.501354 4294967295
-32.112335 37.402664 -22.524305 4294967295
-32.109966 38.180233 -22.619303 4294967295
-32.106995 38.33654 -22.620913 4294967295
-32.105858 39.579536 -22.791313 4294967295
-32.103176 36.939316 -22.393606 4294967295
-32.102604 39.891243 -22.813238 4294967295
-32.099213 36.78511 -22.343704 4294967295
-32.096512 40.825066 -22.904539 4294967295
-32.079338 40.365143 -22.718191 4294967295
-32.052254 40.529858 -22.552025 4294967295
-32.026161 35.359337 -22.730379 4294967295
-32.012856 36.139904 -22.749273 4294967295
-31.999823 37.85231 -22.903681 4294967295
-31.993595 37.077709 -22.749025 4294967295
-31.979641 34.595596 -22.295393 4294967295
-31.978401 34.906834 -22.331364 4294967295
-31.960062 35.222958 -22.248421 4294967295
-31.929291 40.049824 -22.725351 4294967295
-31.92005 39.742275 -22.616623 4294967295
-31.84145 35.209469 -22.51853 4294967295
-31.837383 35.676826 -22.557116 4294967295
-31.836523 34.589203 -22.395231 4294967295
-31.834581 38.00787 -22.87158 4294967295
-31.833042 36.765713 -22.682842 4294967295
-31.831354 34.435207 -22.337065 4294967295
-31.829325 39.407124 -23.035341 4294967295
-31.825922 34.747612 -22.343912 4294967295
-31.817108 37.081306 -22.616795 4294967295
-31.815226 37.703331 -22.692778 4294967295
-31.813896 40.499134 -23.084024 4294967295
-31.813423 35.994659 -22.435345 4294967295
-31.805964 38.948982 -22.806568 4294967295
-31.805714 39.880875 -22.938328 4294967295
-31.805187 36.618771 -22.46727 4294967295
-31.800198 40.348595 -22.966797 4294967295
-31.794367 39.574097 -22.815134 4294967295
-31.790779 40.196541 -22.87925 4294967295
-31.786997 37.401394 -22.452389 4294967295
-31.775473 38.492847 -22.528292 4294967295
-31.77508 40.667862 -22.837126 4294967295
-31.773781 38.182598 -22.472027 4294967295
-31.762573 37.875317 -22.349737 4294967295
-31.760918 39.740681 -22.605425 4294967295
-31.758186 39.120064 -22.497438 4294967295
-31.703598 34.890759 -22.609976 4294967295
-31.678278 36.141148 -22.612514 4294967295
-31.652597 38.479481 -22.768263 4294967295
-31.64801 35.061932 -22.246984 4294967295
-31.636789 35.68705 -22.258289 4294967295
-31.629896 38.64217 -22.633316 4294967295
-31.600677 40.360928 -22.675642 4294967295
-31.58576 39.589058 -22.46118 4294967295
-31.571945 40.836983 -22.543495 4294967295
-31.517849 34.430023 -22.347477 4294967295
-31.517811 35.828926 -22.547373 4294967295
-31.513773 36.762482 -22.652821 4294967295
-31.513639 38.471321 -22.896334 4294967295
-31.508163 35.520889 -22.436165 4294967295
-31.505386 39.250542 -22.950338 4294967295
-31.504059 36.45462 -22.541183 4294967295
-31.493118 36.302464 -22.443289 4294967295
-31.490311 35.681507 -22.334923 4294967295
-31.487818 38.945679 -22.784491 4294967295
