# .PCD v0.7 - Point Cloud Data file format
VERSION 0.7
FIELDS x y z rgb
SIZE 4 4 4 4
TYPE F F F U
COUNT 1 1 1 1
WIDTH 1148
HEIGHT 1
VIEWPOINT 0 0 0 1 0 0 0
POINTS 1148
DATA ascii
55.529121 19.829056 -12.742806 4294967295
55.536465 20.639196 -12.805472 4294967295
55.540634 22.096769 -12.950462 4294967295
55.547478 21.935331 -12.908343 4294967295
55.550785 19.50635 -12.630136 4294967295
55.555027 17.551786 -12.99899 4294967295
55.559814 17.228233 -12.946451 4294967295
55.573578 18.685751 -13.057242 4294967295
55.575665 19.18372 -12.505999 4294967295
55.577808 16.58136 -12.811388 4294967295
55.580627 20.80389 -12.666013 4294967295
55.58255 17.876789 -12.93656 4294967295
55.587997 22.423971 -12.817408 4294967295
55.597179 16.258232 -12.706916 4294967295
55.597221 23.072416 -12.855624 4294967295
55.604435 20.967369 -12.599025 4294967295
55.609245 22.911371 -12.795074 4294967295
55.610046 21.129721 -12.596807 4294967295
55.630943 21.278894 -13.137167 4294967295
55.636993 20.308018 -13.009151 4294967295
55.643711 18.203484 -12.754436 4294967295
55.660255 19.337879 -12.819869 4294967295
55.661396 18.852127 -12.762541 4294967295
55.680061 21.929697 -13.033484 4294967295
55.681355 17.719337 -12.567187 4294967295
55.720112 18.531143 -12.518105 4294967295
55.7276 21.123238 -12.775656 4294967295
55.744865 16.739788 -12.831429 4294967295
55.759514 19.991314 -12.537805 4294967295
55.770546 19.331436 -13.024119 4294967295
55.781746 21.450716 -12.618611 4294967295
55.788895 20.465666 -13.083125 4294967295
55.805309 17.713955 -12.72304 4294967295
55.811588 22.586775 -12.636815 4294967295
55.831909 17.391186 -12.592957 4294967295
55.83387 17.553255 -12.603744 4294967295
55.834133 18.201172 -12.673832 4294967295
55.836864 22.411388 -13.12562 4294967295
55.838181 19.011187 -12.748225 4294967295
55.838593 19.659004 -12.817772 4294967295
55.842144 18.525501 -12.680865 4294967295
55.843849 19.821243 -12.816843 4294967295
55.853989 23.060169 -13.13577 4294967295
55.861839 20.955898 -12.877177 4294967295
55.865482 21.279999 -12.899734 4294967295
55.872482 16.572861 -12.956136 4294967295
55.8806 18.689407 -12.56193 4294967295
55.885113 21.605167 -12.865483 4294967295
55.88657 20.633539 -12.753787 4294967295
55.902519 19.986572 -12.626098 4294967295
55.923977 18.517878 -12.986154 4294967295
55.926014 19.177809 -12.453782 4294967295
55.928165 17.708527 -12.882548 4294967295
55.933861 19.502298 -12.461418 4294967295
55.945267 22.90506 -12.793806 4294967295
55.94883 21.933424 -12.674626 4294967295
55.959274 22.582129 -12.708541 4294967295
55.967945 18.034216 -12.776759 4294967295
55.976418 17.386753 -12.675661 4294967295
55.984257 17.063128 -12.612303 4294967295
55.989338 20.302441 -12.949246 4294967295
56.014732 21.437469 -12.983296 4294967295
56.053715 17.055637 -12.961309 4294967295
56.066502 18.84897 -12.515498 4294967295
56.06731 22.250725 -12.885405 4294967295
56.102219 23.063049 -12.850239 4294967295
56.135262 21.607439 -12.573225 4294967295
56.165649 19.004057 -12.777028 4294967295
56.169144 20.461802 -12.924308 4294967295
56.172451 16.412443 -12.468912 4294967295
56.179844 21.434055 -12.9928 4294967295
56.196712 17.223549 -12.471566 4294967295
56.199818 21.111479 -12.886483 4294967295
56.200027 16.403721 -12.966269 4294967295
56.200775 22.40703 -13.025 4294967295
56.205006 19.654079 -12.708385 4294967295
56.219543 17.052116 -12.96801 4294967295
56.236752 19.817862 -12.613523 4294967295
56.236858 16.567036 -12.853398 4294967295
56.238602 20.303989 -12.660212 4294967295
56.23896 17.711517 -12.374905 4294967295
56.240639 22.085947 -12.848183 4294967295
56.244026 20.790319 -12.694211 4294967295
56.246262 21.924366 -12.810499 4294967295
56.255272 21.601011 -12.743058 4294967295
56.259449 18.18729 -12.950683 4294967295
56.272724 20.143982 -12.521423 4294967295
56.274689 22.898254 -12.816166 4294967295
56.277634 23.060453 -12.823465 4294967295
56.281322 17.702488 -12.819921 4294967295
56.282555 22.574858 -12.752784 4294967295
56.283058 17.21669 -12.760547 4294967295
56.290447 20.955242 -12.547322 4294967295
56.299122 19.160856 -12.916473 4294967295
56.336273 21.915819 -13.086293 4294967295
56.339375 18.515064 -12.702839 4294967295
56.363045 18.678238 -12.636672 4294967295
56.371704 19.002693 -12.641473 4294967295
56.373413 22.889971 -13.061112 4294967295
56.376514 18.354872 -12.553438 4294967295
56.388386 19.489611 -12.635588 4294967295
56.405178 18.032148 -12.416336 4294967295
56.456902 19.804695 -13.022833 4294967295
56.460197 18.0235 -12.816119 4294967295
56.492355 17.863001 -12.684492 4294967295
56.493031 23.060848 -12.655185 4294967295
56.49403 16.72901 -12.554382 4294967295
56.496422 19.159069 -12.811987 4294967295
56.501457 18.187416 -12.687739 4294967295
56.50856 20.617414 -12.928604 4294967295
56.512741 19.969822 -12.842871 4294967295
56.524158 16.892237 -12.465401 4294967295
56.539291 22.724726 -13.050304 4294967295
56.545013 18.351515 -12.551219 4294967295
56.548298 17.703501 -12.468619 4294967295
56.552536 21.268038 -12.843866 4294967295
56.553185 19.000046 -12.593248 4294967295
56.564758 20.782846 -12.747396 4294967295
56.565895 20.296902 -12.690162 4294967295
56.575874 22.403452 -12.885392 4294967295
56.576733 22.079557 -12.84689 4294967295
56.57708 18.677183 -12.473153 4294967295
56.586803 21.756266 -12.775774 4294967295
56.600929 17.047104 -12.805554 4294967295
56.60181 17.209106 -12.820168 4294967295
56.603306 20.947269 -12.628676 4294967295
56.612316 21.595964 -12.667743 4294967295
56.614815 21.434101 -12.641156 4294967295
56.62175 16.399984 -12.660942 4294967295
56.635906 18.506384 -12.841369 4294967295
56.639755 18.99247 -12.880938 4294967295
56.655567 17.69738 -12.683145 4294967295
56.666073 19.641747 -12.858745 4294967295
56.680801 17.860529 -12.611592 4294967295
56.689259 16.240438 -12.404275 4294967295
56.706833 17.375559 -12.466267 4294967295
56.729012 19.159142 -12.582914 4294967295
56.738876 19.969856 -12.636692 4294967295
56.818733 22.729679 -12.65578 4294967295
56.818771 21.595293 -12.531497 4294967295
56.8204 22.405704 -12.614415 4294967295
56.822792 19.637804 -12.898087 4294967295
56.82703 16.721977 -12.564005 4294967295
56.835018 17.694479 -12.642158 4294967295
56.836899 22.893061 -12.609292 4294967295
56.85215 17.371161 -12.546124 4294967295
56.872829 21.098562 -12.880787 4294967295
56.885487 18.831112 -12.587873 4294967295
56.886215 22.07132 -12.939827 4294967295
56.893726 16.886675 -12.345922 4294967295
56.905708 20.614603 -12.711437 4294967295
56.906288 19.804478 -12.620751 4294967295
56.910927 22.397013 -12.887983 4294967295
56.922417 17.049938 -12.262224 4294967295
56.928612 18.022852 -12.346762 4294967295
56.931522 21.750414 -12.744336 4294967295
56.939583 18.347572 -12.343457 4294967295
56.942799 18.50983 -12.349833 4294967295
56.945728 20.454981 -12.552305 4294967295
56.952271 18.984562 -12.962713 4294967295
56.960976 21.266235 -12.587098 4294967295
56.969894 20.132254 -12.431448 4294967295
56.984406 18.338259 -12.778368 4294967295
56.985157 20.781536 -12.44846 4294967295
57.007423 18.501385 -12.714807 4294967295
57.021748 19.150173 -12.735113 4294967295
57.040203 16.234011 -12.350816 4294967295
57.054176 19.962059 -12.709241 4294967295
57.055637 20.77224 -12.792691 4294967295
57.090282 19.315857 -12.510852 4294967295
57.097706 17.695276 -12.307313 4294967295
57.100616 21.423197 -12.704817 4294967295
57.106663 16.388857 -12.726714 4294967295
57.133224 23.045832 -12.766963 4294967295
57.148075 21.102133 -12.501859 4294967295
57.159748 21.751242 -12.531572 4294967295
57.159981 19.631235 -12.892926 4294967295
57.164062 18.659466 -12.772238 4294967295
57.166306 21.58959 -12.490703 4294967295
57.173977 17.039597 -12.560047 4294967295
57.183765 16.715864 -12.490048 4294967295
57.191124 22.888058 -12.544943 4294967295
57.191208 20.442987 -12.871356 4294967295
57.192295 22.401859 -12.487624 4294967295
57.198357 18.175035 -12.598079 4294967295
57.202934 18.985487 -12.670536 4294967295
57.207653 19.309809 -12.689332 4294967295
57.208851 17.203102 -12.454709 4294967295
57.218765 16.230907 -12.313355 4294967295
57.221649 17.851982 -12.480453 4294967295
57.225098 22.875029 -13.017538 4294967295
57.239296 23.038059 -12.985195 4294967295
57.242374 20.121958 -12.655465 4294967295
57.246605 21.580544 -12.800015 4294967295
57.25449 21.905119 -12.807634 4294967295
57.257744 16.880878 -12.246716 4294967295
57.269287 19.475195 -12.489652 4294967295
57.282249 19.151693 -12.408466 4294967295
57.285126 19.800255 -12.469228 4294967295
57.285995 17.195881 -12.77485 4294967295
57.303944 16.710541 -12.658431 4294967295
57.314327 22.55747 -12.66754 4294967295
57.319225 22.071604 -12.597121 4294967295
57.319656 22.719917 -12.666476 4294967295
57.334782 16.225538 -12.496543 4294967295
57.350979 20.925188 -12.953158 4294967295
57.36974 18.657974 -12.639091 4294967295
57.384407 19.955116 -12.729112 4294967295
57.389938 21.089643 -12.833621 4294967295
57.39106 17.52445 -12.439892 4294967295
57.410248 18.822079 -12.514032 4294967295
57.423416 16.867193 -12.846731 4294967295
57.434017 17.36418 -12.270733 4294967295
57.459126 22.228512 -12.713881 4294967295
57.465416 20.446056 -12.496823 4294967295
57.474041 17.193277 -12.703841 4294967295
57.479443 21.581602 -12.571448 4294967295
57.482021 19.461836 -12.923635 4294967295
57.486546 18.652058 -12.819181 4294967295
57.490959 18.004179 -12.732803 4294967295
57.509781 18.167093 -12.684231 4294967295
57.510971 17.356876 -12.59148 4294967295
57.512127 22.556414 -12.562623 4294967295
57.515423 22.880844 -12.586454 4294967295
57.525326 18.816032 -12.700332 4294967295
57.529121 20.274521 -12.846349 4294967295
57.529755 22.07132 -12.447381 4294967295
57.53138 17.6819 -12.555024 4294967295
57.533321 17.033651 -12.477325 4294967295
57.54184 21.895382 -12.978627 4294967295
57.55806 16.224047 -12.301596 4294967295
57.562317 21.410719 -12.853443 4294967295
57.563297 20.762659 -12.779165 4294967295
57.568077 19.790638 -12.656089 4294967295
57.573215 20.439169 -12.708838 4294967295
57.580181 19.953388 -12.631186 4294967295
57.580589 18.332529 -12.452596 4294967295
57.586536 22.870562 -12.92755 4294967295
57.58823 19.305508 -12.531995 4294967295
57.589802 16.215647 -12.781156 4294967295
57.606339 22.385902 -12.804767 4294967295
57.635887 20.118683 -12.452798 4294967295
57.636154 22.063862 -12.664422 4294967295
57.641186 17.02776 -12.688862 4294967295
57.643574 21.253916 -12.54974 4294967295
57.648243 16.54188 -12.610899 4294967295
57.692936 23.040472 -12.570884 4294967295
57.698658 19.137047 -12.716838 4294967295
57.705212 21.081821 -12.906214 4294967295
57.707626 18.003019 -12.561325 4294967295
57.717136 18.975946 -12.63413 4294967295
57.741154 19.463444 -12.602773 4294967295
57.756855 18.491653 -12.441274 4294967295
57.757698 17.194635 -12.296576 4294967295
57.799076 16.213646 -12.635657 4294967295
57.802994 18.320318 -12.851999 4294967295
57.809032 20.926279 -12.523433 4294967295
57.810371 21.736889 -12.607261 4294967295
57.81422 21.25083 -12.540611 4294967295
57.822693 17.186922 -12.658841 4294967295
57.824249 19.131479 -12.865775 4294967295
57.825607 20.440914 -12.411997 4294967295
57.836151 19.942213 -12.912429 4294967295
57.8419 16.701468 -12.538205 4294967295
57.84322 17.673994 -12.639803 4294967295
57.843517 17.836075 -12.656448 4294967295
57.85062 19.45694 -12.808493 4294967295
57.86969 20.430237 -12.84767 4294967295
57.869747 22.713701 -12.50477 4294967295
57.87748 18.81012 -12.643301 4294967295
57.903858 22.86285 -12.993075 4294967295
57.906002 22.052891 -12.897078 4294967295
57.913139 18.001339 -12.429433 4294967295
57.914665 16.54213 -12.26467 4294967295
57.914932 21.567368 -12.812617 4294967295
57.918972 22.539896 -12.90461 4294967295
57.919945 20.109064 -12.635705 4294967295
57.920628 21.891848 -12.827998 4294967295
57.93438 21.08243 -12.691199 4294967295
57.938595 22.703344 -12.853381 4294967295
57.943443 18.489174 -12.37605 4294967295
57.947361 18.165066 -12.326859 4294967295
57.962254 23.029186 -12.80569 4294967295
57.97213 19.301367 -12.363793 4294967295
57.98122 18.641485 -12.851245 4294967295
57.98782 17.021294 -12.651114 4294967295
58.023663 18.805653 -12.719915 4294967295
58.065125 19.45612 -12.645134 4294967295
58.077232 20.267221 -12.691115 4294967295
58.105461 17.350399 -12.273345 4294967295
58.122162 19.945602 -12.497993 4294967295
58.138134 20.919306 -12.548139 4294967295
58.139759 18.151546 -12.831219 4294967295
58.143536 17.989679 -12.800285 4294967295
58.152542 19.12438 -12.892511 4294967295
58.163513 22.866373 -12.671456 4294967295
58.165291 16.369856 -12.547015 4294967295
58.167099 19.785984 -12.322538 4294967295
58.172256 18.801308 -12.787983 4294967295
58.18214 17.018906 -12.558674 4294967295
58.186691 21.08449 -12.395411 4294967295
58.20293 16.695499 -12.450328 4294967295
58.220783 21.55891 -12.918485 4294967295
58.222202 18.965919 -12.630471 4294967295
58.227215 20.262867 -12.754426 4294967295
58.227558 20.424957 -12.770919 4294967295
58.22884 20.911228 -12.819484 4294967295
58.229229 17.831482 -12.48194 4294967295
58.231728 23.033522 -12.449815 4294967295
58.239159 18.642561 -12.535589 4294967295
58.239635 17.507671 -12.410034 4294967295
58.255959 19.291897 -12.547447 4294967295
58.268764 19.941071 -12.573324 4294967295
58.280613 22.535339 -12.814856 4294967295
58.294884 16.527031 -12.69939 4294967295
58.29792 20.104866 -12.488759 4294967295
58.304142 17.013596 -12.719996 4294967295
58.308098 22.050989 -12.665423 4294967295
58.311447 21.402748 -12.582911 4294967295
58.317989 23.024302 -12.736897 4294967295
58.321526 19.619726 -12.352878 4294967295
58.322388 21.889845 -12.597631 4294967295
58.340179 20.593819 -12.393659 4294967295
58.34037 19.446165 -12.858294 4294967295
58.378418 21.068865 -12.901826 4294967295
58.40686 17.342054 -12.395288 4294967295
58.414295 21.881481 -12.864552 4294967295
58.436127 17.181107 -12.274988 4294967295
58.454014 17.171471 -12.801136 4294967295
58.458004 18.641693 -12.357603 4294967295
58.460499 22.046701 -12.720409 4294967295
58.460617 23.019253 -12.826107 4294967295
58.463089 21.722664 -12.675955 4294967295
58.47617 22.858305 -12.753949 4294967295
58.492981 20.913925 -12.482788 4294967295
58.496086 18.469837 -12.795257 4294967295
58.496838 19.118109 -12.863338 4294967295
58.501633 17.65971 -12.687409 4294967295
58.506535 22.374126 -12.594544 4294967295
58.530807 19.768181 -12.815137 4294967295
58.532787 17.823193 -12.595997 4294967295
58.534264 19.444221 -12.767676 4294967295
58.55582 20.579987 -12.815976 4294967295
58.557678 16.851437 -12.402686 4294967295
58.557987 16.364965 -12.348525 4294967295
58.558838 16.527163 -12.36324 4294967295
58.571754 18.959887 -12.583355 4294967295
58.575901 17.500814 -12.409636 4294967295
58.57793 20.257122 -12.703219 4294967295
58.579861 18.149605 -12.466535 4294967295
58.582531 17.338934 -12.368714 4294967295
58.592255 19.609474 -12.58234 4294967295
58.611664 17.015766 -12.231302 4294967295
58.61993 19.935287 -12.520823 4294967295
58.622494 22.529364 -12.794811 4294967295
58.648899 21.072048 -12.543241 4294967295
58.64904 17.97953 -12.794917 4294967295
58.663761 17.169743 -12.655018 4294967295
58.667042 20.10014 -12.373593 4294967295
58.667255 21.397524 -12.514374 4294967295
58.678093 22.209019 -12.564892 4294967295
58.750698 23.00952 -12.987308 4294967295
58.755322 20.902807 -12.741376 4294967295
58.777298 17.336615 -12.275446 4294967295
58.779785 21.228565 -12.69119 4294967295
58.785061 16.36364 -12.142114 4294967295
58.786407 19.445406 -12.47352 4294967295
58.790092 22.526136 -12.796578 4294967295
58.790146 21.87771 -12.725683 4294967295
58.794769 19.770189 -12.479649 4294967295
58.806911 17.003187 -12.724365 4294967295
58.809437 18.960079 -12.339908 4294967295
58.815063 19.284758 -12.355614 4294967295
58.823257 20.258326 -12.433079 4294967295
58.825439 18.636473 -12.248549 4294967295
58.82613 20.74502 -12.476089 4294967295
58.829662 21.069578 -12.49911 4294967295
58.843071 21.394772 -12.487597 4294967295
58.864887 22.855768 -12.570477 4294967295
58.872845 16.681532 -12.458512 4294967295
58.875385 22.045637 -12.445354 4294967295
58.877853 17.492481 -12.529404 4294967295
58.89547 19.438894 -12.679976 4294967295
58.897869 18.141956 -12.530163 4294967295
58.902473 22.371902 -12.386026 4294967295
58.90263 17.169207 -12.407438 4294967295
58.909492 17.818174 -12.454178 4294967295
58.920856 22.19614 -12.891713 4294967295
58.929447 18.629934 -12.472839 4294967295
58.933979 16.521666 -12.227091 4294967295
58.937218 16.846214 -12.251144 4294967295
58.95219 17.657877 -12.287242 4294967295
58.964542 17.333977 -12.208694 4294967295
58.967026 16.351028 -12.68136 4294967295
58.968281 21.55089 -12.655363 4294967295
58.970184 23.010132 -12.807779 4294967295
58.990032 20.417126 -12.455634 4294967295
59.000576 22.688089 -12.666293 4294967295
59.020477 21.71649 -12.490726 4294967295
59.02702 16.191059 -12.454132 4294967295
59.07283 20.408789 -12.75367 4294967295
59.096951 20.248077 -12.651799 4294967295
59.116882 21.222109 -12.688269 4294967295
59.120518 18.952065 -12.428134 4294967295
59.123795 18.627844 -12.381331 4294967295
59.136921 22.358372 -12.742025 4294967295
59.138973 17.168556 -12.169187 4294967295
59.143539 19.115442 -12.365428 4294967295
59.146858 19.926607 -12.442242 4294967295
59.149132 20.088924 -12.451981 4294967295
59.149677 16.834433 -12.683421 4294967295
59.151363 20.899961 -12.53257 4294967295
59.160778 21.062723 -12.517394 4294967295
59.169323 20.576685 -12.43453 4294967295
59.170139 21.387676 -12.520068 4294967295
59.18153 16.673536 -12.554596 4294967295
59.199921 18.457825 -12.68479 4294967295
59.200829 22.525021 -12.536704 4294967295
59.204666 22.687477 -12.540987 4294967295
59.211559 18.134108 -12.608845 4294967295
59.215351 21.715023 -12.397634 4294967295
59.221024 17.972393 -12.558165 4294967295
59.228977 17.648424 -12.495074 4294967295
59.230179 19.594263 -12.702907 4294967295
59.231976 23.013842 -12.481046 4294967295
59.232841 19.756536 -12.711287 4294967295
54.646976 24.876806 -12.849842 4294967295
54.657669 26.011042 -12.936091 4294967295
54.662464 27.144661 -13.043412 4294967295
54.675407 26.66028 -12.943777 4294967295
54.709705 25.673746 -13.314125 4294967295
54.719463 24.21822 -13.1193 4294967295
54.72551 23.409449 -13.008802 4294967295
54.729729 26.160994 -13.295867 4294967295
54.741161 25.514765 -13.183925 4294967295
54.768211 24.54599 -12.980578 4294967295
54.770569 26.812149 -13.221007 4294967295
54.792351 23.576559 -12.787597 4294967295
54.815113 25.845181 -12.955171 4294967295
54.85099 26.98185 -12.951404 4294967295
54.852757 23.241337 -13.135524 4294967295
54.856243 24.050758 -13.211905 4294967295
54.871761 25.832005 -13.35191 4294967295
54.887497 23.405865 -13.029196 4294967295
54.891079 24.700975 -13.158572 4294967295
54.90176 23.730721 -13.01379 4294967295
54.913326 26.968565 -13.327864 4294967295
54.919609 25.674532 -13.163302 4294967295
54.934963 27.132511 -13.26838 4294967295
54.945934 26.324362 -13.140382 4294967295
54.946072 26.162518 -13.122128 4294967295
54.952419 25.353741 -13.010606 4294967295
54.96299 23.57365 -12.777305 4294967295
54.997814 24.530933 -13.358327 4294967295
55.022011 26.655363 -12.904316 4294967295
55.056015 25.021345 -13.20396 4294967295
55.10107 23.892004 -12.918828 4294967295
55.120766 24.217421 -12.884104 4294967295
55.154873 24.867977 -12.833491 4294967295
55.161133 26.811523 -13.024408 4294967295
55.190914 25.177256 -13.338668 4294967295
55.194191 26.652794 -12.888733 4294967295
55.201771 23.883512 -13.157913 4294967295
55.2034 23.398071 -13.098826 4294967295
55.204681 25.663919 -13.342866 4294967295
55.206696 24.854975 -13.246912 4294967295
55.229134 25.504286 -13.237969 4294967295
55.241653 24.210474 -13.051252 4294967295
55.255642 27.125126 -13.321059 4294967295
55.260311 26.963749 -13.28667 4294967295
55.264011 24.050404 -12.953788 4294967295
55.266567 26.316959 -13.193355 4294967295
55.27533 23.565559 -12.860136 4294967295
55.276798 25.022873 -13.014803 4294967295
55.281223 26.642069 -13.176635 4294967295
55.283497 26.156673 -13.115258 4294967295
55.308926 24.701796 -12.864761 4294967295
55.320282 25.99818 -12.966417 4294967295
55.348312 24.687851 -13.322088 4294967295
55.393402 26.795584 -13.392284 4294967295
55.415756 25.826653 -13.206199 4294967295
55.480804 25.184872 -12.903555 4294967295
55.505066 26.158657 -12.923745 4294967295
55.515385 23.875528 -13.235602 4294967295
55.545425 25.981993 -13.359441 4294967295
55.55394 24.687973 -13.187174 4294967295
55.567047 24.365322 -13.105042 4294967295
55.577587 25.661224 -13.209542 4294967295
55.581356 25.175941 -13.142893 4294967295
55.584667 25.499989 -13.166609 4294967295
55.6087 24.206842 -12.939089 4294967295
55.614227 26.473969 -13.167972 4294967295
55.625652 23.722389 -12.825488 4294967295
55.644325 24.533663 -12.847846 4294967295
55.652996 25.829943 -12.959067 4294967295
55.66272 27.126228 -13.066513 4294967295
55.66864 25.021597 -12.814629 4294967295
55.668644 25.345514 -12.850135 4294967295
55.677879 26.641926 -12.959341 4294967295
55.715008 26.626465 -13.423845 4294967295
55.729397 26.970804 -12.811643 4294967295
55.734108 23.39076 -13.001073 4294967295
55.737247 24.038631 -13.060916 4294967295
55.802826 26.149115 -13.058577 4294967295
55.834568 25.180328 -12.839256 4294967295
55.837257 24.694645 -12.776431 4294967295
55.83765 23.560743 -12.650723 4294967295
55.847183 26.962955 -12.989707 4294967295
55.87812 26.318071 -12.808777 4294967295
55.890907 27.109755 -13.448112 4294967295
55.907227 25.654621 -13.230572 4294967295
55.91214 23.550331 -12.982463 4294967295
55.923439 24.684673 -13.066551 4294967295
55.930214 25.332886 -13.113463 4294967295
55.934265 26.466503 -13.223272 4294967295
55.94371 23.87669 -12.905835 4294967295
55.951992 24.525141 -12.947417 4294967295
55.963158 26.145405 -13.085217 4294967295
55.978878 24.041471 -12.798687 4294967295
55.996716 26.634335 -13.019325 4294967295
56.006737 23.233667 -12.610967 4294967295
56.053272 24.516506 -13.183578 4294967295
56.0616 24.031498 -13.10083 4294967295
56.083496 26.785492 -13.324653 4294967295
56.086922 25.005047 -13.11742 4294967295
56.091805 23.548115 -12.940431 4294967295
56.181705 25.985106 -12.887656 4294967295
56.203606 25.501114 -12.756744 4294967295
56.206444 24.188427 -13.199985 4294967295
56.229118 25.341349 -12.648498 4294967295
56.229374 26.961508 -12.825071 4294967295
56.230537 26.313604 -12.749962 4294967295
56.252892 23.706396 -12.982129 4294967295
56.260281 26.621487 -13.275139 4294967295
56.263794 26.136139 -13.209509 4294967295
56.271793 23.869839 -12.932873 4294967295
56.274704 24.841759 -13.028978 4294967295
56.282822 25.652128 -13.088881 4294967295
56.286583 26.9478 -13.217414 4294967295
56.290024 25.005011 -12.992423 4294967295
56.295361 26.462902 -13.133126 4294967295
56.296028 24.357685 -12.900183 4294967295
56.327206 23.550224 -12.700964 4294967295
56.342064 25.171476 -12.825734 4294967295
56.350334 23.389986 -12.601225 4294967295
56.404064 27.10181 -13.41345 4294967295
56.407982 23.378378 -12.991878 4294967295
56.41507 24.512499 -13.090899 4294967295
56.451443 25.487221 -13.068495 4294967295
56.489132 26.138426 -13.005984 4294967295
56.493778 24.195034 -12.776709 4294967295
56.506523 25.816071 -12.908953 4294967295
56.507816 26.626064 -12.993038 4294967295
56.520859 25.169355 -12.787251 4294967295
56.536282 24.360531 -12.643948 4294967295
56.564114 25.641184 -13.281512 4294967295
56.577511 25.318563 -13.198683 4294967295
56.579727 26.290184 -13.297164 4294967295
56.586319 24.185804 -13.04345 4294967295
56.622124 24.350687 -12.934505 4294967295
56.623966 24.83675 -12.981174 4294967295
56.651245 23.381008 -12.725077 4294967295
56.654198 27.106876 -13.122418 4294967295
56.658325 23.705601 -12.7355 4294967295
56.659031 25.487686 -12.92806 4294967295
56.67099 25.974712 -12.93896 4294967295
56.69799 26.625181 -12.914391 4294967295
56.712879 23.369726 -13.100904 4294967295
56.75061 26.95425 -12.763771 4294967295
56.822124 25.160231 -12.90974 4294967295
56.824615 24.35042 -12.812294 4294967295
56.838688 24.189545 -12.744831 4294967295
56.850231 23.542292 -12.633104 4294967295
56.86227 25.487759 -12.803323 4294967295
56.870213 25.65049 -12.792994 4294967295
56.87532 23.204227 -13.102334 4294967295
56.890446 23.367321 -13.066633 4294967295
56.893665 26.948862 -12.851955 4294967295
56.8992 26.787369 -12.814674 4294967295
56.901836 25.977419 -12.71671 4294967295
56.941059 24.990971 -13.06508 4294967295
56.943905 25.315134 -13.090471 4294967295
56.960888 23.534716 -12.835583 4294967295
56.991806 26.777176 -13.080819 4294967295
56.992191 24.833334 -12.866839 4294967295
57.001274 23.861925 -12.728414 4294967295
57.008198 26.940723 -13.040683 4294967295
57.041126 23.703003 -12.569949 4294967295
57.049973 24.676159 -12.645102 4294967295
57.062637 23.688417 -13.086884 4294967295
57.085052 24.661955 -13.114077 4294967295
57.0942 26.300758 -12.666245 4294967295
57.109444 26.464258 -12.630163 4294967295
57.109982 26.62639 -12.645996 4294967295
57.144966 24.990974 -12.938162 4294967295
57.153984 24.181652 -12.817772 4294967295
57.157253 23.209673 -12.699906 4294967295
57.174381 23.535091 -12.674923 4294967295
57.179245 24.507788 -12.764096 4294967295
57.192707 26.615326 -12.946942 4294967295
57.19371 26.291391 -12.907977 4294967295
57.197109 23.861 -12.630177 4294967295
57.24379 25.323591 -12.625034 4294967295
57.247135 25.161795 -12.595513 4294967295
57.255745 25.648819 -12.618315 4294967295
57.296104 25.148457 -13.015206 4294967295
57.313873 24.663954 -12.899454 4294967295
57.314491 27.093878 -13.162905 4294967295
57.351173 25.963366 -12.909721 4294967295
57.354973 23.37084 -12.612866 4294967295
57.378017 25.479645 -12.761994 4294967295
57.40136 24.509163 -12.573413 4294967295
57.405769 25.806248 -12.699641 4294967295
57.410065 23.683056 -13.046049 4294967295
57.427059 26.942745 -12.748644 4294967295
57.452232 24.496395 -12.986094 4294967295
57.466473 23.849483 -12.86512 4294967295
57.47176 26.441986 -13.129786 4294967295
57.474003 23.363956 -12.785466 4294967295
57.492279 26.767889 -13.092963 4294967295
57.500248 24.33831 -12.79932 4294967295
57.502857 27.092886 -13.091146 4294967295
57.507343 25.635218 -12.916017 4294967295
57.51701 24.987906 -12.811144 4294967295
57.526779 24.016321 -12.67047 4294967295
57.54142 26.610533 -12.902311 4294967295
57.543949 25.962585 -12.822571 4294967295
57.557323 24.66716 -12.633789 4294967295
57.573727 23.679588 -13.061134 4294967295
57.603226 25.319504 -12.543052 4294967295
57.608341 25.302269 -13.116357 4294967295
57.611683 24.654596 -13.033808 4294967295
57.614258 23.844765 -12.936242 4294967295
57.617897 26.941952 -12.66857 4294967295
57.631935 23.197992 -12.803226 4294967295
57.667732 25.469467 -12.92517 4294967295
57.70731 24.014196 -12.626595 4294967295
57.724869 24.501925 -12.617955 4294967295
57.738781 26.448223 -12.781536 4294967295
57.745808 23.190771 -12.993566 4294967295
57.776119 24.3272 -13.01091 4294967295
57.805027 26.759701 -13.174734 4294967295
57.813988 24.978432 -12.948615 4294967295
57.816708 23.358162 -12.762053 4294967295
57.819435 25.627007 -13.000259 4294967295
57.825165 26.275593 -13.050906 4294967295
57.826782 25.951708 -13.009834 4294967295
57.83992 26.92503 -13.069844 4294967295
57.840744 24.494528 -12.801484 4294967295
57.843899 23.846487 -12.719589 4294967295
57.843914 24.818916 -12.825749 4294967295
57.846382 25.791441 -12.923277 4294967295
57.856693 24.171675 -12.710034 4294967295
57.877941 26.442522 -12.883195 4294967295
57.914669 26.121758 -12.71876 4294967295
57.986244 25.299793 -12.969184 4294967295
58.034878 26.600533 -12.940014 4294967295
58.03751 26.924881 -12.966164 4294967295
58.077637 23.84852 -12.489011 4294967295
58.091919 24.157339 -13.06417 4294967295
58.092506 25.146879 -12.578436 4294967295
58.104473 24.806408 -13.090872 4294967295
58.123764 26.446754 -12.610337 4294967295
58.154003 25.78282 -13.02328 4294967295
58.161327 23.676678 -12.767612 4294967295
58.163666 23.514771 -12.741707 4294967295
58.177013 26.271021 -12.995646 4294967295
58.203857 25.301029 -12.795366 4294967295
58.204422 26.43561 -12.917227 4294967295
58.223995 26.761587 -12.88397 4294967295
58.238586 25.141918 -12.655869 4294967295
58.247509 24.494131 -12.553775 4294967295
58.252316 24.980957 -12.590006 4294967295
58.264156 24.657658 -12.513076 4294967295
58.285507 27.091671 -12.703671 4294967295
58.287025 26.605429 -12.645267 4294967295
58.287468 24.480515 -13.003052 4294967295
58.296673 26.930614 -12.646837 4294967295
58.310608 25.292658 -13.010383 4294967295
58.315754 24.158705 -12.868555 4294967295
58.318367 24.320984 -12.877085 4294967295
58.343616 26.105822 -12.98314 4294967295
58.3484 25.944199 -12.948702 4294967295
58.3512 26.916765 -13.044986 4294967295
58.358768 24.810558 -12.788573 4294967295
58.449043 24.152802 -12.990395 4294967295
58.452576 26.277895 -12.619106 4294967295
58.469589 23.668242 -12.86542 4294967295
58.470577 23.34416 -12.826596 4294967295
58.495663 23.994448 -12.80949 4294967295
58.502712 25.615808 -12.961623 4294967295
58.506104 24.805735 -12.861343 4294967295
58.512569 25.454605 -12.909435 4294967295
58.526619 27.076538 -13.037048 4294967295
58.528999 24.483438 -12.745819 4294967295
58.533566 26.428942 -12.942027 4294967295
58.537167 25.132551 -12.787964 4294967295
58.570812 26.594503 -12.82934 4294967295
58.58289 26.919855 -12.822448 4294967295
58.597462 27.245481 -12.806811 4294967295
58.626965 24.636648 -13.008963 4294967295
58.630196 25.123064 -13.050691 4294967295
58.66325 25.774158 -13.00578 4294967295
58.684364 26.100191 -12.967294 4294967295
58.693336 26.587233 -12.988944 4294967295
58.711292 23.832943 -12.625585 4294967295
58.741127 24.808249 -12.627341 4294967295
58.763199 25.620909 -12.638569 4294967295
58.805458 23.824028 -12.884262 4294967295
58.807072 23.98624 -12.896297 4294967295
58.812088 23.338253 -12.808072 4294967295
58.816822 24.959507 -12.968258 4294967295
58.824074 24.311777 -12.87223 4294967295
58.860886 26.422098 -12.97333 4294967295
58.865318 25.449936 -12.851814 4294967295
58.874615 25.774969 -12.854678 4294967295
58.88279 24.802946 -12.720069 4294967295
58.888252 26.100414 -12.842378 4294967295
58.890671 27.235352 -12.957634 4294967295
58.893597 23.668747 -12.558542 4294967295
58.910576 26.913061 -12.852771 4294967295
58.913483 23.508095 -12.471342 4294967295
58.91753 26.7516 -12.810805 4294967295
58.919144 24.48164 -12.557661 4294967295
58.941223 23.656305 -12.979589 4294967295
58.962341 24.954525 -13.047174 4294967295
58.992748 25.929552 -13.047014 4294967295
59.030201 27.067532 -13.039952 4294967295
59.060707 23.178978 -12.50933 4294967295
59.1077 25.615522 -12.610431 4294967295
59.16785 24.144049 -12.828449 4294967295
59.16943 23.333529 -12.734612 4294967295
59.175251 26.414055 -13.049922 4294967295
59.183571 27.063135 -13.091539 4294967295
59.210026 25.444555 -12.822672 4294967295
59.214363 26.255554 -12.89588 4294967295
59.219002 26.580212 -12.915025 4294967295
59.226151 26.094505 -12.837107 4294967295
59.230743 24.797739 -12.679753 4294967295
59.236603 23.662973 -12.535604 4294967295
37.016895 9.218462 -14.085209 4278255360
37.183701 9.0539732 -14.061741 4278255360
37.21777 9.2145739 -13.944927 4278255360
37.476978 9.2104778 -13.573915 4278255360
37.614944 9.2068081 -13.683503 4278255360
37.818851 9.0420198 -13.513994 4278255360
36.907917 10.186516 -13.970431 4278255360
36.91082 9.3827791 -13.867453 4278255360
36.931057 10.025815 -13.860198 4278255360
36.937031 10.990376 -13.946198 4278255360
36.946987 10.668931 -13.870069 4278255360
36.9478 10.508168 -13.848554 4278255360
36.94928 9.5434809 -13.732931 4278255360
37.053207 9.5398197 -13.977634 4278255360
37.137074 9.3788719 -13.626464 4278255360
37.148598 9.7005157 -13.617294 4278255360
37.15461 9.8613491 -13.611725 4278255360
37.189339 10.665669 -13.565359 4278255360
37.2593 9.6967964 -13.835072 4278255360
37.266788 10.500702 -13.896773 4278255360
37.290894 10.179212 -13.764657 4278255360
37.329334 10.340154 -13.630542 4278255360
37.330116 9.3750448 -13.517715 4278255360
37.333649 10.661849 -13.649996 4278255360
37.673412 9.5283813 -13.488704 4278255360
36.907917 10.186516 -13.970431 4278255360
36.931057 10.025815 -13.860198 4278255360
36.937031 10.990376 -13.946198 4278255360
36.946987 10.668931 -13.870069 4278255360
36.9478 10.508168 -13.848554 4278255360
36.961647 11.472866 -13.903283 4278255360
37.168251 11.791261 -13.777047 4278255360
37.189339 10.665669 -13.565359 4278255360
37.191383 11.469896 -13.648689 4278255360
37.200462 11.148301 -13.576085 4278255360
37.266788 10.500702 -13.896773 4278255360
37.290894 10.179212 -13.764657 4278255360
37.329334 10.340154 -13.630542 4278255360
37.333649 10.661849 -13.649996 4278255360
36.924431 12.115325 -14.124228 4278255360
36.937031 10.990376 -13.946198 4278255360
36.961647 11.472866 -13.903283 4278255360
36.963287 12.598126 -14.024763 4278255360
37.00787 12.759706 -13.866018 4278255360
37.141922 12.433996 -13.954648 4278255360
37.157211 12.916565 -13.94883 4278255360
37.168251 11.791261 -13.777047 4278255360
37.187397 12.756369 -13.810811 4278255360
37.191383 11.469896 -13.648689 4278255360
37.200462 11.148301 -13.576085 4278255360
37.323673 12.109076 -13.854063 4278255360
37.326283 12.269908 -13.862009 4278255360
37.453247 12.426433 -14.033358 4278255360
37.522762 12.910061 -13.812985 4278255360
36.924431 12.115325 -14.124228 4278255360
36.940201 13.561918 -14.226135 4278255360
36.963287 12.598126 -14.024763 4278255360
36.964184 14.044619 -14.185745 4278255360
37.00787 12.759706 -13.866018 4278255360
37.083893 13.236477 -14.276227 4278255360
37.141922 12.433996 -13.954648 4278255360
37.157211 12.916565 -13.94883 4278255360
37.160069 14.041901 -14.065462 4278255360
37.187397 12.756369 -13.810811 4278255360
37.188156 13.560335 -13.899208 4278255360
37.258953 13.393808 -14.256721 4278255360
37.323673 12.109076 -13.854063 4278255360
37.326283 12.269908 -13.862009 4278255360
37.335003 13.556323 -13.973665 4278255360
37.363224 13.235394 -13.825278 4278255360
37.453247 12.426433 -14.033358 4278255360
37.503574 13.552831 -13.962011 4278255360
37.51675 13.231551 -13.873322 4278255360
37.522762 12.910061 -13.812985 4278255360
37.52388 13.87491 -13.918194 4278255360
37.681259 14.031938 -13.969223 4278255360
37.82629 13.384711 -13.97772 4278255360
37.828239 13.545547 -13.988292 4278255360
37.829418 14.027927 -14.038391 4278255360
37.849384 13.867662 -13.941277 4278255360
37.890797 13.707885 -13.759452 4278255360
36.940201 13.561918 -14.226135 4278255360
36.964184 14.044619 -14.185745 4278255360
37.070309 14.842674 -14.512767 4278255360
37.073624 14.360862 -14.444833 4278255360
37.083893 13.236477 -14.276227 4278255360
37.153881 14.202467 -14.108268 4278255360
37.157211 12.916565 -13.94883 4278255360
37.160069 14.041901 -14.065462 4278255360
37.188156 13.560335 -13.899208 4278255360
37.236423 14.517911 -14.473817 4278255360
37.258953 13.393808 -14.256721 4278255360
37.263451 14.840062 -14.403269 4278255360
37.335003 13.556323 -13.973665 4278255360
37.363224 13.235394 -13.825278 4278255360
37.380119 14.200634 -13.868008 4278255360
37.497597 14.195754 -14.058748 4278255360
37.498932 14.678055 -14.108266 4278255360
37.503574 13.552831 -13.962011 4278255360
37.51675 13.231551 -13.873322 4278255360
37.522762 12.910061 -13.812985 4278255360
37.52388 13.87491 -13.918194 4278255360
37.675488 14.99641 -14.101601 4278255360
37.681259 14.031938 -13.969223 4278255360
37.778381 14.195434 -13.603517 4278255360
37.82629 13.384711 -13.97772 4278255360
37.828239 13.545547 -13.988292 4278255360
37.829418 14.027927 -14.038391 4278255360
37.835907 14.188885 -14.031019 4278255360
37.8409 14.832138 -14.084331 4278255360
37.849384 13.867662 -13.941277 4278255360
37.861458 14.511203 -13.966625 4278255360
37.890797 13.707885 -13.759452 4278255360
37.930897 14.99587 -13.747199 4278255360
38.087025 14.509469 -13.730453 4278255360
38.121719 14.671404 -13.611843 4278255360
38.191792 14.986556 -14.02563 4278255360
38.225948 14.826838 -13.87278 4278255360
38.429817 14.663652 -13.704534 4278255360
38.457691 14.825426 -13.61305 4278255360
38.601227 14.821212 -13.700794 4278255360
38.045929 8.8770037 -13.253374 4278255360
38.06078 8.554965 -13.158175 4278255360
38.156738 8.2298527 -13.397199 4278255360
38.172707 8.0687542 -13.315941 4278255360
38.204147 8.5513334 -13.246683 4278255360
38.349575 8.5476875 -13.326959 4278255360
38.3867 8.0644131 -13.125856 4278255360
38.482849 8.3832054 -13.436734 4278255360
38.573833 8.060358 -13.041996 4278255360
37.902103 15.316573 -13.897425 4278255360
37.930897 14.99587 -13.747199 4278255360
37.96278 15.309427 -14.311816 4278255360
37.964237 15.791635 -14.360796 4278255360
38.008743 15.954079 -14.203498 4278255360
38.087025 14.509469 -13.730453 4278255360
38.121719 14.671404 -13.611843 4278255360
38.180176 15.629308 -14.144373 4278255360
38.191792 14.986556 -14.02563 4278255360
38.211678 15.791274 -14.038494 4278255360
38.225948 14.826838 -13.87278 4278255360
38.311058 15.785307 -14.299674 4278255360
38.412525 15.306584 -13.845588 4278255360
38.429817 14.663652 -13.704534 4278255360
38.457691 14.825426 -13.61305 4278255360
38.479305 15.469829 -13.600973 4278255360
38.502216 15.62203 -14.181291 4278255360
38.530483 15.30144 -14.033694 4278255360
38.555576 15.945652 -14.007957 4278255360
38.592106 15.786201 -13.846094 4278255360
38.601227 14.821212 -13.700794 4278255360
38.795788 15.462329 -13.660923 4278255360
38.847614 15.142221 -13.420856 4278255360
38.874744 15.455758 -14.001984 4278255360
38.89299 15.77812 -13.966846 4278255360
39.172482 15.295984 -13.466615 4278255360
39.2019 15.458014 -13.369532 4278255360
39.260609 16.094345 -13.862464 4278255360
39.267113 15.772787 -13.80057 4278255360
39.267368 15.450968 -13.763133 4278255360
39.488415 15.449441 -13.547426 4278255360
39.51865 15.933531 -13.483817 4278255360
39.632881 15.606166 -13.649668 4278255360
39.642513 16.08942 -13.666664 4278255360
39.860687 15.926996 -13.444691 4278255360
39.954399 16.08173 -13.744906 4278255360
38.971127 7.5670781 -13.381257 4278255360
38.978817 7.2450204 -13.314598 4278255360
39.122517 7.2415047 -13.401382 4278255360
39.159599 7.5629158 -13.292418 4278255360
39.184856 7.401545 -13.175136 4278255360
39.185925 6.9184375 -13.116246 4278255360
39.482536 7.3943319 -13.308616 4278255360
39.555119 7.0710931 -12.988127 4278255360
40.058025 7.0593781 -12.968697 4278255360
39.172482 15.295984 -13.466615 4278255360
39.2019 15.458014 -13.369532 4278255360
39.260609 16.094345 -13.862464 4278255360
39.267113 15.772787 -13.80057 4278255360
39.267368 15.450968 -13.763133 4278255360
39.488415 15.449441 -13.547426 4278255360
39.51865 15.933531 -13.483817 4278255360
39.632881 15.606166 -13.649668 4278255360
39.642513 16.08942 -13.666664 4278255360
39.860687 15.926996 -13.444691 4278255360
39.954399 16.08173 -13.744906 4278255360
40.217735 15.921028 -13.3475 4278255360
40.401611 16.079334 -13.296515 4278255360
40.719883 16.071878 -13.350904 4278255360
40.058025 7.0593781 -12.968697 4278255360
39.954399 16.08173 -13.744906 4278255360
40.217735 15.921028 -13.3475 4278255360
40.401611 16.079334 -13.296515 4278255360
40.719883 16.071878 -13.350904 4278255360
39.927036 16.724348 -13.924375 4278255360
39.96838 17.048042 -13.799573 4278255360
40.084042 16.247902 -13.257629 4278255360
40.091103 17.042681 -13.968061 4278255360
40.120781 16.561176 -13.79792 4278255360
40.149059 16.884327 -13.724168 4278255360
40.16032 16.240847 -13.607536 4278255360
40.33094 16.559607 -13.626075 4278255360
40.4828 16.55558 -13.681249 4278255360
40.529758 16.396505 -13.480536 4278255360
40.558582 16.719839 -13.404891 4278255360
40.769238 16.23494 -13.177446 4278255360
40.776497 17.030022 -13.884799 4278255360
40.860222 16.550615 -13.50555 4278255360
40.891266 16.390823 -13.366957 4278255360
41.08263 16.871778 -13.323841 4278255360
41.211033 16.705616 -13.45198 4278255360
41.298592 17.020864 -13.792311 4278255360
41.453716 17.016964 -13.834756 4278255360
41.564335 16.699656 -13.371159 4278255360
41.673771 16.854885 -13.608486 4278255360
41.759712 16.697468 -13.258715 4278255360
41.861103 17.013487 -13.545139 4278255360
41.879417 16.530931 -13.420106 4278255360
41.039719 6.3917398 -12.952632 4278255360
41.104706 6.0679283 -12.664253 4278255360
41.150517 6.227869 -13.148689 4278255360
41.204319 6.3878593 -12.958436 4278255360
41.554325 6.0572591 -12.853409 4278255360
41.68145 6.0542226 -13.004197 4278255360
41.933792 6.0483212 -12.67159 4278255360
42.099506 6.0444016 -12.673632 4278255360
42.85445 6.026485 -12.967008 4278255360
41.08263 16.871778 -13.323841 4278255360
41.211033 16.705616 -13.45198 4278255360
41.298592 17.020864 -13.792311 4278255360
41.453716 17.016964 -13.834756 4278255360
41.564335 16.699656 -13.371159 4278255360
41.673771 16.854885 -13.608486 4278255360
41.759712 16.697468 -13.258715 4278255360
41.861103 17.013487 -13.545139 4278255360
41.879417 16.530931 -13.420106 4278255360
42.102345 17.013407 -13.256266 4278255360
42.142162 16.843313 -13.724782 4278255360
42.235977 16.68622 -13.345734 4278255360
42.2467 17.009016 -13.340753 4278255360
42.248211 16.52556 -13.28054 4278255360
42.455547 17.007486 -13.177295 4278255360
42.457695 16.996805 -13.807753 4278255360
42.582592 16.679951 -13.29203 4278255360
42.709988 16.674875 -13.441426 4278255360
42.767319 16.838511 -13.239669 4278255360
42.775448 16.516407 -13.172239 4278255360
43.017548 16.828108 -13.555637 4278255360
43.036724 16.667763 -13.46413 4278255360
43.049526 16.990664 -13.451344 4278255360
41.933792 6.0483212 -12.67159 4278255360
42.099506 6.0444016 -12.673632 4278255360
42.85445 6.026485 -12.967008 4278255360
43.180988 6.018755 -12.98996 4278255360
43.484474 6.0116801 -12.465411 4278255360
43.498676 6.0112267 -13.046846 4278255360
43.576408 6.1707687 -12.768069 4278255360
43.777637 6.1660757 -12.635103 4278255360
43.894295 6.1632352 -12.824811 4278255360
42.102345 17.013407 -13.256266 4278255360
42.142162 16.843313 -13.724782 4278255360
42.235977 16.68622 -13.345734 4278255360
42.2467 17.009016 -13.340753 4278255360
42.248211 16.52556 -13.28054 4278255360
42.455547 17.007486 -13.177295 4278255360
42.457695 16.996805 -13.807753 4278255360
42.582592 16.679951 -13.29203 4278255360
42.709988 16.674875 -13.441426 4278255360
42.767319 16.838511 -13.239669 4278255360
42.775448 16.516407 -13.172239 4278255360
43.017548 16.828108 -13.555637 4278255360
43.036724 16.667763 -13.46413 4278255360
43.049526 16.990664 -13.451344 4278255360
43.204254 16.664379 -13.459621 4278255360
43.304836 16.991156 -13.111254 4278255360
43.40918 16.662563 -13.312349 4278255360
43.474468 16.82659 -13.081064 4278255360
43.533524 16.979746 -13.5091 4278255360
43.613831 16.66073 -13.166466 4278255360
43.730583 16.655216 -13.35603 4278255360
43.75639 16.9788 -13.293836 4278255360
43.763371 16.495321 -13.212944 4278255360
43.874741 16.973276 -13.477059 4278255360
44.068913 16.487318 -13.317305 4278255360
43.180988 6.018755 -12.98996 4278255360
43.484474 6.0116801 -12.465411 4278255360
43.498676 6.0112267 -13.046846 4278255360
43.576408 6.1707687 -12.768069 4278255360
43.777637 6.1660757 -12.635103 4278255360
43.894295 6.1632352 -12.824811 4278255360
44.153404 5.9957242 -13.087049 4278255360
44.261856 6.1546125 -12.692592 4278255360
44.269867 6.4771843 -12.698298 4278255360
44.370903 5.9906158 -12.89269 4278255360
44.425423 6.3121161 -12.721678 4278255360
44.49229 6.4721494 -12.485664 4278255360
44.630844 5.9845352 -12.53766 4278255360
44.668148 5.9835529 -13.027755 4278255360
44.74197 6.4659772 -12.801977 4278255360
44.778179 6.1424437 -12.628536 4278255360
44.807949 6.3032269 -12.533711 4278255360
44.832809 5.9796534 -13.034395 4278255360
44.908752 6.1392975 -12.764742 4278255360
44.938122 6.6228671 -12.707656 4278255360
45.034443 6.6202903 -12.973361 4278255360
45.05571 5.9744201 -12.820668 4278255360
45.084038 6.2965665 -12.749561 4278255360
44.586533 16.155119 -13.212412 4278255360
44.676338 16.148703 -13.503235 4278255360
45.061443 16.143782 -13.306155 4278255360
45.065079 15.982613 -13.274359 4278255360
43.017548 16.828108 -13.555637 4278255360
43.036724 16.667763 -13.46413 4278255360
43.049526 16.990664 -13.451344 4278255360
43.204254 16.664379 -13.459621 4278255360
43.304836 16.991156 -13.111254 4278255360
43.40918 16.662563 -13.312349 4278255360
43.474468 16.82659 -13.081064 4278255360
43.533524 16.979746 -13.5091 4278255360
43.613831 16.66073 -13.166466 4278255360
43.730583 16.655216 -13.35603 4278255360
43.75639 16.9788 -13.293836 4278255360
43.763371 16.495321 -13.212944 4278255360
43.874741 16.973276 -13.477059 4278255360
44.068913 16.487318 -13.317305 4278255360
44.104504 16.811338 -13.218066 4278255360
44.134701 16.963261 -13.754185 4278255360
44.314255 16.325735 -12.999499 4278255360
44.40403 16.641787 -13.327247 4278255360
44.417156 16.96489 -13.313558 4278255360
44.70401 16.633543 -13.452528 4278255360
44.713165 16.956438 -13.45395 4278255360
44.744507 16.312628 -13.262974 4278255360
44.777481 16.797909 -13.192202 4278255360
44.827747 16.950766 -13.650538 4278255360
44.912693 16.470545 -13.274859 4278255360
45.028526 16.948828 -13.520845 4278255360
45.053017 16.627325 -13.39216 4278255360
44.153404 5.9957242 -13.087049 4278255360
44.261856 6.1546125 -12.692592 4278255360
44.269867 6.4771843 -12.698298 4278255360
44.370903 5.9906158 -12.89269 4278255360
44.425423 6.3121161 -12.721678 4278255360
44.49229 6.4721494 -12.485664 4278255360
44.630844 5.9845352 -12.53766 4278255360
44.668148 5.9835529 -13.027755 4278255360
44.74197 6.4659772 -12.801977 4278255360
44.778179 6.1424437 -12.628536 4278255360
44.807949 6.3032269 -12.533711 4278255360
44.832809 5.9796534 -13.034395 4278255360
44.908752 6.1392975 -12.764742 4278255360
44.938122 6.6228671 -12.707656 4278255360
45.034443 6.6202903 -12.973361 4278255360
45.05571 5.9744201 -12.820668 4278255360
45.084038 6.2965665 -12.749561 4278255360
45.141357 6.4568129 -12.550687 4278255360
45.19709 6.7777929 -13.00588 4278255360
45.352024 6.7740979 -13.049514 4278255360
45.360336 5.9671865 -12.92792 4278255360
45.389961 6.6120391 -12.88819 4278255360
45.397419 6.2891245 -12.823942 4278255360
45.674595 6.2824407 -13.034725 4278255360
45.716446 6.7657218 -12.93106 4278255360
45.740219 6.9266944 -12.859486 4278255360
45.875996 6.2777815 -12.903361 4278255360
45.912975 5.9541416 -12.72804 4278255360
45.948196 6.1148028 -12.613436 4278255360
45.978027 6.1138668 -13.128122 4278255360
45.990646 6.9213614 -12.543759 4278255360
45.99778 6.5982404 -12.480826 4278255360
46.009747 7.2440424 -12.507924 4278255360
46.091877 5.9499145 -12.681783 4278255360
45.065079 15.982613 -13.274359 4278255360
45.428596 15.976804 -13.159824 4278255360
45.495735 15.969627 -13.535 4278255360
45.710247 15.806618 -13.336325 4278255360
45.78508 15.970722 -13.072464 4278255360
46.01873 15.476126 -13.393433 4278255360
46.077068 15.80087 -13.210146 4278255360
45.740219 6.9266944 -12.859486 4278255360
45.990646 6.9213614 -12.543759 4278255360
46.009747 7.2440424 -12.507924 4278255360
46.148872 6.9176049 -12.575546 4278255360
46.262436 7.0760555 -12.793172 4278255360
46.345074 7.3977551 -12.518699 4278255360
46.398579 7.5568972 -12.961711 4278255360
46.44846 6.9103799 -12.7024 4278255360
46.631474 7.7136254 -12.731212 4278255360
46.70723 7.226676 -13.017923 4278255360
46.745274 6.9032021 -12.839396 4278255360
46.795361 7.3868256 -12.705753 4278255360
46.829685 7.0632858 -12.541149 4278255360
46.848442 7.8706717 -12.560929 4278255360
46.949455 7.2216392 -12.735018 4278255360
46.950287 7.8675518 -12.803894 4278255360
46.989967 8.0286112 -12.673402 4278255360
47.000359 7.5439305 -12.580514 4278255360
47.043743 7.8645282 -13.077808 4278255360
47.074219 8.1870556 -12.999844 4278255360
47.082401 7.5411839 -12.897305 4278255360
47.085644 8.3483896 -12.975126 4278255360
46.800476 14.981637 -12.908302 4278255360
46.918751 14.653729 -13.053903 4278255360
46.934135 14.977087 -13.032328 4278255360
47.001076 14.647741 -13.369582 4278255360
47.042782 14.326122 -13.177711 4278255360
47.073238 14.488393 -13.081866 4278255360
46.989967 8.0286112 -12.673402 4278255360
