# .PCD v0.7 - Point Cloud Data file format
VERSION 0.7
FIELDS x y z rgb
SIZE 4 4 4 4
TYPE F F F U
COUNT 1 1 1 1
WIDTH 1116
HEIGHT 1
VIEWPOINT 0 0 0 1 0 0 0
POINTS 1116
DATA ascii
2.6875203 -14.04776 -17.214252 4294967295
2.6890769 -12.306867 -17.422575 4294967295
2.6959119 -11.516767 -17.486345 4294967295
2.6968353 -13.099686 -17.285173 4294967295
2.6977344 -12.783262 -17.319944 4294967295
2.706032 -9.3032141 -17.710373 4294967295
2.707514 -9.4616508 -17.683256 4294967295
2.7117064 -12.4692 -17.288763 4294967295
2.7142558 -11.203377 -17.433126 4294967295
2.7229557 -12.629538 -17.212357 4294967295
2.7312539 -8.1995497 -17.720747 4294967295
2.7347887 -8.0418549 -17.722576 4294967295
2.7362659 -11.998639 -17.223839 4294967295
2.7364192 -10.099166 -17.45892 4294967295
2.7367275 -8.9914637 -17.594919 4294967295
2.7392485 -9.6248331 -17.503609 4294967295
2.7460542 -10.733857 -17.331718 4294967295
2.770968 -10.421336 -17.245396 4294967295
2.7736068 -8.6804943 -17.448309 4294967295
2.7757263 -9.7888498 -17.300034 4294967295
2.7875516 -7.891171 -17.476288 4294967295
2.8046501 -7.7353191 -17.409765 4294967295
2.8098242 -11.82969 -17.684589 4294967295
2.814862 -8.3699942 -17.279663 4294967295
2.8311424 -14.365739 -17.26296 4294967295
2.8417425 -13.576262 -17.307755 4294967295
2.8590243 -10.414001 -17.613495 4294967295
2.9090848 -11.213687 -17.263153 4294967295
2.9204175 -9.1576538 -17.461473 4294967295
2.9310079 -9.9507694 -17.309921 4294967295
2.9318035 -8.2097321 -17.522011 4294967295
2.9520581 -9.3207998 -17.282518 4294967295
2.9532907 -14.046394 -17.498167 4294967295
2.9804039 -12.943685 -17.499109 4294967295
2.9914012 -12.15439 -17.541914 4294967295
3.0003779 -12.78906 -17.41823 4294967295
3.0066521 -10.574603 -17.661467 4294967295
3.0073099 -14.690095 -17.147734 4294967295
3.0134022 -11.050434 -17.568632 4294967295
3.014442 -12.000184 -17.445621 4294967295
3.0164804 -10.8927 -17.572777 4294967295
3.0167134 -11.525766 -17.493086 4294967295
3.0200634 -13.109257 -17.279903 4294967295
3.021879 -11.210117 -17.506361 4294967295
3.022115 -10.418894 -17.603321 4294967295
3.026813 -13.743825 -17.167389 4294967295
3.0276017 -8.8375187 -17.771996 4294967295
3.0331991 -10.104194 -17.586832 4294967295
3.0351293 -9.4715395 -17.65564 4294967295
3.0481055 -9.7900562 -17.551126 4294967295
3.0623801 -11.37528 -17.28299 4294967295
3.0635843 -8.3681793 -17.649963 4294967295
3.0642562 -11.692252 -17.234274 4294967295
3.0696645 -7.5778971 -17.717541 4294967295
3.0697315 -7.8943615 -17.677948 4294967295
3.0714967 -9.3189001 -17.492393 4294967295
3.0891685 -10.746463 -17.226791 4294967295
3.0936589 -8.2142982 -17.518398 4294967295
3.0955825 -9.0060015 -17.410553 4294967295
3.101573 -8.6903086 -17.419704 4294967295
3.114944 -14.209508 -17.47546 4294967295
3.1152492 -13.893043 -17.513161 4294967295
3.1206176 -7.7433038 -17.441776 4294967295
3.1443727 -13.423725 -17.425634 4294967295
3.1463025 -13.582373 -17.396315 4294967295
3.1750653 -10.738622 -17.604948 4294967295
3.1833274 -9.3158436 -17.740007 4294967295
3.2001953 -14.067596 -17.066545 4294967295
3.2042739 -14.385139 -17.006779 4294967295
3.2078898 -11.852169 -17.302681 4294967295
3.2197769 -12.329261 -17.184069 4294967295
3.2260094 -11.063662 -17.309782 4294967295
3.2653747 -7.9037142 -17.504612 4294967295
3.2941356 -8.5411148 -17.281696 4294967295
3.3241723 -14.698564 -17.17477 4294967295
3.3248808 -13.590368 -17.308525 4294967295
3.3322368 -10.742555 -17.624626 4294967295
3.3417397 -14.068573 -17.165047 4294967295
3.3449814 -11.219472 -17.501854 4294967295
3.3478966 -12.803005 -17.29108 4294967295
3.359092 -12.330035 -17.293747 4294967295
3.364593 -14.231336 -17.030695 4294967295
3.3660123 -10.431546 -17.494406 4294967295
3.3694668 -10.11554 -17.516304 4294967295
3.370563 -13.440572 -17.098837 4294967295
3.3784976 -13.125296 -17.098255 4294967295
3.3814707 -12.017306 -17.22068 4294967295
3.3853467 -10.909629 -17.338564 4294967295
3.3872998 -11.384944 -17.269909 4294967295
3.388761 -7.7445598 -17.713709 4294967295
3.3899426 -8.8525095 -17.570507 4294967295
3.3950205 -9.6447067 -17.44697 4294967295
3.4137211 -7.9063425 -17.568949 4294967295
3.4151821 -9.1728973 -17.404697 4294967295
3.4155412 -8.2231617 -17.520594 4294967295
3.4168701 -7.5902419 -17.592386 4294967295
3.4256613 -11.549851 -17.057806 4294967295
3.4289632 -8.7000275 -17.394438 4294967295
3.4685826 -13.908427 -17.356676 4294967295
3.4705801 -12.800712 -17.483881 4294967295
3.4737685 -13.751097 -17.350281 4294967295
3.4959118 -8.0763884 -17.137217 4294967295
3.56581 -10.759068 -17.261526 4294967295
3.5891814 -9.9710798 -17.242496 4294967295
3.5930696 -10.446799 -17.164175 4294967295
3.6116693 -8.7076998 -17.286755 4294967295
3.6140823 -9.0247726 -17.235443 4294967295
3.6186254 -8.3920221 -17.291143 4294967295
3.6189499 -9.183876 -17.191448 4294967295
3.6205502 -9.5008764 -17.144201 4294967295
3.624052 -14.228714 -17.345798 4294967295
3.6476109 -12.175058 -17.482573 4294967295
3.652189 -10.909604 -17.616396 4294967295
3.6534069 -7.9219232 -17.17581 4294967295
3.6559865 -7.763907 -17.182508 4294967295
3.6601512 -12.335577 -17.400211 4294967295
3.6640842 -12.969585 -17.302137 4294967295
3.6697764 -14.395895 -17.097239 4294967295
3.6790576 -12.655613 -17.266378 4294967295
3.6833138 -11.389697 -17.401857 4294967295
3.6840887 -13.923484 -17.084381 4294967295
3.6841593 -13.606729 -17.123234 4294967295
3.6919837 -14.55861 -16.966431 4294967295
3.6983509 -13.450993 -17.071783 4294967295
3.7019677 -14.085292 -16.975254 4294967295
3.7029259 -13.293447 -17.068483 4294967295
3.7073858 -10.443769 -17.398983 4294967295
3.7162132 -11.870374 -17.178404 4294967295
3.7230573 -9.9713001 -17.37937 4294967295
3.7242749 -9.1798964 -17.471268 4294967295
3.7273204 -11.555535 -17.162022 4294967295
3.7338982 -10.606421 -17.246725 4294967295
3.7339325 -8.5481148 -17.501347 4294967295
3.7346933 -11.240029 -17.164333 4294967295
3.7350748 -8.3899794 -17.51523 4294967295
3.7356269 -10.131636 -17.296881 4294967295
3.7369871 -12.824448 -16.956787 4294967295
3.7432041 -9.0244389 -17.396177 4294967295
3.7467132 -9.8166847 -17.280619 4294967295
3.7494743 -9.500411 -17.306009 4294967295
3.7612662 -8.0771303 -17.423433 4294967295
3.7821934 -13.916243 -17.399937 4294967295
3.7822626 -14.707886 -17.301666 4294967295
3.7917328 -13.759727 -17.37182 4294967295
3.7973642 -13.285818 -17.402416 4294967295
3.8032589 -12.811952 -17.4317 4294967295
3.8057659 -8.7170496 -17.12245 4294967295
3.8074436 -11.862885 -17.528282 4294967295
3.8643522 -8.3898134 -17.674738 4294967295
3.8752658 -10.607758 -17.346004 4294967295
3.9140394 -12.515088 -16.917059 4294967295
3.9243915 -7.6068759 -17.47279 4294967295
3.97421 -12.818399 -17.382795 4294967295
3.9883511 -10.762784 -17.566683 4294967295
3.9937928 -13.772149 -17.167532 4294967295
3.9945636 -10.447212 -17.574825 4294967295
3.9953368 -12.505508 -17.316469 4294967295
3.9996583 -11.397902 -17.431944 4294967295
3.9996803 -12.981365 -17.23604 4294967295
4.0032687 -12.031862 -17.335608 4294967295
4.0033073 -13.932336 -17.100431 4294967295
4.0193729 -11.717945 -17.294374 4294967295
4.0236835 -12.352174 -17.194527 4294967295
4.0255551 -13.461292 -17.048086 4294967295
4.0329185 -9.5034475 -17.500881 4294967295
4.0336437 -8.8703346 -17.575569 4294967295
4.0350027 -14.255228 -16.902964 4294967295
4.0418177 -11.088289 -17.260668 4294967295
4.0437884 -8.3969345 -17.583687 4294967295
4.0561123 -8.0821066 -17.561361 4294967295
4.0614562 -10.141278 -17.280157 4294967295
4.0623946 -12.675887 -16.962078 4294967295
4.0628014 -8.5580177 -17.469257 4294967295
4.0671821 -9.825448 -17.290749 4294967295
4.0709763 -9.6676731 -17.291399 4294967295
4.0713983 -7.7676487 -17.524269 4294967295
4.0732603 -12.202498 -16.966604 4294967295
4.0735493 -9.3513422 -17.317728 4294967295
4.102191 -13.766941 -17.430984 4294967295
4.1356707 -9.2023935 -17.027361 4294967295
4.1417556 -7.9359097 -17.153736 4294967295
4.1425333 -12.982716 -17.327629 4294967295
4.1474595 -12.350214 -17.381338 4294967295
4.150382 -14.726378 -17.073191 4294967295
4.1629791 -11.086214 -17.460512 4294967295
4.1737013 -9.8214283 -17.563602 4294967295
4.1774325 -12.513889 -17.212317 4294967295
4.1926293 -11.883019 -17.214842 4294967295
4.1979017 -11.250401 -17.266853 4294967295
4.2222428 -13.631042 -16.851809 4294967295
4.2693124 -8.4107323 -17.263323 4294967295
4.2957931 -8.8898487 -17.072647 4294967295
4.2965689 -14.253034 -17.206877 4294967295
4.313241 -14.097826 -17.143389 4294967295
4.3187747 -8.576354 -16.997309 4294967295
4.3273563 -12.991688 -17.21003 4294967295
4.3281779 -13.467025 -17.147243 4294967295
4.3283191 -14.417544 -17.029142 4294967295
4.3290882 -7.6271472 -17.063435 4294967295
4.3327985 -12.042382 -17.300308 4294967295
4.3348098 -10.142582 -17.525013 4294967295
4.3369684 -14.89455 -16.927347 4294967295
4.3453259 -11.569425 -17.296619 4294967295
4.347333 -13.787436 -17.012701 4294967295
4.3517027 -14.580515 -16.893082 4294967295
4.3715568 -9.1982975 -17.459478 4294967295
4.3750391 -12.525016 -17.031267 4294967295
4.378274 -8.8826246 -17.465172 4294967295
4.3813233 -8.2497387 -17.52824 4294967295
4.3847327 -10.467281 -17.237391 4294967295
4.3855877 -10.942617 -17.174433 4294967295
4.3890085 -12.369047 -16.981274 4294967295
4.3941154 -12.211495 -16.975416 4294967295
4.3978329 -9.3606443 -17.309149 4294967295
4.3996844 -9.519309 -17.280367 4294967295
4.4033027 -7.7778521 -17.477566 4294967295
4.4037528 -11.420921 -17.02529 4294967295
4.4233656 -14.726252 -17.319548 4294967295
4.4259124 -8.731307 -17.247679 4294967295
4.4329677 -11.108906 -16.918987 4294967295
4.4677825 -9.0543833 -17.000181 4294967295
4.4727407 -8.1044245 -17.092953 4294967295
4.4831386 -12.361865 -17.315468 4294967295
4.4877267 -8.5819454 -16.959663 4294967295
4.4928346 -11.413351 -17.384562 4294967295
4.4983673 -13.94867 -17.044165 4294967295
4.5065928 -14.425575 -16.944563 4294967295
4.510025 -10.466053 -17.416403 4294967295
4.5224409 -8.7262592 -17.569742 4294967295
4.5374398 -13.00523 -16.967165 4294967295
4.5760722 -9.8429823 -17.166296 4294967295
4.5802693 -11.58657 -16.930239 4294967295
4.581449 -7.4679232 -17.432936 4294967295
4.5895224 -14.731985 -17.29495 4294967295
4.5899324 -10.320475 -17.038712 4294967295
4.6128087 -10.007183 -16.964121 4294967295
4.6393533 -12.524011 -17.320969 4294967295
4.6432562 -11.891212 -17.379753 4294967295
4.6783333 -13.481554 -17.010052 4294967295
4.687932 -11.582078 -17.196968 4294967295
4.6997132 -12.851628 -16.98205 4294967295
4.7000637 -13.802538 -16.862986 4294967295
4.7034721 -12.376926 -17.022039 4294967295
4.7049942 -10.476048 -17.249081 4294967295
4.7076745 -10.159676 -17.274868 4294967295
4.7191806 -12.696646 -16.904905 4294967295
4.7209954 -12.221539 -16.954557 4294967295
4.7266989 -9.6874447 -17.239067 4294967295
4.7311606 -10.955586 -17.060505 4294967295
4.7318702 -11.748006 -16.959211 4294967295
4.7319374 -11.272622 -17.017542 4294967295
4.7354369 -9.8472176 -17.176138 4294967295
4.7385182 -9.0556135 -17.258591 4294967295
4.7412333 -11.43265 -16.951824 4294967295
4.7455406 -9.3735027 -17.184635 4294967295
4.7501082 -8.1069031 -17.318359 4294967295
4.7534928 -7.6322079 -17.360207 4294967295
4.7565145 -8.5830402 -17.227919 4294967295
4.7619319 -7.9501753 -17.279234 4294967295
4.7685909 -11.12025 -16.855085 4294967295
4.7892661 -9.5386343 -16.948027 4294967295
4.7931118 -14.745006 -17.084721 4294967295
4.798286 -14.270711 -17.117655 4294967295
4.8046703 -8.273118 -17.028028 4294967295
4.8061256 -7.4810343 -17.118587 4294967295
4.8285165 -10.474544 -17.436546 4294967295
4.8289261 -10.949718 -17.375914 4294967295
4.8295979 -14.118226 -16.981815 4294967295
4.843946 -9.8435326 -17.438171 4294967295
4.8491344 -11.903528 -17.158466 4294967295
4.8565183 -12.53858 -17.043674 4294967295
4.8656192 -14.600606 -16.744425 4294967295
4.8755956 -8.5813665 -17.437546 4294967295
4.8799915 -8.2652655 -17.454828 4294967295
4.953721 -9.2266521 -16.972101 4294967295
4.9693403 -14.435771 -17.049778 4294967295
4.9960523 -10.796883 -17.366585 4294967295
4.9973454 -13.014943 -17.086779 4294967295
5.0000997 -14.124707 -16.936399 4294967295
5.0094352 -14.601975 -16.831524 4294967295
5.0128789 -13.651655 -16.931675 4294967295
5.0140395 -9.5326862 -17.433714 4294967295
5.021256 -10.642578 -17.26129 4294967295
5.0246768 -12.702927 -16.990429 4294967295
5.0278549 -13.337439 -16.896538 4294967295
5.0285254 -10.168507 -17.283878 4294967295
5.0299096 -11.27771 -17.140306 4294967295
5.0313725 -12.387164 -16.996325 4294967295
5.0329027 -10.961328 -17.164547 4294967295
5.0538464 -12.549617 -16.865446 4294967295
5.0578194 -12.867351 -16.806683 4294967295
5.0582652 -12.233383 -16.882633 4294967295
5.0703344 -10.016656 -17.096373 4294967295
5.0718074 -9.0662079 -17.206284 4294967295
5.0809131 -11.127719 -16.907221 4294967295
5.0818 -11.44488 -16.863749 4294967295
5.0828738 -11.920616 -16.799807 4294967295
5.0831871 -9.3848114 -17.110874 4294967295
5.0935416 -9.703331 -17.020531 4294967295
5.0989966 -7.9611001 -17.208416 4294967295
5.1013818 -10.497035 -16.884008 4294967295
5.1028209 -8.1200809 -17.169952 4294967295
5.1232142 -13.171643 -17.242828 4294967295
5.1241436 -9.8665714 -16.849463 4294967295
5.1348562 -8.4416037 -16.972298 4294967295
5.1374903 -7.6495452 -17.056959 4294967295
5.1384153 -9.2346706 -16.856968 4294967295
5.1386242 -8.7591562 -16.914562 4294967295
5.1406684 -13.967053 -17.058849 4294967295
5.1645632 -13.496102 -16.999161 4294967295
5.1842713 -14.450813 -16.784452 4294967295
5.2360787 -8.5958338 -17.250645 4294967295
5.2675853 -14.282174 -17.190042 4294967295
5.2677302 -14.757513 -17.1308 4294967295
5.2891679 -9.7131414 -16.851437 4294967295
5.3284621 -11.91664 -17.181829 4294967295
5.340879 -12.077231 -17.100964 4294967295
5.3418436 -14.454838 -16.803436 4294967295
5.3494458 -12.395667 -17.0196 4294967295
5.3502741 -10.96964 -17.191141 4294967295
5.351263 -13.346968 -16.893515 4294967295
5.3605723 -10.337536 -17.218321 4294967295
5.3620601 -12.714883 -16.91823 4294967295
5.3624058 -11.288557 -17.092178 4294967295
5.3672862 -11.606327 -17.029036 4294967295
5.3722215 -10.497845 -17.141266 4294967295
5.3733387 -10.022663 -17.19429 4294967295
5.3749857 -9.2307291 -17.283722 4294967295
5.3762693 -7.8052359 -17.452976 4294967295
5.3783054 -9.706542 -17.208786 4294967295
5.3820119 -13.035502 -16.780586 4294967295
5.3867755 -12.243685 -16.854658 4294967295
5.3897147 -8.1239262 -17.347572 4294967295
5.3950057 -8.7583981 -17.243399 4294967295
5.4040198 -8.9181719 -17.179369 4294967295
5.4285259 -8.2878828 -17.136431 4294967295
5.4291434 -14.762302 -17.130394 4294967295
5.4314642 -10.665874 -16.829102 4294967295
5.4342761 -10.824872 -16.795685 4294967295
5.437058 -7.6552176 -17.172377 4294967295
5.4373798 -10.191215 -16.858454 4294967295
5.445724 -9.3998747 -16.914862 4294967295
5.4480443 -14.449028 -17.076078 4294967295
5.4541707 -13.499435 -17.162846 4294967295
5.4834332 -13.346334 -17.037903 4294967295
5.4859366 -13.980761 -16.947517 4294967295
5.492465 -14.616055 -16.837254 4294967295
5.4973221 -13.824385 -16.910822 4294967295
5.5101795 -12.717199 -16.983917 4294967295
5.5177155 -8.7572298 -17.434328 4294967295
5.5343971 -8.9180918 -17.332558 4294967295
5.5454473 -11.613783 -16.946436 4294967295
5.5647473 -11.775579 -16.831688 4294967295
5.5682592 -7.8139343 -17.302095 4294967295
5.5725942 -7.497663 -17.319729 4294967295
5.6012192 -10.037609 -16.866407 4294967295
5.6069636 -14.136389 -17.127132 4294967295
5.6484666 -7.9836049 -16.887096 4294967295
5.6578937 -10.34263 -17.343918 4294967295
5.6679101 -9.710516 -17.372536 4294967295
5.6731262 -9.2360649 -17.405312 4294967295
5.6751795 -14.783484 -16.712772 4294967295
5.675858 -11.454699 -17.118942 4294967295
5.6765857 -13.039792 -16.920368 4294967295
5.6836247 -13.199589 -16.866165 4294967295
5.6887627 -11.615353 -17.035849 4294967295
5.6892824 -13.993361 -16.740755 4294967295
5.6945934 -11.93335 -16.968113 4294967295
5.6990523 -10.666117 -17.102137 4294967295
5.7089491 -12.569958 -16.819347 4294967295
5.7139177 -11.778125 -16.892376 4294967295
5.7143931 -9.0837908 -17.221535 4294967295
5.7172365 -12.412864 -16.798004 4294967295
5.7183433 -10.193727 -17.065588 4294967295
5.7195363 -9.5599689 -17.137707 4294967295
5.7202268 -10.828041 -16.978302 4294967295
5.7276239 -7.818099 -17.312336 4294967295
5.7333002 -7.6604409 -17.303877 4294967295
5.748054 -8.4548292 -17.133732 4294967295
5.748477 -9.8814163 -16.956133 4294967295
5.7600374 -14.29803 -17.148527 4294967295
5.7730274 -8.2999048 -17.030241 4294967295
5.7735205 -14.776045 -17.023674 4294967295
5.7737069 -9.4096823 -16.89036 4294967295
5.7837067 -8.6184807 -16.938637 4294967295
5.7842216 -13.985642 -17.068407 4294967295
5.7922835 -14.462654 -16.970245 4294967295
5.794055 -13.036582 -17.136902 4294967295
5.8094296 -13.197838 -17.041721 4294967295
5.8185635 -13.516512 -16.957773 4294967295
5.8336058 -11.934155 -17.078613 4294967295
5.8475118 -9.8762989 -17.26351 4294967295
5.8725858 -9.2462826 -17.218092 4294967295
5.8749728 -8.1374664 -17.342752 4294967295
5.9045959 -10.836349 -16.865673 4294967295
5.9078755 -10.519784 -16.888525 4294967295
5.9192758 -10.363049 -16.851925 4294967295
5.9385056 -9.7318182 -16.8353 4294967295
5.9586377 -7.9907236 -16.950743 4294967295
5.959084 -13.517394 -17.060677 4294967295
6.0088382 -12.258193 -16.971886 4294967295
6.0123367 -11.624724 -17.032614 4294967295
6.0140591 -13.210353 -16.829313 4294967295
6.0193148 -14.797136 -16.608587 4294967295
6.0286508 -13.688731 -16.699099 4294967295
6.0340495 -14.006923 -16.633568 4294967295
6.0388646 -12.580527 -16.785295 4294967295
6.0399303 -12.105022 -16.838516 4294967295
6.040204 -11.787963 -16.876144 4294967295
6.0468974 -10.679298 -16.979641 4294967295
6.0527301 -8.1442308 -17.262684 4294967295
6.062047 -11.315956 -16.827236 4294967295
6.0637875 -9.2552519 -17.071997 4294967295
6.0644264 -10.206489 -16.95195 4294967295
6.0706334 -9.0977592 -17.057842 4294967295
6.0840616 -8.6241789 -17.050323 4294967295
6.0849414 -7.5147796 -17.182381 4294967295
6.0914879 -9.8936081 -16.857943 4294967295
6.0965238 -7.8333678 -17.086527 4294967295
6.102695 -9.5781984 -16.84185 4294967295
6.1070466 -8.3104181 -16.976381 4294967295
6.1124029 -8.9453926 -16.872114 4294967295
6.1137691 -8.4699221 -16.923868 4294967295
6.1246166 -12.730379 -17.137899 4294967295
6.127892 -13.840494 -16.985529 4294967295
6.1282072 -7.679203 -16.950388 4294967295
6.1285586 -13.999141 -16.962784 4294967295
6.1424823 -14.318836 -16.855448 4294967295
6.1626167 -14.798397 -16.698112 4294967295
6.164062 -13.054436 -16.905256 4294967295
6.1881766 -10.205127 -17.137381 4294967295
6.1972008 -10.999136 -16.995724 4294967295
6.2411933 -10.689155 -16.818737 4294967295
6.2690969 -14.475513 -17.007063 4294967295
6.2700243 -7.522418 -17.06683 4294967295
6.2972288 -13.371097 -17.005295 4294967295
6.2987022 -8.0020132 -16.86771 4294967295
6.3053761 -13.055517 -17.004261 4294967295
6.3226686 -12.265933 -17.016771 4294967295
6.3253956 -12.107878 -17.022861 4294967295
6.3448305 -9.8919458 -17.200052 4294967295
6.3465066 -10.526204 -17.113989 4294967295
6.3485808 -8.624712 -17.337343 4294967295
6.3533659 -13.222705 -16.749424 4294967295
6.353755 -12.429876 -16.844864 4294967295
6.3593674 -12.906602 -16.75893 4294967295
6.364253 -9.7364311 -17.124315 4294967295
6.3647585 -11.16327 -16.946651 4294967295
6.3683081 -11.63953 -16.870844 4294967295
6.3696542 -8.9447336 -17.195158 4294967295
6.3721809 -10.688835 -16.968664 4294967295
6.3757367 -11.006513 -16.912298 4294967295
6.3764777 -9.4212627 -17.103327 4294967295
6.3812551 -7.5200343 -17.313461 4294967295
6.3947754 -10.058206 -16.93578 4294967295
6.4086676 -9.2675552 -16.965034 4294967295
6.4193187 -14.636654 -17.042679 4294967295
6.4201651 -8.1594181 -17.04497 4294967295
6.4277844 -7.8434081 -17.046572 4294967295
6.4395666 -14.164926 -17.001825 4294967295
6.4450622 -7.6872382 -16.98139 4294967295
6.4470263 -8.480341 -16.874411 4294967295
6.4472666 -14.800558 -16.886284 4294967295
6.4492035 -14.325277 -16.935156 4294967295
6.4572482 -12.741461 -17.090277 4294967295
6.4633622 -11.949994 -17.157589 4294967295
6.468257 -12.901933 -17.016901 4294967295
6.4720111 -13.853887 -16.881783 4294967295
6.4723454 -13.69539 -16.899599 4294967295
6.4724488 -11.159045 -17.210344 4294967295
6.4791188 -12.428251 -17.022064 4294967295
6.4894533 -11.795908 -17.049269 4294967295
6.5117111 -10.372854 -17.115372 4294967295
6.524435 -12.118971 -16.839039 4294967295
6.5315309 -13.54765 -16.62912 4294967295
6.5475254 -8.6346045 -17.154062 4294967295
6.6319857 -8.1709471 -16.79911 4294967295
6.6544342 -11.008496 -17.129562 4294967295
6.6602025 -12.594888 -16.906885 4294967295
6.6630912 -14.815796 -16.62043 4294967295
6.6760406 -8.9513063 -17.276682 4294967295
6.6766233 -9.7438879 -17.176619 4294967295
6.6805763 -10.695659 -17.040619 4294967295
6.6826248 -10.854532 -17.011154 4294967295
6.6883078 -11.489702 -16.905567 4294967295
6.6896629 -11.17279 -16.93784 4294967295
6.7041144 -12.126732 -16.75045 4294967295
6.7078099 -13.079121 -16.615639 4294967295
6.7154136 -10.225507 -16.928627 4294967295
6.717731 -9.433053 -17.014549 4294967295
6.720243 -12.446761 -16.632648 4294967295
6.7223029 -8.0068913 -17.167229 4294967295
6.7346411 -8.6427803 -17.029135 4294967295
6.7612967 -8.1708832 -16.957205 4294967295
6.7641554 -10.074503 -16.709766 4294967295
6.7688718 -7.6962214 -16.978542 4294967295
6.7801819 -7.5391855 -16.942724 4294967295
6.7893815 -14.338032 -16.851248 4294967295
6.7941737 -13.07038 -16.983337 4294967295
6.7954307 -13.22916 -16.95776 4294967295
6.7976756 -13.705267 -16.888474 4294967295
6.7984495 -14.656933 -16.768051 4294967295
6.8020492 -11.6449 -17.119785 4294967295
6.8023858 -12.596178 -17.001526 4294967295
6.8059659 -13.865375 -16.828522 4294967295
6.8062601 -12.121212 -17.040909 4294967295
6.8262782 -11.173315 -17.05975 4294967295
6.8428755 -12.920469 -16.764828 4294967295
6.8439488 -9.9078426 -17.128952 4294967295
6.8630495 -10.703596 -16.938482 4294967295
6.8648953 -12.765741 -16.676691 4294967295
6.9000211 -7.8550544 -17.107906 4294967295
6.9052286 -8.3314362 -17.024166 4294967295
6.9179063 -13.702418 -17.090137 4294967295
6.9293761 -9.6037216 -16.750719 4294967295
6.9306412 -8.9694376 -16.822332 4294967295
6.9560819 -8.0213871 -16.814831 4294967295
6.9561591 -12.440954 -17.058878 4294967295
7.0150499 -9.7553158 -17.101889 4294967295
7.0174632 -14.196656 -16.545946 4294967295
7.0237384 -8.4883451 -17.214945 4294967295
7.0252705 -7.6960096 -17.304604 4294967295
7.0264964 -8.9643269 -17.143215 4294967295
7.0330896 -10.233782 -16.95562 4294967295
7.0354695 -12.296075 -16.691347 4294967295
7.0369959 -11.185969 -16.819962 4294967295
7.046267 -12.93257 -16.560904 4294967295
7.0564766 -12.141032 -16.608295 4294967295
7.0866194 -13.867015 -17.035637 4294967295
7.0922785 -9.1325655 -16.803038 4294967295
7.0956507 -8.3399868 -16.883785 4294967295
7.1122169 -13.237444 -16.988544 4294967295
7.1203661 -12.604642 -17.026506 4294967295
7.1234131 -14.666831 -16.759176 4294967295
7.1291442 -13.557662 -16.867201 4294967295
7.1406293 -14.352846 -16.714098 4294967295
7.155303 -10.390745 -17.128151 4294967295
7.1580648 -12.769829 -16.82337 4294967295
7.1697125 -13.406403 -16.688898 4294967295
7.1744819 -13.089981 -16.70451 4294967295
7.174942 -10.869549 -16.974224 4294967295
7.1893892 -9.2861252 -17.098072 4294967295
7.1945486 -13.728241 -16.528984 4294967295
7.1960783 -11.507401 -16.793552 4294967295
7.1992412 -11.825186 -16.739286 4294967295
7.2000642 -9.9220114 -16.968393 4294967295
7.2142172 -10.717244 -16.802324 4294967295
7.2148724 -8.021369 -17.129353 4294967295
7.2166586 -12.304104 -16.596125 4294967295
7.2539907 -8.5026093 -16.880615 4294967295
7.2655964 -14.033546 -16.931345 4294967295
7.3159776 -11.346539 -17.016132 4294967295
7.3490629 -11.986469 -16.777473 4294967295
7.3513317 -10.083558 -16.999434 4294967295
7.3570819 -11.511926 -16.796709 4294967295
7.3660483 -10.878889 -16.830755 4294967295
7.3679657 -12.148328 -16.666065 4294967295
7.3718872 -12.307663 -16.62756 4294967295
7.3751125 -9.2942295 -16.980833 4294967295
7.3759193 -7.8672009 -17.151632 4294967295
7.3821611 -11.198771 -16.713518 4294967295
7.3834982 -9.6126833 -16.901213 4294967295
7.3877664 -11.83435 -16.608553 4294967295
7.3973441 -9.4561481 -16.853283 4294967295
7.4055853 -9.9332972 -16.754936 4294967295
7.4074492 -13.876074 -17.046661 4294967295
7.4078774 -8.8232183 -16.87973 4294967295
7.4091973 -10.251159 -16.698519 4294967295
7.4133391 -8.6653852 -16.872589 4294967295
7.4201283 -8.3491106 -16.87841 4294967295
7.4334474 -14.039455 -16.900852 4294967295
7.4378533 -13.564482 -16.937641 4294967295
7.4490352 -7.5599599 -16.834953 4294967295
7.4527521 -13.09138 -16.923418 4294967295
7.4567094 -12.140554 -17.020601 4294967295
7.4718561 -14.205219 -16.694693 4294967295
7.474463 -14.681682 -16.623785 4294967295
7.499424 -8.9761257 -17.201082 4294967295
7.5075655 -13.259796 -16.637541 4294967295
7.530118 -10.566621 -16.857918 4294967295
7.5423117 -12.948606 -16.50746 4294967295
7.5642481 -8.1925154 -16.983253 4294967295
7.5713897 -9.1452503 -16.832108 4294967295
7.5739598 -11.366995 -16.547812 4294967295
7.5773115 -8.0357237 -16.939217 4294967295
7.582376 -13.566109 -17.020576 4294967295
7.6318741 -14.685654 -16.644428 4294967295
7.6331172 -11.037633 -17.084534 4294967295
7.6453533 -12.625685 -16.831181 4294967295
7.6527467 -10.723624 -17.028057 4294967295
7.6882944 -8.9846058 -17.068926 4294967295
7.6883516 -13.267927 -16.544809 4294967295
7.688663 -12.315866 -16.659731 4294967295
7.6925602 -7.8752103 -17.183998 4294967295
7.6963701 -9.9374199 -16.913359 4294967295
7.6967955 -8.668664 -17.066481 4294967295
7.7009287 -13.111465 -16.503151 4294967295
7.7057714 -11.208041 -16.712521 4294967295
7.7082696 -11.684471 -16.642179 4294967295
7.7095675 -7.7189627 -17.120903 4294967295
7.7187457 -10.258146 -16.76598 4294967295
7.7232881 -9.6242428 -16.821554 4294967295
7.7246914 -9.3071718 -16.85355 4294967295
7.7264147 -8.1970577 -16.980997 4294967295
7.7319674 -10.894922 -16.624195 4294967295
7.7331519 -8.039382 -16.967718 4294967295
7.7479062 -14.681768 -16.865807 4294967295
7.7485676 -7.5656357 -16.951151 4294967295
7.7494493 -14.364831 -16.897095 4294967295
7.7528043 -8.8353395 -16.775375 4294967295
7.7580447 -14.049206 -16.894178 4294967295
7.7703514 -13.417001 -16.912039 4294967295
7.7739911 -8.3623629 -16.730818 4294967295
7.7833443 -11.991861 -17.023512 4294967295
7.7933707 -12.945243 -16.858576 4294967295
7.7992587 -14.532839 -16.63611 4294967295
7.8077068 -13.741048 -16.692102 4294967295
7.8313894 -10.255095 -17.003878 4294967295
7.8319306 -9.7793913 -17.059416 4294967295
7.8347826 -12.793866 -16.677166 4294967295
7.841001 -9.3049822 -17.073624 4294967295
7.8626695 -13.592344 -16.444948 4294967295
7.890717 -10.740355 -16.658159 4294967295
7.9115248 -10.108845 -16.634909 4294967295
7.9125381 -13.576819 -16.986898 4294967295
7.9632349 -14.855424 -16.586271 4294967295
7.9886975 -11.845241 -16.831253 4294967295
7.992456 -14.22611 -16.522263 4294967295
8.0023813 -14.069232 -16.493574 4294967295
8.0249805 -11.692629 -16.674963 4294967295
8.0261126 -12.803738 -16.53376 4294967295
8.0288143 -9.9479179 -16.869646 4294967295
8.0380754 -10.901345 -16.708504 4294967295
8.0388889 -11.218849 -16.665792 4294967295
8.0407667 -9.1564999 -16.908722 4294967295
8.0456161 -8.6812983 -16.943403 4294967295
8.0470924 -8.0470114 -17.01379 4294967295
8.0485725 -9.7922688 -16.793406 4294967295
8.0528069 -10.268939 -16.714746 4294967295
8.056468 -11.539141 -16.541903 4294967295
8.0587358 -11.063362 -16.589098 4294967295
8.0661812 -10.74713 -16.591837 4294967295
8.0662632 -11.382026 -16.513874 4294967295
8.0751991 -8.3681984 -16.839029 4294967295
8.0813284 -14.217335 -16.874815 4294967295
8.0924492 -8.8466806 -16.697399 4294967295
8.0963917 -14.061484 -16.821308 4294967295
8.1081972 -7.7380681 -16.756929 4294967295
8.1136503 -7.8974981 -16.711157 4294967295
8.115634 -13.747704 -16.766962 4294967295
8.116065 -13.113169 -16.842371 4294967295
8.1231575 -14.54248 -16.633694 4294967295
8.1231718 -12.797128 -16.846741 4294967295
8.1232719 -13.273101 -16.788136 4294967295
8.1328316 -11.212455 -16.993738 4294967295
8.1374884 -12.165011 -16.854988 4294967295
8.140624 -11.848252 -16.878572 4294967295
8.1444597 -10.104044 -17.073103 4294967295
8.1599026 -10.740926 -16.920963 4294967295
8.1672058 -9.7902956 -17.00189 4294967295
8.1765442 -10.902225 -16.821129 4294967295
8.2233 -7.7362046 -16.982637 4294967295
8.2395697 -14.538735 -16.852642 4294967295
8.3125668 -14.235003 -16.538645 4294967295
8.3188972 -14.077447 -16.52743 4294967295
8.3255625 -12.967626 -16.630821 4294967295
8.3565664 -9.6403694 -16.887836 4294967295
8.3605633 -9.0063601 -16.946005 4294967295
8.3641052 -8.6895866 -16.96764 4294967295
8.3703527 -11.705539 -16.569454 4294967295
8.3710251 -9.8012133 -16.798668 4294967295
8.3784475 -9.3262939 -16.820938 4294967295
8.3834944 -7.5818148 -17.009615 4294967295
8.3899307 -11.391293 -16.513655 4294967295
8.396451 -8.0595179 -16.88899 4294967295
8.4024029 -9.9646749 -16.627808 4294967295
8.4184113 -14.546731 -16.769823 4294967295
8.4204483 -8.2215147 -16.753805 4294967295
8.4382963 -14.391772 -16.693213 4294967295
8.445715 -14.710567 -16.618692 4294967295
8.4489574 -12.330958 -16.893398 4294967295
8.4545479 -10.745557 -17.059961 4294967295
8.4548264 -13.91874 -16.671516 4294967295
8.454896 -13.28399 -16.74861 4294967295
8.4635677 -14.079052 -16.60997 4294967295
8.4666214 -12.810006 -16.750113 4294967295
8.4802294 -10.590981 -16.955463 4294967295
8.4856453 -11.067796 -16.871279 4294967295
8.4877796 -11.544148 -16.802912 4294967295
8.489459 -10.433781 -16.930311 4294967295
8.4920425 -11.862222 -16.743633 4294967295
8.497057 -12.656592 -16.622635 4294967295
8.499094 -14.244353 -16.419163 4294967295
8.5010099 -13.133462 -16.545473 4294967295
8.5076246 -8.6914902 -17.055626 4294967295
8.5117388 -11.230687 -16.72607 4294967295
8.5392647 -8.0613804 -16.980528 4294967295
8.5631523 -7.747324 -16.904106 4294967295
8.6107321 -12.9703 -16.815802 4294967295
8.6162586 -8.2307129 -16.59004 4294967295
8.6188498 -10.90919 -17.028187 4294967295
8.6717291 -9.1722479 -16.986317 4294967295
8.6947966 -9.9690447 -16.778488 4294967295
8.6955318 -7.9064507 -17.026493 4294967295
8.7021017 -10.446291 -16.685244 4294967295
8.7037754 -7.7489233 -17.006157 4294967295
8.7067623 -8.3839664 -16.914383 4294967295
8.7154388 -10.289637 -16.640368 4294967295
8.7247839 -8.0691147 -16.866323 4294967295
8.7249479 -9.3387308 -16.710707 4294967295
8.7291279 -9.4980698 -16.671223 4294967295
8.7362432 -14.396552 -16.816212 4294967295
8.7420149 -13.445613 -16.904446 4294967295
8.7431202 -8.5477667 -16.719986 4294967295
8.7594156 -8.8675489 -16.602812 4294967295
8.7627306 -12.655963 -16.901426 4294967295
8.780118 -13.769843 -16.682365 4294967295
8.7801409 -14.563457 -16.585541 4294967295
8.7882004 -13.136456 -16.720833 4294967295
8.7928801 -12.343784 -16.795013 4294967295
8.7970943 -14.249136 -16.542616 4294967295
8.8003521 -10.440982 -16.991129 4294967295
8.8003769 -7.6031971 -16.560497 4294967295
8.8085585 -13.616255 -16.564816 4294967295
8.8130503 -12.0298 -16.736637 4294967295
8.8240929 -14.095354 -16.431999 4294967295
8.854579 -12.195529 -16.517462 4294967295
8.8554688 -12.989539 -16.416428 4294967295
8.8561544 -8.2280617 -16.993488 4294967295
8.8617382 -11.87921 -16.521713 4294967295
8.8620234 -11.402993 -16.578388 4294967295
8.8621283 -11.085522 -16.616575 4294967295
8.8630266 -11.720664 -16.534861 4294967295
8.8639517 -9.3399067 -16.820604 4294967295
8.8723297 -10.769663 -16.606194 4294967295
8.888011 -9.9783783 -16.627508 4294967295
8.9360237 -8.3978796 -16.590107 4294967295
8.9516048 -8.7176199 -16.476477 4294967295
8.9623003 -8.0839787 -16.502468 4294967295
8.9871092 -13.465232 -16.503727 4294967295
9.0091782 -11.087765 -16.687735 4294967295
9.0282841 -12.678563 -16.402514 4294967295
9.0290079 -8.7101212 -16.882505 4294967295
9.0303602 -12.361336 -16.431225 4294967295
9.0311966 -12.043907 -16.465889 4294967295
9.0351133 -10.456914 -16.640476 4294967295
9.0400381 -9.3465347 -16.752184 4294967295
9.0433683 -11.569578 -16.465425 4294967295
9.0584278 -10.778091 -16.489782 4294967295
9.0668249 -8.8742304 -16.68154 4294967295
9.0669127 -9.6679974 -16.584417 4294967295
9.0720882 -8.2400322 -16.733618 4294967295
9.0823984 -8.0827188 -16.703449 4294967295
9.0837364 -7.7654319 -16.735703 4294967295
9.0915565 -8.4014816 -16.620787 4294967295
9.095109 -14.888877 -16.588373 4294967295
9.1001854 -13.461253 -16.737923 4294967295
9.1048889 -13.620813 -16.696012 4294967295
9.1056643 -8.5622272 -16.533691 4294967295
9.1183348 -14.575741 -16.51549 4294967295
9.1299353 -14.101594 -16.517769 4294967295
9.1352243 -12.832519 -16.647003 4294967295
9.144701 -13.310433 -16.543526 4294967295
9.1577454 -11.090253 -16.751503 4294967295
9.1580477 -10.772869 -16.788706 4294967295
9.1600428 -13.789517 -16.411871 4294967295
9.1766787 -10.299623 -16.757288 4294967295
9.1842728 -11.412016 -16.585541 4294967295
9.2044687 -10.938963 -16.546616 4294967295
9.2141972 -9.5116186 -16.673922 4294967295
9.2355995 -14.254766 -16.767929 4294967295
9.2392664 -14.572876 -16.711718 4294967295
9.2403507 -9.3567123 -16.567785 4294967295
9.2565775 -9.9943037 -16.412594 4294967295
9.2597103 -8.0893068 -16.629595 4294967295
9.2729626 -14.420411 -16.569418 4294967295
9.2845774 -12.517597 -16.745535 4294967295
9.2853918 -11.882876 -16.818893 4294967295
9.2887564 -12.200865 -16.764133 4294967295
9.2940636 -7.6176152 -16.522848 4294967295
9.2995586 -11.250368 -16.828245 4294967295
9.3047466 -12.838549 -16.610197 4294967295
9.3648443 -8.0860109 -16.901741 4294967295
9.3707428 -11.420642 -16.467726 4294967295
9.3729448 -10.468272 -16.573124 4294967295
9.3771791 -11.104085 -16.475527 4294967295
9.3818064 -10.310863 -16.54998 4294967295
9.3908358 -9.0420456 -16.661308 4294967295
9.3934231 -8.5661516 -16.706882 4294967295
9.3942795 -9.9951973 -16.52886 4294967295
9.3950739 -8.248889 -16.737617 4294967295
9.4029112 -7.6149955 -16.777361 4294967295
9.4158373 -12.517057 -16.891973 4294967295
9.4206619 -8.7287636 -16.557064 4294967295
9.4207277 -9.5227604 -16.460112 4294967295
9.4239349 -9.2056189 -16.483398 4294967295
9.4266138 -7.9356904 -16.625181 4294967295
9.4405499 -8.413969 -16.500444 4294967295
9.4536648 -14.746265 -16.440483 4294967295
9.4548903 -14.428907 -16.473236 4294967295
9.4615211 -12.842364 -16.634602 4294967295
9.4693117 -14.113975 -16.442787 4294967295
9.4700518 -11.097664 -16.80616 4294967295
9.4726801 -12.209252 -16.658411 4294967295
9.4735546 -13.638356 -16.480408 4294967295
9.4742479 -9.987359 -16.921225 4294967295
9.4813232 -13.163364 -16.501148 4294967295
9.4869385 -9.5131645 -16.918404 4294967295
9.4886427 -12.370714 -16.56267 4294967295
9.4915209 -11.259845 -16.684076 4294967295
9.4942341 -10.307833 -16.786951 4294967295
9.5005674 -11.737606 -16.582829 4294967295
9.5092592 -12.056616 -16.502584 4294967295
9.5220604 -9.3596125 -16.769638 4294967295
9.584404 -13.792686 -16.705324 4294967295
9.6074686 -11.57449 -16.865189 4294967295
9.6101608 -8.8960018 -16.406013 4294967295
9.6137514 -13.004148 -16.661446 4294967295
9.6311569 -7.4694571 -16.479464 4294967295
9.6391048 -10.785965 -16.810419 4294967295
9.6500244 -9.6765976 -16.893316 4294967295
9.6553402 -12.534997 -16.520454 4294967295
9.7012939 -10.001781 -16.609648 4294967295
9.7030268 -11.272453 -16.446894 4294967295
9.7183046 -9.369174 -16.605568 4294967295
9.7186451 -8.7341118 -16.681166 4294967295
9.7271719 -10.323329 -16.447327 4294967295
9.7354097 -14.430449 -16.680004 4294967295
9.7368155 -7.9427762 -16.690872 4294967295
9.7418623 -8.8961954 -16.550905 4294967295
9.7508478 -7.6271095 -16.662436 4294967295
9.7584333 -8.1045017 -16.568268 4294967295
9.7745533 -8.4243536 -16.452616 4294967295
9.7785692 -11.580638 -16.82106 4294967295
9.7796488 -14.756254 -16.430025 4294967295
9.7890902 -11.106149 -16.82869 4294967295
9.8012981 -13.648534 -16.46167 4294967295
9.8016129 -12.854587 -16.556654 4294967295
9.8277111 -12.700279 -16.451288 4294967295
9.828618 -10.477381 -16.717115 4294967295
9.8292198 -12.382907 -16.482677 4294967295
9.8359919 -10.160992 -16.720501 4294967295
9.8395205 -11.908197 -16.491383 4294967295
9.843111 -9.0507936 -16.821573 4294967295
9.8491526 -9.8454504 -16.696262 4294967295
9.8639202 -10.800455 -16.509966 4294967295
9.8959236 -9.693635 -16.492277 4294967295
9.9047775 -8.5832329 -16.585125 4294967295
9.914959 -14.279713 -16.614897 4294967295
9.9262953 -7.4745555 -16.61754 4294967295
9.9424667 -13.173201 -16.618635 4294967295
9.957572 -11.905591 -16.700855 4294967295
9.9750547 -11.7497 -16.636749 4294967295
10.00552 -10.96066 -16.587885 4294967295
10.03776 -7.7898579 -16.819933 4294967295
10.056595 -9.5391674 -16.517963 4294967295
10.060904 -8.2693186 -16.651756 4294967295
10.065427 -8.746357 -16.572319 4294967295
10.089584 -7.4791751 -16.611515 4294967295
10.096734 -13.652931 -16.597279 4294967295
10.098175 -8.4332867 -16.454802 4294967295
10.10091 -12.065928 -16.770138 4294967295
10.101048 -14.288918 -16.499603 4294967295
10.116704 -11.592257 -16.752722 4294967295
10.119042 -7.9595962 -16.413229 4294967295
10.132484 -11.277277 -16.716101 4294967295
10.133827 -12.706617 -16.536192 4294967295
10.137868 -12.866127 -16.497658 4294967295
10.143373 -10.802689 -16.722065 4294967295
10.143768 -13.343644 -16.411694 4294967295
10.158888 -11.757941 -16.532484 4294967295
10.163235 -9.0593033 -16.839523 4294967295
10.172684 -9.6957359 -16.717419 4294967295
10.181498 -11.443973 -16.463343 4294967295
10.189298 -9.8570004 -16.619019 4294967295
10.194057 -10.969471 -16.461365 4294967295
10.204932 -7.4774957 -16.833778 4294967295
10.217572 -10.178909 -16.445797 4294967295
10.253153 -14.133079 -16.565723 4294967295
10.265715 -14.770674 -16.428837 4294967295
10.313807 -12.237897 -16.508305 4294967295
10.333811 -12.082398 -16.432388 4294967295
10.374264 -9.2296801 -16.586914 4294967295
10.374841 -8.7533188 -16.641996 4294967295
10.379779 -7.6424174 -16.753426 4294967295
10.381512 -7.9602294 -16.706638 4294967295
10.383452 -9.5486794 -16.504665 4294967295
10.383632 -8.4369278 -16.638739 4294967295
10.387329 -10.184661 -16.409109 4294967295
10.396433 -8.9151983 -16.520041 4294967295
10.409996 -13.342941 -16.686283 4294967295
10.416919 -7.4885092 -16.596125 4294967295
10.422489 -12.551196 -16.723188 4294967295
10.4227 -13.662782 -16.58737 4294967295
10.434126 -14.300137 -16.455999 4294967295
10.437078 -13.983002 -16.480495 4294967295
10.440082 -13.189413 -16.562529 4294967295
10.449213 -12.873363 -16.55765 4294967295
10.452108 -11.127069 -16.755762 4294967295
10.456287 -11.286517 -16.716644 4294967295
10.460051 -11.763509 -16.640976 4294967295
10.475087 -10.654328 -16.704359 4294967295
10.485046 -9.8619099 -16.753349 4294967295
10.4851 -11.926445 -16.502672 4294967295
10.485152 -10.814696 -16.637276 4294967295
10.487311 -12.244497 -16.453627 4294967295
10.495819 -11.451682 -16.509531 4294967295
10.535772 -10.504889 -16.435305 4294967295
10.545281 -8.1237459 -16.67915 4294967295
10.557878 -7.9666367 -16.638592 4294967295
10.58842 -8.6062126 -16.416475 4294967295
10.614294 -12.719771 -16.562227 4294967295
10.627883 -11.610302 -16.632509 4294967295
10.647282 -12.248829 -16.463408 4294967295
10.670474 -9.2347288 -16.719223 4294967295
10.674347 -9.7117243 -16.643082 4294967295
10.687928 -9.8725691 -16.559387 4294967295
10.71992 -8.4476109 -16.580948 4294967295
10.745708 -7.9745817 -16.516415 4294967295
10.747223 -14.625375 -16.469168 4294967295
10.747701 -7.4982872 -16.564753 4294967295
10.765936 -13.993393 -16.457401 4294967295
10.768579 -12.723151 -16.598845 4294967295
10.770213 -12.088163 -16.668076 4294967295
10.824374 -11.938272 -16.430557 4294967295
10.851232 -10.03617 -16.534277 4294967295
10.864574 -7.8144341 -16.740543 4294967295
10.878682 -9.5636549 -16.46195 4294967295
10.892655 -9.4068155 -16.414997 4294967295
10.896485 -8.612977 -16.49312 4294967295
10.961339 -12.89196 -16.433994 4294967295
10.988643 -11.466677 -16.477894 4294967295
11.01888 -10.200447 -16.488703 4294967295
11.046639 -9.0924234 -16.492033 4294967295
11.056682 -7.9817576 -16.579226 4294967295
11.086246 -7.5090718 -16.497093 4294967295
11.091627 -14.32095 -16.411234 4294967295
11.114069 -13.371688 -16.420464 4294967295
11.125006 -12.896942 -16.426434 4294967295
11.134592 -10.992181 -16.611889 4294967295
11.148902 -12.106545 -16.409588 4294967295
11.162927 -11.314391 -16.439445 4294967295
11.169458 -9.8855705 -16.581676 4294967295
11.185495 -8.1405926 -16.717428 4294967295
11.187369 -9.570488 -16.535477 4294967295
11.192718 -7.9827361 -16.702536 4294967295
11.201525 -8.3016129 -16.622448 4294967295
11.204013 -9.4140358 -16.476044 4294967295
11.287102 -11.630684 -16.580172 4294967295
11.374556 -7.6721425 -16.647896 4294967295
11.386078 -9.262557 -16.401224 4294967295
11.389651 -8.4685478 -16.480513 4294967295
11.414862 -7.8363552 -16.438442 4294967295
11.441279 -12.269498 -16.540621 4294967295
11.453887 -11.794962 -16.53879 4294967295
11.468666 -10.367533 -16.642017 4294967295
11.468996 -11.32077 -16.525169 4294967295
11.517532 -8.4683352 -16.642189 4294967295
11.528884 -9.1054249 -16.511801 4294967295
11.538718 -7.5180111 -16.657625 4294967295
11.560234 -8.315299 -16.460108 4294967295
11.672944 -10.696352 -16.404978 4294967295
11.675278 -9.7432632 -16.509256 4294967295
11.693833 -9.904911 -16.402651 4294967295
11.72113 -8.1607084 -16.48546 4294967295
11.729066 -7.6850443 -16.505739 4294967295
11.764058 -12.914178 -16.470568 4294967295
11.768695 -12.438278 -16.506346 4294967295
11.784443 -12.599824 -16.413027 4294967295
11.793416 -11.17118 -16.543608 4294967295
11.828228 -10.223166 -16.495035 4294967295
11.835063 -10.542028 -16.424473 4294967295
11.851509 -9.2731524 -16.50074 4294967295
11.855713 -9.9094362 -16.404148 4294967295
11.893372 -8.484416 -16.399885 4294967295
11.959883 -11.494297 -16.48494 4294967295
12.05823 -8.3303375 -16.406801 4294967295
12.058372 -8.0124798 -16.44453 4294967295
12.187798 -9.442873 -16.425854 4294967295
12.204223 -8.8094378 -16.425547 4294967295
12.226374 -7.540906 -16.475159 4294967295
12.545116 -8.3438482 -16.406521 4294967295
12.656217 -10.407602 -16.396746 4294967295
-13.486358 -7.0772209 -19.802553 4294967295
-13.401947 -7.3836765 -20.192366 4294967295
-13.362552 -6.4483619 -20.088629 4294967295
-13.353928 -7.2343612 -19.935743 4294967295
-13.346936 -7.0785027 -19.916 4294967295
-13.323249 -6.6112461 -19.841129 4294967295
-13.045204 -5.3585167 -20.236908 4294967295
-13.042396 -5.8296261 -20.158974 4294967295
-13.024328 -7.4018693 -19.849018 4294967295
-13.011389 -6.3049927 -19.918741 4294967295
-13.009005 -6.7762976 -19.843218 4294967295
-12.997198 -5.9931231 -19.878273 4294967295
-12.9861 -6.6227775 -19.731993 4294967295
-12.98202 -7.2515364 -19.626081 4294967295
-12.897764 -6.7733254 -20.118353 4294967295
-12.873355 -5.6784253 -20.122143 4294967295
-12.806522 -5.373908 -19.77931 4294967295
-12.750809 -7.4035277 -20.10553 4294967295
-12.723365 -7.2508979 -19.968584 4294967295
-12.69746 -5.9990377 -19.984509 4294967295
-12.694261 -6.1564808 -19.945576 4294967295
-12.691308 -5.3720522 -20.031502 4294967295
-12.68976 -6.7851281 -19.837448 4294967295
-12.677236 -5.6879854 -19.909616 4294967295
-12.665667 -4.9046583 -19.946123 4294967295
-12.650867 -4.2786822 -19.943523 4294967295
-12.650752 -6.634017 -19.634171 4294967295
-12.542488 -4.7471209 -20.172747 4294967295
-12.530703 -6.6324434 -19.858501 4294967295
-12.47568 -5.2271504 -19.728361 4294967295
-12.46277 -4.9148145 -19.695551 4294967295
-12.454567 -4.1306596 -19.751419 4294967295
-12.45367 -3.8167009 -19.787416 4294967295
-12.446245 -3.5035529 -19.786043 4294967295
-12.403401 -7.2598925 -19.958578 4294967295
-12.39812 -6.9467354 -19.969454 4294967295
-12.392508 -6.0057154 -20.060623 4294967295
-12.385025 -6.4777513 -19.956173 4294967295
-12.376309 -6.322051 -19.926851 4294967295
-12.373167 -4.9096832 -20.093815 4294967295
-12.369262 -5.8520875 -19.948185 4294967295
-12.35376 -3.9704638 -20.106098 4294967295
-12.341659 -4.1289678 -20.016344 4294967295
-12.340287 -7.4268527 -19.576838 4294967295
-12.338438 -5.5424418 -19.812956 4294967295
-12.335096 -6.6422701 -19.649935 4294967295
-12.323117 -3.0324047 -20.054169 4294967295
-12.322045 -4.445497 -19.863071 4294967295
-12.308843 -4.6042595 -19.767004 4294967295
-12.307975 -6.1750569 -19.55644 4294967295
-12.2229 -5.6975694 -20.041849 4294967295
-12.171111 -3.3496766 -20.054123 4294967295
-12.140816 -4.7667232 -19.696247 4294967295
-12.139076 -4.1387157 -19.768499 4294967295
-12.136548 -3.0397832 -19.897871 4294967295
-12.125009 -3.1981752 -19.811449 4294967295
-12.11235 -2.4144452 -19.841904 4294967295
-12.111523 -2.2575045 -19.857721 4294967295
-12.098113 -7.4235749 -20.012177 4294967295
-12.084362 -7.2687349 -19.954235 4294967295
-12.079511 -6.1705337 -20.070223 4294967295
-12.06772 -6.9572864 -19.900337 4294967295
-12.054604 -5.5461578 -20.010241 4294967295
-12.045111 -6.0185328 -19.894516 4294967295
-12.041206 -5.7050524 -19.913301 4294967295
-12.029354 -6.3349094 -19.763569 4294967295
-12.015951 -2.5685325 -20.179777 4294967295
-12.015267 -6.6511459 -19.642138 4294967295
-12.001325 -4.4542599 -19.850077 4294967295
-12.00128 -3.0411413 -20.034576 4294967295
-12.000095 -5.3967338 -19.71987 4294967295
-11.985331 -3.6711085 -19.861532 4294967295
-11.984266 -3.8282776 -19.834934 4294967295
-11.965905 -1.789103 -19.99715 4294967295
-11.887793 -5.2374969 -20.007826 4294967295
-11.87441 -7.2810178 -19.66486 4294967295
-11.857401 -6.4981866 -19.670574 4294967295
-11.826585 -6.8170376 -19.453964 4294967295
-11.82484 -2.7332869 -19.977625 4294967295
-11.813513 -5.5619164 -19.543737 4294967295
-11.808558 -4.7770443 -19.618153 4294967295
-11.802694 -2.1076725 -19.933647 4294967295
-11.801642 -1.1657107 -20.050751 4294967295
-11.80082 -3.6784077 -19.717773 4294967295
-11.800484 -4.9352322 -19.551647 4294967295
-11.799137 -4.4640765 -19.605564 4294967295
-11.796954 -1.7942363 -19.942011 4294967295
-11.789854 -2.5802197 -19.799006 4294967295
-11.788055 -1.0100515 -19.993958 4294967295
-11.784379 -4.1517534 -19.562584 4294967295
-11.777247 -1.3251804 -19.89142 4294967295
-11.742017 -6.6530275 -19.899685 4294967295
-11.736618 -7.2820411 -19.786947 4294967295
-11.733716 -5.8691077 -19.954983 4294967295
-11.716984 -6.3426538 -19.7983 4294967295
-11.706477 -5.5588875 -19.841074 4294967295
-11.698355 -3.9896495 -19.999933 4294967295
-11.697633 -4.7748713 -19.893309 4294967295
-11.690119 -6.9750381 -19.563435 4294967295
-11.683394 -3.3634293 -19.996895 4294967295
-11.683016 -1.9505352 -20.179239 4294967295
-11.67952 -4.620214 -19.810822 4294967295
-11.673265 -2.5795572 -20.041828 4294967295
-11.668747 -3.0511222 -19.954639 4294967295
-11.667055 -1.6382624 -20.129539 4294967295
-11.666892 -5.2502222 -19.656973 4294967295
-11.66089 -4.308497 -19.745913 4294967295
-11.632324 -3.8408346 -19.645042 4294967295
-11.58816 -1.4893717 -19.701731 4294967295
-11.568682 -1.1771377 -19.632084 4294967295
-11.548681 -6.8195667 -19.685396 4294967295
-11.537524 -5.0933371 -19.847492 4294967295
-11.527003 -6.3514919 -19.62376 4294967295
-11.488829 -6.0427799 -19.44795 4294967295
-11.468486 -0.076217502 -20.111412 4294967295
-11.467193 -2.1177549 -19.837671 4294967295
-11.458378 -1.4904395 -19.86964 4294967295
-11.456635 -2.9043562 -19.675255 4294967295
-11.4513 -1.1770395 -19.870472 4294967295
-11.449739 -1.9625561 -19.759125 4294967295
-11.448929 -3.2194855 -19.590511 4294967295
-11.448201 -2.4340026 -19.688896 4294967295
-11.448023 -0.86325091 -19.892868 4294967295
-11.43289 -6.6603045 -19.952579 4294967295
-11.425183 -0.39422569 -19.824793 4294967295
-11.419739 -6.1911359 -19.939425 4294967295
-11.407689 -5.5647039 -19.953009 4294967295
-11.401035 -6.8221536 -19.751415 4294967295
-11.390031 -7.1380262 -19.648026 4294967295
-11.38927 -4.6249886 -19.971445 4294967295
-11.379832 -5.8827548 -19.754072 4294967295
-11.378546 -6.9826703 -19.603361 4294967295
-11.374984 -4.3127627 -19.93141 4294967295
