# .PCD v0.7 - Point Cloud Data file format
VERSION 0.7
FIELDS x y z rgb
SIZE 4 4 4 4
TYPE F F F U
COUNT 1 1 1 1
WIDTH 1121
HEIGHT 1
VIEWPOINT 0 0 0 1 0 0 0
POINTS 1121
DATA ascii
-41.07967 117.09468 -27.280643 4294967295
-41.077122 114.48831 -26.867569 4294967295
-41.076427 115.41053 -27.001146 4294967295
-41.075703 114.64375 -26.879805 4294967295
-41.064705 116.9613 -27.142508 4294967295
-41.061718 116.81181 -27.096388 4294967295
-41.061676 115.12292 -26.841408 4294967295
-41.059265 115.74037 -26.915495 4294967295
-41.050175 114.21642 -26.614008 4294967295
-41.04987 115.90641 -26.866419 4294967295
-41.037651 113.77181 -26.448166 4294967295
-41.02634 116.3985 -26.755011 4294967295
-40.922947 115.25378 -27.004696 4294967295
-40.891697 116.52364 -26.949942 4294967295
-40.887707 116.22182 -26.873079 4294967295
-40.852791 117.19003 -26.744003 4294967295
-40.850815 113.65807 -26.196413 4294967295
-40.841892 114.13092 -26.197405 4294967295
-40.775173 114.32172 -26.936441 4294967295
-40.756874 115.88138 -27.027359 4294967295
-40.753601 114.81068 -26.840542 4294967295
-40.745632 114.97474 -26.802605 4294967295
-40.738258 115.44525 -26.815464 4294967295
-40.730576 116.37697 -26.895311 4294967295
-40.730232 116.53101 -26.915783 4294967295
-40.729607 116.83898 -26.957222 4294967295
-40.725082 113.31126 -26.390808 4294967295
-40.724129 116.07835 -26.799728 4294967295
-40.721226 116.69659 -26.869955 4294967295
-40.719288 117.15992 -26.924427 4294967295
-40.711597 114.71207 -26.49567 4294967295
-40.706551 113.48895 -26.271942 4294967295
-40.695824 114.11781 -26.28231 4294967295
-40.687302 113.20628 -26.078144 4294967295
-40.686886 114.59068 -26.283234 4294967295
-40.624325 114.77573 -27.052588 4294967295
-40.615295 114.17322 -26.891188 4294967295
-40.599949 116.03624 -27.050943 4294967295
-40.555992 115.78714 -26.668779 4294967295
-40.546936 117.33546 -26.830509 4294967295
-40.54641 113.95535 -26.318277 4294967295
-40.528267 113.51754 -26.110178 4294967295
-40.524879 113.8295 -26.130503 4294967295
-40.456158 114.63811 -26.944111 4294967295
-40.450291 116.64211 -27.199146 4294967295
-40.447178 115.26421 -26.967865 4294967295
-40.441422 117.11449 -27.20068 4294967295
-40.437305 115.89153 -26.984821 4294967295
-40.436508 114.81736 -26.817268 4294967295
-40.434219 114.20579 -26.707506 4294967295
-40.423943 114.52646 -26.675232 4294967295
-40.413971 116.22955 -26.852953 4294967295
-40.406651 115.62468 -26.704817 4294967295
-40.406387 115.01037 -26.610523 4294967295
-40.405327 113.47469 -26.371561 4294967295
-40.402809 113.93913 -26.421627 4294967295
-40.400799 113.32677 -26.313915 4294967295
-40.397469 115.17572 -26.565546 4294967295
-40.395767 116.56092 -26.760235 4294967295
-40.385387 115.49895 -26.519547 4294967295
-40.380096 117.34997 -26.756077 4294967295
-40.379173 114.431 -26.310535 4294967295
-40.365486 114.14124 -26.159874 4294967295
-40.307861 115.54952 -27.148729 4294967295
-40.279442 117.27613 -27.185768 4294967295
-40.272369 116.21054 -26.970697 4294967295
-40.257767 116.53706 -26.905602 4294967295
-40.251961 114.08604 -26.492559 4294967295
-40.250008 115.31814 -26.662142 4294967295
-40.224674 114.89011 -26.40007 4294967295
-40.197739 114.00237 -26.056484 4294967295
-40.135612 114.34197 -26.848629 4294967295
-40.127182 115.88914 -27.014801 4294967295
-40.122578 115.58797 -26.933758 4294967295
-40.122482 116.50968 -27.071161 4294967295
-40.113247 116.21468 -26.954973 4294967295
-40.112453 115.1403 -26.787754 4294967295
-40.107204 114.07137 -26.586615 4294967295
-40.100479 115.46326 -26.742802 4294967295
-40.100334 116.84618 -26.948946 4294967295
-40.093735 117.00855 -26.921835 4294967295
-40.092449 116.39574 -26.819971 4294967295
-40.088505 116.70823 -26.836061 4294967295
-40.084225 113.63977 -26.3428 4294967295
-40.083912 115.79232 -26.662975 4294967295
-40.073948 113.80676 -26.287716 4294967295
-40.069298 117.34831 -26.782248 4294967295
-40.057514 113.21264 -26.070532 4294967295
-40.041775 114.30968 -26.112309 4294967295
-39.957375 113.90958 -26.61894 4294967295
-39.942501 114.85102 -26.644182 4294967295
-39.941151 114.08419 -26.518843 4294967295
-39.932491 117.0155 -26.890383 4294967295
-39.915848 113.34782 -26.21174 4294967295
-39.913158 115.35036 -26.490664 4294967295
-39.822243 116.03352 -27.10721 4294967295
-39.819378 114.65464 -26.878725 4294967295
-39.80949 115.58936 -26.941753 4294967295
-39.807785 114.2086 -26.721981 4294967295
-39.807072 115.74615 -26.946419 4294967295
-39.799343 114.52687 -26.704046 4294967295
-39.798321 115.14294 -26.788254 4294967295
-39.787289 116.23299 -26.865646 4294967295
-39.779495 113.16868 -26.346758 4294967295
-39.778362 117.32027 -26.958946 4294967295
-39.773735 115.32861 -26.625113 4294967295
-39.769051 113.3358 -26.290634 4294967295
-39.759796 116.88387 -26.749521 4294967295
-39.758625 117.03909 -26.763624 4294967295
-39.757736 115.50317 -26.52701 4294967295
-39.752033 113.51135 -26.184769 4294967295
-39.749435 116.43642 -26.602135 4294967295
-39.746506 113.67226 -26.16593 4294967295
-39.743736 113.98347 -26.190971 4294967295
-39.63612 116.68755 -26.979477 4294967295
-39.634499 115.61405 -26.806534 4294967295
-39.634251 116.38271 -26.919445 4294967295
-39.632561 113.9257 -26.539207 4294967295
-39.625484 114.24229 -26.531668 4294967295
-39.608582 114.57157 -26.449894 4294967295
-39.606167 114.88223 -26.477617 4294967295
-39.513302 114.95416 -26.985804 4294967295
-39.499187 116.50885 -27.108715 4294967295
-39.497883 116.66418 -27.121826 4294967295
-39.493179 115.4412 -26.902891 4294967295
-39.48399 114.53092 -26.695906 4294967295
-39.481834 113.76501 -26.56488 4294967295
-39.481083 115.76428 -26.857538 4294967295
-39.477524 116.22994 -26.899525 4294967295
-39.47393 114.69761 -26.642979 4294967295
-39.468708 115.31926 -26.695419 4294967295
-39.463909 115.17175 -26.63628 4294967295
-39.463337 116.86323 -26.884331 4294967295
-39.460361 116.40608 -26.793087 4294967295
-39.448544 114.11516 -26.359694 4294967295
-39.439907 115.97165 -26.57004 4294967295
-39.43697 113.36079 -26.157551 4294967295
-39.42263 117.22425 -26.623381 4294967295
-39.344204 113.8951 -26.735022 4294967295
-39.336342 115.90321 -26.973801 4294967295
-39.331524 116.06315 -26.960472 4294967295
-39.32172 113.61627 -26.519871 4294967295
-39.315716 117.15946 -27.001919 4294967295
-39.311115 117.31918 -26.990232 4294967295
-39.26907 114.91412 -26.307016 4294967295
-39.198711 115.41834 -27.051617 4294967295
-39.187176 114.20369 -26.781786 4294967295
-39.186901 114.81888 -26.871328 4294967295
-39.1856 113.74451 -26.701218 4294967295
-39.174046 114.52795 -26.728924 4294967295
-39.163223 117.15479 -27.036896 4294967295
-39.15657 115.16537 -26.68926 4294967295
-39.15567 116.3963 -26.865723 4294967295
-39.150757 115.63411 -26.714306 4294967295
-39.143402 116.87344 -26.842281 4294967295
-39.140205 116.10902 -26.703785 4294967295
-39.134445 115.04012 -26.500135 4294967295
-39.132511 114.11975 -26.348104 4294967295
-39.123466 113.97745 -26.257217 4294967295
-39.112141 115.99173 -26.470074 4294967295
-39.112133 113.37635 -26.080353 4294967295
-39.108028 117.07356 -26.599556 4294967295
-39.098846 113.70102 -26.026356 4294967295
-39.078514 113.26498 -25.804741 4294967295
-39.003643 115.31497 -26.744242 4294967295
-38.985638 113.18478 -26.2887 4294967295
-38.984867 114.87782 -26.534792 4294967295
-38.860912 114.52902 -26.738279 4294967295
-38.854481 116.68937 -27.010124 4294967295
-38.853184 114.07758 -26.611805 4294967295
-38.853062 116.38383 -26.953831 4294967295
-38.851044 115.61788 -26.824444 4294967295
-38.842125 115.01436 -26.666262 4294967295
-38.841782 113.63063 -26.457842 4294967295
-38.841286 116.24541 -26.842871 4294967295
-38.82473 116.88188 -26.810436 4294967295
-38.822906 114.42374 -26.430927 4294967295
-38.814774 113.51095 -26.232763 4294967295
-38.812149 115.36045 -26.487665 4294967295
-38.800842 117.22061 -26.677473 4294967295
-38.800823 114.75964 -26.311409 4294967295
-38.79752 113.84057 -26.149372 4294967295
-38.712715 116.05604 -27.033932 4294967295
-38.707249 113.91077 -26.673391 4294967295
-38.702728 115.45409 -26.868027 4294967295
-38.697803 113.3075 -26.511414 4294967295
-38.682373 114.86514 -26.624634 4294967295
-38.68153 116.55759 -26.869581 4294967295
-38.669689 115.18898 -26.575581 4294967295
-38.661297 117.35264 -26.832684 4294967295
-38.660679 113.81592 -26.302588 4294967295
-38.641102 115.84101 -26.453487 4294967295
-38.63002 114.16256 -26.119238 4294967295
-38.556347 115.90269 -27.017185 4294967295
-38.546227 113.60926 -26.599442 4294967295
-38.544983 114.84113 -26.772781 4294967295
-38.543404 113.76663 -26.601213 4294967295
-38.533852 114.24015 -26.598469 4294967295
-38.533051 114.39497 -26.61532 4294967295
-38.532787 115.62556 -26.795958 4294967295
-38.529583 113.93792 -26.520973 4294967295
-38.521645 116.56245 -26.8498 4294967295
-38.520283 115.33406 -26.657087 4294967295
-38.515545 114.10953 -26.439135 4294967295
-38.509281 116.88602 -26.80328 4294967295
-38.506039 113.19827 -26.23122 4294967295
-38.503284 115.04819 -26.484713 4294967295
-38.50045 114.74411 -26.417912 4294967295
-38.491577 113.52427 -26.169052 4294967295
-38.488724 117.22032 -26.695751 4294967295
-38.484379 115.53394 -26.412277 4294967295
-38.397274 115.44533 -26.934849 4294967295
-38.395992 114.98573 -26.856913 4294967295
-38.360867 113.64593 -26.390261 4294967295
-38.351036 116.1198 -26.682058 4294967295
-38.348179 114.4313 -26.409887 4294967295
-38.341785 115.82408 -26.567616 4294967295
-38.31934 116.46835 -26.491882 4294967295
-38.310509 114.32513 -26.106731 4294967295
-38.30946 113.8646 -26.030432 4294967295
-38.234425 113.76224 -26.642481 4294967295
-38.234112 114.83923 -26.79962 4294967295
-38.232697 115.91737 -26.948538 4294967295
-38.228909 113.46151 -26.555918 4294967295
-38.228378 115.15408 -26.802612 4294967295
-38.224865 114.38956 -26.662621 4294967295
-38.22398 115.62103 -26.838276 4294967295
-38.21706 115.32232 -26.74132 4294967295
-38.206532 116.56608 -26.845375 4294967295
-38.197895 114.26984 -26.439484 4294967295
-38.193516 117.19801 -26.839853 4294967295
-38.187717 116.12895 -26.637348 4294967295
-38.186333 113.66884 -26.262409 4294967295
-38.18214 115.05917 -26.43643 4294967295
-38.177948 115.52612 -26.473679 4294967295
-38.154774 116.94065 -26.506702 4294967295
-38.070187 114.23378 -26.659163 4294967295
-38.05196 114.41063 -26.546797 4294967295
-38.04142 116.73139 -26.810116 4294967295
-38.030575 114.74541 -26.4338 4294967295
-38.024448 113.52184 -26.206175 4294967295
-38.018322 115.68427 -26.479605 4294967295
-38.00106 114.16702 -26.123875 4294967295
-37.920544 114.6869 -26.784044 4294967295
-37.915848 113.616 -26.590082 4294967295
-37.909611 114.08537 -26.612179 4294967295
-37.904388 115.78403 -26.823668 4294967295
-37.901783 113.78748 -26.508739 4294967295
-37.89653 113.48628 -26.42437 4294967295
-37.89344 117.18212 -26.947281 4294967295
-37.885952 116.88425 -26.846453 4294967295
-37.885159 114.27001 -26.453962 4294967295
-37.881783 117.04342 -26.838356 4294967295
-37.871918 115.36392 -26.515251 4294967295
-37.863102 116.45222 -26.609238 4294967295
-37.862656 114.45227 -26.310207 4294967295
-37.859062 114.91856 -26.351889 4294967295
-37.855961 113.99888 -26.192387 4294967295
-37.855476 116.61588 -26.575598 4294967295
-37.847874 116.16402 -26.451124 4294967295
-37.8452 116.32133 -26.45409 4294967295
-37.735596 115.18472 -26.647955 4294967295
-37.734245 115.34029 -26.6607 4294967295
-37.728905 115.03934 -26.575823 4294967295
-37.720913 116.1265 -26.675865 4294967295
-37.708488 115.68076 -26.515955 4294967295
-37.704956 113.53025 -26.171572 4294967295
-37.690113 113.24076 -26.016441 4294967295
-37.605713 114.07452 -26.691504 4294967295
-37.59827 114.69925 -26.72743 4294967295
-37.584389 114.56287 -26.602413 4294967295
-37.578495 113.95471 -26.468111 4294967295
-37.578495 114.2625 -26.513554 4294967295
-37.577225 113.64847 -26.413321 4294967295
-37.569042 114.42828 -26.466576 4294967295
-37.56316 115.97455 -26.650269 4294967295
-37.559319 116.28716 -26.667353 4294967295
-37.553326 115.67931 -26.532375 4294967295
-37.552738 115.06445 -26.437241 4294967295
-37.552422 115.52657 -26.503014 4294967295
-37.548489 116.91647 -26.678366 4294967295
-37.537083 116.62337 -26.548933 4294967295
-37.533958 116.16568 -26.457777 4294967295
-37.531445 113.39754 -26.030317 4294967295
-37.522141 115.25708 -26.234425 4294967295
-37.429218 115.48462 -26.754627 4294967295
-37.426361 115.64208 -26.756277 4294967295
-37.402782 116.59521 -26.718925 4294967295
-37.39901 114.90724 -26.441648 4294967295
-37.377819 114.16405 -26.172258 4294967295
-37.373077 113.24588 -26.001122 4294967295
-37.368786 114.32935 -26.128487 4294967295
-37.361786 116.95552 -26.462812 4294967295
-37.276756 115.01824 -26.722595 4294967295
-37.272602 114.71572 -26.646759 4294967295
-37.265827 115.95519 -26.778296 4294967295
-37.265755 114.41651 -26.551132 4294967295
-37.259689 113.80839 -26.415903 4294967295
-37.259457 115.3478 -26.640873 4294967295
-37.256706 116.5822 -26.801949 4294967295
-37.244759 117.21288 -26.804863 4294967295
-37.241741 115.21625 -26.48815 4294967295
-37.230515 116.46175 -26.587044 4294967295
-37.224815 116.31512 -26.522535 4294967295
-37.222324 115.85651 -26.436253 4294967295
-37.22089 116.78185 -26.561707 4294967295
-37.216976 116.94077 -26.555641 4294967295
-37.206398 116.18462 -26.364658 4294967295
-37.112209 114.10519 -26.534121 4294967295
-37.094173 115.66691 -26.628389 4294967295
-37.085426 115.52405 -26.541634 4294967295
-37.076443 114.76564 -26.362553 4294967295
-37.069778 114.31203 -26.245726 4294967295
-37.064873 117.24317 -26.640102 4294967295
-37.054596 113.71484 -26.043777 4294967295
-36.952148 113.34003 -26.40159 4294967295
-36.943501 116.58305 -26.813438 4294967295
-36.938251 114.58893 -26.480963 4294967295
-36.936119 115.20734 -26.555876 4294967295
-36.9356 114.74619 -26.484211 4294967295
-36.934639 115.97878 -26.658155 4294967295
-36.932262 113.82655 -26.323988 4294967295
-36.91711 115.69307 -26.484713 4294967295
-36.914612 116.4659 -26.579559 4294967295
-36.910275 114.00784 -26.185709 4294967295
-36.9095 117.08806 -26.632675 4294967295
-36.894295 115.41387 -26.272575 4294967295
-36.892048 114.33855 -26.097641 4294967295
-36.891262 117.2653 -26.521948 4294967295
-36.889229 116.34418 -26.371311 4294967295
-36.882111 116.96911 -26.409779 4294967295
-36.808723 114.09371 -26.617083 4294967295
-36.799301 113.18167 -26.412586 4294967295
-36.766018 115.99429 -26.576506 4294967295
-36.736736 114.79921 -26.181818 4294967295
-36.730644 114.96085 -26.159962 4294967295
-36.722832 116.66483 -26.351688 4294967295
-36.629967 114.73728 -26.551933 4294967295
-36.623985 114.12885 -26.417963 4294967295
-36.621887 115.5171 -26.605959 4294967295
-36.61982 115.36575 -26.568319 4294967295
-36.614944 115.98763 -26.623119 4294967295
-36.61121 115.22258 -26.482969 4294967295
-36.610237 116.76318 -26.701742 4294967295
-36.60384 113.38364 -26.158092 4294967295
-36.602642 114.61733 -26.330156 4294967295
-36.601212 116.46678 -26.590816 4294967295
-36.599682 115.85291 -26.489328 4294967295
-36.598484 117.23988 -26.683857 4294967295
-36.593418 116.6306 -26.55661 4294967295
-36.576946 114.49525 -26.120253 4294967295
-36.567184 117.12582 -26.433252 4294967295
-36.560768 113.59072 -25.866676 4294967295
-36.480453 113.80497 -26.474363 4294967295
-36.477955 115.19366 -26.659288 4294967295
-36.393509 91.969704 -24.969725 4294967295
-36.374332 87.054344 -25.27475 4294967295
-36.362724 87.836624 -25.303349 4294967295
-36.34687 89.240166 -25.391518 4294967295
-36.313927 90.660103 -25.355326 4294967295
-36.309044 87.577377 -24.867266 4294967295
-36.304558 92.057701 -25.490646 4294967295
-36.304352 90.97789 -25.33091 4294967295
-36.300705 91.290009 -25.349581 4294967295
-36.298302 88.513847 -24.924883 4294967295
-36.293144 90.216934 -25.13628 4294967295
-36.289616 91.146378 -25.246302 4294967295
-36.281681 90.845306 -25.143349 4294967295
-36.281639 89.919113 -25.007296 4294967295
-36.281448 91.771561 -25.277357 4294967295
-36.274311 90.389244 -25.021856 4294967295
-36.271412 92.244286 -25.272196 4294967295
-36.217861 86.744957 -25.235586 4294967295
-36.217319 86.436737 -25.186434 4294967295
-36.217121 88.134521 -25.433641 4294967295
-36.210167 87.215004 -25.247509 4294967295
-36.200176 86.297874 -25.039192 4294967295
-36.190731 89.393509 -25.422699 4294967295
-36.188919 89.086601 -25.364342 4294967295
-36.186096 88.780602 -25.298639 4294967295
-36.184635 90.324982 -25.513983 4294967295
-36.172066 90.182648 -25.400097 4294967295
-36.169739 87.40641 -24.97628 4294967295
-36.166958 89.570206 -25.2726 4294967295
-36.158913 87.570763 -24.920233 4294967295
-36.149929 87.887886 -24.900183 4294967295
-36.13438 88.674438 -24.900295 4294967295
-36.12204 91.619446 -25.240158 4294967295
-36.079384 86.727882 -25.372332 4294967295
-36.070492 86.581619 -25.285246 4294967295
-36.06562 87.049065 -25.31765 4294967295
-36.063389 87.359764 -25.346649 4294967295
-36.047947 87.682594 -25.279795 4294967295
-36.040997 87.84333 -25.251984 4294967295
-36.038227 88.000229 -25.25448 4294967295
-36.020657 88.633919 -25.217394 4294967295
-36.004047 88.340569 -25.051765 4294967295
-35.991711 89.278427 -25.097816 4294967295
-35.980591 90.678276 -25.220463 4294967295
-35.978657 92.069122 -25.409607 4294967295
-35.972324 92.229576 -25.386282 4294967295
-35.959991 90.389114 -25.025974 4294967295
-35.958195 91.317169 -25.148436 4294967295
-35.943794 91.639786 -25.089256 4294967295
-35.91333 86.581505 -25.286411 4294967295
-35.903461 86.744797 -25.23752 4294967295
-35.900982 87.827484 -25.377523 4294967295
-35.893238 87.988945 -25.344034 4294967295
-35.892361 87.372345 -25.247427 4294967295
-35.890251 86.447975 -25.096699 4294967295
-35.885597 87.224152 -25.175867 4294967295
-35.881226 87.691269 -25.211935 4294967295
-35.876171 88.313377 -25.265617 4294967295
-35.870937 89.244308 -25.363083 4294967295
-35.870129 88.782036 -25.28956 4294967295
-35.850655 89.726349 -25.283987 4294967295
-35.850529 88.954643 -25.170265 4294967295
-35.845585 91.274429 -25.472841 4294967295
-35.839153 89.891541 -25.223303 4294967295
-35.83704 89.584778 -25.162895 4294967295
-35.836193 87.57811 -24.863316 4294967295
-35.828835 90.055641 -25.171206 4294967295
-35.824966 89.132881 -25.007809 4294967295
-35.821953 88.20903 -24.85054 4294967295
-35.820942 88.673325 -24.910942 4294967295
-35.81522 91.612244 -25.298277 4294967295
-35.812599 88.526604 -24.827982 4294967295
-35.808796 91.000946 -25.161583 4294967295
-35.79583 91.939651 -25.203138 4294967295
-35.790192 90.401016 -24.936729 4294967295
-35.749439 87.513596 -25.374331 4294967295
-35.720543 88.62059 -25.323336 4294967295
-35.712303 89.399979 -25.376509 4294967295
-35.706547 90.177032 -25.447611 4294967295
-35.700687 86.47699 -24.864077 4294967295
-35.696613 88.025131 -25.060225 4294967295
-35.648163 90.386581 -25.048481 4294967295
-35.646492 91.468979 -25.194204 4294967295
-35.645241 91.1614 -25.140089 4294967295
-35.64492 91.624863 -25.205387 4294967295
-35.595772 91.980995 -24.895643 4294967295
-35.590393 86.588997 -25.226917 4294967295
-35.579315 86.290154 -25.101915 4294967295
-35.573467 86.758659 -25.127354 4294967295
-35.567394 88.153717 -25.286318 4294967295
-35.558258 87.698929 -25.152822 4294967295
-35.558083 88.934143 -25.331758 4294967295
-35.555843 87.392303 -25.090342 4294967295
-35.553917 88.474884 -25.234158 4294967295
-35.553894 87.085213 -25.031212 4294967295
-35.540947 89.413185 -25.275772 4294967295
-35.531494 89.11322 -25.16256 4294967295
-35.53096 89.885658 -25.27133 4294967295
-35.527485 90.197662 -25.291309 4294967295
-35.516548 87.58255 -24.829397 4294967295
-35.514294 90.055702 -25.173687 4294967295
-35.513821 88.048485 -24.877369 4294967295
-35.512016 91.60157 -25.382454 4294967295
-35.508701 88.825523 -24.953117 4294967295
-35.507912 91.296791 -25.307852 4294967295
-35.502048 88.677216 -24.88261 4294967295
-35.480709 90.705086 -25.021675 4294967295
-35.478371 91.942627 -25.185019 4294967295
-35.477253 92.25248 -25.22201 4294967295
-35.44368 91.512619 -24.867439 4294967295
-35.399818 88.626328 -25.280563 4294967295
-35.398014 88.010406 -25.177534 4294967295
-35.390026 89.098534 -25.277586 4294967295
-35.388599 86.628967 -24.907089 4294967295
-35.385929 86.785851 -24.910387 4294967295
-35.323318 90.087364 -24.932556 4294967295
-35.32246 92.250168 -25.241434 4294967295
-35.321709 91.787697 -25.168547 4294967295
-35.319233 91.326813 -25.083214 4294967295
-35.310513 91.952858 -25.1105 4294967295
-35.307426 90.874695 -24.93075 4294967295
-35.263844 86.754051 -25.164835 4294967295
-35.253292 87.998886 -25.268919 4294967295
-35.245155 86.461937 -24.985472 4294967295
-35.244377 86.308167 -24.957369 4294967295
-35.24437 87.698204 -25.159813 4294967295
-35.237808 88.78508 -25.270082 4294967295
-35.236416 88.477554 -25.215113 4294967295
-35.234402 87.08947 -24.998188 4294967295
-35.22245 87.563698 -24.97978 4294967295
-35.221798 90.652504 -25.424862 4294967295
-35.221016 86.638069 -24.834442 4294967295
-35.218822 86.949051 -24.863684 4294967295
-35.214085 89.424667 -25.189594 4294967295
-35.197559 90.829796 -25.27326 4294967295
-35.196289 91.448524 -25.354048 4294967295
-35.193554 87.435425 -24.749601 4294967295
-35.192619 90.988861 -25.260265 4294967295
-35.191864 87.900513 -24.804977 4294967295
-35.190022 89.13813 -24.971725 4294967295
-35.18898 89.911369 -25.076715 4294967295
-35.184891 90.224075 -25.092339 4294967295
-35.182503 90.38076 -25.09766 4294967295
-35.176605 88.223495 -24.740314 4294967295
-35.173096 89.771759 -24.940119 4294967295
-35.17054 92.245087 -25.281536 4294967295
-35.124706 92.134727 -24.929985 4294967295
-35.065659 89.570831 -25.276981 4294967295
-35.061195 90.346962 -25.357273 4294967295
-35.053642 91.125946 -25.415417 4294967295
-35.039948 88.513474 -24.93528 4294967295
-35.03986 91.602158 -25.383993 4294967295
-35.013763 89.001076 -24.814941 4294967295
-35.008942 89.314575 -24.825304 4294967295
-35.001308 91.330025 -25.062765 4294967295
-34.988663 91.959892 -25.061998 4294967295
-34.983765 91.81012 -25.00441 4294967295
-34.940975 88.151154 -25.30969 4294967295
-34.932579 86.768814 -25.047455 4294967295
-34.932037 86.460342 -24.998657 4294967295
-34.931328 88.005539 -25.218151 4294967295
-34.9161 88.3283 -25.154037 4294967295
-34.914364 87.403107 -25.006865 4294967295
-34.905838 87.101807 -24.900875 4294967295
-34.904251 89.111374 -25.181461 4294967295
-34.884178 88.511978 -24.947937 4294967295
-34.882805 87.740677 -24.825783 4294967295
-34.879173 88.671059 -24.934563 4294967295
-34.877007 89.291008 -25.008907 4294967295
-34.873669 89.757523 -25.052376 4294967295
-34.872158 90.685638 -25.176256 4294967295
-34.871784 90.99485 -25.218477 4294967295
-34.871292 87.596573 -24.720871 4294967295
-34.870159 90.224182 -25.094601 4294967295
-34.867886 90.38076 -25.100801 4294967295
-34.862446 88.995453 -24.859755 4294967295
-34.838371 89.944885 -24.822205 4294967295
-34.826809 90.573799 -24.82929 4294967295
-34.812138 92.132774 -24.948868 4294967295
-34.811249 91.515602 -24.852715 4294967295
-34.801254 91.679634 -24.803652 4294967295
-34.766865 87.703079 -25.123327 4294967295
-34.746387 86.639992 -24.819828 4294967295
-34.731335 88.662285 -25.004036 4294967295
-34.729561 86.809578 -24.721989 4294967295
-34.725803 88.049309 -24.874729 4294967295
-34.701965 89.616341 -24.928797 4294967295
-34.678696 91.183105 -24.986948 4294967295
-34.673145 90.724823 -24.879999 4294967295
-34.670315 92.117966 -25.061666 4294967295
-34.665546 91.350044 -24.915482 4294967295
-34.662796 91.816162 -24.963127 4294967295
-34.648315 91.984467 -24.882151 4294967295
-34.610977 88.165077 -25.202095 4294967295
-34.609879 86.930275 -25.014898 4294967295
-34.6035 87.399483 -25.036669 4294967295
-34.602158 86.473618 -24.892527 4294967295
-34.601192 87.247063 -24.997791 4294967295
-34.600315 86.320724 -24.856955 4294967295
-34.588963 87.721596 -24.977789 4294967295
-34.574879 86.807022 -24.742714 4294967295
-34.563873 87.589706 -24.776356 4294967295
-34.562271 89.290962 -25.011618 4294967295
-34.553169 91.307541 -25.238054 4294967295
-34.551186 88.528526 -24.820427 4294967295
-34.544861 88.843399 -24.820175 4294967295
-34.538364 89.158455 -24.818684 4294967295
-34.537231 90.241188 -24.967545 4294967295
-34.522289 89.946037 -24.816168 4294967295
-34.514923 90.571068 -24.853327 4294967295
-34.499809 91.203415 -24.835247 4294967295
-34.460323 86.305176 -24.982096 4294967295
-34.439651 89.258965 -25.260477 4294967295
-34.421062 87.731003 -24.904142 4294967295
-34.418941 88.814545 -25.045864 4294967295
-34.4118 91.1381 -25.330879 4294967295
-34.406975 90.833763 -25.251772 4294967295
-34.396919 91.615433 -25.292152 4294967295
-34.393974 88.06459 -24.756046 4294967295
-34.38765 92.241966 -25.315725 4294967295
-34.381554 89.62149 -24.891685 4294967295
-34.374626 89.473335 -24.819984 4294967295
-34.354549 92.119041 -25.057867 4294967295
-34.350609 91.504753 -24.940252 4294967295
-34.316677 86.292908 -25.080904 4294967295
-34.29948 87.235199 -25.092957 4294967295
-34.292847 86.777588 -24.978619 4294967295
-34.290882 87.706406 -25.098976 4294967295
-34.282196 86.632515 -24.88051 4294967295
-34.280155 88.179581 -25.089886 4294967295
-34.279335 87.562286 -24.994501 4294967295
-34.273041 86.94976 -24.860201 4294967295
-34.268871 88.498825 -25.054428 4294967295
-34.268219 90.044205 -25.27355 4294967295
-34.264217 89.121071 -25.110886 4294967295
-34.261574 88.814491 -25.047323 4294967295
-34.258392 87.426544 -24.823231 4294967295
-34.255524 87.119965 -24.758043 4294967295
-34.244251 90.529877 -25.170372 4294967295
-34.241383 88.987457 -24.926218 4294967295
-34.234745 90.69323 -25.125237 4294967295
-34.233322 88.685715 -24.824163 4294967295
-34.231476 89.923752 -24.990124 4294967295
-34.223331 91.167389 -25.111256 4294967295
-34.220093 89.779739 -24.886854 4294967295
-34.2052 91.338943 -25.004848 4294967295
-34.19973 90.880486 -24.898869 4294967295
-34.192348 91.66011 -24.958342 4294967295
-34.178871 91.054588 -24.773079 4294967295
-34.1418 86.462776 -24.980171 4294967295
-34.083126 91.769127 -25.324127 4294967295
-34.081154 87.907974 -24.751148 4294967295
-34.064342 88.541557 -24.721373 4294967295
-34.051331 88.398735 -24.606689 4294967295
-34.02953 90.737846 -24.787657 4294967295
-34.026051 92.132141 -24.964231 4294967295
-34.019848 91.519798 -24.830809 4294967295
-33.978069 87.086411 -25.025965 4294967295
-33.97279 86.936562 -24.966227 4294967295
-33.964436 86.634842 -24.862326 4294967295
-33.964081 86.325996 -24.81509 4294967295
-33.961243 87.255943 -24.929134 4294967295
-33.95158 88.500977 -25.039478 4294967295
-33.946102 87.578606 -24.866575 4294967295
-33.94273 89.590668 -25.133188 4294967295
-33.940502 88.201904 -24.916338 4294967295
-33.93158 87.900795 -24.808439 4294967295
-33.931282 86.818802 -24.64982 4294967295
-33.926407 90.532761 -25.151672 4294967295
-33.916321 90.078552 -25.013269 4294967295
-33.911415 88.691963 -24.777412 4294967295
-33.908817 91.476181 -25.161171 4294967295
-33.904987 91.170761 -25.089401 4294967295
-33.897675 89.013664 -24.724798 4294967295
-33.89307 88.399345 -24.602776 4294967295
-33.891899 90.255684 -24.86272 4294967295
-33.878231 91.814018 -24.98941 4294967295
-33.863953 91.054588 -24.776646 4294967295
-33.844269 91.691444 -24.72674 4294967295
-33.824501 86.619255 -24.987423 4294967295
-33.803871 88.801163 -25.154156 4294967295
-33.791584 88.039597 -24.955656 4294967295
-33.788834 89.123878 -25.09251 4294967295
-33.777096 90.834236 -25.255045 4294967295
-33.767414 89.761612 -25.030415 4294967295
-33.761379 88.530563 -24.809143 4294967295
-33.734776 88.245323 -24.576389 4294967295
-33.720264 89.495659 -24.652548 4294967295
-33.67979 91.852654 -24.701595 4294967295
-33.667545 86.618713 -24.99201 4294967295
-33.665806 86.929367 -25.024343 4294967295
-33.651134 86.323982 -24.83153 4294967295
-33.632164 88.041283 -24.943119 4294967295
-33.629181 87.5802 -24.855112 4294967295
-33.629093 86.497978 -24.698235 4294967295
-33.616894 89.291603 -25.013849 4294967295
-33.613888 90.221596 -25.126457 4294967295
-33.611614 88.523529 -24.865038 4294967295
-33.610134 90.379593 -25.12228 4294967295
-33.606525 88.991898 -24.896091 4294967295
-33.605961 88.683228 -24.847475 4294967295
-33.598068 89.463348 -24.903337 4294967295
-33.592155 91.323448 -25.129274 4294967295
-33.585293 89.784218 -24.857838 4294967295
-33.585003 90.093658 -24.900429 4294967295
-33.572411 91.651009 -25.034643 4294967295
-33.572361 92.11467 -25.101187 4294967295
-33.566242 88.873817 -24.589554 4294967295
-33.564346 91.194862 -24.910894 4294967295
-33.558113 90.891479 -24.822329 4294967295
-33.556393 91.511452 -24.899412 4294967295
-33.490921 87.253838 -24.947279 4294967295
-33.48595 88.185692 -25.046024 4294967295
-33.480347 88.49984 -25.05114 4294967295
-33.471962 89.898293 -25.192661 4294967295
-33.470642 89.126823 -25.071936 4294967295
-33.428432 90.865677 -25.019884 4294967295
-33.418732 90.565506 -24.907022 4294967295
-33.365685 91.697166 -24.689661 4294967295
-33.359379 86.612549 -25.041874 4294967295
-33.339664 86.320648 -24.858635 4294967295
-33.332718 88.027267 -25.054827 4294967295
-33.329811 87.411545 -24.945303 4294967295
-33.326233 86.796288 -24.830996 4294967295
-33.319401 88.657478 -25.050287 4294967295
-33.316544 88.969185 -25.074739 4294967295
-33.310505 87.892525 -24.876366 4294967295
-33.306458 87.277626 -24.758778 4294967295
-33.301991 89.909752 -25.106037 4294967295
-33.294445 88.370743 -24.830294 4294967295
-33.280525 90.393135 -25.021992 4294967295
-33.274654 89.316338 -24.824814 4294967295
-33.273834 90.090118 -24.930422 4294967295
-33.27187 87.617638 -24.560118 4294967295
-33.269508 89.784874 -24.855465 4294967295
-33.269329 90.712616 -24.987839 4294967295
-33.255859 90.570457 -24.87092 4294967295
-33.25555 91.189133 -24.957827 4294967295
-33.248192 91.041374 -24.88385 4294967295
-33.239223 91.977318 -24.954437 4294967295
-33.231716 91.365913 -24.812614 4294967295
-33.220066 92.14991 -24.842121 4294967295
-33.185688 87.090446 -24.99593 4294967295
-33.165222 86.6446 -24.785456 4294967295
-33.15662 89.435043 -25.125698 4294967295
-33.127556 88.224419 -24.743698 4294967295
-33.121777 90.239708 -24.9925 4294967295
-33.11945 91.323845 -25.131886 4294967295
-33.118778 89.005531 -24.793409 4294967295
-33.116764 88.698051 -24.734768 4294967295
-33.112137 87.928841 -24.590944 4294967295
-33.084 89.346329 -24.593901 4294967295
-33.081608 90.740501 -24.777456 4294967295
-33.040581 92.17054 -24.690033 4294967295
-33.011566 86.331772 -24.769424 4294967295
-32.999241 89.125786 -25.083397 4294967295
-32.995754 87.273552 -24.792091 4294967295
-32.991909 88.668625 -24.965321 4294967295
-32.99099 88.050972 -24.869936 4294967295
-32.990871 89.287933 -25.047003 4294967295
-32.975491 86.672646 -24.561071 4294967295
-32.970585 87.759811 -24.68247 4294967295
-32.969822 86.98703 -24.565857 4294967295
-32.966778 90.082802 -24.98941 4294967295
-32.966125 87.609085 -24.628975 4294967295
-32.965511 88.537674 -24.75816 4294967295
-32.963234 89.467575 -24.875656 4294967295
-32.962463 90.550537 -25.025902 4294967295
-32.961727 89.623573 -24.887341 4294967295
-32.944115 89.948868 -24.808483 4294967295
-32.943066 88.403091 -24.578672 4294967295
-32.940304 88.869652 -24.626087 4294967295
-32.936516 92.120453 -25.0665 4294967295
-32.929455 90.89016 -24.839251 4294967295
-32.929447 89.034126 -24.572273 4294967295
-32.928448 91.81881 -24.965563 4294967295
-32.921486 90.433533 -24.716734 4294967295
-32.894958 91.076675 -24.61994 4294967295
-32.886753 91.703041 -24.651461 4294967295
-32.88187 91.398193 -24.572807 4294967295
-32.880253 86.308807 -24.954222 4294967295
-32.833694 86.658699 -24.672976 4294967295
-32.833229 86.813797 -24.691946 4294967295
-32.814999 89.768341 -24.986713 4294967295
-32.804649 89.004539 -24.803268 4294967295
-32.794407 88.859077 -24.709425 4294967295
-32.787846 91.493896 -25.04125 4294967295
-32.778606 91.038612 -24.910036 4294967295
-32.696529 86.795418 -24.839111 4294967295
-32.68951 88.038727 -24.967735 4294967295
-32.668732 86.665001 -24.62278 4294967295
-32.667385 87.594353 -24.746645 4294967295
-32.666382 88.213921 -24.828476 4294967295
-32.66098 87.13591 -24.635296 4294967295
-32.658215 89.303757 -24.926899 4294967295
-32.65416 88.379471 -24.765381 4294967295
-32.647228 90.396095 -25.005623 4294967295
-32.646629 90.705864 -25.045818 4294967295
-32.643459 89.935661 -24.912724 4294967295
-32.622871 90.263702 -24.813477 4294967295
-32.62006 91.348793 -24.949242 4294967295
-32.6101 89.037697 -24.546679 4294967295
-32.606827 89.659538 -24.612679 4294967295
-32.596798 91.679626 -24.83135 4294967295
-32.595051 92.145203 -24.885771 4294967295
-32.584877 91.071938 -24.659393 4294967295
-32.50304 89.146927 -24.922853 4294967295
-32.496162 87.91568 -24.697418 4294967295
-32.492802 89.774727 -24.940248 4294967295
-32.491657 88.693138 -24.776979 4294967295
-32.475887 88.397789 -24.62273 4294967295
-32.471188 91.959236 -25.100182 4294967295
-32.46719 90.725929 -24.894934 4294967295
-32.464905 88.871758 -24.612789 4294967295
-32.458275 88.258713 -24.477785 4294967295
-32.449516 89.504478 -24.594337 4294967295
-32.419437 90.924393 -24.584578 4294967295
-32.405472 91.246704 -24.531696 4294967295
-32.353352 89.294449 -25.001348 4294967295
-32.35231 86.511024 -24.595009 4294967295
-32.339909 86.831284 -24.553076 4294967295
-32.339619 88.069344 -24.728491 4294967295
-32.339542 89.770798 -24.971821 4294967295
-32.33868 87.915459 -24.69981 4294967295
-32.335281 88.537285 -24.764841 4294967295
-32.327694 87.306198 -24.534636 4294967295
-32.327305 89.163162 -24.798065 4294967295
-32.312153 89.950241 -24.803543 4294967295
-32.31208 87.784187 -24.492559 4294967295
-32.310791 87.630554 -24.461412 4294967295
-32.310284 88.714264 -24.613146 4294967295
-32.309647 88.86956 -24.630903 4294967295
-32.309399 90.571449 -24.873037 4294967295
-32.297333 89.654236 -24.656136 4294967295
-32.290916 91.98037 -24.944002 4294967295
-32.285591 88.271927 -24.374847 4294967295
-32.283939 91.21347 -24.784714 4294967295
-32.281303 91.834625 -24.855022 4294967295
-32.279491 90.753456 -24.687277 4294967295
-32.25415 90.931374 -24.533295 4294967295
-32.217937 86.800133 -24.80232 4294967295
-32.151432 92.118248 -25.093582 4294967295
-32.147907 88.408882 -24.537582 4294967295
-32.143974 89.340874 -24.643234 4294967295
-32.138519 89.191017 -24.583206 4294967295
-32.137093 89.501785 -24.617626 4294967295
-32.107708 91.385284 -24.679527 4294967295
-32.076424 91.878365 -24.528923 4294967295
-32.061138 86.799301 -24.809269 4294967295
-32.052814 86.497078 -24.707279 4294967295
-32.034367 87.441475 -24.712227 4294967295
-32.034134 87.13221 -24.666336 4294967295
-32.026997 88.840347 -24.860376 4294967295
-32.024635 88.223633 -24.755474 4294967295
-32.024506 88.533165 -24.798841 4294967295
-32.019772 87.299484 -24.588898 4294967295
-32.01265 86.376976 -24.406631 4294967295
-32.005245 89.169151 -24.753897 4294967295
-32.000916 87.625511 -24.502468 4294967295
-31.999819 87.78125 -24.517019 4294967295
-31.995455 91.343605 -24.995859 4294967295
-31.989822 90.265991 -24.80197 4294967295
-31.986292 90.114479 -24.755373 4294967295
-31.983414 89.033905 -24.580479 4294967295
-31.980303 89.810432 -24.669619 4294967295
-31.977825 89.503166 -24.608171 4294967295
-31.977436 90.896065 -24.804674 4294967295
-31.974743 88.732079 -24.476097 4294967295
-31.965208 89.978783 -24.587164 4294967295
-31.961277 89.672791 -24.515646 4294967295
-31.951466 91.074516 -24.646912 4294967295
-31.951445 90.765038 -24.602495 4294967295
-31.950262 92.003975 -24.77136 4294967295
-31.946352 91.698151 -24.700022 4294967295
-31.943657 91.545898 -24.659225 4294967295
-31.931717 90.473427 -24.421558 4294967295
-31.897718 92.207375 -24.429617 4294967295
-31.858656 87.921402 -24.655037 4294967295
-31.857174 86.839302 -24.489878 4294967295
-31.841635 88.245895 -24.58152 4294967295
-31.740164 86.33976 -24.70616 4294967295
-31.738478 86.805435 -24.760836 4294967295
-31.721893 86.665009 -24.62414 4294967295
-31.697695 88.697937 -24.744371 4294967295
-31.697424 89.471794 -24.852985 4294967295
-31.694691 87.617264 -24.568882 4294967295
-31.691725 88.393715 -24.658928 4294967295
-31.689844 89.169113 -24.756454 4294967295
-31.687687 88.242508 -24.60894 4294967295
-31.680477 87.93927 -24.514917 4294967295
-31.679361 90.261574 -24.838745 4294967295
-31.674051 91.194603 -24.934641 4294967295
-31.67383 90.885414 -24.888935 4294967295
-31.669804 89.960732 -24.728579 4294967295
-31.666058 89.035515 -24.570097 4294967295
-31.647604 91.682922 -24.818371 4294967295
-31.645599 89.827705 -24.539364 4294967295
-31.637941 90.76329 -24.619114 4294967295
-31.61915 91.399506 -24.577812 4294967295
-31.61688 91.09201 -24.517933 4294967295
-31.615419 92.022011 -24.640455 4294967295
-31.605402 91.876465 -24.549223 4294967295
-31.599512 92.19146 -24.55278 4294967295
-31.562895 87.749306 -24.77113 4294967295
-31.546432 86.834969 -24.525055 4294967295
-31.545219 87.300407 -24.582972 4294967295
-31.501007 89.506332 -24.587425 4294967295
-31.492651 88.584892 -24.397266 4294967295
-31.491072 87.657158 -24.253782 4294967295
-31.486002 88.12619 -24.28513 4294967295
-31.481497 90.297768 -24.563395 4294967295
-31.429127 86.490517 -24.76063 4294967295
-31.404879 87.594742 -24.74819 4294967295
-31.403942 86.821701 -24.631374 4294967295
-31.385904 87.301659 -24.573433 4294967295
-31.382755 86.685127 -24.463442 4294967295
-31.373028 86.383789 -24.352299 4294967295
-31.370474 87.779488 -24.533445 4294967295
-31.368464 88.245651 -24.585829 4294967295
-31.36149 89.335289 -24.692324 4294967295
-31.358862 88.873276 -24.608036 4294967295
-31.338158 91.677544 -24.862724 4294967295
-31.338079 87.497986 -24.266291 4294967295
-31.329338 90.44751 -24.625593 4294967295
-31.321941 89.834938 -24.486422 4294967295
-31.321095 90.145325 -24.524744 4294967295
-31.316277 90.923676 -24.60194 4294967295
-31.31579 89.066208 -24.333725 4294967295
-31.314693 90.770317 -24.568979 4294967295
-31.302326 92.019897 -24.660439 4294967295
-31.30065 91.557068 -24.582718 4294967295
-31.290134 92.18589 -24.598656 4294967295
-31.281471 91.419754 -24.428749 4294967295
-31.268644 86.33799 -24.720703 4294967295
-31.224737 88.078506 -24.661577 4294967295
-31.205902 89.023781 -24.664492 4294967295
-31.203592 90.109215 -24.802952 4294967295
-31.202312 88.407738 -24.551617 4294967295
-31.200714 87.634987 -24.430346 4294967295
-31.197935 86.553322 -24.256771 4294967295
-31.192921 89.809227 -24.685572 4294967295
-31.189507 89.502686 -24.618031 4294967295
-31.186987 87.182281 -24.269819 4294967295
-31.174084 90.909592 -24.710539 4294967295
-31.169945 91.377655 -24.748245 4294967295
-31.168583 90.604996 -24.628675 4294967295
-31.159698 88.29023 -24.23679 4294967295
-31.149832 89.228226 -24.301407 4294967295
-31.08164 86.517662 -24.543081 4294967295
-31.058043 87.002411 -24.447332 4294967295
-31.056353 87.62323 -24.523909 4294967295
-31.053482 87.780556 -24.526262 4294967295
-31.042597 88.254532 -24.517729 4294967295
-31.038383 87.329079 -24.356564 4294967295
-31.038252 88.87764 -24.57609 4294967295
-31.037886 90.116333 -24.749826 4294967295
-31.034658 89.345253 -24.617548 4294967295
-31.027355 86.718987 -24.192701 4294967295
-31.0229 90.903664 -24.757229 4294967295
-31.020937 89.202576 -24.501434 4294967295
-31.012686 88.125786 -24.290543 4294967295
-31.011202 91.069016 -24.69908 4294967295
-31.009895 87.198753 -24.13909 4294967295
-31.007114 90.298683 -24.560923 4294967295
-31.00544 88.441895 -24.284943 4294967295
-31.00235 90.76741 -24.59436 4294967295
-30.992109 89.847565 -24.391941 4294967295
-30.991865 91.860542 -24.676691 4294967295
-30.975174 91.256462 -24.474186 4294967295
-30.975132 90.017578 -24.2976 4294967295
-30.973619 91.722382 -24.529633 4294967295
-30.967636 92.037506 -24.532696 4294967295
-30.962502 90.493561 -24.277136 4294967295
-30.943117 92.214813 -24.386711 4294967295
-30.914915 88.073387 -24.703337 4294967295
-30.868254 87.494461 -24.29575 4294967295
-30.841883 87.67218 -24.137218 4294967295
-30.826309 90.938683 -24.493189 4294967295
-30.821383 92.181793 -24.635586 4294967295
-30.819551 90.17041 -24.336855 4294967295
-30.756676 86.989937 -24.547485 4294967295
-30.743809 86.381462 -24.371469 4294967295
-30.733595 88.713104 -24.631771 4294967295
-30.729046 87.478271 -24.424635 4294967295
-30.723585 87.328094 -24.365299 4294967295
-30.72324 86.553871 -24.25285 4294967295
-30.71698 90.895027 -24.826178 4294967295
-30.71414 86.716553 -24.212662 4294967295
-30.712221 90.280144 -24.705706 4294967295
-30.710976 88.578056 -24.455198 4294967295
-30.71067 87.803917 -24.343067 4294967295
-30.702335 87.656219 -24.264084 4294967295
-30.69803 92.150352 -24.872646 4294967295
-30.693403 88.283607 -24.291096 4294967295
-30.693289 89.987366 -24.532391 4294967295
-30.675842 91.7062 -24.65518 4294967295
-30.672281 91.090103 -24.542885 4294967295
-30.668253 89.544945 -24.295322 4294967295
-30.665722 89.082428 -24.211998 4294967295
-30.664646 88.928436 -24.182634 4294967295
-30.660202 89.861893 -24.284338 4294967295
-30.628128 92.059341 -24.373341 4294967295
-30.575781 88.093674 -24.545229 4294967295
-30.569244 89.492905 -24.698479 4294967295
-30.556883 89.658653 -24.63615 4294967295
-30.549242 88.736252 -24.452127 4294967295
-30.53068 88.442657 -24.281519 4294967295
-30.530087 89.062813 -24.36545 4294967295
-30.512436 91.556465 -24.596827 4294967295
-30.511171 90.628448 -24.456324 4294967295
-30.508593 91.250237 -24.526665 4294967295
-30.48913 90.183411 -24.240065 4294967295
-30.450352 86.362312 -24.525679 4294967295
-30.445799 86.830772 -24.560587 4294967295
-30.422157 88.864151 -24.685152 4294967295
-30.41535 88.09584 -24.528957 4294967295
-30.411757 87.324516 -24.394613 4294967295
-30.410276 86.551201 -24.274612 4294967295
-30.405849 89.033264 -24.596066 4294967295
-30.400797 88.573097 -24.495754 4294967295
-30.398359 90.897789 -24.80859 4294967295
-30.396427 87.182732 -24.268204 4294967295
-30.388687 89.822639 -24.589045 4294967295
-30.381832 86.730324 -24.102821 4294967295
-30.380486 87.661224 -24.225569 4294967295
-30.374117 92.158066 -24.819237 4294967295
-30.373898 91.53904 -24.729927 4294967295
-30.370234 89.993843 -24.485382 4294967295
-30.366991 87.517876 -24.111658 4294967295
-30.366247 87.983414 -24.172558 4294967295
-30.363852 91.857773 -24.705484 4294967295
-30.353701 90.318306 -24.416777 4294967295
-30.343088 91.257133 -24.476343 4294967295
-30.342222 89.24398 -24.184807 4294967295
-30.342154 89.708878 -24.250277 4294967295
-30.333441 91.110916 -24.38872 4294967295
-30.319098 90.504059 -24.203197 4294967295
-30.2684 87.621727 -24.538645 4294967295
-30.2355 87.959854 -24.35886 4294967295
-30.232069 91.060211 -24.774523 4294967295
-30.227936 88.895874 -24.439178 4294967295
-30.226843 90.29071 -24.629301 4294967295
-30.209196 90.771011 -24.575228 4294967295
-30.197086 89.387634 -24.295366 4294967295
-30.190916 91.871483 -24.604645 4294967295
-30.169273 92.200867 -24.501507 4294967295
-30.106747 87.624878 -24.51428 4294967295
-30.103479 86.543274 -24.338497 4294967295
-30.102589 87.163727 -24.420225 4294967295
-30.100826 86.390579 -24.298534 4294967295
-30.10018 87.9403 -24.513582 4294967295
-30.083847 88.264191 -24.446617 4294967295
-30.080322 88.577057 -24.466566 4294967295
-30.07876 89.352867 -24.565641 4294967295
-30.072495 89.048569 -24.479265 4294967295
-30.072382 86.724571 -24.149317 4294967295
-30.060858 91.072212 -24.685404 4294967295
-30.059341 91.692924 -24.762806 4294967295
-30.056892 88.907272 -24.351452 4294967295
-30.056255 87.823166 -24.193516 4294967295
-30.05444 89.993813 -24.488375 4294967295
-30.049513 88.138916 -24.191648 4294967295
-30.049219 88.449104 -24.233547 4294967295
-30.044264 90.467522 -24.485144 4294967295
-30.043835 88.763695 -24.2409 4294967295
-30.039829 89.851799 -24.367321 4294967295
-30.034422 90.63118 -24.440315 4294967295
-30.031395 89.239426 -24.222334 4294967295
-30.02865 91.255951 -24.488897 4294967295
-30.028629 91.56575 -24.532614 4294967295
-30.021669 89.557892 -24.20023 4294967295
-30.018295 91.88485 -24.50639 4294967295
-30.015047 90.958305 -24.352768 4294967295
-30.006376 90.811104 -24.272018 4294967295
-29.989481 92.220772 -24.354862 4294967295
-29.938082 86.859352 -24.332956 4294967295
-29.925852 87.024689 -24.272007 4294967295
-29.892572 92.010681 -24.747936 4294967295
-29.858662 90.182159 -24.25539 4294967295
-29.828892 91.138458 -24.185358 4294967295
-29.798925 87.15316 -24.505138 4294967295
-29.779997 86.859344 -24.333265 4294967295
-29.774685 88.723007 -24.560215 4294967295
-29.768442 88.108742 -24.430391 4294967295
-29.765774 89.660103 -24.631344 4294967295
-29.765589 87.64637 -24.345358 4294967295
-29.757511 87.498306 -24.268805 4294967295
-29.756933 87.033859 -24.199154 4294967295
-29.753859 86.726471 -24.134514 4294967295
-29.751078 86.573807 -24.093777 4294967295
-29.740776 87.977554 -24.221354 4294967295
-29.735376 89.53183 -24.403933 4294967295
-29.721745 88.458908 -24.15839 4294967295
-29.720497 89.854767 -24.347141 4294967295
-29.719248 90.785484 -24.470102 4294967295
-29.718254 89.236877 -24.244345 4294967295
-29.717775 91.096626 -24.503948 4294967295
-29.717152 90.477493 -24.412136 4294967295
-29.701054 91.886185 -24.500406 4294967295
-29.699411 90.028282 -24.226498 4294967295
-29.694016 90.343002 -24.233829 4294967295
-29.680243 92.214813 -24.40357 4294967295
-29.67729 91.597672 -24.296021 4294967295
-29.665001 91.453712 -24.191065 4294967295
-29.661139 86.361465 -24.532928 4294967295
-29.656775 92.081055 -24.223095 4294967295
-29.6061 89.19693 -24.555252 4294967295
-29.587551 89.987701 -24.539476 4294967295
-36.439735 92.387604 -25.37447 4294967295
-36.437763 93.160904 -25.4732 4294967295
-36.424652 93.790947 -25.468178 4294967295
-36.418438 98.741913 -24.977076 4294967295
-36.41576 97.663971 -24.799019 4294967295
-36.409267 99.214706 -24.978161 4294967295
-36.393826 93.358643 -25.175766 4294967295
-36.387218 93.05648 -25.082359 4294967295
-36.36512 98.952553 -24.611101 4294967295
-36.351551 95.407341 -25.162054 4294967295
-36.346935 95.875031 -25.196327 4294967295
-36.337433 94.649765 -24.946096 4294967295
-36.330708 96.200264 -25.123444 4294967295
-36.323914 95.74411 -25.006088 4294967295
-36.309467 96.685104 -25.036705 4294967295
-36.302933 92.522064 -25.546646 4294967295
-36.301487 96.538925 -24.955999 4294967295
-36.292641 96.393593 -24.868963 4294967295
-36.291302 97.475708 -25.017632 4294967295
-36.262314 97.196907 -24.761404 4294967295
-36.261646 98.278511 -24.914946 4294967295
-36.25518 97.822029 -24.800014 4294967295
-36.254929 98.594345 -24.91132 4294967295
-36.25148 93.035431 -25.240297 4294967295
-36.24852 98.909882 -24.909946 4294967295
-36.241375 92.736671 -25.121588 4294967295
-36.240314 97.065163 -24.578638 4294967295
-36.239948 99.073318 -24.870214 4294967295
-36.228146 93.830185 -25.183683 4294967295
-36.227573 94.139427 -25.224747 4294967295
-36.223499 95.069412 -25.33077 4294967295
-36.205357 94.470299 -25.108477 4294967295
-36.198505 94.785896 -25.103886 4294967295
-36.192017 95.409859 -25.14716 4294967295
-36.19001 94.022469 -24.929062 4294967295
-36.18417 94.954674 -25.022305 4294967295
-36.170868 95.894386 -25.061287 4294967295
-36.164196 94.665916 -24.831875 4294967295
-36.157104 96.217163 -25.006514 4294967295
-36.15554 95.755569 -24.927299 4294967295
-36.126724 95.321419 -24.650036 4294967295
-36.124157 97.022934 -24.88018 4294967295
-36.12228 97.951279 -25.002195 4294967295
-36.118336 92.548996 -25.348831 4294967295
-36.101494 98.899338 -24.986858 4294967295
-36.094124 93.190025 -25.263447 4294967295
-36.09008 97.521431 -24.700466 4294967295
-36.089214 96.749947 -24.581072 4294967295
-36.078278 94.131683 -25.283983 4294967295
-36.077782 97.379677 -24.58853 4294967295
-36.047493 98.801636 -24.572098 4294967295
-36.019787 94.807571 -24.949957 4294967295
-36.010078 95.743759 -25.015087 4294967295
-35.986336 95.922249 -24.865475 4294967295
-35.96941 96.093887 -24.765299 4294967295
-35.965683 97.950806 -25.009398 4294967295
-35.965069 93.62532 -25.536804 4294967295
-35.962547 96.873131 -24.828514 4294967295
