# .PCD v0.7 - Point Cloud Data file format
VERSION 0.7
FIELDS x y z rgb
SIZE 4 4 4 4
TYPE F F F U
COUNT 1 1 1 1
WIDTH 1148
HEIGHT 1
VIEWPOINT 0 0 0 1 0 0 0
POINTS 1148
DATA ascii
197.79587 86.494629 -43.056229 4294967295
197.79752 84.135414 -42.915829 4294967295
197.80119 84.473297 -42.928677 4294967295
197.80385 93.656708 -42.760742 4294967295
197.804 92.982162 -42.721123 4294967295
197.80496 85.822433 -43.000229 4294967295
197.83759 85.492249 -42.920727 4294967295
197.85335 86.84407 -42.970203 4294967295
197.86035 88.531097 -43.055546 4294967295
197.86243 87.183136 -42.973194 4294967295
197.86461 85.16082 -42.851398 4294967295
197.88182 95.361908 -42.715584 4294967295
197.88673 96.375092 -42.765507 4294967295
197.88847 96.038185 -42.742676 4294967295
197.89522 94.35305 -42.63205 4294967295
197.90225 88.87748 -42.998199 4294967295
197.91158 96.718521 -42.739529 4294967295
197.91873 97.394966 -42.765636 4294967295
197.94749 87.53875 -42.836601 4294967295
197.95952 89.227364 -42.912575 4294967295
197.96878 87.880608 -42.817081 4294967295
197.99269 91.932304 -43.008762 4294967295
197.99559 91.595787 -42.983814 4294967295
198.00041 90.922516 -42.935654 4294967295
198.0114 90.250587 -42.876213 4294967295
198.02118 89.578323 -42.819004 4294967295
198.04219 90.594788 -42.839325 4294967295
198.05862 93.970886 -43.005482 4294967295
198.05972 91.273293 -42.84634 4294967295
198.06113 92.285355 -42.902676 4294967295
198.0681 93.63591 -42.968433 4294967295
198.08556 92.628281 -42.877449 4294967295
198.09865 84.124039 -43.055313 4294967295
198.09985 84.798424 -43.092346 4294967295
198.10231 94.318504 -42.944904 4294967295
198.10527 85.136627 -43.101974 4294967295
198.1321 84.468071 -43.013489 4294967295
198.13977 96.351036 -42.99395 4294967295
198.14073 95.67675 -42.952927 4294967295
198.15512 86.158417 -43.069401 4294967295
198.15569 96.017654 -42.945148 4294967295
198.1566 95.343307 -42.904175 4294967295
198.15901 87.844711 -43.160339 4294967295
198.16205 94.670021 -42.854858 4294967295
198.16336 86.497299 -43.073845 4294967295
198.16411 96.694252 -42.968964 4294967295
198.16888 86.835579 -43.083378 4294967295
198.18677 87.176552 -43.070175 4294967295
198.19724 97.376991 -42.947411 4294967295
198.20062 85.830978 -42.966244 4294967295
198.21767 95.020683 -42.772396 4294967295
198.23598 90.558601 -43.176125 4294967295
198.24895 88.201515 -43.01495 4294967295
198.25577 89.214516 -43.061298 4294967295
198.28445 91.918198 -43.165642 4294967295
198.32155 88.554672 -42.90139 4294967295
198.34047 88.896095 -42.88623 4294967295
198.34291 89.908371 -42.94072 4294967295
198.3772 93.962914 -43.113354 4294967295
198.38 91.602997 -42.970787 4294967295
198.40793 94.307434 -43.076588 4294967295
198.41486 91.27372 -42.887211 4294967295
198.4155 85.464134 -43.24432 4294967295
198.41774 93.635277 -43.019337 4294967295
198.41776 94.647003 -43.078228 4294967295
198.44948 96.003609 -43.09856 4294967295
198.45613 84.461411 -43.111015 4294967295
198.45905 88.169884 -43.321434 4294967295
198.46002 84.799316 -43.123482 4294967295
198.46666 94.995987 -43.008133 4294967295
198.46793 96.682625 -43.103966 4294967295
198.49792 86.155769 -43.132423 4294967295
198.49863 86.493034 -43.15078 4294967295
198.50121 95.678894 -42.984081 4294967295
198.51939 87.508873 -43.17157 4294967295
198.53217 95.349052 -42.907661 4294967295
198.5323 88.860176 -43.226406 4294967295
198.53767 86.838547 -43.098785 4294967295
198.53786 87.175735 -43.11813 4294967295
198.54366 85.828339 -43.028957 4294967295
198.55142 96.365738 -42.931274 4294967295
198.57271 89.880562 -43.211189 4294967295
198.58821 87.861015 -43.065048 4294967295
198.58858 90.895554 -43.240982 4294967295
198.59317 91.570877 -43.271744 4294967295
198.59972 90.560936 -43.200943 4294967295
198.60191 97.390236 -42.897606 4294967295
198.62062 90.228485 -43.142986 4294967295
198.63147 89.556534 -43.083885 4294967295
198.63371 89.219818 -43.060131 4294967295
198.64401 92.256905 -43.21788 4294967295
198.64621 84.426949 -43.453781 4294967295
198.6476 91.920547 -43.191681 4294967295
198.71378 93.621986 -43.168545 4294967295
198.72307 95.98468 -43.288883 4294967295
198.73404 91.265915 -42.994064 4294967295
198.73724 94.30201 -43.164803 4294967295
198.73845 95.651215 -43.241066 4294967295
198.73964 86.468636 -43.400307 4294967295
198.74673 94.978752 -43.186653 4294967295
198.74893 93.967529 -43.123795 4294967295
198.75145 92.956337 -43.060265 4294967295
198.76064 85.124863 -43.283432 4294967295
198.77007 86.138069 -43.325027 4294967295
198.77745 87.150856 -43.370266 4294967295
198.77928 85.465866 -43.268871 4294967295
198.78079 92.625877 -42.9869 4294967295
198.78903 84.793701 -43.211853 4294967295
198.80025 93.305046 -42.990513 4294967295
198.80063 96.34079 -43.166496 4294967295
198.8065 86.82003 -43.297497 4294967295
198.8338 88.511452 -43.345566 4294967295
198.86122 97.030228 -43.094753 4294967295
198.86374 95.344147 -42.991989 4294967295
198.87039 97.369804 -43.097603 4294967295
198.87503 90.880371 -43.40736 4294967295
198.88902 87.849266 -43.205254 4294967295
198.88983 88.186607 -43.223389 4294967295
198.89848 88.862831 -43.24675 4294967295
198.92047 87.518913 -43.128067 4294967295
198.94144 90.2211 -43.246582 4294967295
198.98378 89.55616 -43.129868 4294967295
198.99748 92.93145 -43.300957 4294967295
198.99774 89.222023 -43.084709 4294967295
198.99878 91.582924 -43.220127 4294967295
199.01199 84.42897 -43.474556 4294967295
199.01765 91.250008 -43.165932 4294967295
199.02325 84.094284 -43.434357 4294967295
199.0406 92.267021 -43.182838 4294967295
199.05153 85.448311 -43.461071 4294967295
199.0531 95.305061 -43.336514 4294967295
199.05798 85.78672 -43.468845 4294967295
199.05991 91.934204 -43.127888 4294967295
199.06804 92.610634 -43.152241 4294967295
199.07648 97.334007 -43.411438 4294967295
199.08328 86.466187 -43.461807 4294967295
199.08582 94.63842 -43.237461 4294967295
199.08641 86.129791 -43.436481 4294967295
199.08762 96.999542 -43.371468 4294967295
199.09148 94.302498 -43.207447 4294967295
199.09853 84.784019 -43.335903 4294967295
199.10413 96.329094 -43.302032 4294967295
199.10849 93.969238 -43.156693 4294967295
199.11696 94.983124 -43.200066 4294967295
199.12793 88.161163 -43.478172 4294967295
199.13506 86.814346 -43.386684 4294967295
199.16618 96.006905 -43.168915 4294967295
199.16939 95.670349 -43.143417 4294967295
199.17276 88.50808 -43.41581 4294967295
199.17662 87.497543 -43.349915 4294967295
199.1852 90.870575 -43.530266 4294967295
199.18767 89.859825 -43.466934 4294967295
199.1946 88.850006 -43.3955 4294967295
199.20723 90.20134 -43.450764 4294967295
199.21628 90.540489 -43.453873 4294967295
199.2193 96.694519 -43.11097 4294967295
199.22453 91.216614 -43.478004 4294967295
199.24466 89.535416 -43.343163 4294967295
199.2682 87.854599 -43.202042 4294967295
199.27089 92.575836 -43.471703 4294967295
199.28221 92.915611 -43.470619 4294967295
199.30444 89.211487 -43.214249 4294967295
199.30869 93.596138 -43.461433 4294967295
199.30948 91.573189 -43.342316 4294967295
199.31781 93.261108 -43.425102 4294967295
199.31847 85.429665 -43.662708 4294967295
199.33983 86.108154 -43.66291 4294967295
199.35094 92.257172 -43.305737 4294967295
199.35725 84.426727 -43.533108 4294967295
199.37503 84.767471 -43.520187 4294967295
199.37926 93.949982 -43.352009 4294967295
199.38045 96.310806 -43.487152 4294967295
199.38947 85.107529 -43.513432 4294967295
199.40253 94.292725 -43.329155 4294967295
199.40752 95.642929 -43.398453 4294967295
199.43228 87.813156 -43.591972 4294967295
199.43922 87.477592 -43.559742 4294967295
199.44952 86.468544 -43.48209 4294967295
199.45117 94.978882 -43.279488 4294967295
199.45407 94.642265 -43.254593 4294967295
199.45694 95.317551 -43.288597 4294967295
199.45866 90.178375 -43.680996 4294967295
199.50073 96.677406 -43.287025 4294967295
199.50252 88.16555 -43.48328 4294967295
199.53377 89.520973 -43.504635 4294967295
199.54483 97.025558 -43.226028 4294967295
199.56259 88.853035 -43.41283 4294967295
199.56502 88.516388 -43.388756 4294967295
199.56604 91.551086 -43.563301 4294967295
199.57253 91.889717 -43.571033 4294967295
199.59102 84.401421 -43.795124 4294967295
199.59856 90.884163 -43.464748 4294967295
199.6003 89.872978 -43.40271 4294967295
199.60606 92.908913 -43.568611 4294967295
199.61865 90.551521 -43.408386 4294967295
199.62962 89.205055 -43.309975 4294967295
199.63025 84.072533 -43.703972 4294967295
199.63576 93.590195 -43.553596 4294967295
199.6407 91.230934 -43.407372 4294967295
199.64612 94.266991 -43.573929 4294967295
199.65474 85.762604 -43.757195 4294967295
199.67261 92.587173 -43.427559 4294967295
199.67453 92.250381 -43.404465 4294967295
199.70889 94.956329 -43.498573 4294967295
199.72691 95.972374 -43.524464 4294967295
199.7294 87.463623 -43.718952 4294967295
199.73021 86.115585 -43.639084 4294967295
199.73369 96.311249 -43.531723 4294967295
199.74509 95.302238 -43.45211 4294967295
199.74625 87.130211 -43.668579 4294967295
199.74777 84.77095 -43.528595 4294967295
199.75279 93.954971 -43.359562 4294967295
199.7668 94.632889 -43.37326 4294967295
199.76945 95.645378 -43.427193 4294967295
199.77786 86.799911 -43.591324 4294967295
199.79251 86.465927 -43.544983 4294967295
199.81143 85.121338 -43.432102 4294967295
199.82669 88.158928 -43.580601 4294967295
199.83192 96.672455 -43.372017 4294967295
199.83412 97.010323 -43.387657 4294967295
199.83769 91.195381 -43.736877 4294967295
199.84215 97.686951 -43.412247 4294967295
199.85138 90.187141 -43.653141 4294967295
199.86295 87.829666 -43.494843 4294967295
199.88649 91.880737 -43.687092 4294967295
199.89171 92.219078 -43.697174 4294967295
199.89388 93.568069 -43.771549 4294967295
199.90402 88.513 -43.459145 4294967295
199.91295 89.526581 -43.501625 4294967295
199.92067 90.539879 -43.546349 4294967295
199.92361 93.2379 -43.697739 4294967295
199.93355 88.856712 -43.42485 4294967295
199.94136 89.195656 -43.430191 4294967295
199.95161 95.267403 -43.76432 4294967295
199.95415 94.930855 -43.740028 4294967295
199.96098 84.067284 -43.788994 4294967295
199.96445 84.741989 -43.821869 4294967295
199.96597 92.910599 -43.600906 4294967295
199.972 90.888687 -43.472324 4294967295
199.9787 92.576347 -43.558117 4294967295
199.98325 85.75692 -43.846298 4294967295
200.01106 84.414635 -43.71727 4294967295
200.03722 86.779427 -43.806656 4294967295
200.04883 94.616203 -43.547867 4294967295
200.07071 96.982208 -43.645187 4294967295
200.08182 85.440582 -43.647083 4294967295
200.08208 96.310478 -43.585236 4294967295
200.08258 95.973351 -43.564701 4294967295
200.0863 87.464081 -43.756416 4294967295
200.08954 86.116417 -43.672188 4294967295
200.10239 95.640839 -43.509014 4294967295
200.10495 89.827644 -43.859535 4294967295
200.10751 90.165276 -43.874458 4294967295
200.10902 87.131882 -43.695438 4294967295
200.119 88.482452 -43.755547 4294967295
200.13904 88.149719 -43.699478 4294967295
200.14131 97.336815 -43.536057 4294967295
200.1445 88.82515 -43.728722 4294967295
200.14679 97.675461 -43.545719 4294967295
200.15904 96.666512 -43.464516 4294967295
200.1653 87.818291 -43.632023 4294967295
200.17346 89.168663 -43.695526 4294967295
200.19759 93.219559 -43.886604 4294967295
200.20042 90.523247 -43.724728 4294967295
200.20097 92.209023 -43.821709 4294967295
200.20296 89.512352 -43.66135 4294967295
200.23804 92.891853 -43.79332 4294967295
200.24265 92.555786 -43.7654 4294967295
200.24295 91.881523 -43.725639 4294967295
200.26123 90.87413 -43.633579 4294967295
200.27315 84.395195 -43.927418 4294967295
200.27908 93.575752 -43.757759 4294967295
200.29263 91.555695 -43.615532 4294967295
200.29558 85.410828 -43.94532 4294967295
200.29669 84.737061 -43.904106 4294967295
200.2968 94.25428 -43.764709 4294967295
200.29784 95.266052 -43.821617 4294967295
200.30833 84.06543 -43.843796 4294967295
200.31149 93.920555 -43.718391 4294967295
200.31732 91.224075 -43.55098 4294967295
200.32797 85.754639 -43.905907 4294967295
200.35634 95.617294 -43.734634 4294967295
200.36127 86.098694 -43.864853 4294967295
200.36488 85.088272 -43.79953 4294967295
200.36931 94.945923 -43.671867 4294967295
200.37216 96.295578 -43.745014 4294967295
200.38811 86.441452 -43.835579 4294967295
200.38875 95.962334 -43.695271 4294967295
200.39122 88.127426 -43.927856 4294967295
200.40958 89.816681 -43.992317 4294967295
200.41026 97.316574 -43.734478 4294967295
200.41754 87.796082 -43.860298 4294967295
200.41913 96.644226 -43.679104 4294967295
200.43301 88.473602 -43.871307 4294967295
200.45193 90.500275 -43.954407 4294967295
200.45587 97.665085 -43.671013 4294967295
200.46678 91.514854 -43.986103 4294967295
200.47664 86.797424 -43.694004 4294967295
200.47974 89.495201 -43.845047 4294967295
200.48643 87.473839 -43.715355 4294967295
200.49586 90.847267 -43.894005 4294967295
200.50691 89.164085 -43.77597 4294967295
200.50696 91.18689 -43.893364 4294967295
200.51883 90.178177 -43.813011 4294967295
200.53903 91.868462 -43.874245 4294967295
200.5638 88.839424 -43.652855 4294967295
200.57698 93.900124 -43.922707 4294967295
200.57841 92.214645 -43.822189 4294967295
200.57877 92.889069 -43.86068 4294967295
200.58232 92.552734 -43.834602 4294967295
200.60263 95.254799 -43.954384 4294967295
200.6413 96.275589 -43.942802 4294967295
200.64366 93.57859 -43.781773 4294967295
200.65343 95.604149 -43.881557 4294967295
200.65404 94.592674 -43.821655 4294967295
200.6544 85.411484 -43.979286 4294967295
200.65506 84.063446 -43.899818 4294967295
200.65767 84.401039 -43.914616 4294967295
200.65981 93.245125 -43.732841 4294967295
200.66959 95.945244 -43.871735 4294967295
200.68625 84.744019 -43.88224 4294967295
200.68677 97.298225 -43.918884 4294967295
200.68925 86.092896 -43.955017 4294967295
200.69121 94.938736 -43.773697 4294967295
200.69458 96.625725 -43.865471 4294967295
200.71266 87.109055 -43.971199 4294967295
200.72125 85.762558 -43.877296 4294967295
200.74208 86.441154 -43.87862 4294967295
200.74208 96.974556 -43.798649 4294967295
200.74713 87.790627 -43.947704 4294967295
200.77324 86.784912 -43.841507 4294967295
200.78745 89.147827 -43.95269 4294967295
200.79132 91.171257 -44.063103 4294967295
200.7951 88.812393 -43.91922 4294967295
200.79521 87.46389 -43.840706 4294967295
200.79591 90.161026 -43.99604 4294967295
200.82841 89.831146 -43.917408 4294967295
200.83037 90.842972 -43.972618 4294967295
200.8611 92.872749 -44.034184 4294967295
200.87813 91.528084 -43.924934 4294967295
200.89592 94.566528 -44.068817 4294967295
200.89963 93.218842 -43.983711 4294967295
200.90536 94.905922 -44.071228 4294967295
200.91536 91.873764 -43.876862 4294967295
200.91699 92.211327 -43.893471 4294967295
200.92366 95.921715 -44.096748 4294967295
200.93665 95.250519 -44.033989 4294967295
200.94167 84.049133 -44.065132 4294967295
200.95583 94.243538 -43.940369 4294967295
200.95995 93.570099 -43.893715 4294967295
201.00989 85.748474 -44.039085 4294967295
201.01704 85.41291 -44.006477 4294967295
201.02087 97.294044 -43.998466 4294967295
201.04474 97.637131 -43.97467 4294967295
201.04982 96.963898 -43.92627 4294967295
201.05165 86.431435 -44.002312 4294967295
201.05612 96.628174 -43.895302 4294967295
201.0619 87.78199 -44.061981 4294967295
201.06871 85.086571 -43.893059 4294967295
201.07021 87.446686 -44.027313 4294967295
201.07413 96.295265 -43.842953 4294967295
201.07599 84.750946 -43.860294 4294967295
201.08183 88.46048 -44.064945 4294967295
201.08803 87.113403 -43.975395 4294967295
201.11063 90.826454 -44.149689 4294967295
201.11461 84.421761 -43.770542 4294967295
201.13821 90.49556 -44.079987 4294967295
201.13959 86.112907 -43.823059 4294967295
201.14905 91.846451 -44.138634 4294967295
201.16754 92.18779 -44.124626 4294967295
201.17583 89.492523 -43.953026 4294967295
201.1781 91.515961 -44.066269 4294967295
201.18854 93.204002 -44.145241 4294967295
201.19366 94.553665 -44.214226 4294967295
201.19411 90.170921 -43.958992 4294967295
201.21326 89.163589 -43.865471 4294967295
201.22963 94.899323 -44.16851 4294967295
201.23485 93.889099 -44.100361 4294967295
201.24663 95.577652 -44.17683 4294967295
201.25667 84.377647 -44.198376 4294967295
201.25914 93.557625 -44.036648 4294967295
201.26457 96.59343 -44.202942 4294967295
201.27145 92.548866 -43.955597 4294967295
201.27858 94.236565 -44.040558 4294967295
201.27902 92.88784 -43.961376 4294967295
201.2816 84.045738 -44.133629 4294967295
201.28458 95.249573 -44.088322 4294967295
201.32854 97.620567 -44.145607 4294967295
201.34381 85.069756 -44.079391 4294967295
201.35628 97.290161 -44.07571 4294967295
201.36923 96.956078 -44.032616 4294967295
201.37854 96.283821 -43.976608 4294967295
201.43365 86.774216 -44.014214 4294967295
201.45386 87.45285 -44.016754 4294967295
201.46516 91.5009 -44.230988 4294967295
201.4684 86.107239 -43.912064 4294967295
201.47948 93.863831 -44.342018 4294967295
201.49469 86.450005 -43.883888 4294967295
201.498 92.856857 -44.249725 4294967295
201.49809 90.159798 -44.093044 4294967295
201.50301 88.812187 -44.005821 4294967295
201.50406 95.217964 -44.375706 4294967295
201.50938 91.173798 -44.131222 4294967295
201.51625 92.523949 -44.19706 4294967295
201.51753 90.83847 -44.096886 4294967295
201.52744 91.852211 -44.137695 4294967295
201.52931 93.538376 -44.232094 4294967295
201.55806 94.893715 -44.258236 4294967295
201.58211 89.166786 -43.881927 4294967295
201.59447 94.227974 -44.153141 4294967295
201.59647 87.146194 -43.738396 4294967295
201.5986 96.926338 -44.30217 4294967295
201.60146 97.264191 -44.316608 4294967295
201.60254 94.56707 -44.158058 4294967295
201.60603 96.590996 -44.269142 4294967295
201.60638 95.91674 -44.229336 4294967295
201.64259 89.517418 -43.791763 4294967295
201.65717 95.591721 -44.117744 4294967295
201.66705 96.268562 -44.138954 4294967295
201.73125 84.064789 -44.003204 4294967295
201.80603 90.823822 -44.258934 4294967295
201.82248 91.164658 -44.248734 4294967295
201.8284 92.514557 -44.316254 4294967295
201.83804 92.853905 -44.318405 4294967295
201.84117 84.424545 -43.823521 4294967295
201.84314 94.877808 -44.426529 4294967295
201.8528 86.787781 -43.93948 4294967295
201.86317 95.893929 -44.448895 4294967295
201.87451 87.129669 -43.919643 4294967295
201.88191 93.875557 -44.2976 4294967295
201.88216 93.201279 -44.258018 4294967295
201.88283 96.235779 -44.432831 4294967295
201.88464 86.457283 -43.86216 4294967295
201.89384 94.215515 -44.295563 4294967295
201.90729 96.578812 -44.408188 4294967295
201.90955 95.567909 -44.345364 4294967295
201.91142 86.125633 -43.794086 4294967295
201.9124 97.591469 -44.457577 4294967295
201.91957 91.861069 -44.11203 4294967295
201.92467 89.164169 -43.94622 4294967295
201.93597 95.237022 -44.277977 4294967295
201.93744 88.829674 -43.903564 4294967295
201.95042 90.519012 -43.977875 4294967295
201.97292 94.571342 -44.171967 4294967295
201.9758 88.163376 -43.794891 4294967295
201.99544 97.274628 -44.287746 4294967295
202.01599 89.858978 -43.819946 4294967295
202.03506 90.200577 -43.804962 4294967295
202.13188 85.422691 -44.04039 4294967295
202.1617 93.521423 -44.455856 4294967295
202.17502 92.175934 -44.353485 4294967295
202.18587 93.864197 -44.431694 4294967295
202.18613 90.829758 -44.255192 4294967295
202.19028 85.09758 -43.915104 4294967295
202.19221 94.539963 -44.459305 4294967295
202.19476 91.1689 -44.259071 4294967295
202.20155 96.564957 -44.559769 4294967295
202.2034 96.902512 -44.576004 4294967295
202.20544 94.20594 -44.415791 4294967295
202.21178 94.881729 -44.443462 4294967295
202.22435 92.861626 -44.303364 4294967295
202.22723 91.850662 -44.23951 4294967295
202.23224 97.246666 -44.543365 4294967295
202.23505 92.526878 -44.264462 4294967295
202.25024 93.204819 -44.276108 4294967295
202.25137 96.239845 -44.450119 4294967295
202.25366 86.122749 -43.859039 4294967295
202.26599 97.592072 -44.501938 4294967295
202.26979 88.48748 -43.966866 4294967295
202.2701 87.475586 -43.907608 4294967295
202.27312 95.570686 -44.371677 4294967295
202.27451 95.233818 -44.349567 4294967295
202.28427 88.827965 -43.960201 4294967295
202.2986 90.180389 -44.012581 4294967295
202.31793 87.823212 -43.840584 4294967295
202.31947 88.160927 -43.857368 4294967295
202.31973 95.919067 -44.306923 4294967295
202.32953 90.524635 -43.976124 4294967295
202.33089 89.512878 -43.915024 4294967295
202.33203 89.175774 -43.893349 4294967295
202.33209 89.850502 -43.932404 4294967295
202.35814 84.047127 -44.236683 4294967295
202.44524 84.402122 -44.098785 4294967295
202.45398 85.752831 -44.161133 4294967295
202.45786 95.530769 -44.721138 4294967295
202.46672 85.081024 -44.098984 4294967295
202.49767 94.528931 -44.590561 4294967295
202.50458 84.751587 -44.011024 4294967295
202.50577 94.193703 -44.5564 4294967295
202.51094 93.183487 -44.488365 4294967295
202.51837 97.230774 -44.709614 4294967295
202.51974 93.859833 -44.511581 4294967295
202.5269 86.105362 -44.048866 4294967295
202.53345 95.211662 -44.565086 4294967295
202.54678 92.180191 -44.364941 4294967295
202.56071 92.520584 -44.359379 4294967295
202.56187 88.811119 -44.142128 4294967295
202.57793 94.885048 -44.465103 4294967295
202.58212 90.164688 -44.183727 4294967295
202.59682 87.132111 -43.98114 4294967295
202.5979 95.901398 -44.487709 4294967295
202.60022 92.866905 -44.307495 4294967295
202.61046 89.833687 -44.112968 4294967295
202.61072 91.857513 -44.229889 4294967295
202.62039 86.799767 -43.918957 4294967295
202.63577 90.513947 -44.106354 4294967295
202.64609 97.599136 -44.498444 4294967295
202.64703 87.480217 -43.909943 4294967295
202.66158 90.857063 -44.079254 4294967295
202.67213 88.497803 -43.923248 4294967295
202.68964 91.538101 -44.067703 4294967295
202.70184 89.51651 -43.928249 4294967295
202.71159 86.069412 -44.398403 4294967295
202.71562 89.182114 -43.883797 4294967295
202.74309 84.727287 -44.263298 4294967295
202.74606 85.065094 -44.277519 4294967295
202.75761 84.055832 -44.197945 4294967295
202.77193 95.858818 -44.856251 4294967295
202.7791 95.523468 -44.823723 4294967295
202.78169 94.175781 -44.740898 4294967295
202.80098 85.413704 -44.197826 4294967295
202.82803 85.756599 -44.168549 4294967295
202.84413 96.213226 -44.745499 4294967295
202.85443 84.412895 -44.04261 4294967295
202.8651 95.206825 -44.649063 4294967295
202.87006 87.114594 -44.170834 4294967295
202.8856 96.560349 -44.690231 4294967295
202.89432 93.190544 -44.479034 4294967295
202.89514 87.457245 -44.145157 4294967295
202.89964 88.470123 -44.195641 4294967295
202.90784 92.519196 -44.415543 4294967295
202.90813 86.448029 -44.063015 4294967295
202.91141 97.240936 -44.682751 4294967295
202.91234 89.147491 -44.211861 4294967295
202.91711 88.136612 -44.144505 4294967295
202.92426 97.581253 -44.679096 4294967295
202.93652 90.164749 -44.226852 4294967295
202.95152 89.830757 -44.180176 4294967295
202.96033 86.796432 -43.988289 4294967295
202.96078 92.868645 -44.339493 4294967295
202.96318 89.495987 -44.139595 4294967295
202.99449 88.82811 -44.043957 4294967295
203.00162 90.516586 -44.128883 4294967295
203.03265 90.860909 -44.092461 4294967295
203.03888 91.874489 -44.139866 4294967295
203.04495 91.538467 -44.109329 4294967295
203.06119 84.719391 -44.371666 4294967295
203.09807 86.075851 -44.383297 4294967295
203.11627 96.194107 -44.936768 4294967295
203.12624 95.859428 -44.89925 4294967295
203.12643 84.395531 -44.234417 4294967295
203.12686 86.419128 -44.350933 4294967295
203.13708 96.536201 -44.918709 4294967295
203.14812 95.190445 -44.820663 4294967295
203.14998 87.098503 -44.348328 4294967295
203.1544 97.551651 -44.946144 4294967295
203.15668 97.215111 -44.922535 4294967295
203.15907 85.414093 -44.234177 4294967295
203.17198 93.847496 -44.699532 4294967295
203.17374 85.079834 -44.18821 4294967295
203.17534 86.766624 -44.283005 4294967295
203.17978 94.860794 -44.744083 4294967295
203.18478 96.884834 -44.852318 4294967295
203.19574 95.538902 -44.754433 4294967295
203.19962 87.783646 -44.297894 4294967295
203.20221 85.760361 -44.17593 4294967295
203.20325 87.447128 -44.271828 4294967295
203.22369 88.463432 -44.29356 4294967295
203.24979 89.818367 -44.324684 4294967295
203.26155 88.134308 -44.205742 4294967295
203.2731 93.533806 -44.497643 4294967295
203.28577 93.199463 -44.455334 4294967295
203.289 90.16436 -44.273529 4294967295
203.29129 92.863434 -44.42585 4294967295
203.2944 91.5149 -44.341995 4294967295
203.3007 90.504295 -44.271996 4294967295
203.30679 89.156219 -44.182812 4294967295
203.33708 92.19928 -44.30415 4294967295
203.37732 89.509094 -44.075184 4294967295
203.38625 84.038513 -44.428391 4294967295
203.39229 84.714157 -44.456604 4294967295
203.39365 91.874748 -44.182602 4294967295
203.42848 95.847572 -45.036057 4294967295
203.44432 85.736588 -44.421478 4294967295
203.45212 96.190292 -45.013069 4294967295
203.4693 85.404533 -44.356922 4294967295
203.48045 86.081398 -44.3759 4294967295
203.4843 93.838104 -44.81839 4294967295
203.48895 87.094994 -44.419209 4294967295
203.49292 97.211456 -44.998138 4294967295
203.49684 94.515335 -44.834877 4294967295
203.50035 95.190468 -44.867596 4294967295
203.50073 95.527702 -44.88649 4294967295
203.50488 85.0746 -44.273289 4294967295
203.51201 86.425301 -44.338596 4294967295
203.52654 84.404396 -44.195164 4294967295
203.53465 86.767387 -44.317329 4294967295
203.55095 94.865265 -44.756966 4294967295
203.56789 87.44912 -44.296524 4294967295
203.59004 88.128555 -44.295738 4294967295
203.60191 87.793762 -44.254772 4294967295
203.61877 93.194824 -44.537178 4294967295
203.63074 90.161583 -44.339729 4294967295
203.63214 89.149796 -44.278526 4294967295
203.63298 90.836792 -44.374748 4294967295
203.63374 91.848991 -44.432041 4294967295
203.63538 91.174675 -44.390015 4294967295
203.63582 90.500069 -44.350094 4294967295
203.63594 88.813225 -44.252182 4294967295
203.63693 94.210953 -44.563118 4294967295
203.6449 88.477783 -44.216431 4294967295
203.65994 91.51757 -44.365273 4294967295
203.66208 92.867493 -44.439613 4294967295
203.69528 89.838463 -44.203896 4294967295
203.69641 85.377747 -44.629227 4294967295
203.70522 89.503204 -44.166466 4294967295
203.72113 84.034027 -44.506599 4294967295
203.72467 86.057999 -44.617378 4294967295
203.74623 84.713615 -44.500465 4294967295
203.75822 96.8535 -45.181938 4294967295
203.75911 96.516647 -45.160828 4294967295
203.76547 86.740982 -44.583054 4294967295
203.76749 97.529839 -45.204342 4294967295
203.77042 85.730331 -44.515503 4294967295
203.78087 87.081474 -44.574883 4294967295
203.79549 86.41008 -44.50943 4294967295
203.80434 85.062828 -44.415382 4294967295
203.80557 96.19072 -45.057774 4294967295
203.82193 97.206009 -45.08696 4294967295
203.82881 87.428925 -44.508133 4294967295
203.8306 95.185287 -44.954128 4294967295
203.83321 95.523048 -44.969063 4294967295
203.83502 88.442085 -44.555576 4294967295
203.84036 95.861916 -44.975674 4294967295
203.84309 94.851067 -44.912163 4294967295
203.84444 84.396431 -44.304115 4294967295
203.85918 88.110016 -44.4925 4294967295
203.87918 94.185135 -44.808243 4294967295
203.90633 89.132187 -44.466331 4294967295
203.92145 89.472832 -44.458652 4294967295
203.94496 88.803246 -44.377293 4294967295
203.94666 89.81572 -44.432838 4294967295
203.95662 90.155281 -44.434456 4294967295
203.96921 90.49543 -44.431355 4294967295
204.006 93.877426 -44.560574 4294967295
204.01277 91.179939 -44.392059 4294967295
204.01401 84.358215 -44.679825 4294967295
204.01521 87.055771 -44.833862 4294967295
204.02321 92.194504 -44.431919 4294967295
204.05356 91.863983 -44.357773 4294967295
204.05746 93.551994 -44.448532 4294967295
204.0652 84.03141 -44.568222 4294967295
204.07028 85.718613 -44.656757 4294967295
204.07303 86.730835 -44.710381 4294967295
204.09528 84.712051 -44.553185 4294967295
204.11504 86.065193 -44.595833 4294967295
204.11607 88.088875 -44.711128 4294967295
204.1311 95.510193 -45.113701 4294967295
204.13174 85.394119 -44.526752 4294967295
204.13638 95.848572 -45.123734 4294967295
204.14198 97.5355 -45.211327 4294967295
204.15002 94.840385 -45.040688 4294967295
204.15242 96.8638 -45.153519 4294967295
204.16513 86.412964 -44.525291 4294967295
204.17946 96.196014 -45.065899 4294967295
204.1983 97.212051 -45.090641 4294967295
204.23055 88.450851 -44.524944 4294967295
204.24734 90.478531 -44.611908 4294967295
204.24751 90.141228 -44.592094 4294967295
204.25835 89.80629 -44.553101 4294967295
204.27084 84.000717 -44.87862 4294967295
204.27739 94.533081 -44.792366 4294967295
204.28474 89.474724 -44.48613 4294967295
204.29617 84.680145 -44.872158 4294967295
204.30353 92.515213 -44.628166 4294967295
204.32657 91.170929 -44.508644 4294967295
204.33165 92.858994 -44.597275 4294967295
204.33318 89.147911 -44.379555 4294967295
204.33368 92.184708 -44.554474 4294967295
204.33452 86.036659 -44.881371 4294967295
204.34732 91.850418 -44.510429 4294967295
204.35379 85.703514 -44.827282 4294967295
204.3558 85.029556 -44.784554 4294967295
204.37613 93.881424 -44.57592 4294967295
204.4373 86.732635 -44.735855 4294967295
204.44423 86.396843 -44.703873 4294967295
204.44444 96.512329 -45.289135 4294967295
204.44701 84.373749 -44.581718 4294967295
204.45769 85.38781 -44.621178 4294967295
204.48857 88.767151 -44.760986 4294967295
204.49011 95.174675 -45.12912 4294967295
204.5032 97.200768 -45.222733 4294967295
204.50551 90.119934 -44.808697 4294967295
204.51483 87.086311 -44.616165 4294967295
204.53436 91.475441 -44.835007 4294967295
204.54547 97.548187 -45.166443 4294967295
204.54694 89.454468 -44.695255 4294967295
204.55019 88.10585 -44.611309 4294967295
204.55429 87.432022 -44.564819 4294967295
204.5609 87.770798 -44.572533 4294967295
204.56932 88.447319 -44.59647 4294967295
204.58896 91.825058 -44.756531 4294967295
204.59464 93.85022 -44.863541 4294967295
204.60725 92.841202 -44.782257 4294967295
204.61568 83.998268 -44.938828 4294967295
204.62552 85.348839 -44.999207 4294967295
204.63281 91.160233 -44.638741 4294967295
204.63359 94.533936 -44.832638 4294967295
204.63977 89.13739 -44.509007 4294967295
204.64337 92.174736 -44.678383 4294967295
204.65182 84.342773 -44.893501 4294967295
204.65239 94.875671 -44.818474 4294967295
204.66284 92.516541 -44.662956 4294967295
204.67157 86.032707 -44.955666 4294967295
204.67357 93.193779 -44.682777 4294967295
204.67548 94.20636 -44.737946 4294967295
204.68109 90.833611 -44.532578 4294967295
204.70477 86.714043 -44.935101 4294967295
204.72299 88.403877 -44.999992 4294967295
204.73035 85.033249 -44.791664 4294967295
204.73514 93.545387 -44.591835 4294967295
204.73819 96.835487 -45.460609 4294967295
204.73871 86.383957 -44.854729 4294967295
204.74059 96.498993 -45.436787 4294967295
204.75568 87.061996 -44.863342 4294967295
204.76266 84.702621 -44.714165 4294967295
204.76918 97.180054 -45.424564 4294967295
204.78181 85.718422 -44.738411 4294967295
204.80258 97.525261 -45.384239 4294967295
204.80348 90.444748 -44.972782 4294967295
204.81822 96.180473 -45.278137 4294967295
204.81894 89.436394 -44.88652 4294967295
204.82597 87.751488 -44.776314 4294967295
204.84315 95.849251 -45.213985 4294967295
204.85173 89.780853 -44.84726 4294967295
204.86304 88.7714 -44.768417 4294967295
204.86765 90.121658 -44.838238 4294967295
204.87177 91.809052 -44.928463 4294967295
204.87735 89.111824 -44.762283 4294967295
204.89935 92.489891 -44.91803 4294967295
204.91266 91.143623 -44.816071 4294967295
204.91995 90.807922 -44.783493 4294967295
204.93044 95.19545 -45.018524 4294967295
204.93156 91.485207 -44.801739 4294967295
204.93176 83.98999 -45.050644 4294967295
204.959 86.692673 -45.15789 4294967295
204.96338 85.345024 -45.072029 4294967295
204.98573 94.196426 -44.860878 4294967295
204.99155 85.688019 -45.041061 4294967295
204.99385 93.523582 -44.807228 4294967295
204.99965 92.175346 -44.718719 4294967295
205.01768 94.54126 -44.82309 4294967295
205.02054 93.867142 -44.778954 4294967295
205.03358 92.85791 -44.69696 4294967295
205.03763 84.348656 -44.880463 4294967295
205.03784 85.02317 -44.919044 4294967295
205.03905 93.196587 -44.70668 4294967295
205.05695 86.376053 -44.962883 4294967295
205.06155 97.502823 -45.598412 4294967295
205.08629 86.044937 -44.890774 4294967295
205.09195 87.057899 -44.939186 4294967295
205.10146 89.083397 -45.039276 4294967295
205.1144 96.504295 -45.445335 4294967295
205.12494 87.739441 -44.919136 4294967295
205.14143 87.405655 -44.870052 4294967295
205.16074 88.421692 -44.894043 4294967295
205.16222 93.480972 -45.18412 4294967295
205.16454 89.77169 -44.965317 4294967295
205.16678 89.434898 -44.941811 4294967295
205.16792 92.133316 -45.095867 4294967295
205.17322 88.087074 -44.85218 4294967295
205.17628 90.111572 -44.963799 4294967295
205.18208 90.45015 -44.972908 4294967295
205.19162 95.848381 -45.268093 4294967295
205.21628 92.481575 -45.028767 4294967295
205.21907 83.975899 -45.213886 4294967295
205.2229 90.796516 -44.919327 4294967295
205.22795 91.472282 -44.949348 4294967295
205.23314 95.520996 -45.174255 4294967295
205.23878 88.775887 -44.773769 4294967295
205.25772 91.141624 -44.876553 4294967295
205.26761 87.019875 -45.30254 4294967295
205.27017 87.357521 -45.317463 4294967295
205.27101 94.18071 -45.028408 4294967295
205.27219 86.009483 -45.235847 4294967295
205.27968 92.833359 -44.934814 4294967295
205.28241 93.846024 -44.988453 4294967295
205.28371 86.686157 -45.254234 4294967295
205.28641 86.349586 -45.229912 4294967295
205.29602 85.002968 -45.134727 4294967295
205.297 94.861443 -45.020866 4294967295
205.299 84.329247 -45.090324 4294967295
205.30551 93.176643 -44.908054 4294967295
205.34491 94.535294 -44.91563 4294967295
205.35654 84.678154 -45.006844 4294967295
205.36917 85.692451 -45.042763 4294967295
205.39174 87.720551 -45.119446 4294967295
205.40529 90.083939 -45.231724 4294967295
205.41678 89.074829 -45.152645 4294967295
205.4306 88.403328 -45.088921 4294967295
205.43237 96.496201 -45.553856 4294967295
205.45158 91.105843 -45.207458 4294967295
205.46738 96.841736 -45.510773 4294967295
205.46935 89.423508 -45.078163 4294967295
205.47621 97.181007 -45.514523 4294967295
205.48778 91.45118 -45.162243 4294967295
205.49258 97.522133 -45.504761 4294967295
205.49352 88.754196 -44.995865 4294967295
205.4987 93.139915 -45.240181 4294967295
205.50331 90.780113 -45.095421 4294967295
205.50735 95.502541 -45.361271 4294967295
205.51196 90.444733 -45.06041 4294967295
205.53362 93.485199 -45.197315 4294967295
205.54477 94.162323 -45.216377 4294967295
205.56053 85.995407 -45.397163 4294967295
205.56319 86.333046 -45.411919 4294967295
205.56584 86.670692 -45.426674 4294967295
205.56848 87.008339 -45.441429 4294967295
205.57114 87.34597 -45.456184 4294967295
205.57379 87.683624 -45.47094 4294967295
205.57417 91.807922 -45.027138 4294967295
205.57724 92.483269 -45.060753 4294967295
205.5842 96.195267 -45.262913 4294967295
205.59682 84.654388 -45.254372 4294967295
205.61464 92.829147 -45.013382 4294967295
205.63559 92.159149 -44.936836 4294967295
205.63771 84.325539 -45.161758 4294967295
205.64343 95.872047 -45.137512 4294967295
205.67386 94.529732 -45.005005 4294967295
205.68253 95.206551 -45.028584 4294967295
205.70122 94.873543 -44.975609 4294967295
205.70433 84.001785 -45.023144 4294967295
205.70752 97.151985 -45.77787 4294967295
205.71037 97.489731 -45.792236 4294967295
205.79996 96.83712 -45.593315 4294967295
205.81425 90.770508 -45.216728 4294967295
205.81456 89.42144 -45.138187 4294967295
205.83455 96.50824 -45.512047 4294967295
205.84886 91.452797 -45.193886 4294967295
205.8596 90.105934 -45.096729 4294967295
205.86336 89.769417 -45.070503 4294967295
205.87553 84.975601 -45.452328 4294967295
205.87692 91.79641 -45.163284 4294967295
205.88744 95.171829 -45.339546 4294967295
205.89825 91.126511 -45.086159 4294967295
205.90515 90.453323 -45.034805 4294967295
205.90796 94.83934 -45.28344 4294967295
205.92174 92.481224 -45.122276 4294967295
205.9248 92.144554 -45.097252 4294967295
205.93629 93.496613 -45.154751 4294967295
205.93707 92.822067 -45.114365 4294967295
205.93823 93.159706 -45.13179 4294967295
205.95131 94.512154 -45.18647 4294967295
205.96758 96.202721 -45.254944 4294967295
205.98399 94.182373 -45.108604 4294967295
205.98779 95.870171 -45.199383 4294967295
205.9986 93.848366 -45.06295 4294967295
206.00037 95.535759 -45.157372 4294967295
206.00468 84.32756 -45.182701 4294967295
206.03391 89.729134 -45.442482 4294967295
206.05254 90.744797 -45.46772 4294967295
206.06087 97.152412 -45.823177 4294967295
206.07216 89.063049 -45.335194 4294967295
206.09863 91.429482 -45.424419 4294967295
206.1427 96.834953 -45.657745 4294967295
206.1452 92.788948 -45.419281 4294967295
206.15822 90.430939 -45.259613 4294967295
206.17471 95.156494 -45.503105 4294967295
206.19054 83.95578 -45.507488 4294967295
206.21979 94.829803 -45.403229 4294967295
206.22482 91.120377 -45.17976 4294967295
206.23424 92.471893 -45.240944 4294967295
206.23454 95.845146 -45.435436 4294967295
206.2614 94.164848 -45.289993 4294967295
206.26822 93.154358 -45.219315 4294967295
206.28429 95.519585 -45.327148 4294967295
206.29271 94.509491 -45.253605 4294967295
206.30681 93.500587 -45.16996 4294967295
206.34413 93.846603 -45.12289 4294967295
206.3607 90.060249 -45.55481 4294967295
206.41011 97.15184 -45.875942 4294967295
206.47968 93.79641 -45.557098 4294967295
206.50298 96.836983 -45.69101 4294967295
206.52234 92.457031 -45.403114 4294967295
206.52667 93.13266 -45.434322 4294967295
206.53661 91.785614 -45.338638 4294967295
206.54474 91.112762 -45.285126 4294967295
206.5466 94.48645 -45.476791 4294967295
206.56107 96.176338 -45.548512 4294967295
206.56529 95.840042 -45.521488 4294967295
206.56921 92.130318 -45.30003 4294967295
206.57617 94.155998 -45.404648 4294967295
206.58743 92.809166 -45.306572 4294967295
206.59822 93.486382 -45.326344 4294967295
206.60745 96.524696 -45.485348 4294967295
206.61078 95.513458 -45.420921 4294967295
206.61386 95.176834 -45.395958 4294967295
206.74078 91.077576 -45.611156 4294967295
206.76634 91.757759 -45.604614 4294967295
206.80028 97.161095 -45.85601 4294967295
206.80214 94.126602 -45.677315 4294967295
206.82039 93.119026 -45.586327 4294967295
206.855 96.499748 -45.719608 4294967295
206.85518 93.464272 -45.543934 4294967295
206.89093 92.123077 -45.402321 4294967295
206.92891 95.505356 -45.52961 4294967295
206.93271 93.819443 -45.4254 4294967295
206.94566 94.4972 -45.441326 4294967295
206.94576 95.171959 -45.480141 4294967295
206.96078 94.838104 -45.433853 4294967295
206.9612 95.850349 -45.491623 4294967295
207.00806 97.463577 -46.179985 4294967295
207.03113 91.737785 -45.807892 4294967295
207.12903 92.097008 -45.653236 4294967295
207.14124 92.774338 -45.670456 4294967295
207.18782 94.134178 -45.665592 4294967295
207.20203 94.812088 -45.679295 4294967295
207.20721 96.499779 -45.767498 4294967295
207.21034 97.175102 -45.800873 4294967295
207.21443 92.453606 -45.520824 4294967295
207.23935 93.134003 -45.515495 4294967295
207.24661 95.159828 -45.619511 4294967295
207.24965 93.473732 -45.516651 4294967295
207.2533 93.811935 -45.52969 4294967295
207.26367 96.850571 -45.686638 4294967295
207.26418 94.489212 -45.549305 4294967295
207.29262 95.507988 -45.557178 4294967295
207.43326 92.760384 -45.825306 4294967295
207.43587 97.481949 -46.093361 4294967295
207.4406 91.750252 -45.753853 4294967295
207.47324 92.094864 -45.715374 4294967295
207.4855 92.434929 -45.713062 4294967295
207.50075 93.45031 -45.7444 4294967295
207.50133 93.78775 -45.762848 4294967295
207.51053 97.162689 -45.941307 4294967295
207.53954 93.121857 -45.656006 4294967295
207.54518 95.821785 -45.801849 4294967295
207.54781 94.473114 -45.719257 4294967295
207.55457 94.137337 -45.687729 4294967295
207.56374 95.488838 -45.749413 4294967295
207.57715 95.154648 -45.70607 4294967295
207.6039 94.823517 -45.63916 4294967295
207.61719 96.176163 -45.693474 4294967295
207.6918 97.458893 -46.311939 4294967295
207.69914 92.740509 -46.026436 4294967295
207.75703 92.416389 -45.904232 4294967295
207.79005 92.086548 -45.826141 4294967295
207.81766 94.11657 -45.894035 4294967295
207.81819 94.453979 -45.912598 4294967295
207.81963 93.105133 -45.832058 4294967295
207.8575 97.161507 -45.998581 4294967295
207.87236 93.454498 -45.75798 4294967295
207.89108 95.145576 -45.822182 4294967295
207.90073 96.497208 -45.882931 4294967295
207.90338 94.811089 -45.780849 4294967295
207.91203 95.825195 -45.823975 4294967295
207.91545 95.48864 -45.798412 4294967295
207.92657 96.840706 -45.856567 4294967295
207.93732 96.168533 -45.798637 4294967295
208.06512 92.406113 -46.03038 4294967295
208.0885 93.085899 -46.027878 4294967295
208.09573 94.099289 -46.073471 4294967295
208.13556 96.132072 -46.119675 4294967295
208.17366 93.442596 -45.896408 4294967295
208.18677 96.481483 -46.048458 4294967295
208.18919 94.45816 -45.927334 4294967295
208.19705 95.134651 -45.952377 4294967295
208.19731 95.472046 -45.971306 4294967295
208.20041 97.496635 -46.08268 4294967295
208.21428 93.789246 -45.843925 4294967295
208.22285 96.827385 -46.003937 4294967295
208.22507 95.815895 -45.94165 4294967295
208.38194 93.072266 -46.179981 4294967295
208.41599 94.091736 -46.178108 4294967295
208.41652 93.417366 -46.138222 4294967295
208.43515 94.77066 -46.183083 4294967295
208.44664 93.76152 -46.104324 4294967295
208.46222 92.753189 -46.018417 4294967295
208.46436 96.46376 -46.228683 4294967295
208.47589 94.442825 -46.091545 4294967295
208.48357 95.45649 -46.136333 4294967295
208.49591 96.133972 -46.153404 4294967295
208.52492 95.128845 -46.043648 4294967295
208.53661 95.806244 -46.06192 4294967295
208.53696 97.492943 -46.158623 4294967295
208.54904 96.82119 -46.098316 4294967295
208.66714 92.719582 -46.327 4294967295
208.68019 93.396927 -46.342869 4294967295
208.72292 93.743896 -46.286766 4294967295
208.73911 96.445412 -46.413818 4294967295
208.75685 93.077133 -46.187897 4294967295
208.79097 95.783173 -46.283207 4294967295
208.81111 94.101418 -46.150269 4294967295
208.84224 95.457909 -46.173103 4294967295
208.84752 95.121811 -46.144302 4294967295
208.85771 94.786835 -46.106834 4294967295
208.87483 96.140236 -46.154427 4294967295
208.87704 96.815437 -46.189377 4294967295
208.87949 97.153366 -46.204525 4294967295
209.00945 93.728645 -46.450928 4294967295
209.06435 94.752922 -46.412285 4294967295
209.12181 94.42894 -46.291359 4294967295
209.12305 96.790176 -46.425316 4294967295
209.12344 93.080078 -46.210678 4294967295
209.12784 94.093033 -46.261253 4294967295
209.1333 97.467155 -46.446133 4294967295
209.16141 95.450066 -46.279816 4294967295
209.18811 95.118958 -46.213219 4294967295
209.20493 96.134956 -46.241867 4294967295
209.21396 96.474449 -46.245373 4294967295
209.32349 93.3825 -46.546959 4294967295
209.34039 97.432472 -46.750351 4294967295
209.38928 93.734718 -46.450317 4294967295
209.42252 95.76593 -46.508354 4294967295
209.43494 96.106125 -46.505844 4294967295
209.45816 95.436989 -46.42601 4294967295
209.46414 94.426468 -46.357117 4294967295
209.46451 94.089241 -46.337048 4294967295
209.48282 96.454689 -46.440845 4294967295
209.48837 96.793304 -46.450527 4294967295
209.49155 94.770126 -46.328232 4294967295
209.5293 97.140373 -46.397774 4294967295
209.62621 93.370987 -46.68227 4294967295
209.70093 95.748558 -46.686676 4294967295
209.7038 96.086449 -46.701057 4294967295
209.7131 93.727989 -46.548607 4294967295
209.74225 96.769966 -46.672234 4294967295
209.74869 94.410675 -46.524803 4294967295
209.76587 95.426498 -46.552856 4294967295
209.76678 94.077545 -46.473427 4294967295
209.78348 97.454292 -46.638474 4294967295
209.7951 95.096008 -46.481888 4294967295
209.82579 96.452461 -46.5056 4294967295
209.83362 97.128975 -46.53064 4294967295
209.98396 93.709183 -46.740135 4294967295
210.01962 94.05455 -46.6968 4294967295
210.0562 96.423676 -46.768486 4294967295
210.0593 94.400902 -46.646442 4294967295
210.06323 94.739067 -46.658932 4294967295
210.07825 95.079811 -46.651932 4294967295
210.09274 97.444084 -46.762428 4294967295
210.10245 96.097298 -46.667648 4294967295
210.12267 95.427444 -46.593182 4294967295
210.15831 95.773094 -46.549858 4294967295
210.1609 96.785721 -46.603645 4294967295
210.16725 97.12455 -46.611912 4294967295
210.3606 95.063461 -46.823257 4294967295
210.36424 95.401558 -46.836235 4294967295
210.38232 94.056717 -46.726727 4294967295
210.39247 96.082626 -46.825497 4294967295
210.40907 97.435547 -46.874001 4294967295
210.40935 96.423859 -46.815258 4294967295
210.4127 93.726364 -46.653877 4294967295
210.42911 94.742043 -46.683342 4294967295
210.43332 94.405701 -46.656509 4294967295
210.45312 96.771477 -46.757713 4294967295
210.47435 95.764511 -46.662102 4294967295
210.47441 97.113838 -46.739738 4294967295
210.63354 94.37059 -46.972015 4294967295
210.64018 95.046494 -46.99921 4294967295
210.67508 94.717346 -46.918472 4294967295
210.67879 96.741531 -47.028481 4294967295
210.67938 94.043846 -46.872116 4294967295
210.68126 96.404907 -47.004738 4294967295
210.70161 95.397964 -46.910713 4294967295
210.70511 97.084976 -47.00169 4294967295
210.70543 93.712532 -46.806908 4294967295
210.71992 96.076752 -46.917465 4294967295
210.7323 95.742378 -46.876293 4294967295
210.78893 97.442192 -46.873989 4294967295
210.97719 95.042831 -47.07428 4294967295
210.98335 94.0326 -47.005203 4294967295
211.00816 94.375504 -46.981117 4294967295
211.02396 94.716393 -46.972828 4294967295
211.03128 97.078796 -47.095932 4294967295
211.04187 96.06958 -47.019062 4294967295
211.06427 95.737549 -46.960361 4294967295
211.06638 97.4244 -47.05378 4294967295
211.06877 95.401299 -46.933044 4294967295
211.09328 96.756218 -46.967766 4294967295
211.12476 96.426346 -46.893105 4294967295
211.29395 95.034485 -47.184898 4294967295
211.34061 94.033493 -47.044899 4294967295
211.34724 94.372276 -47.052689 4294967295
211.34795 96.395927 -47.167946 4294967295
211.34882 95.384407 -47.108181 4294967295
211.39919 97.082527 -47.116982 4294967295
211.41722 96.749512 -47.065971 4294967295
211.42233 96.076103 -47.018211 4294967295
211.58723 95.357887 -47.355923 4294967295
211.59436 95.022354 -47.324131 4294967295
211.6371 97.05545 -47.365753 4294967295
211.69272 96.731384 -47.248989 4294967295
211.69987 94.372131 -47.100624 4294967295
211.70592 94.710815 -47.109444 4294967295
211.70789 95.723122 -47.164234 4294967295
211.71635 96.062378 -47.168831 4294967295
211.93307 95.019073 -47.396229 4294967295
211.95482 94.349648 -47.319435 4294967295
211.95995 96.711304 -47.446304 4294967295
211.98706 94.694267 -47.282436 4294967295
212.00087 95.709229 -47.316513 4294967295
212.02794 94.02906 -47.172218 4294967295
212.04192 96.056053 -47.264164 4294967295
212.04509 97.068634 -47.316849 4294967295
212.07832 96.401886 -47.219933 4294967295
212.20343 95.000046 -47.587845 4294967295
212.26929 96.701187 -47.569782 4294967295
212.28632 94.681908 -47.423672 4294967295
212.32358 96.039482 -47.436234 4294967295
212.33615 97.391403 -47.491882 4294967295
212.34785 94.358719 -47.296806 4294967295
212.34818 95.370667 -47.354465 4294967295
212.35748 95.710106 -47.357605 4294967295
212.35886 96.384987 -47.394005 4294967295
212.39061 97.067032 -47.377365 4294967295
212.55464 97.696846 -47.793274 4294967295
212.57053 95.003296 -47.610477 4294967295
212.5739 96.015617 -47.662758 4294967295
212.57535 94.667213 -47.582623 4294967295
212.57788 96.353729 -47.675194 4294967295
212.60699 95.348907 -47.566254 4294967295
212.67274 94.014915 -47.373978 4294967295
212.69025 97.054588 -47.518013 4294967295
212.71439 95.711037 -47.398285 4294967295
212.86066 94.988831 -47.767345 4294967295
212.87421 97.352005 -47.879421 4294967295
212.88982 94.658348 -47.697178 4294967295
212.94553 94.333839 -47.580734 4294967295
212.94777 95.3461 -47.634972 4294967295
212.9585 95.685814 -47.635681 4294967295
212.96521 97.036331 -47.701492 4294967295
212.99994 96.707245 -47.621658 4294967295
213.01556 96.036346 -47.555649 4294967295
213.02744 96.376411 -47.554298 4294967295
213.1438 94.635658 -47.916958 4294967295
213.19159 96.332375 -47.930664 4294967295
213.19853 95.322517 -47.860439 4294967295
213.20995 97.348122 -47.956837 4294967295
213.22121 95.66494 -47.84034 4294967295
213.23619 96.67997 -47.872414 4294967295
213.2561 94.324112 -47.702049 4294967295
213.26877 95.001472 -47.71883 4294967295
213.2907 96.018265 -47.738804 4294967295
213.33 97.039253 -47.728577 4294967295
213.46751 95.640289 -48.073273 4294967295
213.49416 94.635033 -47.968849 4294967295
213.52895 94.980148 -47.927795 4294967295
