# .PCD v0.7 - Point Cloud Data file format
VERSION 0.7
FIELDS x y z rgb
SIZE 4 4 4 4
TYPE F F F U
COUNT 1 1 1 1
WIDTH 1147
HEIGHT 1
VIEWPOINT 0 0 0 1 0 0 0
POINTS 1147
DATA ascii
44.934845 76.196777 -14.145018 4294967295
44.941936 75.069824 -13.992032 4294967295
44.951275 74.589226 -13.902646 4294967295
44.95779 75.560333 -13.986192 4294967295
44.970287 77.340797 -14.137225 4294967295
44.975307 77.665627 -14.15429 4294967295
44.984592 71.147881 -14.031011 4294967295
44.991219 71.473106 -14.042026 4294967295
44.991856 75.896744 -13.893483 4294967295
44.995461 76.059624 -13.897883 4294967295
45.010033 74.773682 -13.698535 4294967295
45.015949 71.805115 -13.984627 4294967295
45.021915 72.614326 -14.052206 4294967295
45.02737 76.395317 -13.813334 4294967295
45.03426 72.780396 -14.023592 4294967295
45.035286 71.328072 -13.857469 4294967295
45.036346 74.233627 -14.177887 4294967295
45.039467 77.207527 -13.857771 4294967295
45.049698 76.727257 -13.765022 4294967295
45.061058 77.862198 -13.848309 4294967295
45.071781 72.471779 -13.845772 4294967295
45.072647 72.310661 -13.824463 4294967295
45.078751 77.546486 -13.745395 4294967295
45.105473 76.520218 -14.169086 4294967295
45.107628 75.552704 -14.052838 4294967295
45.116253 73.780334 -13.82199 4294967295
45.121613 73.620934 -13.783726 4294967295
45.124336 77.011993 -14.151923 4294967295
45.178852 74.450508 -13.657672 4294967295
45.207653 73.588898 -14.091191 4294967295
45.213165 71.008202 -13.782032 4294967295
45.223003 74.563171 -14.141362 4294967295
45.230103 75.924286 -13.626416 4294967295
45.244595 72.957352 -13.879695 4294967295
45.24543 71.18158 -13.67825 4294967295
45.276672 72.000648 -13.650463 4294967295
45.279495 73.45504 -13.802052 4294967295
45.282017 77.722023 -13.628768 4294967295
45.283371 73.779457 -13.823481 4294967295
45.287323 75.072601 -13.952727 4294967295
45.287567 74.911255 -13.933798 4294967295
45.29274 74.106003 -13.824165 4294967295
45.310642 75.404678 -13.900797 4294967295
45.311184 76.696419 -14.042894 4294967295
45.323395 72.825806 -13.564262 4294967295
45.326729 73.31163 -13.60577 4294967295
45.335636 76.383354 -13.914632 4294967295
45.336079 71.152344 -13.968137 4294967295
45.336655 76.868126 -13.964838 4294967295
45.33762 77.191406 -13.99723 4294967295
45.339233 71.960556 -14.046311 4294967295
45.346516 73.965302 -13.60323 4294967295
45.35144 76.066734 -13.818984 4294967295
45.356285 75.745697 -13.764662 4294967295
45.359051 77.845924 -13.988468 4294967295
45.359905 77.684822 -13.967239 4294967295
45.370853 71.326637 -13.855 4294967295
45.371513 73.909569 -14.140753 4294967295
45.373398 75.267944 -13.646032 4294967295
45.392078 72.948982 -13.955146 4294967295
45.39616 72.466209 -13.88571 4294967295
45.399166 75.924248 -13.620929 4294967295
45.41774 71.828453 -13.732251 4294967295
45.431351 74.578423 -13.987244 4294967295
45.439018 75.22715 -14.030379 4294967295
45.439968 72.159744 -13.684467 4294967295
45.448521 73.131912 -13.760362 4294967295
45.450214 75.554428 -14.024218 4294967295
45.462635 72.652786 -13.653072 4294967295
45.46492 71.038383 -13.46418 4294967295
45.466393 77.33654 -14.161341 4294967295
45.488186 77.506821 -14.097238 4294967295
45.52071 74.12867 -13.596354 4294967295
45.573921 76.734138 -13.684167 4294967295
45.595638 77.065964 -13.638383 4294967295
45.596359 75.868172 -14.14072 4294967295
45.601665 72.802719 -13.778567 4294967295
45.606609 74.09639 -13.904047 4294967295
45.607475 75.06543 -14.008849 4294967295
45.608021 70.866989 -13.538387 4294967295
45.610512 73.936432 -13.871347 4294967295
45.618752 72.324669 -13.660155 4294967295
45.62328 75.394531 -13.985353 4294967295
45.63052 73.298164 -13.723938 4294967295
45.63448 76.206207 -14.033217 4294967295
45.636089 74.915184 -13.883098 4294967295
45.640858 73.140594 -13.666989 4294967295
45.659241 76.70047 -13.994034 4294967295
45.695057 76.553368 -13.841208 4294967295
45.700706 77.201607 -13.891977 4294967295
45.723114 77.533684 -13.843661 4294967295
45.727516 74.239098 -14.097492 4294967295
45.728699 77.374451 -13.804637 4294967295
45.731136 72.464622 -13.885835 4294967295
45.734467 71.497025 -13.765241 4294967295
45.735542 71.981865 -13.815224 4294967295
45.740974 73.598549 -13.974865 4294967295
45.745365 75.214569 -14.138347 4294967295
45.760784 71.022217 -13.612148 4294967295
45.760925 75.382111 -14.097827 4294967295
45.767605 77.874863 -13.71224 4294967295
45.767612 72.15535 -13.71255 4294967295
45.810951 76.209152 -13.999684 4294967295
45.823936 77.667435 -14.112844 4294967295
45.824123 72.984261 -13.589977 4294967295
45.830963 75.732674 -13.87042 4294967295
45.847095 72.346687 -13.431447 4294967295
45.876617 73.101318 -14.040722 4294967295
45.903503 75.599823 -13.579585 4294967295
45.913914 75.927071 -13.57646 4294967295
45.920509 76.737503 -13.641717 4294967295
45.939739 71.671684 -13.641386 4294967295
45.947105 75.388802 -14.02777 4294967295
45.947353 75.7118 -14.06283 4294967295
45.948246 71.997902 -13.645424 4294967295
45.955406 77.074684 -13.546528 4294967295
45.967087 72.489563 -13.62862 4294967295
45.973583 74.914757 -13.87429 4294967295
45.978027 75.077988 -13.875581 4294967295
45.983109 71.526207 -13.460306 4294967295
45.994179 76.214775 -13.940896 4294967295
45.997528 71.208359 -13.37006 4294967295
46.001244 72.987099 -13.554254 4294967295
46.021122 73.479347 -13.533576 4294967295
46.026501 77.842613 -13.999443 4294967295
46.027042 77.196892 -13.925428 4294967295
46.036888 76.716339 -13.83444 4294967295
46.038689 73.970795 -13.521581 4294967295
46.042614 74.457024 -13.560861 4294967295
46.060246 76.402634 -13.710696 4294967295
46.066612 77.374405 -13.794794 4294967295
46.077526 74.889259 -14.113248 4294967295
46.081524 76.572685 -13.64877 4294967295
46.085312 72.631721 -13.832108 4294967295
46.087021 76.090172 -13.574091 4294967295
46.091381 75.930321 -13.539707 4294967295
46.100674 73.606491 -13.882412 4294967295
46.102589 71.992157 -13.695214 4294967295
46.104004 74.576653 -13.977873 4294967295
46.105331 73.931252 -13.900911 4294967295
46.142933 73.138046 -13.669729 4294967295
46.185207 74.123512 -13.619014 4294967295
46.198273 75.905624 -13.767971 4294967295
46.203804 75.42318 -13.693227 4294967295
46.211674 75.58783 -13.681685 4294967295
46.220135 71.227722 -13.163637 4294967295
46.234165 71.556213 -13.146974 4294967295
46.245663 71.820702 -13.769252 4294967295
46.266117 76.902016 -13.621359 4294967295
46.271736 73.122574 -13.815395 4294967295
46.289608 74.905937 -13.946264 4294967295
46.294014 73.938637 -13.821787 4294967295
46.300133 73.456406 -13.74486 4294967295
46.303799 72.165421 -13.587121 4294967295
46.304539 74.104195 -13.800316 4294967295
46.304935 72.973618 -13.672853 4294967295
46.320831 72.494926 -13.559219 4294967295
46.32172 73.626183 -13.681876 4294967295
46.338928 76.540352 -13.941205 4294967295
46.339745 71.047569 -13.326191 4294967295
46.340233 73.310112 -13.576446 4294967295
46.348202 75.251862 -13.762509 4294967295
46.348961 75.413696 -13.777657 4294967295
46.351276 74.283745 -13.643008 4294967295
46.360157 75.90271 -13.789662 4294967295
46.362835 72.025833 -13.347603 4294967295
46.382481 77.526947 -13.885857 4294967295
46.387672 75.590462 -13.650496 4294967295
46.388206 74.459595 -13.522502 4294967295
46.397324 71.715347 -13.182182 4294967295
46.402691 76.081108 -13.648166 4294967295
46.412331 75.115372 -13.50403 4294967295
46.416256 75.763306 -13.56132 4294967295
46.417427 72.79052 -13.861558 4294967295
46.418766 72.144974 -13.784586 4294967295
46.43697 77.710594 -13.699612 4294967295
46.437046 74.574455 -13.98588 4294967295
46.438251 76.741615 -13.586838 4294967295
46.454891 76.425041 -13.488457 4294967295
46.46106 77.235573 -13.55532 4294967295
46.46851 73.294403 -13.724099 4294967295
46.482342 77.405785 -13.49354 4294967295
46.486706 71.847122 -13.493935 4294967295
46.538017 73.967209 -13.535605 4294967295
46.547127 71.384567 -13.213427 4294967295
46.553509 77.204681 -13.83737 4294967295
46.572834 76.243034 -13.657081 4294967295
46.612442 77.066818 -13.59869 4294967295
46.616249 74.739754 -13.960472 4294967295
46.621105 76.585449 -13.512271 4294967295
46.63353 73.615753 -13.769921 4294967295
46.637745 70.870567 -13.448295 4294967295
46.638329 72.809799 -13.662033 4294967295
46.645645 75.397247 -13.922377 4294967295
46.650112 73.29895 -13.671877 4294967295
46.655796 74.10891 -13.740522 4294967295
46.671791 76.376671 -13.932408 4294967295
46.682392 75.250092 -13.766874 4294967295
46.68539 73.797104 -13.593774 4294967295
46.690613 74.283867 -13.628192 4294967295
46.702938 75.09655 -13.671988 4294967295
46.708923 76.229881 -13.775481 4294967295
46.715858 75.909492 -13.713566 4294967295
46.717251 71.384598 -13.204544 4294967295
46.724976 71.064072 -13.1396 4294967295
46.726372 74.620865 -13.530328 4294967295
46.72789 71.711868 -13.200705 4294967295
46.743614 77.374702 -13.771569 4294967295
46.767078 72.955925 -13.825608 4294967295
46.776447 77.872726 -13.702684 4294967295
46.790123 71.249649 -12.913627 4294967295
46.802185 72.646019 -13.658332 4294967295
46.815075 71.034836 -13.43023 4294967295
46.851166 72.017883 -13.403163 4294967295
46.858818 77.029915 -13.931973 4294967295
46.860767 74.768867 -13.673018 4294967295
46.898258 77.207306 -13.802547 4294967295
46.939301 77.385406 -13.667129 4294967295
46.947884 73.6063 -13.848358 4294967295
46.949463 71.730904 -12.999442 4294967295
46.953094 73.769821 -13.846861 4294967295
46.958778 75.06424 -13.969382 4294967295
46.978714 74.910461 -13.876948 4294967295
46.980999 76.365089 -14.030118 4294967295
46.985085 74.105156 -13.763294 4294967295
47.000763 76.534462 -13.974285 4294967295
47.002048 73.303711 -13.610036 4294967295
47.015137 76.055542 -13.866702 4294967295
47.017475 72.501442 -13.462479 4294967295
47.023651 72.180473 -13.403424 4294967295
47.026859 71.050056 -13.265523 4294967295
47.034634 76.709488 -13.865773 4294967295
47.036747 77.518082 -13.947725 4294967295
47.039455 77.196083 -13.901679 4294967295
47.040199 75.257515 -13.683246 4294967295
47.042385 75.41996 -13.693059 4294967295
47.043503 72.34951 -13.347239 4294967295
47.04884 74.452835 -13.56108 4294967295
47.050789 71.705536 -13.248048 4294967295
47.070427 75.915764 -13.642253 4294967295
47.091621 76.24736 -13.599062 4294967295
47.095989 77.057175 -13.672631 4294967295
47.096722 77.865471 -13.75976 4294967295
47.108631 71.403397 -12.995872 4294967295
47.108734 73.279884 -13.837896 4294967295
47.126907 72.057114 -12.99956 4294967295
47.134525 77.71917 -13.600644 4294967295
47.140278 72.968643 -13.684213 4294967295
47.162655 74.431381 -13.76243 4294967295
47.166691 71.039009 -13.369864 4294967295
47.22155 75.585381 -13.66846 4294967295
47.251133 76.405098 -13.647946 4294967295
47.258183 71.557571 -13.082207 4294967295
47.283607 76.902901 -13.580721 4294967295
47.306602 73.613693 -13.761282 4294967295
47.318707 74.264618 -13.788012 4294967295
47.319973 72.065636 -12.905493 4294967295
47.322319 77.565033 -13.508209 4294967295
47.328247 72.813873 -13.59074 4294967295
47.332367 75.239326 -13.844859 4294967295
47.334061 73.785721 -13.676871 4294967295
47.337482 74.433411 -13.735978 4294967295
47.343407 74.758873 -13.749821 4294967295
47.343716 71.688171 -13.407239 4294967295
47.349743 76.377098 -13.905815 4294967295
47.358917 75.896011 -13.81774 4294967295
47.373775 71.537552 -13.277131 4294967295
47.382099 77.197823 -13.875026 4294967295
47.386002 75.583435 -13.68087 4294967295
47.393414 71.868164 -13.239844 4294967295
47.39431 75.748306 -13.66787 4294967295
47.397686 76.072861 -13.691213 4294967295
47.403378 77.367943 -13.813698 4294967295
47.406586 74.944931 -13.532271 4294967295
47.407887 74.137154 -13.43756 4294967295
47.416821 77.696548 -13.799535 4294967295
47.456238 76.257599 -13.490967 4294967295
47.45742 71.082939 -12.911168 4294967295
47.464893 76.907692 -13.530586 4294967295
47.473591 72.544838 -13.012755 4294967295
47.484589 77.885559 -13.564999 4294967295
47.499187 73.299156 -13.632781 4294967295
47.512142 73.627296 -13.62045 4294967295
47.520969 75.569969 -13.803103 4294967295
47.534813 76.706512 -13.87724 4294967295
47.566875 75.102989 -13.578278 4294967295
47.568565 74.618698 -13.51809 4294967295
47.592945 72.202499 -13.1577 4294967295
47.608124 74.148827 -13.31686 4294967295
47.626572 76.41964 -13.499722 4294967295
47.628773 72.862816 -13.096138 4294967295
47.631649 70.922585 -12.869611 4294967295
47.634289 72.056053 -12.985674 4294967295
47.641823 77.395744 -13.550725 4294967295
47.644558 76.103371 -13.396814 4294967295
47.64555 74.259903 -13.820196 4294967295
47.646252 71.736893 -12.905127 4294967295
47.654812 73.293831 -13.678001 4294967295
47.663757 71.58152 -12.821917 4294967295
47.663822 73.458847 -13.66243 4294967295
47.664806 71.25827 -12.782022 4294967295
47.665619 72.553032 -12.922894 4294967295
47.668091 77.89135 -13.506827 4294967295
47.68018 74.757996 -13.745208 4294967295
47.688709 76.377258 -13.892999 4294967295
47.699539 73.795639 -13.565442 4294967295
47.7015 75.251083 -13.719755 4294967295
47.706459 76.061073 -13.791072 4294967295
47.711411 71.860008 -13.305682 4294967295
47.731922 74.939598 -13.570674 4294967295
47.735542 75.425949 -13.611076 4294967295
47.745968 71.549263 -13.141091 4294967295
47.760872 77.860481 -13.786175 4294967295
47.766285 75.922935 -13.550585 4294967295
47.768997 75.115616 -13.450696 4294967295
47.783157 72.533478 -13.110511 4294967295
47.799198 76.744286 -13.517969 4294967295
47.820545 72.870964 -13.007316 4294967295
47.829273 73.942078 -13.724964 4294967295
47.850246 74.273323 -13.682898 4294967295
47.853512 77.25103 -13.369859 4294967295
47.858559 71.68988 -13.364679 4294967295
47.859467 76.701004 -13.917849 4294967295
47.879559 77.678535 -13.950855 4294967295
47.923645 74.624771 -13.445993 4294967295
47.926369 72.20002 -13.166424 4294967295
47.939735 73.337189 -13.242488 4294967295
47.955223 74.798622 -13.346592 4294967295
47.958626 77.06369 -13.585328 4294967295
47.960518 75.609238 -13.416706 4294967295
47.96254 76.580208 -13.516926 4294967295
47.970562 72.539932 -13.038044 4294967295
47.973534 77.55468 -13.583802 4294967295
47.974743 75.776505 -13.381797 4294967295
47.985783 71.57476 -12.873598 4294967295
47.996597 77.887329 -13.534031 4294967295
48.001606 75.074394 -13.833723 4294967295
48.020889 73.465462 -13.582663 4294967295
48.029251 73.791939 -13.587499 4294967295
48.034142 74.117104 -13.605245 4294967295
48.049587 71.697556 -13.278557 4294967295
48.059624 71.054283 -13.169414 4294967295
48.059822 72.024765 -13.276449 4294967295
48.06892 76.070366 -13.69148 4294967295
48.069511 76.717163 -13.761049 4294967295
48.077991 77.367058 -13.801345 4294967295
48.083847 74.459442 -13.456564 4294967295
48.095318 73.170067 -13.270329 4294967295
48.099873 71.554214 -13.073769 4294967295
48.112576 77.542557 -13.690933 4294967295
48.120426 76.252274 -13.51822 4294967295
48.122337 74.959358 -13.367517 4294967295
48.136475 73.347282 -13.135431 4294967295
48.150894 74.646873 -13.225571 4294967295
48.15572 74.810486 -13.225603 4294967295
48.169373 74.750481 -13.797995 4294967295
48.176949 72.229759 -12.859317 4294967295
48.201088 76.931061 -13.29063 4294967295
48.212791 75.898705 -13.762521 4294967295
48.214867 75.252945 -13.683064 4294967295
48.225456 74.933716 -13.607904 4294967295
48.281776 74.146759 -13.309248 4294967295
48.283432 76.896492 -13.608198 4294967295
48.295506 76.739586 -13.545497 4294967295
48.304672 72.375885 -13.026764 4294967295
48.310158 77.230507 -13.544997 4294967295
48.311764 73.025711 -13.072299 4294967295
48.312126 77.878075 -13.609465 4294967295
48.312721 71.731613 -12.925038 4294967295
48.316719 71.247581 -12.8563 4294967295
48.327499 77.399139 -13.498639 4294967295
48.336269 76.108749 -13.322543 4294967295
48.336475 71.416611 -12.80094 4294967295
48.355156 72.232719 -12.821463 4294967295
48.363441 76.604721 -13.275631 4294967295
48.365616 72.560295 -12.818583 4294967295
48.371506 74.277985 -13.617059 4294967295
48.389362 76.548065 -13.801979 4294967295
48.393635 75.094833 -13.624743 4294967295
48.425854 76.077431 -13.612985 4294967295
48.42804 75.754906 -13.569014 4294967295
48.428871 75.431839 -13.530054 4294967295
48.43335 73.492867 -13.298126 4294967295
48.435455 74.787537 -13.43389 4294967295
48.438896 74.627129 -13.403199 4294967295
48.445004 77.378433 -13.685534 4294967295
48.450539 74.469849 -13.342102 4294967295
48.461399 72.209129 -13.050534 4294967295
48.48473 76.423965 -13.430753 4294967295
48.553631 71.919357 -12.672655 4294967295
48.560623 71.112366 -12.556881 4294967295
48.598118 73.814423 -13.345789 4294967295
48.630592 76.899811 -13.566381 4294967295
48.632549 75.445038 -13.397723 4294967295
48.632816 75.768623 -13.432604 4294967295
48.63282 74.798141 -13.32496 4294967295
48.633278 74.4748 -13.287385 4294967295
48.6362 77.710564 -13.635295 4294967295
48.644802 73.993858 -13.190873 4294967295
48.646984 74.318253 -13.218695 4294967295
48.650043 77.230965 -13.53027 4294967295
48.666416 72.869316 -12.985201 4294967295
48.681156 75.625664 -13.235738 4294967295
48.685257 72.390762 -12.861555 4294967295
48.68911 72.068459 -12.811371 4294967295
48.692425 71.907799 -12.78113 4294967295
48.692558 73.688278 -12.97816 4294967295
48.695225 73.203743 -12.914429 4294967295
48.697155 76.279053 -13.248299 4294967295
48.70961 77.578224 -13.345732 4294967295
48.711296 73.533485 -12.890828 4294967295
48.713509 74.117249 -13.576087 4294967295
48.723106 73.959183 -13.522661 4294967295
48.724621 77.907791 -13.326068 4294967295
48.725651 75.253723 -13.65669 4294967295
48.732162 71.112747 -12.54412 4294967295
48.750141 74.454605 -13.476462 4294967295
48.753017 72.514732 -13.250585 4294967295
48.753147 74.779198 -13.50121 4294967295
48.783333 73.65844 -13.264014 4294967295
48.788837 73.013374 -13.171884 4294967295
48.7911 77.381401 -13.647734 4294967295
48.812527 76.096062 -13.425084 4294967295
48.815464 76.4207 -13.450087 4294967295
48.822903 71.245796 -12.848409 4294967295
48.861217 76.762245 -13.316803 4294967295
48.874195 71.588188 -12.694512 4294967295
48.908031 76.390503 -13.728721 4294967295
48.909649 71.439163 -12.545363 4294967295
48.911667 76.876968 -13.769049 4294967295
48.913349 71.764389 -12.567595 4294967295
48.921223 77.042427 -13.75167 4294967295
48.957462 74.630676 -13.348939 4294967295
48.972538 72.371162 -13.042109 4294967295
48.972752 74.312943 -13.256574 4294967295
48.987236 76.583336 -13.454096 4294967295
48.988689 72.862633 -13.036237 4294967295
48.99577 72.541573 -12.974183 4294967295
48.997883 77.881523 -13.558164 4294967295
49.005043 77.399147 -13.477959 4294967295
49.005814 72.0597 -12.883218 4294967295
49.008331 71.89875 -12.855969 4294967295
49.01347 75.622925 -13.249607 4294967295
49.03397 71.58432 -12.725295 4294967295
49.042366 73.206337 -12.873752 4294967295
49.047256 76.283318 -13.196538 4294967295
49.047611 77.577888 -13.338681 4294967295
49.048317 72.722893 -12.797906 4294967295
49.06443 73.376472 -12.810148 4294967295
49.079868 76.714806 -13.750182 4294967295
49.094131 76.073593 -13.625881 4294967295
49.105499 73.328209 -13.279237 4294967295
49.108463 77.534592 -13.734241 4294967295
49.115292 75.596626 -13.494047 4294967295
49.115631 71.066551 -12.990735 4294967295
49.116013 74.626373 -13.383839 4294967295
49.127365 75.924812 -13.485321 4294967295
49.129044 76.895905 -13.586652 4294967295
49.136761 73.987122 -13.235538 4294967295
49.146248 70.915726 -12.859712 4294967295
49.14835 74.800507 -13.282405 4294967295
49.161659 74.481979 -13.197417 4294967295
49.172924 77.075005 -13.442674 4294967295
49.189453 76.43438 -13.309979 4294967295
49.237068 73.701218 -12.829371 4294967295
49.253765 76.393143 -13.692472 4294967295
49.256245 77.755348 -13.20697 4294967295
49.316383 73.181633 -13.103185 4294967295
49.329094 72.700813 -13.002503 4294967295
49.330395 71.406303 -12.854211 4294967295
49.331043 71.892189 -12.905644 4294967295
49.33213 72.054459 -12.91956 4294967295
49.338032 75.617165 -13.292233 4294967295
49.340302 75.294418 -13.248024 4294967295
49.3479 77.077171 -13.417133 4294967295
49.351139 71.251907 -12.75974 4294967295
49.354656 72.548378 -12.890268 4294967295
49.376667 73.042206 -12.862891 4294967295
49.397961 73.697754 -12.856109 4294967295
49.412331 71.759903 -12.587802 4294967295
49.41732 72.409538 -12.641171 4294967295
49.432365 73.970413 -13.384722 4294967295
49.436096 76.883331 -13.693367 4294967295
49.457939 76.730194 -13.595018 4294967295
49.460648 75.43718 -13.441765 4294967295
49.461739 75.922913 -13.491475 4294967295
49.467808 75.116371 -13.379562 4294967295
49.470688 72.204704 -13.046358 4294967295
49.481506 77.386497 -13.579863 4294967295
49.483692 74.151588 -13.213543 4294967295
49.494442 76.259193 -13.406867 4294967295
49.503105 75.777168 -13.321214 4294967295
49.52256 76.593788 -13.339147 4294967295
49.524975 77.727333 -13.455633 4294967295
49.532681 74.493835 -13.068909 4294967295
49.587151 73.381042 -12.742711 4294967295
49.590427 72.086624 -12.587126 4294967295
49.591084 77.915543 -13.230149 4294967295
49.593719 71.277916 -12.485282 4294967295
49.596275 71.602821 -12.51175 4294967295
49.600021 74.293121 -13.421917 4294967295
49.610603 77.599609 -13.122441 4294967295
49.65313 75.769547 -13.387666 4294967295
49.663361 75.449883 -13.314202 4294967295
49.665211 71.404106 -12.859381 4294967295
49.667614 75.127876 -13.262727 4294967295
49.668648 77.55529 -13.52755 4294967295
49.68219 74.000496 -13.083672 4294967295
49.686218 72.383171 -12.889606 4294967295
49.686394 76.106071 -13.301104 4294967295
49.691349 74.651413 -13.121628 4294967295
49.695267 74.976616 -13.143056 4294967295
49.697144 75.948418 -13.243637 4294967295
49.706654 76.923119 -13.316113 4294967295
49.7071 72.714676 -12.848574 4294967295
49.709763 77.895248 -13.412132 4294967295
49.713261 73.20269 -12.879683 4294967295
49.727337 73.36985 -12.845798 4294967295
49.732876 77.418976 -13.273386 4294967295
49.744778 71.594833 -12.584325 4294967295
49.747547 73.701256 -12.807254 4294967295
49.748196 76.615738 -13.127464 4294967295
49.760941 72.086647 -12.578622 4294967295
49.769588 74.940117 -13.487941 4294967295
49.770237 77.110039 -13.100126 4294967295
49.77422 76.397758 -13.632014 4294967295
49.778496 72.903 -12.603666 4294967295
49.799675 71.067337 -12.947394 4294967295
49.803799 74.305923 -13.290544 4294967295
49.812229 75.118217 -13.349077 4294967295
49.844364 77.07238 -13.445807 4294967295
49.853691 76.752426 -13.375731 4294967295
49.860004 71.736748 -12.797163 4294967295
49.879669 73.687012 -12.939904 4294967295
49.886909 74.175453 -12.967034 4294967295
49.906498 72.239525 -12.679926 4294967295
49.931675 72.410721 -12.60524 4294967295
49.960579 76.242523 -13.546882 4294967295
49.963692 77.767052 -13.07893 4294967295
49.980103 72.914558 -12.480929 4294967295
49.990925 71.884308 -12.951968 4294967295
50.002392 77.229637 -13.500741 4294967295
50.006977 72.699677 -12.982554 4294967295
50.015823 71.083702 -12.770867 4294967295
50.018459 74.808411 -13.173216 4294967295
50.033478 76.109039 -13.261309 4294967295
50.034718 72.386032 -12.844804 4294967295
50.036503 74.329628 -13.053223 4294967295
50.043415 74.494133 -13.045737 4294967295
50.05798 75.309143 -13.081793 4294967295
50.067165 77.740768 -13.316631 4294967295
50.069008 77.09407 -13.238261 4294967295
50.073811 72.076416 -12.665314 4294967295
50.078442 77.421524 -13.239437 4294967295
50.083942 71.432144 -12.556373 4294967295
50.090431 73.702202 -12.783458 4294967295
50.091202 76.940926 -13.13888 4294967295
50.091503 76.455368 -13.084044 4294967295
50.091576 70.948868 -12.474531 4294967295
50.103168 75.002594 -12.880008 4294967295
50.107166 74.032394 -12.75782 4294967295
50.142185 74.952667 -13.354129 4294967295
50.171593 75.611267 -13.31783 4294967295
50.179581 75.776184 -13.306423 4294967295
50.182823 72.215965 -12.900607 4294967295
50.192364 77.399513 -13.438478 4294967295
50.252621 71.269447 -12.53686 4294967295
50.252991 73.37542 -12.768449 4294967295
50.260693 74.512009 -12.865574 4294967295
50.270348 71.761879 -12.525548 4294967295
50.287979 76.237885 -13.579075 4294967295
50.316666 77.934464 -13.036295 4294967295
50.318787 75.602562 -13.394623 4294967295
50.321781 76.412834 -13.47309 4294967295
50.344433 74.47937 -13.175359 4294967295
50.346817 74.31839 -13.148722 4294967295
50.357025 75.13166 -13.200791 4294967295
50.360088 76.751434 -13.368495 4294967295
50.372147 72.060905 -12.805185 4294967295
50.376049 75.786469 -13.202643 4294967295
50.376202 71.090569 -12.682836 4294967295
50.377018 75.463074 -13.163304 4294967295
50.380085 73.521317 -12.937246 4294967295
50.384235 73.198982 -12.886222 4294967295
50.384697 72.71331 -12.830796 4294967295
50.387726 71.74263 -12.71222 4294967295
50.389439 76.601044 -13.243049 4294967295
50.413528 77.419891 -13.244248 4294967295
50.414551 71.428322 -12.57801 4294967295
50.421131 77.261009 -13.198498 4294967295
50.422009 74.994522 -12.944688 4294967295
50.424038 71.917778 -12.596963 4294967295
50.444527 73.059319 -12.647236 4294967295
50.448692 70.954475 -12.399015 4294967295
50.451439 76.139427 -12.962149 4294967295
50.46217 73.713882 -12.654201 4294967295
50.474461 75.111641 -13.386629 4294967295
50.481319 74.045067 -12.619821 4294967295
50.491741 74.794518 -13.287572 4294967295
50.493824 73.401619 -12.502301 4294967295
50.505093 76.256287 -13.399669 4294967295
50.509743 72.273041 -12.318481 4294967295
50.520073 76.100243 -13.326942 4294967295
50.527912 77.559929 -13.459198 4294967295
50.537495 77.887398 -13.459891 4294967295
50.539639 77.079018 -13.362622 4294967295
50.549702 73.683029 -12.95003 4294967295
50.558102 74.010048 -12.955067 4294967295
50.577507 76.931992 -13.20611 4294967295
50.584866 74.505951 -12.910746 4294967295
50.605675 77.266861 -13.13878 4294967295
50.607033 72.246338 -12.57886 4294967295
50.634521 72.742485 -12.531887 4294967295
50.671921 76.902519 -13.476104 4294967295
50.674767 71.075287 -12.82168 4294967295
50.682079 75.611633 -13.295899 4294967295
50.693378 73.996979 -13.075693 4294967295
50.694164 76.587509 -13.358994 4294967295
50.695755 76.102516 -13.299533 4294967295
50.706886 77.887344 -13.455492 4294967295
50.713314 72.54689 -12.841686 4294967295
50.714725 77.081146 -13.337431 4294967295
50.726109 75.142776 -13.081174 4294967295
50.729538 74.982155 -13.050741 4294967295
50.741203 72.719086 -12.757514 4294967295
50.742336 75.796684 -13.093377 4294967295
50.746624 71.749054 -12.630246 4294967295
50.757904 73.373207 -12.767993 4294967295
50.763191 73.051163 -12.71285 4294967295
50.764435 77.748291 -13.227182 4294967295
50.766586 77.425323 -13.183547 4294967295
50.76717 74.348572 -12.84149 4294967295
50.772007 72.892403 -12.662677 4294967295
50.785484 73.707451 -12.702873 4294967295
50.790146 72.412964 -12.542581 4294967295
50.82354 73.883667 -12.581521 4294967295
50.82766 72.102493 -12.369453 4294967295
50.83025 75.60331 -13.369102 4294967295
50.862385 77.234367 -13.430442 4294967295
50.880524 77.403366 -13.382049 4294967295
50.885712 71.089668 -12.665463 4294967295
50.890312 76.597778 -13.2569 4294967295
50.900555 71.419006 -12.646984 4294967295
50.915737 74.340446 -12.913594 4294967295
50.921181 76.771713 -13.161999 4294967295
50.946106 74.999825 -12.874167 4294967295
50.973526 77.116066 -13.006514 4294967295
50.99081 74.044579 -12.603395 4294967295
50.99448 75.763008 -13.401464 4294967295
50.996994 71.777824 -12.330121 4294967295
51.023693 74.802826 -13.187561 4294967295
51.02515 73.246986 -12.388338 4294967295
51.031727 73.73571 -12.418021 4294967295
51.038677 76.589455 -13.329485 4294967295
51.055618 77.081734 -13.321266 4294967295
51.06337 75.627533 -13.132093 4294967295
51.065937 75.304642 -13.08696 4294967295
51.074112 77.736588 -13.325248 4294967295
51.084801 73.044098 -12.767674 4294967295
51.085388 71.099998 -12.550787 4294967295
51.093311 75.477043 -13.004898 4294967295
51.093334 71.913063 -12.61124 4294967295
51.098553 74.345192 -12.860569 4294967295
51.098869 73.535316 -12.769973 4294967295
51.117004 75.00013 -12.864738 4294967295
51.135166 74.034889 -12.691087 4294967295
51.138206 76.790123 -12.984067 4294967295
51.152782 71.44825 -12.34036 4294967295
51.156456 72.908394 -12.48806 4294967295
51.161179 71.613373 -12.327584 4294967295
51.168175 73.398941 -12.498949 4294967295
51.17062 77.450752 -12.937293 4294967295
51.177223 76.577324 -13.437794 4294967295
51.181835 72.431389 -12.341652 4294967295
51.182163 72.107285 -12.304648 4294967295
51.20406 75.778244 -13.250578 4294967295
51.227451 77.892036 -13.397561 4294967295
51.245552 76.765785 -13.206489 4294967295
51.26144 72.074196 -12.629981 4294967295
51.267479 73.858696 -12.80471 4294967295
51.3018 75.977737 -12.911988 4294967295
51.323196 72.907005 -12.494088 4294967295
51.323582 76.310143 -12.868313 4294967295
51.328098 74.367455 -12.637221 4294967295
51.331573 73.72049 -12.552978 4294967295
51.355343 77.294601 -12.859783 4294967295
51.356045 75.123734 -13.238451 4294967295
51.356663 75.609703 -13.289791 4294967295
51.376179 71.953575 -12.193346 4294967295
51.394985 77.567413 -13.364526 4294967295
51.399849 74.816429 -13.043082 4294967295
51.405865 74.170799 -12.949667 4294967295
51.409107 76.115601 -13.152312 4294967295
51.415257 76.927681 -13.219242 4294967295
51.434334 71.264709 -12.523977 4294967295
51.434341 74.991447 -12.935258 4294967295
51.435478 77.745285 -13.234895 4294967295
51.446682 76.615997 -13.069018 4294967295
51.454502 77.428879 -13.129877 4294967295
51.458458 71.921669 -12.507577 4294967295
51.463978 73.22023 -12.630565 4294967295
51.482716 74.36158 -12.687447 4294967295
51.485096 75.496765 -12.803949 4294967295
51.497604 72.422119 -12.41853 4294967295
51.501095 73.558075 -12.531044 4294967295
51.513386 74.697227 -12.611447 4294967295
51.519409 71.132912 -12.195864 4294967295
51.520336 72.106117 -12.299867 4294967295
51.525169 74.053299 -12.49696 4294967295
51.5284 76.743721 -13.402171 4294967295
51.538891 72.274979 -12.25011 4294967295
51.549843 75.942436 -13.234824 4294967295
51.581211 72.939049 -12.167424 4294967295
51.600876 72.883804 -12.709498 4294967295
51.608677 71.428055 -12.520138 4294967295
51.616554 73.861832 -12.759668 4294967295
51.629044 75.324783 -12.875065 4294967295
51.661076 73.716293 -12.579676 4294967295
51.664566 74.852112 -12.692122 4294967295
51.672699 77.285851 -12.930623 4294967295
51.682503 72.589424 -12.376451 4294967295
51.694565 74.052925 -12.493499 4294967295
51.698193 74.702698 -12.551823 4294967295
51.702454 71.623749 -12.196428 4294967295
51.710976 76.262917 -13.296628 4294967295
51.71434 72.114525 -12.20681 4294967295
51.715012 74.384796 -12.454823 4294967295
51.718189 75.294037 -13.163259 4294967295
51.719769 73.251617 -12.312288 4294967295
51.722706 73.576988 -12.337374 4294967295
51.72998 76.756058 -13.281092 4294967295
51.731438 75.946907 -13.186509 4294967295
51.73481 76.595993 -13.245677 4294967295
51.751511 77.574142 -13.292086 4294967295
51.76976 75.475616 -12.993569 4294967295
51.771938 74.666405 -12.896323 4294967295
51.772594 72.722191 -12.679484 4294967295
51.778107 72.075912 -12.587914 4294967295
51.780998 73.211441 -12.702522 4294967295
51.781178 77.909714 -13.219941 4294967295
51.786556 71.106384 -12.449885 4294967295
51.787891 75.158478 -12.891893 4294967295
51.7952 71.595787 -12.47207 4294967295
51.797573 76.45829 -12.999607 4294967295
51.805561 77.271385 -13.059876 4294967295
51.815586 73.548317 -12.612444 4294967295
51.837852 71.286758 -12.281082 4294967295
51.839851 73.070946 -12.470535 4294967295
51.864761 71.945023 -12.254708 4294967295
51.874832 72.43515 -12.271715 4294967295
51.886177 72.925766 -12.284103 4294967295
51.886589 77.789261 -12.818892 4294967295
51.912773 73.908554 -12.294656 4294967295
51.952393 73.69796 -12.745266 4294967295
51.959183 76.293053 -13.006405 4294967295
51.966782 74.02742 -12.728711 4294967295
51.968002 75.810387 -12.920781 4294967295
51.997673 75.335533 -12.759403 4294967295
51.999832 74.52597 -12.66222 4294967295
52.00106 73.229637 -12.514781 4294967295
52.004139 76.148308 -12.825231 4294967295
52.004375 76.634544 -12.877957 4294967295
52.005623 71.934258 -12.355177 4294967295
52.009926 74.691849 -12.643405 4294967295
52.015045 74.207466 -12.571197 4294967295
52.015472 71.126984 -12.229958 4294967295
52.025608 72.265762 -12.318289 4294967295
52.02845 77.454155 -12.879818 4294967295
52.040047 76 -12.676924 4294967295
52.05056 77.786949 -12.835242 4294967295
52.059433 72.92672 -12.26685 4294967295
52.066368 71.469482 -12.080676 4294967295
52.070847 75.460754 -13.123084 4294967295
52.099182 77.739304 -13.270123 4294967295
52.100433 73.103905 -12.135716 4294967295
52.128727 76.940926 -13.073677 4294967295
52.12952 71.268944 -12.445625 4294967295
52.133148 77.590652 -13.129034 4294967295
52.150028 75.652885 -12.853537 4294967295
52.159817 77.277061 -12.996568 4294967295
52.16016 76.7911 -12.941769 4294967295
52.175137 73.393051 -12.512305 4294967295
52.181461 72.746834 -12.417851 4294967295
52.207409 73.729218 -12.430867 4294967295
52.234299 71.955055 -12.136582 4294967295
52.25288 75.141273 -13.037858 4294967295
52.292503 72.462738 -11.978845 4294967295
52.303814 77.10495 -13.067357 4294967295
52.315388 72.247101 -12.489689 4294967295
52.324951 74.520157 -12.70508 4294967295
52.328594 74.683609 -12.709721 4294967295
52.337776 77.766327 -13.015624 4294967295
52.338776 75.822044 -12.797802 4294967295
52.348335 75.339417 -12.70957 4294967295
52.358738 73.72213 -12.493219 4294967295
52.359745 76.802551 -12.828901 4294967295
52.373867 71.619431 -12.206021 4294967295
52.37949 72.108032 -12.239253 4294967295
52.382538 74.217384 -12.460504 4294967295
52.385265 77.298714 -12.789942 4294967295
52.386086 77.461121 -12.804816 4294967295
52.386715 74.867531 -12.516804 4294967295
52.389664 73.571381 -12.363181 4294967295
52.392242 74.383156 -12.443173 4294967295
52.400906 70.817924 -12.018517 4294967295
52.406075 72.442032 -12.178537 4294967295
52.410927 73.417015 -12.268179 4294967295
52.419178 73.906639 -12.291862 4294967295
52.420357 73.096062 -12.198235 4294967295
52.42643 72.936066 -12.158318 4294967295
52.434654 71.965637 -12.02121 4294967295
52.437698 74.075699 -12.242568 4294967295
52.450031 75.961632 -13.02295 4294967295
52.468048 70.943489 -12.404167 4294967295
52.468533 71.105812 -12.420274 4294967295
52.474506 71.918648 -12.487931 4294967295
52.491734 72.086975 -12.443351 4294967295
52.510345 72.742302 -12.447351 4294967295
52.538097 77.778275 -12.900283 4294967295
52.539787 76.644333 -12.769237 4294967295
52.540836 76.158424 -12.71188 4294967295
52.543003 75.024391 -12.579044 4294967295
52.543087 75.510811 -12.632314 4294967295
52.579609 76.983948 -12.660708 4294967295
52.637386 77.588585 -13.132878 4294967295
52.643425 73.115181 -12.000776 4294967295
52.665813 75.654892 -12.815952 4294967295
52.674294 77.116837 -12.945845 4294967295
52.677322 76.307632 -12.845674 4294967295
52.68438 76.796593 -12.873666 4294967295
52.699471 71.451439 -12.229861 4294967295
52.724113 73.244522 -12.337124 4294967295
52.725517 76.65036 -12.706984 4294967295
52.725807 74.542587 -12.473868 4294967295
52.726219 76.164246 -12.650896 4294967295
52.736 75.843689 -12.579803 4294967295
52.737827 74.871422 -12.466072 4294967295
52.746548 72.279381 -12.148722 4294967295
52.74934 74.064781 -12.335103 4294967295
52.750584 76.497871 -12.598433 4294967295
52.752003 71.307846 -12.021742 4294967295
52.76194 70.824547 -11.932133 4294967295
52.764305 75.530106 -12.441662 4294967295
52.768665 72.611847 -12.104368 4294967295
52.771645 71.96389 -12.0221 4294967295
52.782669 73.752655 -12.178725 4294967295
52.794495 73.594765 -12.118051 4294967295
52.800747 76.93792 -13.080004 4294967295
52.804569 71.103729 -12.423822 4294967295
52.805313 71.813652 -11.882294 4294967295
52.805325 72.138252 -11.918014 4294967295
52.815018 73.115479 -11.990148 4294967295
52.819199 75.648514 -12.87063 4294967295
52.835186 75.97876 -12.848502 4294967295
52.840889 74.684067 -12.685143 4294967295
52.844608 70.955666 -12.261085 4294967295
52.867325 77.449951 -12.892877 4294967295
52.873203 75.182587 -12.62184 4294967295
52.877213 77.940086 -12.91064 4294967295
52.930061 72.932922 -12.166263 4294967295
52.931084 76.826164 -12.591051 4294967295
52.974434 72.624474 -11.970025 4294967295
52.981319 72.789261 -11.962993 4294967295
52.98587 77.267883 -13.055567 4294967295
52.997463 77.434448 -13.031543 4294967295
53.000549 75.328522 -12.788577 4294967295
53.007671 77.114273 -12.959015 4294967295
53.008972 75.007454 -12.722473 4294967295
53.01836 71.443253 -12.295932 4294967295
53.020882 75.984673 -12.786483 4294967295
53.022587 75.498955 -12.726803 4294967295
53.051022 75.185394 -12.588425 4294967295
53.058605 77.944588 -12.864264 4294967295
53.061344 73.080795 -12.31911 4294967295
53.06406 72.595123 -12.255741 4294967295
53.073154 71.300423 -12.080002 4294967295
53.080414 76.16951 -12.589307 4294967295
53.085697 73.414124 -12.266818 4294967295
53.088268 71.79258 -12.078963 4294967295
53.100338 76.987999 -12.606559 4294967295
53.103466 71.148857 -11.952573 4294967295
53.10841 74.720322 -12.327569 4294967295
53.108547 72.124374 -12.041392 4294967295
53.111713 77.641075 -12.636848 4294967295
53.113407 73.748764 -12.202408 4294967295
53.121891 74.563118 -12.261013 4294967295
53.128067 72.780525 -12.04229 4294967295
53.136948 74.244217 -12.170911 4294967295
53.178013 76.952301 -12.934676 4294967295
53.194221 75.175179 -12.680051 4294967295
53.198284 77.446449 -12.915022 4294967295
53.202141 72.583305 -12.366011 4294967295
53.219997 74.860527 -12.551358 4294967295
53.254818 76.495445 -12.604084 4294967295
53.268852 75.852051 -12.482088 4294967295
53.269508 75.041252 -12.390517 4294967295
53.29314 72.12925 -11.983902 4294967295
53.295021 77.808434 -12.601741 4294967295
53.297268 71.968422 -11.95113 4294967295
53.318626 72.46302 -11.927594 4294967295
53.335289 76.298988 -12.904031 4294967295
53.342712 73.121017 -11.912074 4294967295
53.349918 75.656082 -12.779991 4294967295
53.350925 72.08876 -12.383995 4294967295
53.355686 75.982529 -12.794844 4294967295
53.356163 73.612915 -11.917097 4294967295
53.360012 75.335609 -12.707947 4294967295
53.360321 76.470673 -12.831615 4294967295
53.36087 76.957237 -12.883113 4294967295
53.361897 71.606018 -12.290896 4294967295
53.36338 74.850418 -12.642306 4294967295
53.371025 77.285393 -12.882169 4294967295
53.372475 77.610184 -12.912578 4294967295
53.375057 73.232903 -12.421849 4294967295
53.380981 77.775612 -12.899753 4294967295
53.389065 72.264641 -12.26427 4294967295
53.393665 76.159126 -12.675775 4294967295
53.398811 72.592621 -12.264795 4294967295
53.399757 73.566345 -12.368443 4294967295
53.404774 71.945763 -12.171908 4294967295
53.416832 71.138664 -12.039158 4294967295
53.421143 72.762932 -12.202099 4294967295
53.437962 74.55381 -12.337733 4294967295
53.443359 73.744568 -12.229053 4294967295
53.448994 73.097557 -12.137348 4294967295
53.464359 77.159355 -12.527961 4294967295
53.471554 70.833252 -11.806014 4294967295
53.483036 76.776695 -13.032433 4294967295
53.492302 73.43792 -12.016851 4294967295
53.494991 77.429634 -13.060638 4294967295
53.508728 74.255501 -12.046875 4294967295
53.562042 75.185333 -12.569694 4294967295
53.586136 76.005379 -12.572068 4294967295
53.625744 71.638931 -11.947712 4294967295
53.628777 75.372604 -12.347172 4294967295
53.638206 71.156334 -11.849246 4294967295
53.657173 72.948784 -11.977242 4294967295
53.682076 76.787804 -12.922776 4294967295
53.687408 75.979195 -12.81451 4294967295
53.688187 76.141624 -12.829521 4294967295
53.698803 71.117455 -12.23868 4294967295
53.700397 77.605476 -12.945931 4294967295
53.704979 74.688492 -12.608728 4294967295
53.705494 73.61573 -11.87455 4294967295
53.706829 76.635162 -12.815907 4294967295
53.709518 73.130104 -11.806491 4294967295
53.715851 71.934746 -12.26649 4294967295
53.717781 75.666367 -12.669599 4294967295
53.731083 77.130943 -12.782108 4294967295
53.747177 73.406288 -12.314234 4294967295
53.759209 76.493034 -12.609655 4294967295
53.760101 72.43737 -12.160688 4294967295
53.763504 73.736763 -12.291129 4294967295
53.764511 74.2239 -12.341 4294967295
53.780544 76.987816 -12.586381 4294967295
53.786922 71.797737 -11.992758 4294967295
53.789539 73.259438 -12.143911 4294967295
53.80788 70.993431 -11.828069 4294967295
53.819462 72.945663 -12.000527 4294967295
53.821465 72.621727 -11.957627 4294967295
53.824314 74.895164 -12.19713 4294967295
53.825527 77.81633 -12.513698 4294967295
53.829159 71.488007 -11.804994 4294967295
53.847435 75.488869 -12.791934 4294967295
53.851604 74.418373 -12.045404 4294967295
53.865528 74.098839 -11.959611 4294967295
53.895222 75.34465 -12.602334 4294967295
53.927704 71.462364 -12.057655 4294967295
53.937565 72.277397 -12.111377 4294967295
53.951241 74.067551 -12.258347 4294967295
53.954082 77.31353 -12.604606 4294967295
53.960644 72.934921 -12.09972 4294967295
53.985229 72.132095 -11.922105 4294967295
53.988609 77.489113 -12.49835 4294967295
54.016598 76.623451 -12.914638 4294967295
54.016857 75.974976 -12.842491 4294967295
54.035622 77.603592 -12.953167 4294967295
54.038578 75.658852 -12.728873 4294967295
54.045914 73.128113 -11.810905 4294967295
54.046814 73.615585 -11.861193 4294967295
54.05014 72.804855 -11.76002 4294967295
54.06168 76.802864 -12.770593 4294967295
54.088486 72.594803 -12.211041 4294967295
54.095272 74.057747 -12.347097 4294967295
54.106297 75.846603 -12.50351 4294967295
54.107864 75.522713 -12.462248 4294967295
54.108376 76.17186 -12.531673 4294967295
54.108528 73.900337 -12.281646 4294967295
54.124191 73.419182 -12.171911 4294967295
54.1245 72.932373 -12.117302 4294967295
54.130562 75.044426 -12.32728 4294967295
54.141708 77.482498 -12.554519 4294967295
54.147526 71.317154 -11.856229 4294967295
54.147808 77.809334 -12.568245 4294967295
54.148125 74.564087 -12.210724 4294967295
54.149158 71.480095 -11.868196 4294967295
54.153168 75.377449 -12.281735 4294967295
54.16468 72.135071 -11.883777 4294967295
54.181393 71.004257 -11.69883 4294967295
54.18486 71.655083 -11.757735 4294967295
54.190407 74.904419 -12.094514 4294967295
54.226383 74.755432 -11.947476 4294967295
54.245647 71.616081 -12.145637 4294967295
54.270657 76.493248 -12.590408 4294967295
54.271168 72.112068 -12.107498 4294967295
54.280853 76.983833 -12.607262 4294967295
54.300236 74.23262 -12.234874 4294967295
54.314705 77.159081 -12.50365 4294967295
54.330143 73.269592 -12.020597 4294967295
54.356796 74.740486 -12.085388 4294967295
54.376068 72.961441 -11.820102 4294967295
54.378788 74.586273 -11.98865 4294967295
54.38789 75.076752 -12.009469 4294967295
54.393375 71.505806 -11.597428 4294967295
54.399307 75.990776 -12.680647 4294967295
54.411514 72.649353 -11.657201 4294967295
54.412361 73.461815 -11.74335 4294967295
54.41238 75.833496 -12.615989 4294967295
54.422585 71.942764 -12.151898 4294967295
54.438553 76.654556 -12.611202 4294967295
54.442158 71.625031 -12.046062 4294967295
54.444736 76.981384 -12.624659 4294967295
54.448502 70.977859 -11.952 4294967295
54.456093 74.87632 -12.352455 4294967295
54.469578 77.315407 -12.571257 4294967295
54.471596 76.342636 -12.457186 4294967295
54.474251 77.803947 -12.607915 4294967295
54.482731 71.152199 -11.847049 4294967295
54.485546 74.400307 -12.193427 4294967295
54.496098 73.267784 -12.030855 4294967295
54.497478 74.080032 -12.115004 4294967295
54.52037 75.549538 -12.193319 4294967295
54.526642 76.20121 -12.242104 4294967295
54.534157 71.495064 -11.698257 4294967295
54.541508 74.258553 -11.974981 4294967295
54.54253 76.953629 -12.878667 4294967295
54.552368 73.937767 -11.900394 4294967295
54.558937 72.640854 -11.734215 4294967295
54.57066 72.15773 -11.638666 4294967295
54.594925 77.298126 -12.72669 4294967295
54.621353 75.361183 -12.418461 4294967295
54.653488 72.938171 -12.036184 4294967295
54.65432 73.587883 -12.104481 4294967295
54.661854 77.48616 -12.504913 4294967295
54.686413 73.761932 -12.007335 4294967295
54.687897 71.001602 -11.699009 4294967295
54.690144 72.626564 -11.86923 4294967295
54.695362 71.329079 -11.707913 4294967295
54.707207 72.307831 -11.772447 4294967295
54.711536 74.095871 -11.952996 4294967295
54.71492 73.934715 -11.92305 4294967295
54.727257 77.121368 -12.839124 4294967295
54.730228 77.609085 -12.881853 4294967295
54.73217 71.666916 -11.61168 4294967295
54.734573 75.241112 -11.99522 4294967295
54.739353 75.503799 -12.617936 4294967295
54.752979 76.482338 -12.675962 4294967295
54.753586 72.811737 -11.659765 4294967295
54.760876 74.601242 -11.829745 4294967295
54.770916 73.467819 -11.669001 4294967295
54.778034 75.193718 -12.443962 4294967295
54.784119 76.331909 -12.546798 4294967295
54.806065 77.47612 -12.592874 4294967295
54.817154 76.669006 -12.464234 4294967295
54.819 76.020531 -12.386422 4294967295
54.821995 76.995422 -12.482512 4294967295
54.845768 71.971413 -11.845375 4294967295
54.854321 72.786491 -11.903849 4294967295
54.860207 76.847725 -12.328048 4294967295
54.876095 74.580734 -12.021905 4294967295
54.8778 77.341438 -12.318535 4294967295
54.878338 74.743942 -12.031693 4294967295
54.897751 71.502419 -11.605817 4294967295
54.906925 73.292686 -11.769039 4294967295
54.912029 75.406029 -11.982415 4294967295
54.939075 77.786247 -12.756301 4294967295
54.941971 73.142883 -11.625797 4294967295
54.985001 76.343437 -12.432114 4294967295
54.991459 75.371986 -12.302244 4294967295
55.015255 77.166496 -12.412978 4294967295
55.031284 74.899734 -12.106498 4294967295
55.037354 72.953186 -11.871077 4294967295
55.03883 72.628868 -11.830169 4294967295
55.047401 72.307053 -11.763882 4294967295
55.049545 76.692589 -12.237066 4294967295
55.061718 71.499825 -11.623589 4294967295
55.067345 74.588264 -11.941979 4294967295
55.075199 71.991997 -11.628837 4294967295
55.07988 73.780716 -11.808105 4294967295
55.081795 72.48175 -11.658712 4294967295
55.08276 76.315941 -12.685844 4294967295
55.083706 74.269432 -11.84787 4294967295
55.095737 73.461563 -11.71578 4294967295
55.098965 75.18618 -12.503477 4294967295
55.102135 73.138931 -11.657271 4294967295
55.104893 70.864899 -11.397858 4294967295
55.109863 74.76638 -11.807817 4294967295
55.117954 75.842407 -12.506841 4294967295
55.124603 75.520317 -12.447517 4294967295
55.128242 76.982262 -12.594616 4294967295
55.133129 74.874245 -12.345904 4294967295
55.135574 72.115181 -12.034575 4294967295
55.136112 71.790604 -11.99703 4294967295
55.136406 77.79673 -12.654409 4294967295
55.143097 73.254471 -12.132321 4294967295
55.147652 71.307465 -11.902382 4294967295
55.159134 73.42263 -12.092844 4294967295
55.165585 74.399185 -12.176608 4294967295
55.172096 74.076836 -12.117755 4294967295
55.184391 73.756554 -12.038242 4294967295
55.189987 77.168167 -12.392009 4294967295
55.190784 77.493118 -12.424747 4294967295
55.196339 76.845924 -12.333758 4294967295
55.202412 76.198837 -12.240903 4294967295
55.214203 71.168259 -11.646764 4294967295
55.241405 77.35022 -12.226277 4294967295
55.246643 77.676971 -12.243168 4294967295
55.266975 76.483421 -12.64859 4294967295
55.282532 72.817268 -11.580833 4294967295
55.310883 75.039185 -12.33191 4294967295
55.322227 72.770241 -12.042295 4294967295
55.364113 76.033142 -12.248775 4294967295
55.373417 70.83905 -11.645897 4294967295
55.375938 72.627007 -11.832802 4294967295
55.384106 73.92942 -11.946091 4294967295
55.393394 71.983368 -11.699266 4294967295
55.407032 74.26265 -11.899903 4294967295
55.409939 71.339226 -11.568968 4294967295
55.412518 73.289932 -11.77349 4294967295
55.417515 73.616669 -11.791276 4294967295
55.426437 75.99247 -12.628579 4294967295
55.440453 71.674934 -11.495678 4294967295
55.441963 74.437904 -11.793077 4294967295
55.44268 77.296761 -12.712905 4294967295
55.455631 77.463997 -12.684541 4294967295
55.457321 72.168457 -11.488918 4294967295
55.45747 73.143623 -11.595274 4294967295
55.458614 74.768967 -11.769287 4294967295
55.464764 76.980652 -12.598677 4294967295
55.469929 73.798157 -11.622059 4294967295
55.480106 76.17495 -12.455113 4294967295
55.484818 76.501366 -12.473897 4294967295
55.494343 73.481956 -11.499313 4294967295
55.497704 75.369858 -12.303484 4294967295
55.513714 75.8629 -12.299799 4294967295
55.515732 71.153854 -11.776535 4294967295
55.520073 74.566277 -12.134823 4294967295
