# .PCD v0.7 - Point Cloud Data file format
VERSION 0.7
FIELDS x y z
SIZE 4 4 4
TYPE F F F
COUNT 1 1 1
WIDTH 1559
HEIGHT 1
VIEWPOINT 0 0 0 1 0 0 0
POINTS 1559
DATA ascii
114.87505 79.228668 28.376755
116.85751 79.296379 28.220186
118.83269 79.637718 28.270992
121.07796 79.530624 28.087841
122.1217 79.61245 28.037676
101.3318 80.224052 29.895077
102.13525 80.219711 29.864704
105.03411 80.520493 29.787149
106.92745 80.872055 29.729959
109.01687 80.955826 29.484926
110.95288 81.062325 29.374529
112.92341 81.104202 29.135239
114.91653 81.134132 28.932714
116.90035 80.986259 28.629126
118.92857 81.086189 28.571167
120.80713 81.243385 28.400156
122.82255 81.094719 28.295084
124.63237 81.276016 28.145445
126.40092 81.339012 28.102793
107.34509 82.204971 29.938736
108.93633 82.694817 29.851557
110.9917 82.704781 29.736662
112.922 82.781578 29.63859
115.01075 82.953735 29.569799
116.94174 83.070801 29.336464
118.94685 83.077873 29.20594
120.94201 83.060104 29.001133
122.91424 82.883354 28.705763
124.91331 83.108871 28.581282
126.86279 83.076332 28.374481
128.95396 83.382599 28.28281
130.52568 83.312317 28.104717
113.54478 84.417976 29.903339
115.22315 84.47216 29.863771
117.03098 84.602211 29.798288
118.90146 84.78569 29.707842
121.02948 84.937202 29.621677
122.96602 84.986435 29.296452
124.96267 85.071579 29.215906
126.97618 85.07856 28.931389
128.95895 85.070465 28.738203
130.93777 84.973991 28.423012
132.9017 85.288139 28.301596
134.72081 85.504623 28.287121
136.67354 85.370644 28.082853
117.72806 86.648376 29.918739
119.3456 86.233231 29.82152
121.31146 86.661346 29.856686
123.1349 86.64856 29.74534
125.05045 86.820343 29.693485
127.07264 86.932709 29.553679
128.98378 87.020676 29.320503
130.94833 87.049652 29.123566
132.92099 87.056915 28.882061
134.9919 87.080849 28.665878
136.84286 86.998566 28.396704
138.77232 87.229057 28.289385
140.85954 87.402283 28.071348
142.75906 87.828018 28.17638
144.1851 87.999565 28.22488
127.24887 88.331566 29.844406
129.15918 88.322365 29.7099
131.06827 89.018875 29.741682
133.01457 88.938614 29.567549
135.00618 89.067162 29.261459
136.98717 88.966393 28.979359
138.9586 89.050522 28.72891
140.91272 89.02845 28.53159
142.80588 89.04364 28.340355
144.92871 89.18911 28.337643
146.92168 89.376099 28.205053
148.59114 89.48156 28.173119
150.21471 89.988045 28.259272
130.96631 90.227386 29.838493
133.26538 90.563889 29.792233
135.14633 90.639923 29.642502
137.02814 90.904411 29.593029
138.98 91.013832 29.477234
140.96518 91.051056 29.209026
143.01466 91.009109 28.958502
145.02277 91.062294 28.817455
146.9581 90.939896 28.493027
148.98335 91.032578 28.457397
150.97548 91.166702 28.34972
152.65744 91.483498 28.172943
155.13536 91.39241 28.207958
136.72153 92.487747 29.810446
139.03937 92.702911 29.746834
141.03506 92.846687 29.685415
143.04076 92.995148 29.496033
144.97479 93.064949 29.361128
147.00972 92.991539 29.251692
148.99298 93.129112 29.003111
151.00414 93.051643 28.850113
152.95569 92.907982 28.595121
155.00215 92.983833 28.429907
157.08513 93.139709 28.294605
159.03024 93.210884 28.224566
161.11821 93.364487 28.204283
162.47208 93.591927 28.174896
141.57446 94.240036 29.850687
143.41374 94.199158 29.894745
145.20396 94.62661 29.772627
147.00192 94.898308 29.65633
148.95946 94.932037 29.642946
151.04997 95.013557 29.467337
153.08406 94.977165 29.293703
155.02266 94.989647 29.0165
156.98331 95.011543 28.845428
158.98917 95.009773 28.601639
160.99855 95.159912 28.423338
162.99919 95.224739 28.281536
164.89153 95.140724 28.235008
166.88217 95.203125 28.160282
170.71918 95.602783 28.031384
148.97844 96.272392 29.665934
151.18146 96.391548 29.717978
153.08894 96.770882 29.716961
155.11458 96.838715 29.601538
157.06482 97.031036 29.524126
159.04997 97.079704 29.262131
161.06642 97.061836 29.060795
163.02278 97.012604 28.710331
165.01337 97.035217 28.535999
166.91273 97.216423 28.414164
168.9641 97.258636 28.33659
170.76276 97.234238 28.164566
172.69394 97.612282 28.204182
155.83411 98.22683 29.774168
157.4626 98.597725 29.851772
159.18861 98.650116 29.826338
161.08429 98.963791 29.603003
163.09167 99.016602 29.454691
165.08299 99.067093 29.304817
167.04688 99.077576 28.858065
169.08859 99.040146 28.765232
171.04875 99.025314 28.447569
173.14185 99.090492 28.360762
175.00446 99.377106 28.15576
176.93874 99.326324 28.084305
178.74535 99.457527 28.261292
180.39111 98.780258 28.117805
161.62744 100.64963 29.762226
163.34114 100.82201 29.803509
165.1866 100.76553 29.730505
167.0565 101.02118 29.538568
169.06232 101.03224 29.358934
171.06989 101.07216 29.12599
173.04987 101.06712 28.895895
175.03993 100.98455 28.686617
177.10197 101.04749 28.504578
179.09753 101.17646 28.362934
181.02452 101.05916 28.257645
182.8219 101.48311 28.322058
184.76717 101.47195 28.220161
165.66241 102.21398 29.92104
167.30049 102.61344 29.902102
169.28506 102.54747 29.748926
171.12328 102.86179 29.621363
173.12929 103.05695 29.534567
175.07675 103.02827 29.311424
177.08835 103.06287 29.161547
179.10841 103.06973 29.042641
181.05931 102.97432 28.777884
183.10155 103.0321 28.636108
185.07944 103.03171 28.482378
187.09261 103.06492 28.300215
189.05397 103.54717 28.26922
190.96574 103.60072 28.256948
192.82368 103.6123 28.129829
171.25192 104.24989 29.816334
173.30052 104.56789 29.918228
175.0078 104.68816 29.806738
177.16931 104.88628 29.741472
179.17809 104.99825 29.621126
181.08199 105.06303 29.497265
182.994 105.0004 29.246323
185.12065 105.05387 28.960962
187.13147 105.03239 28.787083
189.00566 105.09685 28.545565
191.05141 104.95341 28.417665
192.93555 105.3708 28.32309
194.91791 105.45831 28.214409
197.28255 105.95061 28.489775
199.67889 105.9972 28.216032
176.89566 106.21908 29.943192
179.54149 106.20414 29.874863
181.24361 106.51917 29.786118
183.2641 106.48407 29.744543
185.12949 106.91904 29.592463
187.0161 107.07378 29.459545
188.97061 106.96348 29.231472
190.97142 106.99656 29.019897
193.08412 107.03311 28.778755
195.11815 107.10548 28.593843
197.09004 107.13895 28.45689
198.94908 107.25124 28.231279
200.88768 107.30534 28.279165
183.496 108.45164 29.832375
185.56917 108.46399 29.941824
187.20712 108.63329 29.758995
189.09221 108.77151 29.774387
191.01662 108.86046 29.625273
192.99609 109.05685 29.414867
195.0457 109.10859 29.195639
197.09946 109.10255 28.897152
199.04688 108.94574 28.719118
200.99364 109.00116 28.57176
203.00037 108.95898 28.342161
204.619 109.13545 28.248346
206.79428 109.40323 28.176235
208.4444 109.54528 28.028421
210.90091 109.66077 28.001938
189.53516 110.24477 29.83399
190.98407 110.21359 29.882046
193.08954 110.3389 29.711941
195.0265 110.65677 29.691454
197.01826 111.08306 29.600996
198.93114 111.00509 29.42392
200.95032 111.01616 29.224369
202.96561 110.92136 28.877338
204.91095 111.01595 28.752964
206.96365 111.04099 28.520857
208.92468 111.09039 28.388994
210.95369 111.11774 28.346468
212.6424 111.38423 28.25069
214.65895 111.38081 28.129457
216.87315 111.4395 28.070873
197.0932 112.46223 29.989487
198.89365 112.6739 29.795837
200.9727 112.67877 29.753185
202.84503 112.95354 29.502577
204.93831 112.97192 29.403769
206.90401 113.13319 29.264627
208.90207 113.07671 28.967855
210.90733 113.06137 28.879181
212.93582 113.01094 28.69894
214.81793 113.02498 28.436735
216.79057 113.19551 28.308878
218.68326 113.54134 28.280231
220.65401 113.55835 28.259918
222.22682 113.22832 28.133629
201.99336 115.02871 29.998535
203.427 114.43849 29.822147
205.11452 114.68234 29.785316
207.14445 114.74751 29.697197
208.91495 114.88259 29.682026
210.94359 115.01712 29.536573
212.96907 115.07478 29.307619
214.98727 115.06401 29.027586
216.99434 115.0535 28.801655
219.00404 114.944 28.639612
220.9715 115.05563 28.468189
222.87888 115.20627 28.29558
224.93137 115.13039 28.148609
226.3465 115.69902 28.032742
207.22372 116.24599 29.873949
208.44025 116.25046 29.806698
211.02975 116.53688 29.712219
213.05608 116.62708 29.75457
215.03955 116.84446 29.594181
216.92073 117.03074 29.506285
218.9646 116.97963 29.245516
220.98241 117.11062 29.170147
222.9709 117.04734 28.828199
224.97682 116.97486 28.596989
226.95566 117.05324 28.366697
228.93011 117.09574 28.298223
230.83786 117.38105 28.19858
232.29594 117.60727 28.398813
214.80769 118.22783 29.89167
216.95111 118.72921 29.834602
218.98798 118.84879 29.808041
221.00781 119.01685 29.656542
223.02014 119.04257 29.478857
224.92313 119.04189 29.189087
226.95502 119.10424 29.038786
228.98651 118.99313 28.775898
230.97752 118.91811 28.545076
232.91516 118.94482 28.391031
234.92682 119.18869 28.31987
236.99506 119.5758 28.208782
238.87259 119.58827 28.086214
221.22513 120.4496 29.837646
223.3042 120.47189 29.826904
225.16733 120.84547 29.800358
227.07559 120.93789 29.636047
229.03354 121.07422 29.512318
230.98756 120.98135 29.148378
233.02269 120.96624 28.980036
235.04651 121.06506 28.805099
237.03978 120.96678 28.517252
238.93298 121.06968 28.353846
241.05536 121.13699 28.276003
242.81464 121.55784 28.311495
244.90681 121.70167 28.075933
222.08919 123.36664 28.920301
225.36128 122.22797 29.987797
227.22127 122.71786 29.886068
229.00995 122.44487 29.806684
230.97337 122.73878 29.640259
233.0923 123.0072 29.653811
235.05167 123.10061 29.43626
237.05936 123.02042 29.157028
239.10677 123.04356 28.989134
241.09341 122.93126 28.776899
243.10558 122.98375 28.64415
245.11377 122.93365 28.419598
247.03372 123.29951 28.378485
248.74277 123.40017 28.336189
250.77783 123.59054 28.140917
252.41653 123.68859 28.098471
217.27306 124.8438 29.762991
231.79884 124.24165 29.940834
233.17757 124.35681 29.975082
235.40202 124.57066 29.862411
237.16426 124.78055 29.720398
239.11647 124.99394 29.586195
241.06149 124.9773 29.448343
243.05453 125.09985 29.329241
245.10458 124.98969 29.100197
247.12157 125.11191 28.871031
249.09819 125.10646 28.641108
250.99892 125.00102 28.428118
252.93506 124.996 28.256538
254.78827 125.34264 28.18651
256.47995 125.64745 28.365646
239.48221 126.24288 29.898106
241.29016 126.55978 29.802208
243.19669 126.59504 29.704273
245.09485 126.80423 29.679274
247.11276 127.04389 29.588518
249.03094 127.07957 29.348856
251.03036 127.1146 29.083975
253.19394 126.98589 28.769638
255.09691 126.96366 28.570385
256.53226 126.99573 28.478371
247.17598 128.49831 29.942812
249.11363 128.80623 29.782135
251.03642 129.02382 29.6887
252.95256 129.02263 29.51136
255.03781 129.03868 29.249691
256.77417 128.99959 29.2763
251.95433 130.85468 29.96796
253.63013 130.73558 29.797224
255.01936 130.76866 29.792511
256.4718 130.76874 29.659428
255.95189 132.28157 29.890182
256.53027 132.5014 29.814295
96.582825 77.364479 30.118286
98.587463 77.49649 30.032322
95.802139 78.738739 30.574068
96.927887 79.011841 30.459511
98.938217 79.094872 30.23875
100.90382 79.345695 30.169245
102.99115 79.499832 30.098295
104.20184 79.285378 30.045084
95.81147 80.803841 31.012991
97.025032 81.045364 31.083374
98.983261 80.983742 30.820614
100.96744 81.024086 30.57715
103.01513 80.948776 30.428509
104.93308 81.190338 30.207941
107.09049 81.426239 30.290298
108.21936 81.652611 30.31012
110.63061 80.857338 30.036808
95.851364 82.892227 31.704584
97.166008 82.911247 31.647366
99.138756 82.980247 31.525686
101.05812 83.046577 31.304506
103.02246 82.958984 30.983395
105.01685 82.981873 30.688921
106.9828 82.907021 30.503525
108.9845 83.12838 30.28302
110.89771 83.500435 30.221886
113.05576 83.333755 30.191084
114.60502 83.447807 30.041702
95.836258 84.319458 31.832664
97.846764 84.301155 31.783855
99.24231 84.617798 31.887936
101.18518 84.829918 31.770592
103.09586 84.93351 31.492332
105.03791 85.028549 31.342848
107.02274 84.998299 31.0762
109.01452 84.910583 30.848276
111.0042 84.867584 30.611582
112.94501 85.000084 30.419886
114.86792 85.220779 30.312452
116.94646 85.271805 30.240511
119.18304 85.484062 30.120884
120.43702 85.671509 30.222019
101.85072 86.291458 31.90584
102.69598 86.548683 31.803202
105.08685 86.632072 31.762117
107.10786 86.799995 31.677202
109.09902 86.946045 31.439182
111.0342 86.975571 31.241922
113.01585 86.998672 31.063334
115.06753 87.138626 30.879234
116.97496 86.958084 30.674257
118.9937 87.018105 30.55122
120.87521 87.087074 30.440147
122.91736 87.28035 30.310308
124.87338 87.315353 30.094231
126.38531 87.540619 30.190374
107.58004 88.702827 31.928406
109.06042 88.457382 31.872484
110.98848 88.970985 31.695545
113.04464 88.829285 31.687174
115.06175 88.921425 31.509876
117.07575 89.009102 31.363117
119.05708 89.03511 31.175535
121.0405 89.048759 30.902431
122.99126 89.005791 30.697262
125.01882 89.034081 30.50872
127.03509 89.10746 30.364502
128.96582 89.174416 30.191568
130.51854 88.764763 30.081343
133.06319 89.68959 30.120495
134.29166 89.263222 30.081543
113.02981 90.611427 31.785913
115.05505 90.312904 31.74725
117.33066 90.790573 31.809118
119.05773 90.98291 31.726351
121.077 91.108109 31.573347
123.07133 91.010086 31.243731
125.10892 91.065697 31.105507
127.03165 91.108185 30.963245
129.00688 90.928513 30.688663
131.0304 91.056717 30.408035
132.92384 91.086754 30.273376
134.8912 91.279289 30.197947
136.86026 91.6008 30.17815
139.47235 91.710526 30.02807
119.0736 92.275948 31.959358
121.63467 92.377502 31.954477
123.20647 92.777954 31.790447
125.15554 92.956909 31.660469
127.09765 93.092491 31.616762
129.1378 92.987877 31.296171
131.04189 93.020493 31.091927
133.07797 92.949989 30.847034
135.02847 92.898636 30.632965
137.10663 93.08004 30.426401
138.9682 93.298134 30.219793
140.91689 93.524574 30.179354
142.6721 93.446167 30.119871
145.52911 93.26355 30.119684
127.41399 94.5924 31.891598
129.14473 94.473877 31.78297
131.12782 95.018593 31.665779
133.06288 95.002113 31.485769
135.1035 95.013016 31.19978
137.03362 94.961441 31.026114
139.01736 94.938606 30.744923
141.01112 94.99054 30.568909
143.03436 95.031006 30.332388
144.96501 95.111992 30.215166
147.08211 95.375603 30.20088
149.62659 95.587555 30.064363
150.73474 95.670593 30.198238
131.26395 96.524139 31.799213
133.2531 96.478844 31.854221
135.19197 96.787453 31.685097
137.21782 96.933685 31.590729
139.1158 96.975975 31.426687
141.05446 96.991417 31.14887
143.05405 96.913422 31.04307
145.06677 96.934036 30.754173
147.09952 96.937698 30.491617
149.1129 96.978165 30.37508
151.08363 97.143257 30.336004
153.01683 97.348946 30.215715
154.92749 97.495522 30.175627
137.28558 98.409233 31.827248
139.3338 98.555862 31.725422
141.18422 98.904633 31.646568
143.1544 98.929688 31.544811
145.14578 98.978264 31.414707
147.08635 98.968567 31.222265
149.09549 98.943275 31.079714
151.01947 98.948097 30.86474
153.08438 98.859917 30.700935
155.05258 98.978142 30.377504
156.89178 99.14463 30.305672
159.01285 99.279907 30.19335
160.93082 99.719742 30.125206
162.74658 99.724762 30.020636
143.43169 100.44437 31.813643
145.05943 100.65833 31.775696
147.17093 100.69484 31.63312
149.17091 100.92783 31.607956
151.20686 100.98129 31.400114
153.13522 100.93394 31.214979
155.16539 100.97933 30.952888
157.1658 101.05217 30.863411
159.13184 101.01901 30.627356
161.05562 100.98206 30.377348
162.94363 101.04694 30.243193
164.97182 101.35348 30.207527
167.56438 101.71866 30.10306
149.93576 102.48315 31.892426
151.38461 102.61182 31.893677
153.08501 102.62256 31.621847
155.05612 102.88609 31.517456
157.11107 103.1272 31.487494
159.10722 103.0324 31.294888
161.13922 103.00182 31.086149
163.0988 102.93369 30.754459
165.11894 102.978 30.606321
167.04457 103.06899 30.340458
168.94592 103.26302 30.254581
170.89186 103.41844 30.243664
172.39418 102.92102 30.040842
176.05388 103.29324 30.023956
155.53191 104.18424 31.744263
157.18877 104.25762 31.895571
159.15721 104.81056 31.810244
161.10585 104.96693 31.597647
163.12599 105.00944 31.470432
165.06462 104.9724 31.262306
167.10847 105.00636 30.952061
169.16333 104.92835 30.730377
171.08281 104.98104 30.480568
173.0152 105.21537 30.335682
175.22963 105.29528 30.238241
176.9697 105.64472 30.131435
178.37857 105.75306 30.051613
180.45024 105.69986 30.14374
158.28503 107.13636 31.952505
163.3141 106.95297 31.822451
165.23473 106.6929 31.736845
167.06232 106.87232 31.553955
169.01662 107.05337 31.392973
171.09151 106.97267 31.192986
173.04324 106.96362 30.954277
174.95662 106.97851 30.720957
176.93182 107.05395 30.576015
178.90834 107.03497 30.457788
180.99644 107.16922 30.317108
182.88919 107.31346 30.21171
184.51421 107.45133 30.140879
166.88814 108.58546 31.825623
169.01079 108.57754 31.882523
171.08682 108.88529 31.729069
173.11517 108.8971 31.485413
175.09406 109.00531 31.344465
177.02936 109.10996 31.240583
178.93649 108.97927 31.012156
181.01215 108.90034 30.821293
182.93594 109.13218 30.730843
184.80727 108.90341 30.385063
186.81087 109.14279 30.265085
188.82234 109.23765 30.199757
190.776 109.72033 30.170561
171.74751 110.53987 31.794018
172.97964 110.51846 31.817232
175.10394 110.71467 31.764544
177.0562 110.88307 31.701872
179.0045 110.93976 31.605236
180.85626 111.02548 31.48583
182.85202 110.95509 31.306852
184.86092 110.86384 30.97216
186.86014 110.97583 30.789263
188.93881 111.04495 30.595604
190.99312 110.98613 30.464005
192.80116 111.06515 30.224566
194.75513 111.45422 30.183895
196.07474 111.74818 30.114485
175.98364 112.30305 31.98156
179.21709 112.31268 31.807007
180.90352 112.69234 31.861429
183.02193 112.83994 31.709721
184.9268 112.90549 31.637442
186.90408 113.0088 31.497063
188.91785 113.02723 31.204136
190.9017 113.03483 31.07028
192.84337 112.90013 30.76601
194.87376 112.89008 30.541084
196.83754 112.99353 30.354443
198.82635 113.18328 30.209911
200.7747 113.36436 30.208887
202.10138 113.75885 30.089247
205.3754 113.74059 30.016266
185.23332 114.45405 31.802498
186.9577 114.66393 31.783049
189.13531 114.44068 31.594519
191.08905 114.96025 31.606241
192.95724 114.95813 31.401081
194.89703 114.96061 31.17873
196.88704 114.9757 31.039335
198.91518 114.95126 30.751793
200.90794 114.95236 30.500914
202.88121 114.98746 30.320471
204.85463 115.07919 30.230131
206.73466 115.35311 30.130398
208.96513 115.42685 30.019867
210.63173 115.71323 30.168533
191.48138 116.30812 31.831577
192.99243 116.80461 31.84684
194.94136 116.63951 31.687893
196.97997 117.00921 31.627556
198.90402 117.04267 31.378368
200.90814 117.03751 31.17248
202.90211 117.01131 30.922329
204.92775 116.96063 30.732473
206.94907 117.00777 30.605478
208.94092 117.00941 30.350943
210.84352 117.29174 30.249714
212.86247 117.36747 30.218964
214.69061 117.59905 30.181633
217.86534 117.74716 30.014347
197.31152 118.56464 31.923653
199.00148 118.59574 31.790295
200.89622 118.97085 31.752226
203.01862 118.98779 31.567829
204.97928 119.0002 31.416981
206.96953 119.04929 31.286007
208.95999 118.93448 31.060476
210.98582 118.95307 30.93005
212.9818 118.92606 30.630493
214.99361 119.08665 30.359203
216.94447 119.29355 30.206751
218.97304 119.40105 30.202545
220.22424 119.76071 30.134525
222.27406 119.75282 30.08202
202.9395 120.4352 31.921721
205.03058 120.74561 31.849337
207.183 120.91648 31.757675
209.1046 120.92959 31.501669
211.0444 121.02965 31.477949
213.02739 121.02431 31.253777
214.98589 121.00617 30.974609
216.99326 120.9745 30.715052
218.98396 120.99178 30.570841
220.95285 121.05573 30.349943
222.98306 121.06947 30.318241
224.8293 121.23342 30.172873
226.8636 121.43391 30.117031
207.28171 122.7543 31.83585
209.74361 122.73701 31.806742
211.06828 122.44757 31.809067
213.1853 122.89702 31.851681
215.09082 122.98933 31.568748
217.04108 123.01816 31.444311
218.98393 122.80506 31.188833
221.02217 122.47935 30.774929
223.0726 122.46967 30.619322
225.10675 122.89581 30.532988
226.96823 123.04937 30.36137
229.06783 123.24578 30.228771
231.20706 123.21029 30.138895
232.88739 123.35667 30.122337
214.84776 124.72076 31.921625
216.87361 124.8116 31.693043
225.76236 124.45954 30.922754
227.06334 125.06143 30.941929
229.05128 124.9338 30.746021
231.04466 124.98088 30.623899
233.08907 125.03137 30.394941
235.00989 125.11552 30.222418
236.92264 125.58206 30.154255
238.89098 125.65493 30.064882
217.07921 126.19259 30.92782
227.3065 127.08468 31.625801
229.12927 126.97478 31.361532
231.08714 127.02814 31.254063
233.08099 126.91174 30.93145
235.08276 126.88552 30.707003
237.04706 126.99191 30.525436
239.10527 127.02545 30.360018
241.03241 127.08157 30.213507
243.00214 127.2961 30.189253
244.9843 127.69756 30.141397
246.43718 127.79289 30.038378
226.84396 128.5437 31.851091
229.39877 128.97736 31.877974
231.33936 128.85236 31.71867
233.14516 128.95251 31.60582
234.9839 128.92966 31.372183
237.07497 128.98076 31.211859
239.09541 128.94647 30.997011
240.99379 128.97133 30.807936
242.95996 128.84903 30.620522
245.0105 128.9866 30.452263
246.99988 129.05853 30.296724
248.87148 129.25273 30.160921
250.04344 129.78539 30.188284
252.89145 129.80457 30.01104
224.78336 130.46484 31.654106
232.51208 130.32462 31.940189
235.12822 130.3604 31.705988
236.95834 130.63795 31.630407
239.10526 130.79874 31.618187
240.99864 131.02466 31.506054
242.90242 130.93544 31.331701
244.95607 131.0394 31.119375
246.92477 131.01118 30.828367
248.95815 130.88882 30.621109
250.93111 130.95227 30.436087
252.93622 131.05609 30.298153
254.96956 131.48036 30.19883
256.94257 131.28004 30.234638
239.11922 133.13847 31.985615
240.93468 132.52975 31.888906
243.05148 132.62703 31.839655
244.86116 132.83644 31.718031
246.92451 133.04193 31.49592
248.87184 132.99818 31.280365
250.99394 132.98428 30.987911
253.01338 132.94456 30.844202
254.90111 132.94308 30.578369
256.82126 133.0873 30.670189
245.15939 134.76083 31.877264
247.33282 134.83571 31.77981
249.06018 134.72693 31.788193
251.03398 134.95052 31.672697
252.97583 134.97211 31.5326
254.91954 134.97736 31.232573
256.65292 134.9426 31.15275
253.14467 136.62086 31.858366
255.19075 136.88115 31.806196
256.37781 136.99042 31.64394
257.10959 139.2567 31.591181
257.12979 140.20314 31.921844
95.985062 81.570457 32.559673
95.88987 83.791847 32.175991
96.812325 83.435677 32.115845
98.497795 83.785889 32.055466
95.910934 85.131416 32.58279
97.073326 84.981667 32.441299
99.010262 85.197945 32.372917
100.96857 85.245132 32.173756
102.95077 85.369736 32.117149
104.71224 85.774498 32.070511
95.783096 86.869728 33.254841
97.096367 86.925385 33.063255
99.133072 87.008041 32.873722
101.0799 86.970123 32.571629
103.25376 87.153786 32.503067
105.07427 87.405952 32.298374
107.0184 87.515823 32.188526
108.30021 87.803627 32.093552
95.900238 88.768867 33.682117
97.178772 88.873772 33.570362
99.179146 89.051033 33.484249
101.13433 88.964645 33.211468
103.17252 88.9869 33.032982
105.09162 88.964836 32.724358
107.03003 89.028229 32.445877
109.10819 89.21833 32.366039
111.18241 89.241737 32.166904
113.21215 89.445091 32.115749
115.12578 89.779175 32.122002
95.942696 90.413445 33.769711
97.557045 90.385307 33.77951
99.512917 90.606117 33.869259
101.32809 90.763725 33.716282
103.10928 90.990913 33.565311
105.07713 91.030602 33.380112
107.1703 90.917023 33.071854
109.11706 90.988617 32.883869
111.12361 90.932686 32.65963
113.07505 91.09565 32.442181
115.12302 91.044823 32.361317
116.9151 91.222183 32.196823
119.20553 91.300728 32.182186
123.5872 91.714401 32.204727
124.36568 91.762619 32.005882
105.40192 92.7621 33.807911
107.17081 92.893974 33.685368
109.19482 92.994278 33.513321
111.15045 92.975693 33.254658
113.15605 92.96405 33.023815
115.08917 93.044678 32.946598
117.14379 92.91114 32.721092
119.13046 92.987267 32.483807
121.01558 93.095924 32.394947
123.01566 93.18782 32.253239
124.7336 93.494026 32.137314
109.1657 94.708946 33.853809
111.40453 94.680328 33.721981
113.14243 94.89753 33.664967
115.10609 95.014275 33.49551
117.05938 94.965736 33.393482
119.08176 95.059296 33.239826
121.07931 94.998886 32.972672
123.14548 94.928467 32.655994
125.1573 95.00029 32.476833
127.03532 95.128677 32.391529
129.09286 95.288635 32.202858
131.15408 95.390106 32.110588
133.56419 95.792503 32.042141
112.76784 96.369919 33.9328
115.49837 96.606094 33.845898
116.89717 96.737648 33.75507
118.92054 96.86158 33.792633
121.02094 96.879768 33.538998
122.98666 97.010818 33.379345
124.94202 96.964478 33.114738
127.12078 96.909752 32.976135
129.15182 96.939117 32.614445
131.13924 97.003555 32.483292
133.08411 97.253784 32.353489
134.97739 97.563606 32.255016
136.60484 97.697327 32.036366
120.59128 98.353439 33.890549
123.22987 98.858612 33.815807
124.98217 98.883049 33.633884
127.05396 98.924202 33.509281
128.97964 98.977394 33.336388
130.95917 99.035156 33.081619
133.0656 98.871819 32.881561
135.05783 99.012566 32.522232
137.10617 99.126755 32.349457
139.00488 99.272354 32.33012
140.94011 99.317299 32.146538
142.39297 99.765106 32.287895
144.81154 99.768013 32.161919
125.57467 100.78104 33.89304
127.1187 100.67599 33.894791
128.81691 100.56262 33.83955
130.92604 100.95273 33.593472
132.94447 100.89944 33.517345
134.96199 100.99795 33.225574
137.09477 100.91709 32.933994
139.08582 100.89191 32.696743
141.11957 100.99311 32.533665
143.06969 101.14823 32.298492
145.14024 101.23302 32.212711
146.92119 101.44614 32.152397
148.70499 101.58578 32.174278
150.43539 101.75993 32.210594
131.1844 102.64562 33.893269
133.30774 102.66197 33.857239
135.27188 102.65712 33.698807
137.03662 102.78796 33.490669
139.11519 102.95425 33.429787
141.05066 102.93189 33.149857
142.98428 102.9771 32.83765
144.94365 102.99639 32.76342
146.94662 102.91573 32.537605
149.04497 103.01743 32.478104
151.10526 103.17144 32.257778
153.0334 103.16333 32.276337
154.24873 103.48782 32.104359
156.45715 103.76301 32.203568
138.92805 104.71055 33.857475
141.02145 104.63081 33.635139
143.01668 105.04714 33.582115
144.95529 104.92409 33.375599
147.06981 104.9415 33.132347
149.09952 104.96107 32.97897
151.08549 104.89219 32.669781
152.94612 105.06457 32.683563
154.99258 104.9736 32.344715
157 105.13808 32.348251
158.72563 105.33126 32.192532
160.71368 105.78512 32.212059
139.97957 106.00131 33.861313
141.58057 106.40775 33.819397
143.50253 106.59194 33.815044
145.03191 106.71309 33.867954
146.92332 106.67779 33.60107
149.02907 106.89098 33.653027
150.85416 106.98431 33.50692
152.88692 106.98631 33.328484
154.88684 106.89335 32.967815
156.92171 106.94143 32.897186
158.90536 106.93344 32.643684
160.88408 106.94916 32.498184
162.73088 107.09779 32.275467
164.79941 107.19369 32.191032
166.88411 107.77251 32.255829
149.22411 108.4808 33.852135
151.18312 108.56705 33.827396
153.03571 108.86819 33.781013
154.93857 108.89083 33.562508
156.93333 108.88425 33.535656
158.90691 108.995 33.332092
160.89177 108.96941 33.057377
162.90166 108.99624 32.810474
164.8941 108.925 32.565304
166.86455 109.09805 32.397167
168.82861 109.08217 32.295929
170.63971 109.37695 32.293312
172.79794 109.59465 32.161865
174.12253 109.77951 32.185253
155.03653 110.09518 33.756218
157.08286 110.60004 33.715157
158.88754 110.81519 33.821915
160.97522 110.95141 33.741291
162.8542 110.9984 33.522335
164.86932 110.93657 33.241425
166.85429 110.98493 32.980255
168.86368 110.9353 32.738583
170.86754 110.98043 32.487976
172.90448 111.18192 32.381226
174.66676 111.26933 32.242188
176.54488 111.4033 32.211796
178.6871 111.47701 32.152382
180.97304 111.38308 32.092682
183.47478 111.6957 32.356083
161.13658 112.23914 33.858685
163.22258 112.54012 33.741703
164.96883 112.6154 33.714531
166.94363 112.88626 33.53928
168.90842 112.94568 33.449486
170.86613 112.95235 33.191299
172.88127 112.91444 32.907215
174.91891 112.98219 32.747551
176.91631 113.00684 32.52335
178.88245 113.0188 32.395626
180.90271 113.13963 32.330765
182.69872 113.32985 32.295361
184.68433 113.5377 32.145824
186.19327 113.77362 32.230186
166.62202 114.36384 33.934307
168.99197 114.51009 33.80407
171.05843 114.75661 33.656685
172.93909 114.95746 33.5522
174.86667 115.04359 33.372032
176.91286 114.8775 33.13493
178.92897 114.95932 33.087982
180.94623 114.98905 32.8941
182.94083 114.9413 32.646736
184.87708 115.07124 32.433788
186.88895 115.21639 32.27578
188.86047 115.29694 32.165741
190.62906 115.47693 32.095753
192.18741 115.81853 32.08115
171.05301 116.02298 33.735718
173.21454 116.70266 33.887058
175.05687 116.75303 33.792049
176.92316 116.8186 33.672749
178.99002 116.9164 33.631065
180.98645 116.98608 33.436913
182.97552 116.94213 33.245171
184.97679 116.9497 32.969963
186.9425 116.94106 32.743439
188.9359 116.98099 32.512772
190.89302 117.07061 32.366714
192.9216 117.1488 32.268105
194.93359 117.57264 32.165726
196.78197 117.83783 32.083839
179.23938 118.47002 33.836761
180.95537 118.49496 33.82906
183.13046 118.68583 33.667809
184.89861 118.74806 33.496223
186.97983 119.02951 33.442471
188.92801 118.93552 33.119431
190.97823 118.90395 32.976059
192.97203 118.94391 32.745571
194.97807 118.9715 32.561104
196.9207 119.07771 32.36636
198.92479 119.3739 32.237476
201.15221 119.48691 32.189941
202.63164 119.82217 32.166706
204.70232 119.78841 32.211342
184.944 120.5835 33.898739
186.79233 120.72007 33.77774
189.08879 120.75684 33.704491
191.06474 120.71766 33.575558
193.01004 120.83834 33.397377
194.99969 120.95331 33.231487
197.02693 120.94964 32.997791
199.01041 120.94016 32.774479
200.99481 120.99021 32.506317
203.00102 121.10658 32.342239
204.95229 121.32047 32.217747
206.79117 121.28711 32.149593
208.57948 121.52344 32.145874
211.10876 121.83092 32.057274
191.66211 122.63551 33.947784
193.22427 122.43985 33.758358
195.15411 122.81791 33.729424
197.07492 122.95471 33.591297
199.02019 122.94872 33.343159
201.06331 122.93023 33.166344
203.02747 122.92471 32.928852
205.00946 122.97696 32.65234
207.01628 123.00527 32.532467
208.99599 123.04383 32.308285
211.04893 123.22884 32.287731
212.91652 123.27819 32.200932
214.81219 123.63338 32.134979
217.16354 123.43613 32.008881
193.74199 124.01318 33.860111
199.13594 124.4588 33.793758
201.04195 124.72607 33.681965
203.08176 124.95579 33.565926
205.08318 124.97541 33.414799
207.03358 125.044 33.247276
209.01701 124.92619 32.943527
211.06779 124.95837 32.741714
213.08638 124.97723 32.592781
215.10626 125.06484 32.395725
216.89612 125.16605 32.251286
218.41418 124.18533 32.259369
201.81068 126.00972 33.810974
203.42769 126.40685 33.810318
205.07622 126.7745 33.789555
207.10388 126.78354 33.713623
209.17459 126.88591 33.586185
211.09212 126.88164 33.470371
213.09134 126.96235 33.205666
215.04874 126.95061 33.055332
216.87781 126.95802 32.85009
226.79707 127.44642 32.113426
228.2265 127.83382 32.160492
206.21457 128.20383 33.933689
209.65408 128.80496 33.876175
211.25166 128.49971 33.804119
212.96909 128.68146 33.744431
215.05733 128.88504 33.570068
217.01054 128.88551 33.376339
218.3179 129.67264 33.394485
225.76572 129.59518 33.438725
227.05455 129.12852 32.450687
228.84901 129.11964 32.251667
230.8132 129.28484 32.100487
232.86423 129.43315 32.19416
215.89862 130.22461 33.741116
217.29442 130.55843 33.768467
219.09142 130.99779 33.693157
220.76982 131.44495 33.795113
223.01729 131.55135 33.745216
225.10046 131.05777 33.252148
226.95377 130.93773 33.040489
229.01036 130.99245 32.745197
231.0424 130.9641 32.452801
233.07681 131.18456 32.419552
234.92691 131.16861 32.208008
236.90269 131.48679 32.208027
238.6881 131.5867 32.090664
240.09908 131.85744 32.136612
218.88144 132.02779 33.833008
221.23643 132.25491 33.784508
223.29556 132.56239 33.823483
225.11288 132.68776 33.692024
227.03343 132.77019 33.64328
228.94046 132.82205 33.415054
230.89796 132.9882 33.285366
232.90604 132.92725 32.986546
234.92506 133.08107 32.742348
236.94066 132.99666 32.562485
238.91595 132.99809 32.420628
240.87726 133.25974 32.36002
242.79378 133.30113 32.1824
244.8699 133.61969 32.13464
246.13982 133.48468 32.013523
227.99232 134.02553 33.763313
228.99298 134.41371 33.823772
230.90346 134.74796 33.755047
232.92578 134.92143 33.636383
234.86948 134.95207 33.447655
236.89195 134.90497 33.173557
238.8896 134.99754 33.063488
240.92075 134.98904 32.827335
242.9377 134.97395 32.688332
244.90038 135.03438 32.517181
246.8844 135.16295 32.337105
248.98553 135.61377 32.257935
250.71436 135.72025 32.144753
252.83911 135.66035 32.152367
257.15326 135.85558 32.056099
233.30542 136.52069 33.891331
235.23956 136.3985 33.756039
236.9782 136.74373 33.786373
238.94096 136.84991 33.624866
240.91985 136.86372 33.505131
242.89615 136.94098 33.319263
244.90952 136.96986 33.13636
246.93268 136.97099 32.87204
248.91774 137.02115 32.601959
250.94083 137.04355 32.445175
252.93886 137.12738 32.34441
254.7372 137.26476 32.195011
256.83774 137.16858 32.3074
237.62065 138.41786 33.976139
238.44263 138.0314 33.850594
241.10007 138.34525 33.828865
242.9241 138.52138 33.747494
245.02542 138.75208 33.638062
246.94693 138.92905 33.466942
248.93927 138.96227 33.267326
250.98282 138.9371 33.111813
252.98717 138.97354 32.898338
254.97504 139.0219 32.635715
256.57718 139.05211 32.460091
244.09967 140.01935 33.945621
247.364 140.29073 33.856903
248.99026 140.60718 33.763321
250.93825 140.72235 33.660862
253.02414 140.8707 33.550026
255.01521 140.91681 33.296993
256.7146 141.04057 32.906658
250.12109 142.04286 33.882423
253.40117 142.56152 33.906742
255.17299 142.62091 33.784813
256.76862 142.90752 33.500801
257.23077 144.9353 33.575157
257.255 146.07104 33.971958
95.621796 89.232086 34.23317
96.576195 89.448853 34.159023
98.41922 89.650345 34.089142
95.709236 90.903168 34.691284
96.896561 91.091423 34.489933
98.751999 91.234428 34.293362
100.60444 91.438599 34.283859
102.61292 91.769592 34.123791
95.702431 93.010445 35.553242
96.845512 93.038818 35.015121
98.849007 92.95285 34.891739
100.87155 93.032219 34.579407
102.84653 93.038933 34.346416
104.72279 93.314865 34.291
106.82402 93.749893 34.270611
108.41234 93.687256 34.051758
96.977226 94.760429 35.697735
98.945122 94.915688 35.515568
100.86692 94.902702 35.24828
102.8466 94.958961 34.961384
104.88039 94.967613 34.723595
106.89407 95.069588 34.445412
108.85864 95.195717 34.358624
110.78449 95.371887 34.170086
113.07558 95.530075 34.218201
96.067825 96.065552 35.781067
99.130203 96.344688 35.813984
101.02923 96.578407 35.709976
102.86567 96.840614 35.586407
104.82635 96.981697 35.385529
106.89033 96.976799 35.150436
108.83562 96.993759 34.834843
110.83223 97.015175 34.664703
112.87335 97.091629 34.47538
114.89307 97.115868 34.309273
116.97559 97.327805 34.174324
118.74081 97.611015 34.14312
121.04761 97.862129 34.122177
124.07495 97.844353 34.035664
101.28181 98.034439 35.912323
103.27084 98.528992 35.786022
104.87605 98.609489 35.729809
107.06582 98.78582 35.611347
108.90392 98.893288 35.455372
110.87567 98.897713 35.345516
112.87392 98.916885 35.183578
114.85268 98.974251 34.892105
116.8886 98.980705 34.662437
118.88025 99.053169 34.547115
120.86272 99.110405 34.385094
122.5547 99.263725 34.243843
124.63238 99.789169 34.127926
126.17535 99.624763 34.022556
107.26721 100.46467 35.853062
108.91722 100.33277 35.751495
110.96812 100.54353 35.712734
112.97264 100.78889 35.68346
114.90182 100.8924 35.50774
116.86826 100.95824 35.350979
118.88298 100.91716 35.176292
120.87562 100.94939 34.970524
122.94125 100.96737 34.65107
124.89656 101.08794 34.562943
126.83585 101.1581 34.378326
128.89479 101.41284 34.325428
130.72374 101.80267 34.193371
132.07059 101.86064 34.169453
113.45619 102.68997 35.772835
114.82655 102.56466 35.903816
116.85935 102.54977 35.739994
119.02285 102.60941 35.665569
120.94082 102.83779 35.572136
122.88923 102.90543 35.306152
124.89363 102.91776 35.169556
126.92737 102.93011 34.920387
128.91515 103.01328 34.770309
130.90546 103.11142 34.456104
132.90819 103.16508 34.369205
134.75636 103.25977 34.194168
136.75275 103.65079 34.237133
138.79366 103.67706 34.293045
119.30565 104.21496 35.979473
121.55886 104.5857 35.78912
123.02368 104.44887 35.716454
124.90945 104.79805 35.672264
126.93198 104.85983 35.552746
128.90564 104.98414 35.349869
130.89061 104.94363 35.076653
132.89973 104.99641 34.967384
134.87666 105.01096 34.656693
136.87692 105.03397 34.484222
138.81277 105.26122 34.245548
140.90233 105.57344 34.156334
142.87103 105.70178 34.053493
144.89011 105.89421 34.015743
146.17015 105.40306 34.223167
125.2743 106.47837 35.777706
127.57336 106.44631 35.787422
129.00034 106.60418 35.832066
130.97839 106.71899 35.647907
132.9231 106.9006 35.529713
134.89168 106.96111 35.273628
136.88646 106.9715 34.976456
138.87627 107.01051 34.748272
140.84183 107.06821 34.577599
142.81084 107.11821 34.456539
144.82225 107.35734 34.262218
146.77621 107.39402 34.188992
148.52284 107.84371 34.30521
151.36664 107.04166 34.074371
131.10388 108.05132 35.823788
133.04726 108.57684 35.835278
135.02376 108.43587 35.757462
136.98512 108.76685 35.632935
138.90637 108.91548 35.353157
140.90846 108.93631 35.189846
142.90056 108.97242 34.972252
144.91228 108.98042 34.854305
146.89633 109.02909 34.591873
148.90048 109.11189 34.544548
150.84988 109.22155 34.353382
152.68173 109.26269 34.309967
157.57635 109.64985 34.126888
159.01881 109.80926 34.236855
137.73117 110.42395 35.944572
138.96547 110.33016 35.780464
140.9836 110.78474 35.724571
142.96149 110.84858 35.555378
144.9337 110.89761 35.416954
146.92043 110.94196 35.169975
148.94185 110.93791 35.096615
150.93813 110.97006 34.89378
152.92392 111.0167 34.638508
154.92403 111.07626 34.460888
156.82309 111.25412 34.404472
158.95181 111.48825 34.307549
160.67366 111.62264 34.110199
139.66052 112.50092 35.838657
141.73764 112.02101 35.989662
143.5349 112.24165 35.863091
144.98344 112.442 35.825481
147.01263 112.61551 35.693226
148.98579 112.77782 35.665482
150.96638 112.9155 35.586216
152.95265 112.92274 35.242008
154.94447 112.96103 35.016972
156.94373 112.98984 34.826408
158.94986 113.01016 34.666534
160.88139 113.12663 34.421844
162.82574 113.29889 34.28743
164.86307 113.64397 34.163246
166.82942 113.69241 34.109268
168.17633 113.89012 34.08709
147.74727 114.02837 35.963478
148.51479 114.47237 35.819958
151.41708 114.68078 35.883022
153.07587 114.65766 35.708145
154.98726 114.78399 35.578583
156.98335 114.8812 35.483566
158.98851 114.90308 35.318916
160.96805 114.95787 35.033562
162.95625 115.00184 34.788574
164.96399 115.02155 34.631729
167.00366 115.15362 34.475632
168.95972 115.3606 34.291866
170.69522 115.40956 34.297485
172.60504 115.67006 34.211887
175.43192 115.87715 34.094376
155.34305 116.07732 35.718826
157.06624 116.27724 35.826839
159.14053 116.62601 35.732479
160.99004 116.7657 35.582912
162.99741 116.89128 35.452938
164.97278 116.95111 35.149181
166.98126 116.97019 34.995495
168.96873 117.01535 34.745689
170.96974 117.04434 34.55574
172.88206 117.19904 34.363464
174.86996 117.41962 34.319103
176.9906 117.81091 34.228149
178.81081 117.60364 34.078011
180.63734 117.89358 34.080307
161.78412 118.83083 35.979439
163.12318 118.41222 35.826283
165.12875 118.61752 35.733086
167.0575 118.73495 35.610256
169.01817 118.86295 35.438763
171.00099 118.94586 35.176716
172.99255 118.98633 34.94434
174.99834 119.01051 34.772778
176.98619 119.05566 34.523052
178.94586 119.17794 34.428848
181.00171 119.32583 34.352253
182.8494 119.32733 34.266109
185.1142 119.60986 34.187092
167.17911 120.07806 35.733864
169.00658 120.23817 35.725594
171.09491 120.77195 35.724224
173.02875 120.84958 35.578915
175.02888 120.9127 35.3913
177.0173 120.95701 35.145058
179.03828 120.96526 35.034248
181.04352 120.99164 34.855423
183.03543 121.03282 34.620617
185.04445 121.10628 34.467411
187.09207 121.19753 34.306408
188.90518 121.55592 34.146698
190.9445 121.6815 34.201393
192.49747 121.89843 34.101677
170.77933 122.26137 35.923275
173.28127 122.25785 35.840137
175.10965 122.55325 35.823578
177.0943 122.67133 35.731728
179.04846 122.77914 35.540775
181.08453 122.88242 35.518997
183.08781 122.95612 35.342159
185.0567 122.97744 35.00172
187.02972 123.03876 34.69067
189.07639 123.02306 34.672562
190.98615 123.12463 34.497063
192.97385 123.23172 34.249863
194.88948 123.41727 34.203987
196.60735 123.7299 34.313152
179.87251 124.03722 35.885201
181.07848 124.24347 35.839638
183.27672 124.5848 35.689911
185.12523 124.84451 35.547077
187.02618 124.90835 35.303921
189.09389 124.99922 35.191963
191.0946 124.97124 35.040783
193.07727 125.02249 34.767792
195.07549 125.05813 34.554806
197.0894 125.07848 34.400402
199.02666 125.4136 34.328396
200.96428 125.47986 34.299248
202.73682 125.90262 34.194069
204.34384 125.92429 34.049988
183.81416 126.09695 35.743332
185.38879 126.29592 35.873909
187.14305 126.44769 35.860203
189.27831 126.74376 35.7323
191.15837 126.87368 35.659294
193.12004 126.91187 35.437931
195.11754 126.94835 35.222145
197.09277 126.94138 35.042706
199.05435 127.06237 34.755627
201.1017 127.06696 34.538773
203.0862 127.13242 34.344135
205.11179 127.40289 34.229675
207.14401 127.66335 34.202938
208.51782 127.7617 34.131065
211.60123 127.9315 34.000526
189.6626 128.45842 35.960033
191.86343 128.87985 35.843102
193.2278 128.35561 35.751228
195.20758 128.66557 35.667038
197.13905 128.84248 35.590973
199.08643 128.91544 35.380322
201.14439 128.95682 35.208553
203.1214 129.01338 34.914211
205.14113 129.02988 34.777039
207.1544 129.11649 34.498257
209.058 129.09198 34.391541
211.0705 129.24109 34.273499
213.25838 129.31252 34.184834
214.90195 129.82425 34.140118
216.45723 129.51379 34.090843
197.95303 130.24455 35.929962
199.39037 130.40488 35.696144
201.19249 130.7341 35.688335
203.10443 130.84694 35.536316
205.11555 130.93958 35.370567
207.15965 130.97752 35.148048
209.14708 131.00969 35.019058
211.10324 130.9953 34.808884
213.03819 131.017 34.643276
214.99648 131.12901 34.460766
216.92438 131.40645 34.329624
218.88895 131.15616 34.209854
220.94391 131.63426 34.103111
223.08661 131.73378 34.043411
201.30882 132.08118 35.871902
203.38037 132.39542 35.860561
205.22339 132.61816 35.823814
207.09882 132.78897 35.685429
209.08458 132.87895 35.491646
211.05058 132.9288 35.440712
213.01558 132.97583 35.253975
215.02898 132.96951 35.078552
217.08401 133.10048 34.799679
218.97234 133.04616 34.62093
220.83295 133.18216 34.433895
222.88109 133.39203 34.313663
224.84058 133.4707 34.146801
226.69203 133.67667 34.179043
207.96545 134.07187 35.909187
209.30034 134.22241 35.809826
210.92612 134.35774 35.842815
212.99095 134.53923 35.737122
214.92961 134.81522 35.681576
216.86612 134.96799 35.378441
219.02963 134.97047 35.173244
220.99391 135.01013 35.007244
222.86403 135.02554 34.88327
224.84863 135.07553 34.61409
226.85956 135.10385 34.432602
228.79802 135.35013 34.296589
230.83566 135.63271 34.195427
232.61601 135.84052 34.175537
234.14006 135.94662 34.112953
213.98947 136.46951 35.986244
217.1927 136.57123 35.841072
218.90752 136.69199 35.759037
220.93939 136.8091 35.596664
222.90565 136.94582 35.432781
224.87634 136.979 35.233139
226.88844 137.00661 35.055912
228.92491 137.02313 34.79269
230.94659 137.09483 34.70438
232.79587 137.24405 34.453606
234.80521 137.36908 34.345177
236.79509 137.6757 34.241749
238.96985 137.84554 34.179424
240.15471 137.97664 34.024658
220.02405 138.0891 35.887848
223.18198 138.38718 35.83057
225.0428 138.67744 35.739292
226.91548 138.87444 35.600002
228.95686 138.91017 35.469219
230.93228 138.97255 35.291264
232.92398 139.01695 35.04491
234.90912 139.06653 34.777294
236.87769 139.13461 34.575649
238.93089 139.12634 34.404736
240.89522 139.34554 34.331753
243.0162 139.51419 34.145947
245.02823 139.69954 34.183044
246.23051 139.96204 34.122078
225.67018 140.07935 35.968987
226.88097 140.22127 35.91077
228.9749 140.43221 35.864601
231.04269 140.59831 35.674171
232.94289 140.92696 35.636967
234.96149 140.95078 35.476952
236.94016 141.00514 35.188942
238.96619 141.02388 35.050217
240.95879 141.06793 34.805355
242.98515 141.08714 34.664616
245.01807 141.10204 34.542149
246.93427 141.23529 34.316513
248.99873 141.67538 34.169102
251.31274 141.72224 34.120415
253.08615 141.98105 34.058846
231.27138 142.10638 35.897934
233.36665 142.37952 35.837482
235.04631 142.40729 35.816662
237.04726 142.63124 35.755135
239.02718 142.89563 35.659153
241.00137 142.96016 35.473751
243.01459 142.98918 35.292511
245.03769 143.01143 35.14019
247.02191 143.06197 34.868065
249.02325 143.10025 34.6479
251.03217 143.13332 34.449554
252.92612 143.29521 34.31728
254.9295 143.41043 34.233147
256.92499 143.95337 34.283195
238.96266 144.10419 35.894176
241.09932 144.50896 35.855331
243.18205 144.44151 35.794559
245.04135 144.81366 35.717667
247.05043 144.96454 35.493843
249.05093 145.0034 35.27129
251.07326 145.02725 35.113632
253.08031 145.06192 34.909031
255.04938 145.06764 34.626621
256.63754 145.07309 34.432335
247.02989 146.32483 35.808228
249.1721 146.55891 35.742092
251.10683 146.88672 35.683739
253.05894 146.97523 35.490147
255.06113 147.00436 35.310608
256.84637 147.0822 34.924072
249.82384 148.11314 35.964245
251.07307 148.10278 35.978085
253.54636 148.51938 35.881481
255.17004 148.67255 35.728767
256.78906 148.82198 35.480022
257.36407 151.18181 35.757542
253.5974 159.6067 35.422935
95.74678 95.088554 36.279285
96.823875 95.692291 36.124264
98.130806 95.733261 36.097591
95.787094 96.977745 36.939323
96.938187 97.096153 36.481083
98.831566 97.188164 36.278545
100.69674 97.497581 36.232098
102.86332 97.75322 36.225975
105.73872 97.941719 36.012554
95.827415 98.866936 37.599361
96.969109 99.005661 37.069237
98.982414 99.009476 36.795044
100.94272 99.085556 36.604862
102.85771 99.265732 36.466148
104.95994 99.231575 36.307972
106.57625 99.491562 36.227543
108.16106 99.492584 36.291172
95.836929 100.23174 37.916023
97.018822 100.84292 37.65451
98.991272 100.94454 37.460007
100.97319 100.99487 37.192486
102.95978 101.03534 36.958893
104.94886 101.0254 36.733189
106.8989 101.1664 36.50703
108.92493 101.25004 36.464424
110.84915 101.40913 36.19241
112.78799 101.44735 36.220692
114.74801 101.83834 36.143509
116.15894 101.53603 36.043293
97.209671 102.08102 37.928158
99.161041 102.33483 37.857563
100.9855 102.71986 37.778305
103.01975 102.88445 37.632992
104.99393 102.94932 37.435867
106.97367 103.00436 37.151772
108.98873 103.00475 36.88945
110.95075 103.07907 36.706127
112.89513 103.15237 36.549015
114.98682 103.25731 36.403896
117.04275 103.4403 36.25029
118.72028 103.46873 36.194324
120.63602 103.78383 36.118244
123.38419 103.91978 36.097702
100.57973 104.13667 37.845272
103.00108 104.30174 37.883209
105.11899 104.52959 37.847393
106.98778 104.74729 37.739571
109.02782 104.91303 37.525585
110.98609 104.97699 37.332657
112.97987 105.00489 37.143322
114.96802 105.04381 36.915417
116.96589 105.06535 36.748241
118.96204 105.12329 36.574764
120.89272 105.17367 36.31403
122.87059 105.30668 36.244049
124.88288 105.75903 36.137585
126.72223 105.7177 36.052925
128.57784 105.94709 36.039154
107.6136 106.07832 37.994637
109.2665 106.51028 37.859196
111.04783 106.62546 37.738316
113.00741 106.78632 37.692665
114.99142 106.96352 37.465153
116.99882 106.93475 37.354198
119.0068 106.97169 37.255497
120.99384 107.01382 37.016666
