# .PCD v0.7 - Point Cloud Data file format
VERSION 0.7
FIELDS x y z rgb
SIZE 4 4 4 4
TYPE F F F U
COUNT 1 1 1 1
WIDTH 1147
HEIGHT 1
VIEWPOINT 0 0 0 1 0 0 0
POINTS 1147
DATA ascii
29.136652 10.039877 -13.970728 4294967295
29.14711 11.162519 -14.05703 4294967295
29.188128 9.8756971 -14.425163 4294967295
29.201103 11.157834 -14.519413 4294967295
29.211916 11.318194 -14.492842 4294967295
29.21883 10.677175 -14.389777 4294967295
29.241953 7.95155 -13.977732 4294967295
29.244308 10.356706 -14.246325 4294967295
29.281509 12.280836 -14.313762 4294967295
29.29529 9.0738173 -13.885007 4294967295
29.354586 9.2308455 -14.343571 4294967295
29.3713 7.6274805 -14.08833 4294967295
29.377277 10.192598 -14.360245 4294967295
29.394476 9.0703669 -14.158669 4294967295
29.395586 11.475029 -14.432296 4294967295
29.398649 7.9478431 -14.01137 4294967295
29.404606 11.795707 -14.431784 4294967295
29.418539 10.673712 -14.243865 4294967295
29.42384 8.4287167 -13.961979 4294967295
29.439337 8.7493782 -13.934466 4294967295
29.450663 10.032434 -14.035712 4294967295
29.451033 12.277315 -14.293928 4294967295
29.454592 10.994651 -14.130667 4294967295
29.463312 9.5512714 -13.927287 4294967295
29.464893 12.117209 -14.217607 4294967295
29.470947 11.636249 -14.136715 4294967295
29.473694 10.513659 -13.995365 4294967295
29.473803 8.9095755 -13.80929 4294967295
29.487377 11.155309 -14.01255 4294967295
29.491995 11.315742 -14.011863 4294967295
29.504408 8.2653761 -14.294317 4294967295
29.536257 12.272387 -14.625148 4294967295
29.566994 12.11262 -14.478647 4294967295
29.594063 10.028689 -14.124863 4294967295
29.634201 8.1036358 -13.735002 4294967295
29.663675 11.793356 -14.039029 4294967295
29.710009 8.1008186 -14.105621 4294967295
29.727303 8.4213839 -14.070737 4294967295
29.740139 12.109143 -14.443721 4294967295
29.742451 8.5816364 -14.02624 4294967295
29.78797 10.18543 -14.022298 4294967295
29.789476 11.147744 -14.127296 4294967295
29.814274 9.383338 -13.820113 4294967295
29.814522 9.2228918 -13.800529 4294967295
29.819668 9.8646526 -13.853324 4294967295
29.824776 8.9019308 -13.720754 4294967295
29.8284 9.5437584 -13.779892 4294967295
29.828508 10.666841 -13.909297 4294967295
29.877388 10.181519 -14.335743 4294967295
29.888002 11.78469 -14.476911 4294967295
29.888824 7.9364777 -14.028718 4294967295
29.929815 10.502413 -14.154937 4294967295
29.936861 11.464644 -14.236868 4294967295
29.93985 7.6149635 -13.77949 4294967295
29.945429 11.625103 -14.219807 4294967295
29.945566 8.8984203 -13.904085 4294967295
29.964222 12.266821 -14.215862 4294967295
30.030033 8.2536945 -14.163792 4294967295
30.039927 8.0932178 -14.104175 4294967295
30.051615 7.9326954 -14.037107 4294967295
30.059309 8.4137945 -14.060754 4294967295
30.062279 7.6117454 -13.955754 4294967295
30.076397 12.102028 -14.415927 4294967295
30.079588 10.338289 -14.198916 4294967295
30.084038 8.8948097 -14.013662 4294967295
30.086386 9.8571777 -14.11511 4294967295
30.09605 9.6967869 -14.056455 4294967295
30.107529 11.461069 -14.212635 4294967295
30.107998 8.573801 -13.877107 4294967295
30.110945 10.979975 -14.14287 4294967295
30.114012 10.819611 -14.111614 4294967295
30.117926 12.263033 -14.262116 4294967295
30.119476 10.178031 -14.014802 4294967295
30.127659 9.215456 -13.869617 4294967295
30.135918 10.659348 -14.002153 4294967295
30.143915 10.017658 -13.894811 4294967295
30.150478 11.621964 -14.052916 4294967295
30.184805 11.14103 -13.854848 4294967295
30.189314 7.6084619 -14.112579 4294967295
30.214581 8.7308664 -14.13743 4294967295
30.217922 8.8912268 -14.1421 4294967295
30.238995 9.2119036 -14.091747 4294967295
30.290827 11.618028 -14.154677 4294967295
30.292404 7.9279666 -13.721972 4294967295
30.306057 8.409277 -13.720937 4294967295
30.323477 11.939273 -14.056377 4294967295
30.35018 11.29784 -13.871565 4294967295
30.374481 7.9251637 -14.065263 4294967295
30.382051 9.6893578 -14.237576 4294967295
30.385931 8.5666542 -14.091899 4294967295
30.395096 11.934313 -14.442708 4294967295
30.405386 10.010124 -14.177951 4294967295
30.412481 10.651674 -14.22262 4294967295
30.418251 10.972466 -14.23575 4294967295
30.428795 9.8497505 -14.062468 4294967295
30.43108 10.491385 -14.127075 4294967295
30.443293 11.774625 -14.224615 4294967295
30.443316 8.2452717 -13.817075 4294967295
30.446932 9.2079983 -13.913247 4294967295
30.460766 11.293638 -14.096712 4294967295
30.461029 9.0474806 -13.836316 4294967295
30.471935 10.170687 -13.920808 4294967295
30.473419 12.095845 -14.136903 4294967295
30.477226 8.7264271 -13.73215 4294967295
30.478361 11.61467 -14.060881 4294967295
30.500971 8.8867798 -13.652303 4294967295
30.522785 12.257062 -13.951013 4294967295
30.526937 11.454788 -13.841201 4294967295
30.532072 8.4026356 -14.150831 4294967295
30.58325 9.525198 -14.068607 4294967295
30.599224 8.722949 -13.909928 4294967295
30.620275 12.252347 -14.230102 4294967295
30.627243 10.648286 -14.016174 4294967295
30.650808 11.129792 -13.974227 4294967295
30.690662 11.932566 -13.90194 4294967295
30.696022 11.772161 -13.861258 4294967295
30.69875 8.5592327 -14.161782 4294967295
30.7307 9.0402527 -14.085202 4294967295
30.736301 11.766883 -14.376575 4294967295
30.752836 7.9169545 -13.864116 4294967295
30.76317 8.7191839 -13.913948 4294967295
30.763887 10.965261 -14.170084 4294967295
30.764076 9.3609943 -13.984245 4294967295
30.765831 8.3982296 -13.865924 4294967295
30.773876 10.323639 -14.054784 4294967295
30.774149 9.5214233 -13.961118 4294967295
30.775053 10.804929 -14.105439 4294967295
30.784136 11.44669 -14.141924 4294967295
30.791115 8.8794804 -13.816933 4294967295
30.797464 7.7558923 -13.661067 4294967295
30.807024 10.163291 -13.899269 4294967295
30.812147 11.126101 -13.989157 4294967295
30.830713 12.249487 -14.042 4294967295
30.838118 11.928693 -13.974387 4294967295
30.902515 12.244357 -14.42653 4294967295
30.904617 9.357317 -14.084948 4294967295
30.912203 9.6781616 -14.090626 4294967295
30.926832 10.480324 -14.122721 4294967295
30.93416 12.084483 -14.277432 4294967295
30.972687 7.9124746 -13.637282 4294967295
31.000793 8.7149086 -13.613765 4294967295
31.011572 9.8386374 -13.698843 4294967295
31.060177 8.0700674 -13.975595 4294967295
31.07534 8.2303696 -13.931534 4294967295
31.084942 8.872159 -13.965916 4294967295
31.089371 8.7116632 -13.929142 4294967295
31.09153 9.5139723 -14.012722 4294967295
31.09868 10.476666 -14.094194 4294967295
31.106647 10.316255 -14.042849 4294967295
31.108255 9.9953461 -13.999223 4294967295
31.119324 10.797678 -14.046055 4294967295
31.121983 11.279046 -14.090574 4294967295
31.12361 11.920815 -14.157832 4294967295
31.125584 9.1929264 -13.835263 4294967295
31.142284 10.958309 -13.969871 4294967295
31.146488 11.760683 -14.04501 4294967295
31.148191 11.439777 -14.000999 4294967295
31.169306 9.3533058 -13.673415 4294967295
31.196941 12.242863 -13.892493 4294967295
31.249632 11.114608 -14.22582 4294967295
31.25902 10.31251 -14.094725 4294967295
31.286283 7.7445149 -13.6865 4294967295
31.286758 11.596287 -14.128358 4294967295
31.309273 8.2258759 -13.647249 4294967295
31.34107 9.5100956 -13.664222 4294967295
31.359106 11.91819 -13.867373 4294967295
31.394196 8.5438261 -14.014037 4294967295
31.396572 9.8274231 -14.152104 4294967295
31.410458 8.3832121 -13.928609 4294967295
31.412485 9.185586 -14.01269 4294967295
31.415611 11.913033 -14.31396 4294967295
31.423965 9.0250597 -13.946951 4294967295
31.435202 9.9879141 -14.011611 4294967295
31.453707 10.469401 -13.990907 4294967295
31.458469 9.5064373 -13.86039 4294967295
31.462542 11.592777 -14.083925 4294967295
31.467018 11.271889 -14.02855 4294967295
31.467943 7.9010334 -13.636486 4294967295
31.469297 7.7404547 -13.612414 4294967295
31.478487 10.630021 -13.907417 4294967295
31.483881 10.951061 -13.922197 4294967295
31.500885 12.07473 -13.981634 4294967295
31.503235 12.235257 -13.990449 4294967295
31.568193 11.267604 -14.290943 4294967295
31.593666 8.0582228 -13.816712 4294967295
31.649075 11.749887 -14.01396 4294967295
31.673939 9.5026131 -13.653008 4294967295
31.689503 10.626595 -13.71843 4294967295
31.716845 8.3758459 -14.025558 4294967295
31.734335 9.8199825 -14.119936 4294967295
31.739244 7.894125 -13.87812 4294967295
31.742455 11.745323 -14.30817 4294967295
31.750725 10.140934 -14.089572 4294967295
31.762806 11.424694 -14.187701 4294967295
31.777342 8.6963682 -13.814008 4294967295
31.778816 12.066707 -14.195831 4294967295
31.782804 8.2146978 -13.736136 4294967295
31.785147 11.103981 -14.059042 4294967295
31.788342 8.8568325 -13.787301 4294967295
31.799175 9.9805317 -13.872137 4294967295
31.801466 9.6594744 -13.825781 4294967295
31.802856 8.5356283 -13.690724 4294967295
31.807129 10.622642 -13.913379 4294967295
31.808538 10.462129 -13.889118 4294967295
31.822561 12.227862 -14.034732 4294967295
31.822906 11.906872 -13.996374 4294967295
31.83297 9.3383102 -13.659441 4294967295
31.848907 8.0534058 -13.446107 4294967295
31.872812 10.944174 -13.680645 4294967295
31.912697 10.458158 -14.13896 4294967295
31.940825 9.1741991 -13.875859 4294967295
31.956074 11.421353 -14.071823 4294967295
31.997828 8.8527985 -13.605042 4294967295
32.005604 11.742962 -13.905646 4294967295
32.009636 7.7283864 -13.42723 4294967295
32.048508 11.582938 -13.711223 4294967295
32.074673 7.8864307 -13.856097 4294967295
32.079781 10.454474 -14.130509 4294967295
32.106121 9.9730663 -13.967209 4294967295
32.108452 9.4914999 -13.902279 4294967295
32.110897 7.7254133 -13.689144 4294967295
32.117119 8.046484 -13.700579 4294967295
32.12138 9.3309326 -13.830837 4294967295
32.133209 11.899342 -14.077722 4294967295
32.134407 8.6886244 -13.703573 4294967295
32.142513 10.775832 -13.910394 4294967295
32.148598 11.418001 -13.959316 4294967295
32.152348 8.367301 -13.593114 4294967295
32.155109 10.294258 -13.803401 4294967295
32.17231 8.8489714 -13.566697 4294967295
32.180317 10.936653 -13.773981 4294967295
32.201141 10.615623 -13.651721 4294967295
32.201508 9.6519585 -13.539408 4294967295
32.209698 11.258071 -13.690549 4294967295
32.223053 7.7222958 -13.905935 4294967295
32.243729 8.2036467 -13.876638 4294967295
32.252029 8.8457117 -13.91648 4294967295
32.255375 11.092773 -14.161102 4294967295
32.260387 8.6851215 -13.863801 4294967295
32.285801 12.05603 -14.147287 4294967295
32.340031 9.3270311 -13.611593 4294967295
32.346027 11.575263 -13.845482 4294967295
32.358326 12.217676 -13.868983 4294967295
32.366192 10.451324 -13.633746 4294967295
32.409859 7.7181826 -13.816965 4294967295
32.419521 8.3602896 -13.851245 4294967295
32.427055 9.9656191 -14.004923 4294967295
32.435425 9.484025 -13.915356 4294967295
32.438286 9.6445618 -13.922105 4294967295
32.438416 8.5206861 -13.792419 4294967295
32.439709 10.286695 -13.990087 4294967295
32.446987 8.1994562 -13.720455 4294967295
32.46035 11.57102 -14.053261 4294967295
32.474064 10.929029 -13.923409 4294967295
32.476234 9.002182 -13.693113 4294967295
32.477428 12.213327 -14.057233 4294967295
32.479229 10.768514 -13.883853 4294967295
32.487774 9.1627302 -13.664383 4294967295
32.506615 12.053242 -13.919496 4294967295
32.507092 8.0381937 -13.456157 4294967295
32.515999 11.250519 -13.78888 4294967295
32.523911 10.447594 -13.664272 4294967295
32.53117 8.6805954 -13.431532 4294967295
32.540207 10.608292 -13.616106 4294967295
32.543179 9.8051271 -13.511652 4294967295
32.55904 11.411561 -13.631399 4294967295
32.646767 8.83778 -13.652701 4294967295
32.684566 9.962019 -13.627439 4294967295
32.722149 7.7107735 -13.890097 4294967295
32.72488 8.6740036 -13.989563 4294967295
32.733856 8.192296 -13.897614 4294967295
32.74165 8.994977 -13.957996 4294967295
32.761944 9.7976456 -13.967355 4294967295
32.762901 10.439796 -14.037195 4294967295
32.776188 9.9582062 -13.927678 4294967295
32.776405 10.760936 -14.018967 4294967295
32.785847 11.082081 -14.017318 4294967295
32.792221 7.8704605 -13.622523 4294967295
32.804554 9.476469 -13.756618 4294967295
32.823513 11.885243 -13.955858 4294967295
32.830112 11.724768 -13.910507 4294967295
32.830799 8.8338919 -13.575754 4294967295
32.840004 9.1551275 -13.575079 4294967295
32.847553 11.403808 -13.802483 4294967295
32.861179 10.118955 -13.599354 4294967295
32.868641 11.243413 -13.698031 4294967295
32.957909 8.3485098 -13.675768 4294967295
33.014965 7.865931 -13.387824 4294967295
33.01646 10.918357 -13.732115 4294967295
33.037483 10.275923 -13.57268 4294967295
33.038738 9.6332684 -13.493808 4294967295
33.04969 12.203704 -13.744195 4294967295
33.066776 11.400728 -13.582404 4294967295
33.068119 11.882706 -13.632249 4294967295
33.083164 8.6662436 -13.875272 4294967295
33.093964 9.9507504 -13.97868 4294967295
33.104969 9.1478701 -13.841755 4294967295
33.108822 7.7023668 -13.660209 4294967295
33.119678 11.235332 -14.021381 4294967295
33.123833 11.877571 -14.078156 4294967295
33.133102 8.9871378 -13.708766 4294967295
33.135036 9.4689817 -13.756183 4294967295
33.138748 10.59319 -13.870064 4294967295
33.152313 8.3444433 -13.556804 4294967295
33.152733 9.7902002 -13.720992 4294967295
33.171944 10.111481 -13.679646 4294967295
33.178783 10.432773 -13.688663 4294967295
33.180248 8.0228052 -13.40617 4294967295
33.186058 10.754081 -13.695911 4294967295
33.198433 9.3081789 -13.479619 4294967295
33.208241 10.914878 -13.624045 4294967295
33.210659 8.5046215 -13.337635 4294967295
33.221661 12.200192 -13.716873 4294967295
33.28368 11.071098 -14.007743 4294967295
33.287937 10.428831 -13.916768 4294967295
33.293072 8.6621418 -13.693257 4294967295
33.295895 11.713476 -14.031742 4294967295
33.35535 10.750422 -13.679484 4294967295
33.371044 8.8222942 -13.3945 4294967295
33.380299 8.0166569 -13.93656 4294967295
33.439148 8.6584969 -13.771071 4294967295
33.445965 8.1765518 -13.688116 4294967295
33.446075 9.3009214 -13.816577 4294967295
33.458801 7.8551097 -13.599106 4294967295
33.462643 8.9796076 -13.712432 4294967295
33.472656 9.7827387 -13.763836 4294967295
33.475578 10.264612 -13.807214 4294967295
33.48167 8.4975262 -13.579845 4294967295
33.483482 9.6220999 -13.701427 4294967295
33.497864 10.585959 -13.753511 4294967295
33.516029 11.549902 -13.79023 4294967295
33.520142 10.746733 -13.681439 4294967295
33.523972 10.425435 -13.629038 4294967295
33.537605 9.9434385 -13.518385 4294967295
33.537605 11.389498 -13.684181 4294967295
33.548248 11.871593 -13.696207 4294967295
33.554794 10.90764 -13.559097 4294967295
33.572781 11.711245 -13.578163 4294967295
33.605396 7.6908703 -13.65642 4294967295
33.648624 10.100293 -13.757146 4294967295
33.673882 10.90362 -13.746714 4294967295
33.742252 7.6874228 -13.771564 4294967295
33.749825 8.8116846 -13.869667 4294967295
33.749985 8.1692123 -13.795407 4294967295
33.770863 8.3296423 -13.729149 4294967295
33.778534 11.868842 -13.432616 4294967295
33.787949 9.9359007 -13.843918 4294967295
33.806664 9.1326637 -13.676016 4294967295
33.827518 8.6505127 -13.53624 4294967295
33.830162 11.542417 -13.856828 4294967295
33.830967 10.739235 -13.761556 4294967295
33.836765 10.578616 -13.719645 4294967295
33.837479 10.417959 -13.698349 4294967295
33.842571 10.899966 -13.732929 4294967295
33.844879 11.381941 -13.778786 4294967295
33.844994 9.2932053 -13.539032 4294967295
33.851433 12.024592 -13.825846 4294967295
33.874367 9.614563 -13.456766 4294967295
33.882469 11.221645 -13.608041 4294967295
33.885464 10.096729 -13.467021 4294967295
33.888432 8.9715805 -13.326079 4294967295
33.901749 9.7752829 -13.364176 4294967295
33.960884 7.843565 -13.573626 4294967295
34.038902 9.289362 -13.423267 4294967295
34.050808 8.6463079 -13.301399 4294967295
34.077595 7.8403459 -13.770265 4294967295
34.097073 11.53993 -13.445434 4294967295
34.100937 8.0007229 -13.694212 4294967295
34.113434 8.6432648 -13.717211 4294967295
34.120449 8.1611853 -13.633647 4294967295
34.134644 9.7678127 -13.760159 4294967295
34.13559 10.089124 -13.793113 4294967295
34.146286 11.053052 -13.860185 4294967295
34.148636 11.213712 -13.869076 4294967295
34.158195 8.9643517 -13.572903 4294967295
34.160297 11.535113 -13.858701 4294967295
34.175262 10.410583 -13.669429 4294967295
34.194279 9.6070919 -13.500518 4294967295
34.206253 9.928544 -13.488873 4294967295
34.210381 8.8033237 -13.343348 4294967295
34.219189 9.2855587 -13.36293 4294967295
34.238266 10.893079 -13.469793 4294967295
34.377884 10.567763 -13.537207 4294967295
34.405598 9.603301 -13.31484 4294967295
34.421738 11.854048 -13.507192 4294967295
34.423561 9.4424829 -13.223843 4294967295
34.425007 10.728781 -13.365201 4294967295
34.438931 11.371983 -13.382551 4294967295
34.448463 7.8321972 -13.607457 4294967295
34.449154 10.889726 -13.286041 4294967295
34.456753 11.693738 -13.347336 4294967295
34.471996 8.4747801 -13.585968 4294967295
34.493694 10.724493 -13.755745 4294967295
34.504421 9.7603445 -13.602153 4294967295
34.508133 10.24248 -13.642322 4294967295
34.520809 9.921073 -13.554372 4294967295
34.52602 9.4388638 -13.478177 4294967295
34.532536 8.3135004 -13.323132 4294967295
34.538235 10.56404 -13.557589 4294967295
34.556316 11.207095 -13.558162 4294967295
34.563278 10.885672 -13.493285 4294967295
34.614128 8.6318712 -13.69803 4294967295
34.657875 9.1137428 -13.576732 4294967295
34.737804 10.238963 -13.383092 4294967295
34.741917 9.9173994 -13.329735 4294967295
34.755779 11.364515 -13.43932 4294967295
34.756763 10.560613 -13.343423 4294967295
34.776024 11.847084 -13.412869 4294967295
34.791191 11.204068 -13.27817 4294967295
34.79369 11.686519 -13.323274 4294967295
34.797337 9.2707901 -13.699565 4294967295
34.816647 10.234988 -13.732005 4294967295
34.827625 9.9135942 -13.651044 4294967295
34.840824 11.199332 -13.744842 4294967295
34.844757 8.9491301 -13.471771 4294967295
34.845142 10.074345 -13.598849 4294967295
34.846344 9.5921307 -13.538886 4294967295
34.846863 10.877967 -13.683782 4294967295
34.85215 7.984427 -13.331713 4294967295
34.860146 8.7882729 -13.391404 4294967295
34.87989 8.1449251 -13.238314 4294967295
34.892712 10.556764 -13.462379 4294967295
34.939133 9.7528648 -13.183498 4294967295
34.94371 8.1421719 -13.64749 4294967295
34.968559 7.9811683 -13.529101 4294967295
35.059296 9.1059113 -13.292515 4294967295
35.078842 9.9099445 -13.305739 4294967295
35.096279 8.4623203 -13.070165 4294967295
35.111412 7.816875 -13.601452 4294967295
35.114029 11.35747 -13.329556 4294967295
35.116241 8.7839193 -13.026586 4294967295
35.118538 11.679148 -13.348172 4294967295
35.120613 8.298974 -13.619537 4294967295
35.146732 9.4239473 -13.643058 4294967295
35.155346 9.102438 -13.571701 4294967295
35.17371 8.6200399 -13.442786 4294967295
35.176586 10.709862 -13.669942 4294967295
35.185925 10.06692 -13.558956 4294967295
35.205353 8.9414234 -13.352302 4294967295
35.206429 8.1373434 -13.256126 4294967295
35.209362 10.227744 -13.483127 4294967295
35.236816 10.388629 -13.39114 4294967295
35.237026 9.9062061 -13.335192 4294967295
35.239986 9.584568 -13.286553 4294967295
35.275215 11.032118 -13.310292 4294967295
35.370506 11.349387 -13.62905 4294967295
35.384865 9.2592163 -13.332736 4294967295
35.398197 11.028095 -13.481172 4294967295
35.419529 7.9721484 -13.046574 4294967295
35.446342 10.706797 -13.251165 4294967295
35.449631 11.189351 -13.293059 4294967295
35.503937 11.833393 -13.148537 4294967295
35.507622 8.6124353 -13.430875 4294967295
35.529491 10.541837 -13.563375 4294967295
35.531479 7.8081017 -13.243363 4294967295
35.553532 9.4162712 -13.338481 4294967295
35.560104 9.898736 -13.367178 4294967295
35.567081 9.5770788 -13.302479 4294967295
35.574009 11.024499 -13.4399 4294967295
35.577736 8.9336491 -13.186299 4294967295
35.579784 10.220427 -13.324964 4294967295
35.610939 8.7725744 -13.034732 4294967295
35.687431 10.055759 -13.538651 4294967295
35.700344 9.4125586 -13.413516 4294967295
35.705368 8.6084042 -13.301634 4294967295
35.722973 11.181483 -13.524677 4294967295
35.728687 8.4473677 -13.189816 4294967295
35.748051 10.860061 -13.387515 4294967295
35.767818 9.2515202 -13.124775 4294967295
35.773445 11.664462 -13.377547 4294967295
35.778744 11.503684 -13.337967 4294967295
35.783833 9.573267 -13.097318 4294967295
35.800892 10.377764 -13.120767 4294967295
35.839661 9.5696564 -13.536809 4294967295
35.840664 8.2831984 -13.386051 4294967295
35.854408 10.052037 -13.532793 4294967295
35.86681 8.1220999 -13.26302 4294967295
35.888763 10.695388 -13.468665 4294967295
35.891239 8.7653246 -13.238616 4294967295
35.897629 9.8912754 -13.341463 4294967295
35.925758 7.9605656 -13.008651 4294967295
35.930325 10.856489 -13.320674 4294967295
35.937111 8.9259396 -13.073317 4294967295
35.976994 9.247611 -12.950373 4294967295
35.994282 10.213227 -12.991308 4294967295
36.035706 11.501035 -12.972382 4294967295
36.042061 11.662055 -12.96531 4294967295
36.092571 10.691917 -13.315771 4294967295
36.103283 9.5657816 -13.14454 4294967295
36.104622 8.1175232 -12.974052 4294967295
36.105682 7.7956333 -12.933118 4294967295
36.111057 11.013779 -13.278543 4294967295
36.130272 9.7266722 -13.05497 4294967295
36.139915 11.81847 -13.254908 4294967295
36.193611 11.497288 -13.003591 4294967295
36.202068 11.658333 -12.988134 4294967295
36.20388 7.7926469 -13.202662 4294967295
36.215027 9.0795307 -13.304816 4294967295
36.220066 10.044647 -13.394686 4294967295
36.228111 8.7577133 -13.215882 4294967295
36.228733 9.240346 -13.268399 4294967295
36.232357 7.953198 -13.107217 4294967295
36.236629 8.2749643 -13.126837 4294967295
36.262714 8.4356451 -13.040955 4294967295
36.272957 11.331812 -13.330134 4294967295
36.280701 10.527458 -13.207528 4294967295
36.287605 10.366588 -13.161626 4294967295
36.312641 8.4328241 -13.502851 4294967295
36.33725 11.171515 -13.055068 4294967295
36.354961 10.201687 -13.535517 4294967295
36.386021 11.166799 -13.521545 4294967295
36.404839 11.327809 -13.464812 4294967295
36.423698 11.488855 -13.407908 4294967295
36.43993 8.5926867 -13.013169 4294967295
36.442131 10.684629 -13.242733 4294967295
36.445778 9.8801088 -13.136529 4294967295
36.461662 11.006566 -13.201487 4294967295
36.481945 11.811318 -13.212241 4294967295
36.489704 9.7191753 -12.942931 4294967295
36.491161 9.2362528 -12.882087 4294967295
36.498352 7.9463 -13.36752 4294967295
36.511513 8.4287386 -13.370013 4294967295
36.516811 9.8763065 -13.513766 4294967295
36.517498 8.7504072 -13.382788 4294967295
36.523491 9.5546322 -13.4505 4294967295
36.524319 10.519628 -13.557109 4294967295
36.568298 9.2327862 -13.23526 4294967295
36.578648 8.9109287 -13.157351 4294967295
36.6101 10.198212 -13.178593 4294967295
36.619591 11.324628 -13.269047 4294967295
36.635399 10.037336 -13.059442 4294967295
36.654755 7.9425807 -13.404133 4294967295
36.663422 9.2292604 -13.51611 4294967295
36.718845 10.194336 -13.405314 4294967295
36.732258 10.998723 -13.443486 4294967295
36.740829 11.320521 -13.445995 4294967295
36.751991 9.7117081 -13.218398 4294967295
36.812157 11.482156 -13.180404 4294967295
36.813763 10.033628 -13.009089 4294967295
36.818825 10.516534 -13.043921 4294967295
36.823845 9.3897057 -12.895642 4294967295
36.826038 8.0995541 -13.399829 4294967295
36.839439 11.160527 -13.035145 4294967295
36.844296 8.2602406 -13.345495 4294967295
36.846302 8.7428455 -13.392454 4294967295
36.849052 11.965446 -13.088504 4294967295
36.853245 11.643574 -13.035171 4294967295
36.861023 9.2253847 -13.388815 4294967295
36.893608 10.67327 -13.42399 4294967295
36.899132 8.9034233 -13.200589 4294967295
36.914639 10.834282 -13.358665 4294967295
36.915253 9.7079639 -13.228041 4294967295
36.937218 8.5812902 -13.012456 4294967295
36.940361 11.638986 -13.347925 4294967295
36.941765 10.190767 -13.177537 4294967295
36.949139 10.995438 -13.239785 4294967295
36.979115 7.9350071 -13.431391 4294967295
37.012302 9.5469093 -12.823698 4294967295
37.019489 10.351985 -12.886744 4294967295
37.023251 9.543375 -13.43901 4294967295
37.046898 10.026004 -13.39996 4294967295
37.121273 9.7042027 -13.067832 4294967295
37.135281 11.796608 -13.250215 4294967295
37.143978 7.7703176 -13.416109 4294967295
37.144661 10.187142 -13.029852 4294967295
37.152328 10.509126 -13.036016 4294967295
37.17527 10.99222 -12.999826 4294967295
37.183216 9.0570011 -13.406701 4294967295
37.184753 11.475274 -13.017096 4294967295
37.215195 8.0913 -13.169957 4294967295
37.217556 12.119683 -12.960073 4294967295
37.218884 8.4131355 -13.191917 4294967295
37.221737 10.344078 -13.40019 4294967295
37.232666 8.5739632 -13.155505 4294967295
37.232922 11.148584 -13.447282 4294967295
37.235767 10.665933 -13.381109 4294967295
37.238163 9.378623 -13.225198 4294967295
37.255127 11.309682 -13.377469 4294967295
37.256786 10.022345 -13.22448 4294967295
37.260063 8.8956928 -13.08335 4294967295
37.284191 9.539485 -13.060795 4294967295
37.308128 8.2491207 -13.476893 4294967295
37.316971 9.2174158 -12.89407 4294967295
37.36047 9.8614693 -12.794663 4294967295
37.366356 11.63279 -12.972733 4294967295
37.43726 8.0868788 -12.946454 4294967295
37.455566 10.179639 -13.11179 4294967295
37.456226 11.789176 -13.292144 4294967295
37.458256 11.145425 -13.210919 4294967295
37.477543 10.501677 -13.061264 4294967295
37.500343 8.0841475 -13.353359 4294967295
37.504505 9.3746099 -12.82622 4294967295
37.505852 10.984837 -13.003942 4294967295
37.532883 11.468122 -12.951698 4294967295
37.534824 8.7275133 -13.289908 4294967295
37.536415 11.951213 -12.99261 4294967295
37.542301 7.7617965 -13.150548 4294967295
37.558846 9.8539133 -13.32278 4294967295
37.565613 9.371109 -13.241105 4294967295
37.566483 8.4053822 -13.127907 4294967295
37.569595 8.8882446 -13.170447 4294967295
37.571201 9.5320406 -13.237251 4294967295
37.589634 8.5661697 -13.054477 4294967295
37.63261 9.6929531 -13.012315 4294967295
37.638905 10.658934 -13.097157 4294967295
37.641811 9.048871 -12.902679 4294967295
37.644688 10.014968 -13.001068 4294967295
37.659595 11.303046 -13.08841 4294967295
37.693733 11.625422 -12.989819 4294967295
37.81004 11.782159 -13.204128 4294967295
37.812496 10.172252 -13.011539 4294967295
37.82172 8.2397366 -12.755497 4294967295
37.833088 10.011269 -12.911779 4294967295
37.834953 12.104463 -13.142169 4294967295
37.858246 9.6891737 -12.775642 4294967295
37.859409 11.621761 -12.990577 4294967295
37.883125 10.655667 -12.786999 4294967295
37.905128 8.8806496 -13.154665 4294967295
37.910175 8.558651 -13.09815 4294967295
37.910786 8.3976545 -13.077453 4294967295
37.928944 9.8464527 -13.170211 4294967295
37.933529 7.914391 -12.932672 4294967295
37.942017 11.134267 -13.264773 4294967295
37.955696 9.2024145 -12.991333 4294967295
37.958084 10.651457 -13.146443 4294967295
37.989723 8.7191124 -12.801953 4294967295
37.991745 11.295704 -13.086557 4294967295
38.028278 10.32972 -12.83246 4294967295
38.029789 12.101252 -13.027665 4294967295
38.037579 12.2624 -13.015176 4294967295
38.098217 8.8767099 -13.046879 4294967295
38.106144 10.32569 -13.180066 4294967295
38.132896 8.0712328 -12.818518 4294967295
38.154087 9.8427382 -12.935953 4294967295
38.169636 9.0373907 -12.783132 4294967295
38.170383 10.164862 -12.908175 4294967295
38.172443 11.292171 -13.028004 4294967295
38.17635 11.131172 -12.994309 4294967295
38.186985 9.359499 -12.751196 4294967295
38.189423 9.5205832 -12.759855 4294967295
38.203461 8.8732624 -13.285932 4294967295
38.214638 11.936836 -12.934585 4294967295
38.22348 10.809397 -12.771692 4294967295
38.226059 11.614845 -12.852938 4294967295
38.274117 12.098763 -12.718122 4294967295
38.286572 9.9999971 -13.085985 4294967295
38.302357 8.7116451 -12.877509 4294967295
38.302486 11.288154 -13.169375 4294967295
38.334805 11.610522 -13.078488 4294967295
38.353264 12.254887 -13.078803 4294967295
38.429844 9.1911793 -13.083691 4294967295
38.447857 8.3858786 -12.921355 4294967295
38.479401 10.318393 -13.016299 4294967295
38.490841 10.801579 -13.02603 4294967295
38.49424 8.8687687 -12.793385 4294967295
38.495041 9.9963217 -12.918136 4294967295
38.499046 11.767874 -13.103312 4294967295
38.507481 8.0631199 -12.649821 4294967295
38.508831 9.6741734 -12.827261 4294967295
38.510025 8.7075701 -12.712906 4294967295
38.516586 11.445992 -12.997679 4294967295
38.542877 11.607347 -12.912395 4294967295
38.542934 12.090563 -12.966986 4294967295
38.547817 9.3518877 -12.637084 4294967295
38.556259 11.124214 -12.80487 4294967295
38.572247 8.8654766 -13.13954 4294967295
38.582169 9.3484659 -13.155264 4294967295
38.589073 8.3822803 -13.018514 4294967295
38.605762 12.252604 -12.737803 4294967295
38.611431 7.8988838 -12.875691 4294967295
38.62933 10.797704 -13.133967 4294967295
38.6441 8.5428944 -12.820147 4294967295
38.67836 11.925435 -13.068854 4294967295
38.726646 10.153814 -12.677917 4294967295
38.771832 9.5056753 -13.079948 4294967295
38.783028 9.1835518 -12.999409 4294967295
38.809227 9.988822 -12.987688 4294967295
38.81065 10.472003 -13.03686 4294967295
38.81311 11.438284 -13.136712 4294967295
38.829189 8.2166977 -12.708306 4294967295
38.83847 11.277488 -13.018775 4294967295
38.841339 12.082798 -13.09877 4294967295
38.847538 8.5387993 -12.672665 4294967295
38.858719 9.3444042 -12.720036 4294967295
38.87233 9.666646 -12.70305 4294967295
38.88081 11.761188 -12.907127 4294967295
38.889492 10.955732 -12.78169 4294967295
38.903091 9.8277903 -12.600355 4294967295
38.910648 11.922682 -12.808104 4294967295
38.93399 8.2134705 -12.948668 4294967295
38.947548 9.3408413 -13.023178 4294967295
38.94875 7.8911467 -12.854179 4294967295
38.955414 12.245609 -12.668689 4294967295
38.976902 9.0185785 -12.871361 4294967295
39.022106 8.8572226 -12.67551 4294967295
39.035812 12.240651 -13.005066 4294967295
39.089554 11.274611 -12.684509 4294967295
39.090412 10.952296 -12.644619 4294967295
39.121216 8.5316343 -12.901593 4294967295
39.128632 9.82026 -13.018461 4294967295
39.144081 8.0480928 -12.757105 4294967295
39.148556 10.30352 -12.995025 4294967295
39.153759 9.4980688 -12.883381 4294967295
39.15871 8.6924725 -12.772696 4294967295
39.177406 11.59236 -13.027815 4294967295
39.177551 9.1757669 -12.75351 4294967295
39.186829 11.270286 -12.954362 4294967295
39.200291 11.109301 -12.883299 4294967295
39.205208 12.23707 -12.991752 4294967295
39.210194 9.3368111 -12.643669 4294967295
39.212879 12.076088 -12.94341 4294967295
39.213493 9.9814396 -12.70374 4294967295
39.264328 9.9775505 -13.155334 4294967295
39.283016 8.2056589 -12.881436 4294967295
39.287918 11.432427 -12.576071 4294967295
39.300358 11.427164 -13.178257 4294967295
39.302582 8.8499317 -12.877698 4294967295
39.307053 10.621922 -13.060831 4294967295
39.343403 10.138774 -12.863638 4294967295
39.34565 12.233044 -13.09197 4294967295
39.362686 8.5272408 -12.605575 4294967295
39.413754 9.8165474 -12.551394 4294967295
39.439316 11.912142 -12.688478 4294967295
39.479649 10.940412 -13.071413 4294967295
39.479755 9.0071993 -12.85217 4294967295
39.481667 11.26258 -13.099968 4294967295
39.496876 10.296124 -12.931027 4294967295
39.511112 8.6847324 -12.692877 4294967295
39.511616 8.84589 -12.709148 4294967295
39.51199 12.229414 -13.090672 4294967295
39.516277 9.1681843 -12.727369 4294967295
39.522118 9.4904795 -12.740995 4294967295
39.527622 11.907454 -12.993012 4294967295
39.528275 10.618505 -12.844565 4294967295
39.533516 11.424186 -12.915239 4294967295
39.567455 9.8127937 -12.599952 4294967295
39.582279 10.779977 -12.651381 4294967295
39.598213 8.0370722 -12.928867 4294967295
39.599979 8.6814537 -12.99487 4294967295
39.606392 12.069684 -12.702947 4294967295
39.623508 8.1979284 -12.848123 4294967295
39.638786 11.747717 -12.539649 4294967295
39.655437 9.4867725 -12.869068 4294967295
39.674286 8.3586073 -12.667684 4294967295
39.68206 9.9701786 -12.819625 4294967295
39.702011 11.742792 -12.942163 4294967295
39.710739 11.098339 -12.835101 4294967295
39.717388 12.226382 -12.936724 4294967295
39.753407 10.9375 -12.649993 4294967295
39.824181 9.3218613 -12.840283 4294967295
39.843056 9.9664297 -12.839431 4294967295
39.851406 11.416693 -12.970855 4294967295
39.860775 11.094518 -12.897799 4294967295
39.864563 10.611103 -12.828312 4294967295
39.864571 10.449947 -12.810058 4294967295
39.864647 8.3545752 -12.572737 4294967295
39.868652 9.8052855 -12.721187 4294967295
39.872124 8.5157213 -12.56175 4294967295
39.899975 12.222998 -12.872259 4294967295
39.90279 12.061884 -12.843037 4294967295
39.917782 11.739742 -12.748021 4294967295
39.926403 10.77264 -12.604939 4294967295
39.948822 8.9959784 -12.965546 4294967295
39.954544 8.1902876 -12.852104 4294967295
40.000443 8.0286474 -12.654659 4294967295
40.002468 9.8015289 -12.847229 4294967295
40.041443 8.8343201 -12.585721 4294967295
40.054218 9.1566916 -12.572297 4294967295
40.085873 10.124009 -12.558116 4294967295
40.091427 11.091358 -12.645816 4294967295
40.115067 11.89768 -12.644697 4294967295
40.145302 12.220566 -12.563187 4294967295
40.185356 8.9918499 -12.690603 4294967295
40.192905 9.6365957 -12.734048 4294967295
40.197441 9.4753971 -12.698143 4294967295
40.203163 8.024415 -12.51181 4294967295
40.209473 9.7977848 -12.687664 4294967295
40.218479 12.215515 -12.925818 4294967295
40.222481 10.120208 -12.673381 4294967295
40.223679 10.926202 -12.759807 4294967295
40.241459 8.5078058 -12.41712 4294967295
40.249268 11.893605 -12.769378 4294967295
40.266582 11.410189 -12.647209 4294967295
40.272072 10.604067 -12.53469 4294967295
40.279964 12.05523 -12.667928 4294967295
40.28141 11.732802 -12.625848 4294967295
40.315441 8.5047159 -12.776383 4294967295
40.325333 9.1493626 -12.810702 4294967295
40.332436 9.9551907 -12.874084 4294967295
40.335094 11.56665 -13.0458 4294967295
40.342041 9.3104858 -12.76381 4294967295
40.380207 8.3429623 -12.505808 4294967295
40.396412 10.277707 -12.661308 4294967295
40.407547 8.1814442 -12.38106 4294967295
40.431599 10.922801 -12.597117 4294967295
40.483898 10.596019 -13.0039 4294967295
40.491989 12.052232 -12.489487 4294967295
40.495323 12.213552 -12.494717 4294967295
40.519547 9.7902775 -12.774172 4294967295
40.520679 9.4678793 -12.733337 4294967295
40.529835 8.0168037 -12.533807 4294967295
40.54657 11.724664 -12.887496 4294967295
40.548344 9.9515018 -12.680314 4294967295
40.55508 10.43517 -12.708736 4294967295
40.557098 8.6615686 -12.500538 4294967295
40.567505 9.1452847 -12.514679 4294967295
40.573105 12.047383 -12.820688 4294967295
40.583633 8.177516 -12.342591 4294967295
40.583763 8.5000992 -12.378536 4294967295
40.589138 10.7578 -12.612632 4294967295
40.594475 10.919077 -12.610088 4294967295
40.595135 11.402795 -12.662159 4294967295
40.599998 9.3064461 -12.406442 4294967295
40.605129 8.9838428 -12.350026 4294967295
40.649837 8.174675 -12.731568 4294967295
40.657661 10.108862 -12.919563 4294967295
40.668957 11.075884 -12.984833 4294967295
40.703228 9.6253052 -12.687817 4294967295
40.714161 10.592631 -12.75454 4294967295
40.71524 8.3352947 -12.495448 4294967295
40.826019 10.427474 -12.947323 4294967295
40.8269 11.72238 -12.443827 4294967295
40.835037 9.2991753 -12.784941 4294967295
40.847137 9.9439735 -12.810735 4294967295
40.850269 8.6542253 -12.652987 4294967295
40.856228 8.1704473 -12.575236 4294967295
40.875271 9.4602995 -12.646886 4294967295
40.883022 11.878583 -12.889735 4294967295
40.88784 9.137763 -12.561658 4294967295
40.888111 10.266494 -12.688016 4294967295
40.8894 11.072629 -12.773989 4294967295
40.896801 11.233911 -12.763454 4294967295
40.901867 9.6215134 -12.561797 4294967295
40.905315 11.717658 -12.785001 4294967295
40.91428 10.750338 -12.641004 4294967295
40.920887 11.39537 -12.688148 4294967295
40.921432 11.556616 -12.704223 4294967295
40.936153 12.201757 -12.719874 4294967295
40.949928 10.911837 -12.520782 4294967295
40.984745 8.4894257 -12.757867 4294967295
40.990353 7.8444738 -12.663332 4294967295
41.000992 10.423787 -12.913098 4294967295
41.006748 8.8117151 -12.708861 4294967295
41.061527 9.9402781 -12.623697 4294967295
41.091248 12.197949 -12.763136 4294967295
41.105865 12.036918 -12.688243 4294967295
41.114193 9.2950659 -12.346576 4294967295
41.195866 10.903826 -12.856441 4294967295
41.197662 9.9364996 -12.740371 4294967295
41.206047 9.1302481 -12.616931 4294967295
41.209431 8.8076973 -12.567433 4294967295
41.213131 8.0012503 -12.462127 4294967295
41.216412 9.7752638 -12.649518 4294967295
41.217876 8.1624956 -12.461924 4294967295
41.221607 10.259032 -12.683949 4294967295
41.227886 10.097793 -12.64143 4294967295
41.240429 11.226638 -12.720155 4294967295
41.240688 9.2914047 -12.500862 4294967295
41.244831 10.742907 -12.648526 4294967295
41.247074 11.549197 -12.730777 4294967295
41.252205 7.839488 -12.292452 4294967295
41.275352 11.710779 -12.639415 4294967295
41.279125 12.194631 -12.679364 4294967295
41.282776 11.065727 -12.537889 4294967295
41.31411 12.033854 -12.525636 4294967295
41.34264 9.1265793 -12.731737 4294967295
41.37183 10.255252 -12.745992 4294967295
41.451302 8.6420879 -12.256425 4294967295
41.501415 11.385144 -12.371694 4294967295
41.515995 8.9615088 -12.685998 4294967295
41.525345 11.869472 -12.333652 4294967295
41.533325 10.735224 -12.818909 4294967295
41.535866 11.708238 -12.27475 4294967295
41.551468 9.2839108 -12.585143 4294967295
41.555241 8.1547823 -12.443278 4294967295
41.557846 10.090305 -12.651376 4294967295
41.565052 11.86418 -12.823442 4294967295
41.565659 10.412875 -12.657522 4294967295
41.56596 8.7999506 -12.474543 4294967295
41.568363 10.574161 -12.66524 4294967295
41.574413 7.9932547 -12.350919 4294967295
41.576195 9.6064491 -12.525875 4294967295
41.596416 11.542035 -12.665827 4294967295
41.612106 9.1223803 -12.332413 4294967295
41.613762 11.219625 -12.562397 4294967295
41.620171 8.3155136 -12.210272 4294967295
41.620766 12.026191 -12.626217 4294967295
41.624767 9.9290943 -12.374376 4294967295
41.630451 11.058453 -12.479696 4294967295
41.633762 9.4450283 -12.285031 4294967295
41.676182 10.086471 -12.836633 4294967295
41.725925 10.892935 -12.735307 4294967295
41.776325 8.7958822 -12.304284 4294967295
41.819668 10.248121 -12.300455 4294967295
41.841728 11.055109 -12.306157 4294967295
41.843319 12.023316 -12.409098 4294967295
41.844738 11.861979 -12.38543 4294967295
41.858173 8.7925863 -12.630559 4294967295
41.862492 9.4376936 -12.686553 4294967295
41.89608 8.95368 -12.5024 4294967295
41.902 8.3083162 -12.406843 4294967295
41.908043 10.244159 -12.601581 4294967295
41.912868 10.56678 -12.619293 4294967295
41.952507 9.1147709 -12.302742 4294967295
41.957336 9.9215918 -12.374988 4294967295
41.97303 10.889785 -12.423462 4294967295
41.97736 9.2760658 -12.224991 4294967295
41.97934 11.212537 -12.435463 4294967295
41.987949 11.051251 -12.384073 4294967295
41.990948 9.7602282 -12.227082 4294967295
42.056862 11.691857 -12.832536 4294967295
42.077705 10.079117 -12.570582 4294967295
42.083797 9.7564745 -12.510768 4294967295
42.111061 8.6268778 -12.278441 4294967295
42.150951 10.402026 -12.324528 4294967295
42.182495 11.047772 -12.2756 4294967295
42.236946 9.4300594 -12.525346 4294967295
42.240658 10.881927 -12.674474 4294967295
42.248753 8.3005333 -12.35273 4294967295
42.256359 10.720714 -12.595854 4294967295
42.258076 8.7845716 -12.371301 4294967295
42.272095 12.172693 -12.698659 4294967295
42.273598 10.398129 -12.493135 4294967295
42.278931 9.2685947 -12.345457 4294967295
42.291008 9.5913296 -12.335263 4294967295
42.294693 11.366347 -12.520863 4294967295
42.314758 10.075504 -12.29828 4294967295
42.334206 11.528115 -12.386869 4294967295
42.365692 8.2971516 -12.543065 4294967295
42.372265 8.7810822 -12.572219 4294967295
42.389565 9.5876379 -12.596416 4294967295
42.402416 11.362091 -12.746623 4294967295
42.427441 11.523652 -12.668511 4294967295
42.478539 10.23315 -12.326683 4294967295
42.529163 8.1320143 -12.535996 4294967295
42.532558 11.201932 -12.227825 4294967295
42.535652 9.5838938 -12.674374 4294967295
42.555134 9.099865 -12.545044 4294967295
42.556725 9.9065247 -12.629664 4294967295
42.577606 9.2611341 -12.476794 4294967295
42.580544 8.6156464 -12.392897 4294967295
42.580944 10.874565 -12.645452 4294967295
42.58688 11.842527 -12.731509 4294967295
42.592602 8.2927752 -12.310229 4294967295
42.599461 11.358705 -12.628726 4294967295
42.614021 11.520191 -12.590924 4294967295
42.617535 10.713449 -12.486679 4294967295
42.634666 12.004487 -12.566031 4294967295
42.63483 10.390775 -12.383891 4294967295
42.642593 10.5522 -12.372218 4294967295
42.685234 8.4509439 -12.611841 4294967295
42.695908 11.682488 -12.294404 4294967295
42.738735 10.225471 -12.605936 4294967295
42.768604 8.6116772 -12.309768 4294967295
42.77816 9.5800362 -12.381961 4294967295
42.825176 9.2570944 -12.165105 4294967295
42.868408 11.03312 -12.198796 4294967295
42.885231 8.2854795 -12.464682 4294967295
42.907795 9.8990326 -12.559506 4294967295
42.916756 11.18985 -12.670221 4294967295
42.919468 9.4149179 -12.460309 4294967295
42.921417 10.544497 -12.579805 4294967295
42.923969 8.9307384 -12.388607 4294967295
42.941746 9.7376661 -12.411119 4294967295
42.94532 8.607789 -12.270406 4294967295
42.950817 9.253437 -12.321893 4294967295
42.952831 10.221863 -12.423024 4294967295
42.958237 10.867447 -12.474856 4294967295
42.969521 9.5762358 -12.286424 4294967295
42.973682 11.674503 -12.506309 4294967295
42.980618 8.4460773 -12.116817 4294967295
42.988052 11.997454 -12.487483 4294967295
43.002144 10.383439 -12.25202 4294967295
43.005489 11.352039 -12.348054 4294967295
43.023304 12.159353 -12.370454 4294967295
43.037144 11.836681 -12.281089 4294967295
43.213512 11.994596 -12.261609 4294967295
43.214897 11.833157 -12.238162 4294967295
43.223362 8.7619305 -12.498898 4294967295
43.237022 9.0846291 -12.48286 4294967295
43.237957 11.182363 -12.714907 4294967295
43.241428 7.9547772 -12.339071 4294967295
43.26696 10.859866 -12.567645 4294967295
43.267899 9.4073277 -12.400897 4294967295
43.302959 8.4385128 -12.157845 4294967295
43.303223 8.9228964 -12.211244 4294967295
43.303562 9.245801 -12.246225 4294967295
43.319008 9.7301273 -12.241494 4294967295
43.336323 11.828925 -12.410947 4294967295
43.34531 10.053072 -12.177069 4294967295
43.351379 11.021882 -12.262659 4294967295
43.36665 10.699049 -12.16794 4294967295
43.382156 11.34508 -12.181132 4294967295
43.406754 9.8877668 -12.56098 4294967295
43.422123 10.533328 -12.574696 4294967295
43.439865 8.7578125 -12.307468 4294967295
43.505257 11.98672 -12.419943 4294967295
43.507187 10.210786 -12.21315 4294967295
43.512375 8.5958529 -12.011959 4294967295
43.55117 8.2701521 -12.464121 4294967295
43.566692 12.149034 -12.203201 4294967295
43.570286 8.7542257 -12.445421 4294967295
43.579308 9.3998175 -12.483428 4294967295
43.580669 7.9470119 -12.315133 4294967295
43.587902 10.852366 -12.613629 4294967295
43.592747 9.7226152 -12.468315 4294967295
43.594193 8.4312019 -12.317817 4294967295
43.612724 8.5925083 -12.26513 4294967295
43.615829 9.8840389 -12.398241 4294967295
43.627361 10.206921 -12.390429 4294967295
43.628426 10.69121 -12.440723 4294967295
43.650219 9.2381802 -12.194358 4294967295
43.663177 11.337204 -12.380461 4294967295
43.69717 11.014567 -12.214367 4294967295
43.697456 8.9149704 -11.977594 4294967295
43.701584 10.530121 -12.143126 4294967295
43.704796 11.822033 -12.275865 4294967295
43.810192 9.5573635 -12.255813 4294967295
43.834511 10.041801 -12.217344 4294967295
43.837479 9.0728159 -12.097288 4294967295
43.863792 8.5880814 -11.942463 4294967295
43.875187 11.818412 -12.261452 4294967295
43.877663 10.203397 -12.070785 4294967295
43.892696 10.526504 -12.049655 4294967295
43.897896 11.495674 -12.138556 4294967295
43.901882 12.141756 -12.195836 4294967295
43.902103 8.2623215 -12.395675 4294967295
43.911865 8.9079838 -12.430891 4294967295
43.916183 11.172795 -12.032534 4294967295
43.934254 11.657601 -12.017957 4294967295
43.941013 11.167896 -12.573257 4294967295
43.941849 9.2307386 -12.352777 4294967295
43.94738 8.1004248 -12.204878 4294967295
43.949791 8.746315 -12.26814 4294967295
43.958538 9.7150736 -12.343461 4294967295
43.971146 11.652445 -12.512712 4294967295
43.973831 10.522386 -12.37571 4294967295
43.98085 12.136846 -12.530048 4294967295
43.996548 10.845434 -12.325337 4294967295
44.069656 8.5813589 -12.428021 4294967295
44.092464 8.9041052 -12.377325 4294967295
44.09922 11.325534 -12.62312 4294967295
44.1133 8.2580767 -12.225528 4294967295
44.146328 9.8727827 -12.280786 4294967295
44.1689 12.294951 -12.466412 4294967295
44.211163 11.811108 -12.251175 4294967295
44.22794 11.488271 -12.151079 4294967295
44.244617 9.8689833 -12.540781 4294967295
44.282696 8.0927162 -12.196769 4294967295
44.305073 8.2540092 -12.129702 4294967295
44.316322 10.999389 -12.394644 4294967295
44.328556 11.483902 -12.402409 4294967295
44.331005 11.806862 -12.42928 4294967295
44.331779 10.838018 -12.317744 4294967295
44.335205 9.5460043 -12.159874 4294967295
44.335899 8.7383566 -12.066691 4294967295
44.345753 9.3844576 -12.101622 4294967295
44.351913 9.0613575 -12.041964 4294967295
44.363773 7.9303079 -11.870041 4294967295
44.376995 8.576519 -11.892175 4294967295
44.383583 10.030621 -12.030113 4294967295
44.411129 10.192244 -11.943401 4294967295
44.413612 11.161671 -12.042631 4294967295
44.439949 11.64663 -11.99677 4294967295
44.444469 8.8963947 -12.305679 4294967295
44.447418 12.29301 -12.040801 4294967295
44.459522 9.8652506 -12.357029 4294967295
44.523319 10.188359 -12.150713 4294967295
44.540401 12.126737 -12.302987 4294967295
44.544319 12.2883 -12.306198 4294967295
44.545967 10.673066 -12.118936 4294967295
44.5466 9.7037334 -12.007905 4294967295
44.564365 8.4084778 -12.428886 4294967295
44.571255 11.157893 -12.077133 4294967295
44.580727 10.834831 -12.004931 4294967295
44.591404 10.350127 -11.910018 4294967295
44.593384 11.481231 -12.029248 4294967295
44.609772 11.642985 -11.985066 4294967295
44.616806 10.991733 -12.519117 4294967295
44.618469 8.8925486 -12.277645 4294967295
44.623627 10.345922 -12.420872 4294967295
44.630539 8.5694532 -12.195614 4294967295
44.643005 8.0847502 -12.093976 4294967295
44.649071 9.2154388 -12.197606 4294967295
44.655392 9.6999893 -12.227884 4294967295
44.657269 8.2461596 -12.057897 4294967295
44.683598 9.8615198 -12.138869 4294967295
44.698612 9.0536985 -11.991357 4294967295
44.72554 12.284872 -12.251041 4294967295
44.730637 11.638789 -12.159321 4294967295
44.744011 9.3767319 -11.855144 4294967295
44.773251 12.12402 -12.05184 4294967295
44.782539 10.019205 -12.414005 4294967295
44.804108 12.279891 -12.585334 4294967295
44.820572 11.634248 -12.450583 4294967295
44.833138 8.2422361 -12.023063 4294967295
44.863289 8.5651474 -11.94484 4294967295
44.871441 10.180901 -12.094848 4294967295
44.884056 11.473416 -12.191718 4294967295
44.884567 9.6961889 -11.990764 4294967295
44.886917 11.796535 -12.217047 4294967295
44.888275 8.403347 -11.831927 4294967295
44.90583 10.50417 -12.000589 4294967295
44.917439 12.120043 -12.137486 4294967295
44.918152 9.8577909 -11.881458 4294967295
44.924236 8.8850822 -12.382036 4294967295
44.928982 11.312285 -12.003242 4294967295
44.949982 8.7234278 -12.266369 4294967295
44.960281 8.2387629 -12.173064 4294967295
44.966343 12.114722 -12.583982 4294967295
44.978409 10.338518 -12.339429 4294967295
44.984566 9.53092 -12.225684 4294967295
44.987534 11.146091 -12.395246 4294967295
44.989437 10.661588 -12.333794 4294967295
44.999424 9.2077951 -12.133203 4294967295
45.040176 10.984975 -12.177702 4294967295
45.076115 8.0738964 -12.347596 4294967295
45.095112 12.278119 -12.114249 4294967295
45.123569 10.011707 -12.384785 4294967295
45.18354 9.0423603 -12.049251 4294967295
45.224262 11.466109 -12.166303 4294967295
45.236935 10.335088 -11.991769 4294967295
45.251049 8.0699654 -12.316283 4294967295
45.26107 8.7159376 -12.350641 4294967295
45.272587 11.628215 -12.001482 4294967295
45.275463 10.169426 -12.458809 4294967295
45.294064 8.2310801 -12.171603 4294967295
45.306419 9.6849146 -12.287515 4294967295
45.32943 10.977233 -12.345053 4294967295
45.335609 10.331118 -12.249401 4294967295
45.336681 11.784907 -12.407981 4294967295
45.337364 9.0386143 -12.098173 4294967295
45.339924 7.9074488 -11.96194 4294967295
45.344212 9.3617468 -12.108418 4294967295
45.35107 9.8464661 -12.136705 4294967295
45.358734 10.815887 -12.21617 4294967295
45.36058 11.623656 -12.299546 4294967295
45.391693 12.108703 -12.236121 4294967295
45.400021 10.008106 -11.969647 4294967295
45.441521 9.8426704 -12.425057 4294967295
45.46133 10.811769 -12.458591 4294967295
45.462185 10.165725 -12.383107 4294967295
45.509277 8.5499992 -12.024471 4294967295
45.512093 8.8731804 -12.049987 4294967295
45.531815 12.266212 -12.354898 4294967295
45.561363 10.650788 -12.062613 4294967295
45.586689 8.2237797 -12.32579 4294967295
