# .PCD v0.7 - Point Cloud Data file format
VERSION 0.7
FIELDS x y z rgb
SIZE 4 4 4 4
TYPE F F F U
COUNT 1 1 1 1
WIDTH 1147
HEIGHT 1
VIEWPOINT 0 0 0 1 0 0 0
POINTS 1147
DATA ascii
13.822254 14.042934 -15.433255 4294967295
13.827607 11.652679 -15.120525 4294967295
13.835637 13.246613 -15.275176 4294967295
13.870184 8.3020058 -15.276902 4294967295
13.881445 10.213926 -15.454821 4294967295
13.882301 8.9392958 -15.297394 4294967295
13.883407 11.329022 -15.579955 4294967295
13.885504 13.558627 -15.838611 4294967295
13.896152 7.9829588 -15.117978 4294967295
13.899189 11.807094 -15.564264 4294967295
13.904179 10.054666 -15.330144 4294967295
13.906013 10.532683 -15.379174 4294967295
13.906341 9.2578926 -15.22419 4294967295
13.916828 8.4609079 -15.079567 4294967295
13.917961 10.851436 -15.362099 4294967295
13.933519 12.604213 -15.500896 4294967295
13.935243 13.719316 -15.627125 4294967295
13.947321 14.197536 -15.628633 4294967295
13.994847 13.083635 -15.273988 4294967295
14.007956 8.6171808 -15.432241 4294967295
14.008565 9.0951138 -15.486931 4294967295
14.028198 7.8202467 -15.242509 4294967295
14.042275 9.5729694 -15.388176 4294967295
14.043397 10.688204 -15.517176 4294967295
14.068277 13.077903 -15.689382 4294967295
14.081983 15.148592 -15.874982 4294967295
14.082997 8.9353571 -15.122691 4294967295
14.083179 12.441088 -15.543689 4294967295
14.092129 14.671253 -15.770522 4294967295
14.112923 13.39764 -15.520908 4294967295
14.119658 14.035074 -15.56638 4294967295
14.125813 11.963856 -15.288644 4294967295
14.126276 13.716651 -15.497395 4294967295
14.12867 11.326385 -15.198702 4294967295
14.137637 12.282804 -15.272216 4294967295
14.143559 14.354489 -15.494024 4294967295
14.144167 12.761048 -15.299492 4294967295
14.169096 14.992743 -15.452436 4294967295
14.17085 13.558586 -15.271768 4294967295
14.188689 10.525159 -15.580009 4294967295
14.189358 8.1352377 -15.289455 4294967295
14.197215 9.4099646 -15.406404 4294967295
14.198389 8.9319315 -15.343473 4294967295
14.207693 10.843895 -15.530363 4294967295
14.21042 12.277555 -15.690163 4294967295
14.210497 12.596097 -15.728114 4294967295
14.212283 8.6131077 -15.240798 4294967295
14.22503 13.233499 -15.737487 4294967295
14.228611 7.9753604 -15.088497 4294967295
14.23683 9.7286215 -15.261333 4294967295
14.241661 12.118828 -15.52644 4294967295
14.256063 8.453311 -15.018893 4294967295
14.266912 10.047426 -15.160406 4294967295
14.270469 11.003785 -15.258965 4294967295
14.276704 14.82788 -15.68999 4294967295
14.295459 14.987888 -15.622403 4294967295
14.305796 10.685264 -15.057101 4294967295
14.328765 13.39556 -15.276721 4294967295
14.383045 14.026141 -15.856312 4294967295
14.38561 10.36237 -15.404034 4294967295
14.446785 11.797247 -15.293647 4294967295
14.452633 10.681519 -15.132481 4294967295
14.456676 11.956787 -15.267087 4294967295
14.463179 10.522159 -15.064558 4294967295
14.465975 11.638132 -15.185786 4294967295
14.467709 14.506835 -15.522603 4294967295
14.47387 13.072821 -15.321738 4294967295
14.475869 12.7541 -15.274183 4294967295
14.481066 14.66665 -15.480047 4294967295
14.48924 13.551368 -15.308193 4294967295
14.507685 14.986359 -15.395385 4294967295
14.511417 9.2432756 -15.44204 4294967295
14.514202 8.1277523 -15.295124 4294967295
14.527169 10.358627 -15.503319 4294967295
14.528699 10.039963 -15.457959 4294967295
14.548839 13.544967 -15.786096 4294967295
14.56172 11.79294 -15.516093 4294967295
14.562184 11.952276 -15.533096 4294967295
14.563325 14.182484 -15.795789 4294967295
14.565442 8.764842 -15.135033 4294967295
14.567965 11.474348 -15.448971 4294967295
14.568039 8.2865438 -15.065563 4294967295
14.572865 7.808156 -14.985782 4294967295
14.578751 10.199468 -15.245963 4294967295
14.581392 9.0835896 -15.099671 4294967295
14.581476 12.430623 -15.501469 4294967295
14.585023 11.155822 -15.331915 4294967295
14.585381 13.386677 -15.598308 4294967295
14.589128 12.749459 -15.504437 4294967295
14.598877 10.518362 -15.191331 4294967295
14.60907 9.8807001 -15.067631 4294967295
14.618062 15.1402 -15.658045 4294967295
14.643619 10.996983 -15.042204 4294967295
14.6994 9.0801039 -15.307837 4294967295
14.707224 13.063506 -15.750175 4294967295
14.722838 11.311301 -15.467704 4294967295
14.750072 9.2392931 -15.093209 4294967295
14.770178 12.427578 -15.383397 4294967295
14.786409 13.384188 -15.423404 4294967295
14.795036 11.790417 -15.1922 4294967295
14.804969 15.137721 -15.54837 4294967295
14.805133 14.819032 -15.509345 4294967295
14.825835 13.544657 -15.260806 4294967295
14.831 14.341831 -15.332714 4294967295
14.838698 9.0765152 -15.417462 4294967295
14.838766 7.9608798 -15.283204 4294967295
14.867529 10.351398 -15.437687 4294967295
14.871831 7.801012 -15.111669 4294967295
14.875041 10.670162 -15.441344 4294967295
14.877702 10.032688 -15.352554 4294967295
14.882224 9.5545177 -15.27431 4294967295
14.885062 8.7574453 -15.165535 4294967295
14.886982 13.060393 -15.673266 4294967295
14.892204 9.3950891 -15.209184 4294967295
14.894264 12.741923 -15.601485 4294967295
14.896486 12.104613 -15.514743 4294967295
14.900229 13.379362 -15.650518 4294967295
14.904003 8.9167509 -15.097396 4294967295
14.907075 13.538869 -15.638124 4294967295
14.925898 9.7139034 -15.092224 4294967295
14.928109 11.626987 -15.311704 4294967295
14.929855 10.989377 -15.227116 4294967295
14.932523 11.308233 -15.253102 4294967295
14.953141 8.5974417 -14.832658 4294967295
14.962084 13.221622 -15.346596 4294967295
14.96268 10.511291 -15.01848 4294967295
14.963157 11.149136 -15.092861 4294967295
14.963469 9.2354021 -14.86167 4294967295
14.975481 12.424857 -15.189222 4294967295
14.979406 12.58437 -15.190288 4294967295
14.982901 14.975512 -15.46121 4294967295
14.988209 14.019366 -15.321986 4294967295
14.997547 11.946898 -15.030178 4294967295
15.009445 11.787603 -14.956239 4294967295
15.022684 14.81762 -15.258959 4294967295
15.033115 10.985212 -15.502723 4294967295
15.046009 11.30406 -15.481647 4294967295
15.059955 8.27528 -15.054013 4294967295
15.084401 14.173118 -15.649224 4294967295
15.094645 11.942255 -15.334414 4294967295
15.106929 14.492553 -15.58388 4294967295
15.124793 13.058691 -15.329632 4294967295
15.154062 11.78374 -15.041958 4294967295
15.184471 8.4313707 -15.25085 4294967295
15.184783 7.9530983 -15.192045 4294967295
15.191816 13.698228 -15.097931 4294967295
15.194459 7.7935281 -15.128428 4294967295
15.199492 9.0689268 -15.258286 4294967295
15.216383 10.981776 -15.410085 4294967295
15.235881 13.213254 -15.588101 4294967295
15.238071 9.2281942 -15.100062 4294967295
15.240026 9.5470982 -15.129325 4294967295
15.242312 8.7497702 -15.023182 4294967295
15.243406 12.416604 -15.457966 4294967295
15.25184 12.097983 -15.380989 4294967295
15.253435 11.46038 -15.297182 4294967295
15.264987 10.184951 -15.091107 4294967295
15.272466 10.503911 -15.094992 4294967295
15.274007 13.054829 -15.393861 4294967295
15.280555 14.967544 -15.593143 4294967295
15.29249 9.8660383 -14.926441 4294967295
15.295437 14.330594 -15.448358 4294967295
15.299149 14.808878 -15.488653 4294967295
15.304774 13.374434 -15.29077 4294967295
15.308066 14.171614 -15.37124 4294967295
15.313646 12.258517 -15.116158 4294967295
15.324383 11.30177 -14.952057 4294967295
15.324744 13.693854 -15.237288 4294967295
15.334714 14.650776 -15.306223 4294967295
15.344124 15.129406 -15.320369 4294967295
15.34844 9.2246952 -15.34259 4294967295
15.35609 9.5434818 -15.345694 4294967295
15.369037 8.5868711 -15.171561 4294967295
15.386193 12.572014 -15.570572 4294967295
15.390403 8.2677402 -15.035213 4294967295
15.394947 8.905591 -15.090824 4294967295
15.395962 10.340622 -15.258215 4294967295
15.417604 10.500168 -15.177986 4294967295
15.423892 13.688507 -15.531343 4294967295
15.435312 14.0076 -15.517168 4294967295
15.441948 12.73259 -15.333862 4294967295
15.46065 12.254657 -15.190704 4294967295
15.470029 13.211541 -15.262362 4294967295
15.471326 14.168142 -15.371077 4294967295
15.473023 10.819495 -14.961847 4294967295
15.479438 10.021921 -14.836782 4294967295
15.488168 11.298168 -14.94971 4294967295
15.491619 14.48767 -15.316216 4294967295
15.496094 12.414801 -15.047187 4294967295
15.496127 12.893255 -15.104394 4294967295
15.514857 9.0615635 -15.308476 4294967295
15.536805 14.967669 -15.166308 4294967295
15.548543 8.2640476 -15.058439 4294967295
15.551394 10.496364 -15.312885 4294967295
15.552755 7.7855287 -14.981776 4294967295
15.563235 11.612386 -15.392324 4294967295
15.565255 13.046931 -15.554961 4294967295
15.567731 14.003161 -15.658185 4294967295
15.569 8.7423172 -15.021953 4294967295
15.570496 7.9447894 -14.919519 4294967295
15.571341 13.206455 -15.546172 4294967295
15.572147 10.974801 -15.27506 4294967295
15.590892 10.656047 -15.150909 4294967295
15.592856 10.177638 -15.084572 4294967295
15.608704 14.960744 -15.58504 4294967295
15.610929 8.4229193 -14.791416 4294967295
15.614665 12.569818 -15.271228 4294967295
15.618246 12.250991 -15.216606 4294967295
15.618933 8.901495 -14.812072 4294967295
15.625257 13.845536 -15.375515 4294967295
15.627447 9.539628 -14.849503 4294967295
15.627898 12.888998 -15.248796 4294967295
15.630001 8.5823021 -14.723065 4294967295
15.634753 11.932336 -15.102728 4294967295
15.639571 9.2204971 -14.755663 4294967295
15.64244 11.134948 -14.971933 4294967295
15.650306 9.8587141 -14.782927 4294967295
15.656618 14.803144 -15.346452 4294967295
15.711819 14.645688 -15.074472 4294967295
15.712467 11.927394 -15.494439 4294967295
15.7239 9.2170982 -15.117439 4294967295
15.748637 14.31898 -15.615221 4294967295
15.756091 11.449746 -15.237435 4294967295
15.78922 11.769135 -15.123965 4294967295
15.80963 14.958746 -15.412497 4294967295
15.811666 14.799397 -15.384087 4294967295
15.81534 13.523925 -15.214509 4294967295
15.815468 12.567044 -15.099321 4294967295
15.815864 12.886032 -15.135713 4294967295
15.827712 14.002694 -15.215186 4294967295
15.837944 14.481438 -15.225661 4294967295
15.845185 13.843746 -15.116126 4294967295
15.850713 12.089148 -14.880663 4294967295
15.855222 8.894618 -15.225248 4294967295
15.893355 8.0968313 -14.955288 4294967295
15.901643 8.256259 -14.936466 4294967295
15.901961 12.243084 -15.41234 4294967295
15.908911 9.3728151 -15.036911 4294967295
15.920407 10.967752 -15.175277 4294967295
15.923624 12.084031 -15.294205 4294967295
15.926448 8.7346334 -14.880278 4294967295
15.930935 9.5322828 -14.955256 4294967295
15.935103 10.808388 -15.088969 4294967295
15.944216 10.010867 -14.951803 4294967295
15.945995 11.286982 -15.096448 4294967295
15.952908 10.489482 -14.969347 4294967295
15.958792 13.838771 -15.343401 4294967295
15.963201 11.6062 -15.05596 4294967295
15.974524 12.403909 -15.099662 4294967295
15.979301 9.2130327 -14.69578 4294967295
15.982246 9.8513641 -14.758736 4294967295
15.992705 12.882808 -15.073826 4294967295
16.024843 14.000262 -15.060586 4294967295
16.035091 14.319629 -15.051933 4294967295
16.052664 14.798818 -15.028918 4294967295
16.109896 8.4116001 -14.750008 4294967295
16.112366 8.5711584 -14.757823 4294967295
16.136787 8.8901567 -14.684421 4294967295
16.142527 9.6881008 -14.753692 4294967295
16.147116 11.762423 -14.980958 4294967295
16.147579 10.486003 -14.826092 4294967295
16.154095 12.560191 -15.044535 4294967295
16.157011 12.081654 -14.973952 4294967295
16.158722 10.326478 -14.756091 4294967295
16.161463 9.3688688 -14.62897 4294967295
16.166462 10.964862 -14.797125 4294967295
16.16888 13.35814 -15.072468 4294967295
16.171753 13.198691 -15.040265 4294967295
16.177341 11.284134 -14.785621 4294967295
16.178165 10.007331 -14.629066 4294967295
16.185301 12.241704 -14.863847 4294967295
16.185705 13.996701 -15.072001 4294967295
16.189659 8.2491789 -15.112445 4294967295
16.190046 13.837308 -15.033096 4294967295
16.196772 11.922743 -14.77327 4294967295
16.198833 14.95425 -15.126594 4294967295
16.2082 8.5680027 -15.065972 4294967295
16.228474 11.438729 -15.316856 4294967295
16.231979 12.236022 -15.396222 4294967295
16.237265 9.5249329 -15.047812 4294967295
16.241961 11.757832 -15.29348 4294967295
16.244728 10.960485 -15.185472 4294967295
16.246534 12.874077 -15.406121 4294967295
16.249531 7.9293838 -14.800968 4294967295
16.265026 8.8866549 -14.844773 4294967295
16.265522 8.0887623 -14.747057 4294967295
16.284723 12.077476 -15.136566 4294967295
16.295708 13.353667 -15.239073 4294967295
16.296999 9.8439999 -14.81338 4294967295
16.315218 13.992171 -15.226407 4294967295
16.316072 14.949063 -15.33695 4294967295
16.3195 13.673306 -15.16873 4294967295
16.334877 10.801685 -14.755078 4294967295
16.359161 11.121114 -14.682469 4294967295
16.386713 9.3617535 -15.091902 4294967295
16.390282 10.159277 -15.17099 4294967295
16.415691 10.797421 -15.131474 4294967295
16.425089 12.551952 -15.298404 4294967295
16.427275 10.637985 -15.059608 4294967295
16.432196 11.276112 -15.113475 4294967295
16.439785 8.7232704 -14.773647 4294967295
16.447495 15.10385 -15.501356 4294967295
16.473959 14.30752 -15.285534 4294967295
16.490606 12.872378 -15.038082 4294967295
16.497278 11.596007 -14.85507 4294967295
16.497309 13.670219 -15.102914 4294967295
16.52566 14.947373 -15.12636 4294967295
16.543484 9.0390377 -15.083516 4294967295
16.552662 8.5603752 -14.98453 4294967295
16.555721 8.2412434 -14.932456 4294967295
16.568911 9.1984549 -14.986811 4294967295
16.569748 7.9219346 -14.830431 4294967295
16.574688 10.155677 -15.074913 4294967295
16.580523 12.70771 -15.353334 4294967295
16.582296 11.431859 -15.192794 4294967295
16.583717 10.6343 -15.091008 4294967295
16.584248 9.5175142 -14.955119 4294967295
16.598112 8.0811691 -14.720328 4294967295
16.598852 10.315302 -14.983978 4294967295
16.607054 12.070255 -15.156365 4294967295
16.620386 9.3578529 -14.771511 4294967295
16.622816 14.781973 -15.408648 4294967295
16.635008 13.665989 -15.219792 4294967295
16.635403 13.506493 -15.198936 4294967295
16.638466 14.942023 -15.356526 4294967295
16.641689 13.187621 -15.132213 4294967295
16.646357 11.273063 -14.882167 4294967295
16.647694 13.98538 -15.200205 4294967295
16.652727 14.304561 -15.215429 4294967295
16.659254 10.794397 -14.766242 4294967295
16.660137 12.230725 -14.933871 4294967295
16.670864 14.14563 -15.113868 4294967295
16.679962 12.550264 -14.881806 4294967295
16.690386 11.912047 -14.758081 4294967295
16.710508 13.348945 -14.838179 4294967295
16.778875 8.7157145 -14.717586 4294967295
16.80024 12.705378 -15.097027 4294967295
16.808743 9.8329754 -14.715246 4294967295
16.825691 12.865491 -15.000423 4294967295
16.828266 13.503789 -15.064949 4294967295
16.831902 14.142076 -15.124655 4294967295
16.834118 13.823056 -15.076477 4294967295
16.834604 11.908162 -14.845541 4294967295
16.839157 11.748625 -14.805782 4294967295
16.84306 14.301981 -15.093015 4294967295
16.847115 10.950589 -14.674267 4294967295
16.854952 12.387336 -14.810246 4294967295
16.858494 12.068163 -14.756018 4294967295
16.898142 8.3931513 -14.880059 4294967295
16.912077 9.6696939 -14.969198 4294967295
16.919102 8.2333326 -14.765774 4294967295
16.920637 9.3505249 -14.892207 4294967295
16.921125 12.062894 -15.213851 4294967295
16.922327 11.743873 -15.170311 4294967295
16.922529 8.8717337 -14.826439 4294967295
16.927334 10.786683 -15.033275 4294967295
16.932365 10.467588 -14.972326 4294967295
16.940756 13.179887 -15.258053 4294967295
16.945429 10.946394 -14.970161 4294967295
16.949516 8.5522881 -14.665726 4294967295
16.955858 9.9888983 -14.808464 4294967295
16.956026 14.296845 -15.322055 4294967295
16.959938 9.1907768 -14.694628 4294967295
16.962379 8.0731897 -14.55009 4294967295
16.965109 12.542312 -15.071326 4294967295
16.969318 13.978251 -15.223644 4294967295
16.98423 11.265958 -14.832088 4294967295
16.99354 9.0309629 -14.522931 4294967295
17.000311 15.095992 -15.216318 4294967295
17.00971 9.8293161 -14.544821 4294967295
17.0103 10.627652 -14.637467 4294967295
17.028397 14.618384 -15.031739 4294967295
17.037745 12.86305 -14.77972 4294967295
17.066114 8.7085476 -14.897346 4294967295
17.104023 12.378729 -15.163408 4294967295
17.137648 9.506319 -14.668055 4294967295
17.169992 11.262589 -14.730936 4294967295
17.172712 14.773808 -15.137614 4294967295
17.173935 13.656867 -14.998783 4294967295
17.175512 9.0271463 -14.439084 4294967295
17.184134 11.582053 -14.704908 4294967295
17.184673 14.933807 -15.102447 4294967295
17.185282 14.614695 -15.061609 4294967295
17.185818 12.859161 -14.84968 4294967295
17.186033 13.497609 -14.924897 4294967295
17.187624 10.783772 -14.593802 4294967295
17.18972 9.9853439 -14.489002 4294967295
17.216778 9.6623335 -15.069307 4294967295
17.219648 14.456292 -14.886803 4294967295
17.228352 13.818051 -14.77116 4294967295
17.247952 8.7046747 -14.813808 4294967295
17.25449 8.0660858 -14.707987 4294967295
17.259254 9.0238447 -14.800671 4294967295
17.265169 11.417797 -15.059461 4294967295
17.265211 13.172783 -15.268624 4294967295
17.276308 10.300767 -14.875732 4294967295
17.280937 10.141169 -14.835722 4294967295
17.28137 8.3850985 -14.624253 4294967295
17.2836 9.3430119 -14.72843 4294967295
17.284544 11.098843 -14.933625 4294967295
17.305267 10.779793 -14.801661 4294967295
17.324247 12.376246 -14.906108 4294967295
17.32943 11.737846 -14.806468 4294967295
17.335466 11.897572 -14.798167 4294967295
17.343182 13.0151 -14.896517 4294967295
17.34548 10.939767 -14.638539 4294967295
17.35984 9.8219624 -14.440118 4294967295
17.363224 7.9033999 -14.936693 4294967295
17.365314 13.973392 -14.910537 4294967295
17.365578 12.696339 -14.757014 4294967295
17.370306 12.057786 -14.659421 4294967295
17.390457 8.2222738 -14.85147 4294967295
17.437763 9.4989729 -14.789625 4294967295
17.443939 8.541028 -14.647438 4294967295
17.464184 10.456847 -14.784269 4294967295
17.500031 13.809433 -15.021787 4294967295
17.501005 9.3391466 -14.48434 4294967295
17.503078 14.128709 -15.046062 4294967295
17.508663 12.053788 -14.773388 4294967295
17.514151 12.213533 -14.767602 4294967295
17.517693 9.6585531 -14.446912 4294967295
17.519011 13.331122 -14.878859 4294967295
17.523493 12.373361 -14.744379 4294967295
17.523691 11.415334 -14.629249 4294967295
17.525448 9.9780054 -14.449906 4294967295
17.529459 8.2187881 -14.961958 4294967295
17.541767 15.087658 -14.985289 4294967295
17.543556 12.533421 -14.67266 4294967295
17.544538 13.012459 -14.725327 4294967295
17.54493 13.491449 -14.780674 4294967295
17.571774 14.290547 -14.754452 4294967295
17.57394 10.293333 -15.00816 4294967295
17.577929 14.610083 -14.764696 4294967295
17.594175 9.8145504 -14.859626 4294967295
17.609169 11.251184 -14.963078 4294967295
17.619768 9.4952412 -14.705871 4294967295
17.625023 10.133881 -14.758238 4294967295
17.628183 8.0579853 -14.496512 4294967295
17.630363 9.0161715 -14.600874 4294967295
17.633694 8.6967583 -14.547745 4294967295
17.639133 8.3772926 -14.485074 4294967295
17.640694 13.007339 -15.029881 4294967295
17.661978 10.932413 -14.686369 4294967295
17.662413 12.848227 -14.912733 4294967295
17.669611 10.613101 -14.6138 4294967295
17.671021 9.1756897 -14.436102 4294967295
17.671638 11.571209 -14.718833 4294967295
17.673552 10.453426 -14.576959 4294967295
17.697298 14.764691 -14.983433 4294967295
17.741272 10.130083 -14.971642 4294967295
17.758692 11.566605 -15.06413 4294967295
17.792665 10.609203 -14.796674 4294967295
17.801512 12.046062 -14.927917 4294967295
17.830912 12.36586 -14.833268 4294967295
17.837957 10.290063 -14.554153 4294967295
17.83951 13.483548 -14.927589 4294967295
17.849392 9.4914179 -14.407377 4294967295
17.856394 14.761078 -15.003539 4294967295
17.859028 12.206704 -14.687357 4294967295
17.85968 13.005107 -14.779529 4294967295
17.866362 14.282532 -14.901528 4294967295
17.868118 13.803638 -14.836548 4294967295
17.888435 14.123583 -14.782933 4294967295
17.897478 8.370472 -14.795307 4294967295
17.906675 14.922566 -14.795746 4294967295
17.911501 11.403278 -15.093238 4294967295
17.915855 7.8912501 -14.655359 4294967295
17.916243 9.647543 -14.862769 4294967295
17.917797 8.8492785 -14.760694 4294967295
17.918676 14.443939 -14.684549 4294967295
17.929724 9.3282127 -14.763948 4294967295
17.933895 15.083281 -14.691986 4294967295
17.93659 10.126501 -14.828048 4294967295
17.944929 11.882539 -14.999557 4294967295
17.945211 12.680565 -15.093306 4294967295
17.949223 10.605514 -14.828117 4294967295
17.949518 10.924814 -14.86481 4294967295
17.955166 8.5296144 -14.554101 4294967295
17.9849 11.723489 -14.800355 4294967295
17.98723 14.756445 -15.150984 4294967295
17.988962 15.075679 -15.181181 4294967295
17.99337 11.084878 -14.68611 4294967295
17.999163 13.160652 -14.907164 4294967295
18.005905 12.043157 -14.743691 4294967295
18.006163 11.564099 -14.685481 4294967295
18.008039 8.6889229 -14.334624 4294967295
18.010801 14.118802 -14.968766 4294967295
18.039629 8.5265675 -14.910501 4294967295
18.05312 9.1650019 -14.925734 4294967295
18.053234 8.0474882 -14.792192 4294967295
18.104322 12.357721 -15.075129 4294967295
18.117224 10.122877 -14.750998 4294967295
18.134193 14.114058 -15.149611 4294967295
18.140343 10.761724 -14.72291 4294967295
18.150034 9.484066 -14.527163 4294967295
18.159704 11.400674 -14.711747 4294967295
18.177536 12.997816 -14.821521 4294967295
18.182613 9.3242311 -14.361388 4294967295
18.183443 12.838273 -14.775928 4294967295
18.187672 13.796419 -14.870915 4294967295
18.188728 10.60233 -14.485979 4294967295
18.189587 11.880193 -14.634219 4294967295
18.193394 14.275575 -14.902169 4294967295
18.199905 14.595106 -14.910866 4294967295
18.218 8.0437059 -14.786533 4294967295
18.228235 13.637887 -14.669328 4294967295
18.236855 8.3628454 -14.739681 4294967295
18.246996 10.9173 -14.997993 4294967295
18.248304 9.7998142 -14.85915 4294967295
18.256578 10.43845 -14.897911 4294967295
18.25692 9.1611166 -14.744386 4294967295
18.257694 10.598104 -14.911881 4294967295
18.264755 9.0013885 -14.690131 4294967295
18.279356 8.6818733 -14.586424 4294967295
18.280409 11.236901 -14.88569 4294967295
18.280943 12.833265 -15.07321 4294967295
18.282749 11.715884 -14.932146 4294967295
18.289301 9.6401224 -14.655695 4294967295
18.291351 7.8830504 -14.437399 4294967295
18.29595 13.950919 -15.138655 4294967295
18.297569 10.11925 -14.675505 4294967295
18.298653 11.077416 -14.784633 4294967295
18.305407 11.875874 -14.849244 4294967295
18.311319 8.2023335 -14.38555 4294967295
18.315262 13.312968 -14.975871 4294967295
18.31632 11.396979 -14.743161 4294967295
18.322689 12.514855 -14.847507 4294967295
18.333824 11.556897 -14.683437 4294967295
18.338675 14.910042 -15.060522 4294967295
18.354532 12.355778 -14.685308 4294967295
18.376444 14.11304 -14.795781 4294967295
18.377245 15.230803 -14.925149 4294967295
18.388363 8.3592129 -14.793791 4294967295
18.390776 9.3171825 -14.896884 4294967295
18.3974 14.592822 -14.758571 4294967295
18.405643 14.433394 -14.702519 4294967295
18.511717 10.435244 -14.486362 4294967295
18.515732 10.275494 -14.449314 4294967295
18.515879 15.226389 -15.037401 4294967295
18.51613 11.553534 -14.59952 4294967295
18.516539 13.150715 -14.787622 4294967295
18.519072 13.470167 -14.814222 4294967295
18.519325 12.831374 -14.737122 4294967295
18.519888 14.74759 -14.962458 4294967295
18.520891 12.032807 -14.635124 4294967295
18.543901 12.512437 -14.588753 4294967295
18.554068 9.4731331 -14.91698 4294967295
18.559189 14.110151 -14.710039 4294967295
18.563456 13.790826 -14.652901 4294967295
18.573063 8.8343506 -14.755776 4294967295
18.596125 10.111833 -14.804132 4294967295
18.597349 9.1536274 -14.684724 4294967295
18.601709 11.868226 -14.987849 4294967295
18.604582 9.9521551 -14.74718 4294967295
18.616493 8.1950541 -14.484833 4294967295
18.621958 8.5145197 -14.498278 4294967295
18.629938 11.2299 -14.785262 4294967295
18.633575 9.632719 -14.579072 4294967295
18.646725 10.59118 -14.633986 4294967295
18.646873 8.0349169 -14.329426 4294967295
18.647976 13.1464 -14.932107 4294967295
18.648825 12.188336 -14.814419 4294967295
18.658102 13.625665 -14.943619 4294967295
18.66024 14.104712 -14.990963 4294967295
18.662952 10.910772 -14.599137 4294967295
18.668697 8.9935226 -14.345431 4294967295
18.672318 10.271801 -14.481138 4294967295
18.681717 9.3130732 -14.324978 4294967295
18.687197 14.424917 -14.908022 4294967295
18.688129 9.7924757 -14.353189 4294967295
18.707481 13.307581 -14.684168 4294967295
18.709347 11.070951 -14.409933 4294967295
18.735041 14.266784 -14.674476 4294967295
18.743349 8.0319738 -14.630811 4294967295
18.76479 11.385646 -14.933196 4294967295
18.806917 8.6703701 -14.421677 4294967295
18.819201 10.747331 -14.613405 4294967295
18.861393 12.345367 -14.61412 4294967295
18.86186 13.463546 -14.744877 4294967295
18.866774 15.220448 -14.931575 4294967295
18.869719 12.824789 -14.633757 4294967295
18.887594 14.582399 -14.762427 4294967295
18.88896 14.262987 -14.718354 4294967295
18.908888 8.5073824 -14.679108 4294967295
18.909107 8.3476505 -14.659157 4294967295
18.911694 10.264146 -14.87521 4294967295
18.915558 8.0280981 -14.592309 4294967295
18.927504 11.861026 -14.99407 4294967295
18.935297 8.8266544 -14.598775 4294967295
18.936579 9.3058805 -14.649954 4294967295
18.946047 9.785079 -14.664468 4294967295
18.946262 10.743427 -14.777334 4294967295
18.947868 11.222561 -14.827044 4294967295
18.962811 12.819694 -14.949813 4294967295
18.962839 13.139039 -14.987612 4294967295
18.972055 11.701983 -14.775672 4294967295
18.973816 10.104614 -14.57807 4294967295
18.981417 13.618538 -14.961368 4294967295
18.990963 13.299417 -14.88072 4294967295
18.99637 13.938331 -14.932382 4294967295
19.005293 10.424277 -14.475078 4294967295
19.02536 11.383163 -14.499104 4294967295
19.030792 14.737933 -14.873191 4294967295
19.038498 12.981113 -14.630048 4294967295
19.043291 13.779994 -14.703454 4294967295
19.048582 12.022649 -14.471059 4294967295
19.053713 14.099795 -14.694763 4294967295
19.067705 14.898993 -14.727009 4294967295
19.095518 12.336505 -15.031259 4294967295
19.107759 11.697995 -14.900706 4294967295
19.13987 8.3432188 -14.358793 4294967295
19.15197 10.899845 -14.608203 4294967295
19.192137 11.858954 -14.542404 4294967295
19.193546 12.977373 -14.668861 4294967295
19.204113 11.379722 -14.431935 4294967295
19.204271 14.575098 -14.810548 4294967295
19.207876 15.214113 -14.870275 4294967295
19.226648 14.256355 -14.672627 4294967295
19.230816 7.8609529 -14.627138 4294967295
19.242758 8.6595745 -14.66857 4294967295
19.248842 8.8192778 -14.660341 4294967295
19.250294 13.61793 -14.491078 4294967295
19.25223 10.416575 -14.834756 4294967295
19.254217 10.097149 -14.787976 4294967295
19.26095 9.4582148 -14.682067 4294967295
19.261097 11.215171 -14.88991 4294967295
19.269789 12.013762 -14.945837 4294967295
19.26992 8.1800127 -14.490305 4294967295
19.281263 11.055656 -14.780881 4294967295
19.285566 8.3396425 -14.439348 4294967295
19.287273 13.291585 -15.01935 4294967295
19.291273 8.4993925 -14.432805 4294967295
19.293692 10.25701 -14.630589 4294967295
19.307653 10.57661 -14.606133 4294967295
19.317904 9.6179037 -14.446571 4294967295
19.318378 9.138463 -14.387548 4294967295
19.32448 13.77166 -14.910085 4294967295
19.331524 11.535459 -14.613271 4294967295
19.332727 12.653788 -14.740595 4294967295
19.344606 9.9375448 -14.3652 4294967295
19.345243 14.411139 -14.893196 4294967295
19.346539 12.494311 -14.659971 4294967295
19.354568 10.896524 -14.434495 4294967295
19.386145 12.175458 -14.445187 4294967295
19.39967 15.052012 -14.726076 4294967295
19.416353 13.934101 -14.5189 4294967295
19.441288 11.051992 -14.797202 4294967295
19.445641 8.0162992 -14.417686 4294967295
19.453833 9.6142321 -14.570685 4294967295
19.457239 12.968828 -14.953382 4294967295
19.461763 9.7740145 -14.554245 4294967295
19.487579 14.087557 -14.950673 4294967295
19.502949 10.253505 -14.427332 4294967295
19.512068 11.372262 -14.519341 4294967295
19.519661 10.733068 -14.409641 4294967295
19.533829 15.207181 -14.87707 4294967295
19.535397 14.568291 -14.794304 4294967295
19.537256 12.651073 -14.558619 4294967295
19.541105 14.248973 -14.730956 4294967295
19.542894 11.692286 -14.41974 4294967295
19.553589 14.728679 -14.732141 4294967295
19.56745 9.29111 -14.756149 4294967295
19.57753 8.1727037 -14.578609 4294967295
19.583813 9.9300632 -14.758973 4294967295
19.587311 8.971508 -14.629725 4294967295
19.593294 13.611328 -14.422441 4294967295
19.597628 10.40934 -14.754228 4294967295
19.60648 8.4919996 -14.487432 4294967295
19.609213 7.8527026 -14.399443 4294967295
19.609848 10.569156 -14.718706 4294967295
19.613047 9.6105385 -14.590781 4294967295
19.628233 12.486291 -14.864049 4294967295
19.632456 8.8114309 -14.409521 4294967295
19.642935 13.604684 -14.931112 4294967295
19.644571 11.048726 -14.620789 4294967295
19.661505 12.966215 -14.772651 4294967295
19.664696 11.847892 -14.625844 4294967295
19.666945 13.28585 -14.786292 4294967295
19.670397 8.6513033 -14.221427 4294967295
19.673819 12.007821 -14.604142 4294967295
19.683086 14.404535 -14.846969 4294967295
19.690186 10.729467 -14.379623 4294967295
19.6987 11.209068 -14.398538 4294967295
19.705908 14.085751 -14.707453 4294967295
19.716909 12.328186 -14.450053 4294967295
19.71715 15.204502 -14.789965 4294967295
19.745649 13.767328 -14.492569 4294967295
19.790899 12.642439 -14.88768 4294967295
19.824718 9.2870865 -14.339468 4294967295
19.825148 12.323596 -14.697417 4294967295
19.830652 9.6067829 -14.350936 4294967295
19.865404 11.205472 -14.385691 4294967295
19.869358 15.200616 -14.841508 4294967295
19.875574 14.242227 -14.700274 4294967295
19.87989 14.881487 -14.756809 4294967295
19.888227 12.964109 -14.492485 4294967295
19.888252 12.484595 -14.435554 4294967295
19.890911 8.1653299 -14.641102 4294967295
19.898037 11.525578 -14.278343 4294967295
19.901077 12.804554 -14.416369 4294967295
19.906353 13.763732 -14.506544 4294967295
19.906414 13.284221 -14.44945 4294967295
19.918158 13.604221 -14.435089 4294967295
19.922121 8.6444082 -14.559071 4294967295
19.925577 9.4433699 -14.638356 4294967295
19.933298 9.1237526 -14.566154 4294967295
19.934122 13.924384 -14.401954 4294967295
19.941349 8.3245974 -14.435673 4294967295
19.948168 15.043822 -14.472062 4294967295
19.949486 7.844965 -14.342673 4294967295
19.970835 13.278202 -14.89136 4294967295
19.972567 11.201262 -14.637637 4294967295
19.977049 9.9227753 -14.466259 4294967295
19.981958 12.799208 -14.785161 4294967295
19.985363 9.6030912 -14.391415 4294967295
19.989056 12.479808 -14.715771 4294967295
19.991108 11.680882 -14.612003 4294967295
19.996071 10.242499 -14.419542 4294967295
19.999128 8.4839087 -14.197614 4294967295
20.003361 14.397345 -14.879285 4294967295
20.017471 10.562307 -14.362267 4294967295
20.019775 13.918571 -14.749578 4294967295
20.023592 11.041932 -14.391863 4294967295
20.049698 13.440001 -14.559833 4294967295
20.051003 12.161298 -14.402568 4294967295
20.085928 7.8415527 -14.464203 4294967295
20.088238 9.9190273 -14.699953 4294967295
20.090109 10.238587 -14.729482 4294967295
20.108469 9.5994339 -14.572245 4294967295
20.148909 9.279665 -14.354759 4294967295
20.151806 8.9599075 -14.304023 4294967295
20.159355 10.878206 -14.497647 4294967295
20.164261 10.718401 -14.456934 4294967295
20.173124 11.997182 -14.568981 4294967295
20.193836 14.714308 -14.798684 4294967295
20.210386 14.874682 -14.744156 4294967295
20.216494 11.038562 -14.262838 4294967295
20.223717 13.11705 -14.476854 4294967295
20.22765 14.39586 -14.610789 4294967295
20.248972 10.075122 -14.732284 4294967295
20.249498 9.5957584 -14.673209 4294967295
20.257071 10.234928 -14.715267 4294967295
20.266609 10.874115 -14.748604 4294967295
20.267431 14.077424 -14.396389 4294967295
20.267864 9.4359207 -14.572807 4294967295
20.271423 15.036756 -14.492233 4294967295
20.275465 14.237553 -14.379667 4294967295
20.289787 11.353701 -14.702533 4294967295
20.298618 11.833195 -14.720102 4294967295
20.30307 8.476613 -14.303063 4294967295
20.305975 10.714601 -14.555071 4294967295
20.309294 12.472534 -14.748408 4294967295
20.309868 8.1567602 -14.235043 4294967295
20.315527 12.632446 -14.739679 4294967295
20.319601 7.8368201 -14.153987 4294967295
20.322556 13.591303 -14.821977 4294967295
20.328236 9.1160021 -14.267093 4294967295
20.332336 11.993519 -14.589483 4294967295
20.35844 13.75209 -14.681792 4294967295
20.364828 10.555103 -14.275087 4294967295
20.364937 9.7555523 -14.179972 4294967295
20.366045 13.272832 -14.591344 4294967295
20.397202 8.1538563 -14.57426 4294967295
20.397919 14.072907 -14.544616 4294967295
20.407114 13.113976 -14.390332 4294967295
20.408268 9.1126566 -14.638659 4294967295
20.449167 15.033823 -14.430964 4294967295
20.46936 12.948248 -14.821709 4294967295
20.487783 13.907383 -14.85353 4294967295
20.491861 14.38682 -14.892169 4294967295
20.495785 9.9117451 -14.345381 4294967295
20.503897 14.706766 -14.876685 4294967295
20.506788 15.186172 -14.920577 4294967295
20.531694 10.391548 -14.243013 4294967295
20.543243 13.109776 -14.513413 4294967295
20.554871 14.229045 -14.59429 4294967295
20.55508 15.028209 -14.687894 4294967295
20.567287 13.589983 -14.463669 4294967295
20.570702 14.868951 -14.59983 4294967295
20.573778 7.8302484 -14.479816 4294967295
20.576183 8.949091 -14.60149 4294967295
20.576431 8.1499119 -14.505881 4294967295
20.588627 10.227598 -14.697617 4294967295
20.616276 9.1087303 -14.442911 4294967295
20.620981 8.4691906 -14.346453 4294967295
20.645889 11.346782 -14.576504 4294967295
20.653719 10.067935 -14.390611 4294967295
20.654732 11.666576 -14.575179 4294967295
20.664499 10.867385 -14.43744 4294967295
20.666512 8.308836 -14.125956 4294967295
20.667253 9.7481594 -14.292889 4294967295
20.669609 14.383798 -14.830626 4294967295
20.670012 11.187182 -14.450859 4294967295
20.670448 10.707548 -14.392205 4294967295
20.674429 9.2683945 -14.204387 4294967295
20.682753 13.265495 -14.640223 4294967295
20.683598 13.90482 -14.712079 4294967295
20.684036 12.146582 -14.502234 4294967295
20.688948 13.585321 -14.650619 4294967295
20.701149 12.626502 -14.483232 4294967295
20.711689 11.82725 -14.342073 4294967295
20.722513 12.946717 -14.426536 4294967295
20.746977 11.987709 -14.204848 4294967295
20.763689 14.546768 -14.43347 4294967295
20.768314 9.2649164 -14.514055 4294967295
20.771788 12.787884 -14.189649 4294967295
20.792686 10.064198 -14.50079 4294967295
20.793097 10.70362 -14.574557 4294967295
20.801191 10.863528 -14.557674 4294967295
20.814194 7.9853635 -14.159951 4294967295
20.854021 10.384189 -14.267443 4294967295
20.868113 8.784647 -14.016056 4294967295
20.886946 15.021461 -14.669985 4294967295
20.887667 13.742622 -14.515657 4294967295
20.889763 11.823857 -14.279594 4294967295
20.898001 12.303767 -14.299901 4294967295
20.898319 14.062687 -14.50639 4294967295
20.900507 8.6219635 -14.578352 4294967295
20.916639 14.223141 -14.444355 4294967295
20.919083 7.8224373 -14.401842 4294967295
20.931837 10.060464 -14.609969 4294967295
20.933163 13.264105 -14.257955 4294967295
20.938818 12.624433 -14.157345 4294967295
20.942413 10.699871 -14.638813 4294967295
20.945442 10.220349 -14.568782 4294967295
20.950378 14.863903 -14.370919 4294967295
20.981171 9.5808573 -14.335435 4294967295
20.982224 9.1011019 -14.274096 4294967295
20.996361 10.54033 -14.381728 4294967295
20.997013 8.4612379 -14.133181 4294967295
21.010733 8.1411591 -14.034766 4294967295
21.017204 15.016762 -14.81855 4294967295
21.023567 9.9007139 -14.186003 4294967295
21.023705 12.459388 -14.487717 4294967295
21.025713 9.2608728 -14.100929 4294967295
21.027422 13.418714 -14.584635 4294967295
21.028904 11.340157 -14.332519 4294967295
21.031935 10.860405 -14.262449 4294967295
21.035717 12.779404 -14.472476 4294967295
21.035767 8.7808781 -13.999815 4294967295
21.040459 11.97998 -14.35709 4294967295
21.060453 14.219018 -14.53332 4294967295
21.064644 7.8189001 -14.482628 4294967295
21.072908 13.899613 -14.440585 4294967295
21.074909 12.94017 -14.318397 4294967295
21.084629 14.699481 -14.483316 4294967295
21.086868 9.0976486 -14.535639 4294967295
21.106249 8.6178799 -14.393482 4294967295
21.124184 10.856202 -14.578743 4294967295
21.153938 10.21682 -14.371983 4294967295
21.178759 9.4171515 -14.168045 4294967295
21.20484 12.935859 -14.468576 4294967295
21.215698 13.575711 -14.496243 4294967295
21.217091 14.535049 -14.603383 4294967295
21.220734 10.696979 -14.134054 4294967295
21.221874 11.976659 -14.280161 4294967295
21.22263 11.336864 -14.201265 4294967295
21.22283 11.816728 -14.257059 4294967295
21.226793 14.695255 -14.579508 4294967295
21.227863 12.456582 -14.310417 4294967295
21.236485 13.896097 -14.442391 4294967295
21.255085 9.4136477 -14.554269 4294967295
21.265106 14.216806 -14.354013 4294967295
21.272701 8.294282 -14.344498 4294967295
21.274664 12.777442 -14.141874 4294967295
21.278103 15.016902 -14.39116 4294967295
21.289511 9.2536545 -14.383703 4294967295
21.299133 9.5734577 -14.379056 4294967295
21.30024 8.6138878 -14.2609 4294967295
21.302561 10.213094 -14.439474 4294967295
21.304476 7.97404 -14.166693 4294967295
21.306679 10.8527 -14.496836 4294967295
21.311842 9.0936365 -14.266418 4294967295
21.317862 10.053222 -14.353189 4294967295
21.318592 11.972014 -14.576491 4294967295
21.329868 12.291957 -14.564576 4294967295
21.330254 12.45184 -14.581749 4294967295
21.335335 7.8136554 -14.011795 4294967295
21.349306 8.9334774 -14.082448 4294967295
21.35796 12.61227 -14.478618 4294967295
21.362749 13.251964 -14.533028 4294967295
21.395632 12.932908 -14.350492 4294967295
21.404121 13.572848 -14.388621 4294967295
21.42078 8.9302759 -14.489734 4294967295
21.425798 15.012845 -14.463094 4294967295
21.504898 8.7698002 -14.100605 4294967295
21.505732 11.009258 -14.361217 4294967295
21.55909 12.289538 -14.277472 4294967295
21.5602 12.609472 -14.310337 4294967295
21.561485 13.889 -14.455656 4294967295
21.566641 14.688732 -14.52732 4294967295
21.576584 12.929735 -14.27602 4294967295
21.581835 9.0864496 -14.521176 4294967295
21.596237 9.406188 -14.495589 4294967295
21.601515 14.529993 -14.355122 4294967295
21.604687 8.9264231 -14.401853 4294967295
21.618393 15.010446 -14.33753 4294967295
21.619816 8.2865505 -14.259864 4294967295
21.625658 13.730866 -14.154581 4294967295
21.633511 14.851027 -14.252189 4294967295
21.638996 10.045839 -14.383078 4294967295
21.653225 8.6061821 -14.150708 4294967295
21.654972 12.284748 -14.576939 4294967295
21.657221 8.1261663 -14.076527 4294967295
21.65904 8.4461432 -14.106272 4294967295
21.662472 11.165485 -14.411954 4294967295
21.664394 11.325432 -14.422372 4294967295
21.667381 10.365813 -14.296051 4294967295
21.675146 13.244513 -14.60146 4294967295
21.695898 12.925189 -14.472572 4294967295
21.700365 9.5659466 -14.05671 4294967295
21.707394 14.364676 -14.591817 4294967295
21.708786 13.565181 -14.491406 4294967295
21.733009 15.165076 -14.573608 4294967295
21.738586 11.486257 -14.115208 4294967295
21.746244 11.806369 -14.119305 4294967295
21.764357 12.446701 -14.115214 4294967295
21.777054 10.042102 -14.496903 4294967295
21.783861 7.9628501 -14.221848 4294967295
21.787455 10.202042 -14.470096 4294967295
21.804193 9.7222691 -14.340034 4294967295
21.820587 9.4023247 -14.23033 4294967295
21.857855 9.2422142 -14.04782 4294967295
21.860651 11.962008 -14.356214 4294967295
21.868114 13.081755 -14.45546 4294967295
21.876421 8.9220572 -13.928546 4294967295
21.895489 10.682474 -14.052393 4294967295
21.896336 13.882183 -14.425916 4294967295
21.897419 14.521962 -14.496578 4294967295
21.902704 12.28265 -14.209375 4294967295
21.904474 11.642672 -14.126157 4294967295
21.904909 11.482664 -14.105381 4294967295
21.910498 7.9595366 -14.385755 4294967295
21.917862 8.2793236 -14.391152 4294967295
21.919651 13.562909 -14.285901 4294967295
21.92038 13.242962 -14.244985 4294967295
21.930227 15.002935 -14.409226 4294967295
21.931131 8.9189568 -14.408343 4294967295
21.964087 8.758791 -14.244937 4294967295
21.969728 9.5586081 -14.314462 4294967295
21.971773 10.99811 -14.475148 4294967295
21.987606 10.838302 -14.386878 4294967295
21.988304 7.798533 -14.025547 4294967295
21.996695 10.67841 -14.328176 4294967295
22.005674 10.198531 -14.232236 4294967295
22.009127 12.757837 -14.518709 4294967295
22.013235 9.3985367 -14.104792 4294967295
22.024012 11.9584 -14.359221 4294967295
22.025341 13.078052 -14.485335 4294967295
22.035776 8.5982323 -13.911611 4294967295
22.04067 13.3983 -14.455844 4294967295
22.043068 11.47873 -14.219113 4294967295
22.055346 9.8785963 -13.976688 4294967295
22.058775 12.5989 -14.282238 4294967295
22.071423 14.358867 -14.434171 4294967295
22.099482 12.919758 -14.141528 4294967295
22.115013 14.840253 -14.299722 4294967295
22.14859 9.3948908 -14.230606 4294967295
22.158319 12.114278 -14.508337 4294967295
22.188984 9.7148495 -14.091347 4294967295
22.189753 9.074708 -14.012568 4294967295
22.231016 9.8749094 -13.926073 4294967295
22.234936 14.51532 -14.455533 4294967295
22.236807 13.075607 -14.277753 4294967295
22.237715 10.675247 -13.991016 4294967295
22.242941 13.715718 -14.326284 4294967295
22.245813 15.155515 -14.483283 4294967295
22.247177 11.15549 -14.006139 4294967295
22.250566 12.27583 -14.123271 4294967295
22.252562 14.99581 -14.434913 4294967295
22.258665 14.036148 -14.295142 4294967295
22.259966 12.596067 -14.119814 4294967295
22.281025 13.39671 -14.121875 4294967295
22.288122 14.837108 -14.260441 4294967295
22.337204 8.1107845 -13.972365 4294967295
22.341274 8.9109945 -14.048794 4294967295
22.342495 9.7111492 -14.137676 4294967295
22.348995 8.4307814 -13.95846 4294967295
22.357897 10.991327 -14.221037 4294967295
22.370367 9.5510855 -13.996875 4294967295
22.379797 9.2309284 -13.917905 4294967295
22.381594 7.9501657 -13.759221 4294967295
22.390215 11.791768 -14.173877 4294967295
22.413729 10.191414 -13.88254 4294967295
22.433821 12.272581 -14.039684 4294967295
22.444635 11.952621 -13.954697 4294967295
22.445864 13.0731 -14.081253 4294967295
22.448505 9.0675726 -14.316249 4294967295
22.448874 11.472418 -13.879605 4294967295
22.46261 12.59326 -13.951475 4294967295
22.462856 13.393626 -14.044634 4294967295
22.465717 8.587471 -14.184511 4294967295
22.479698 9.227437 -14.198739 4294967295
22.481937 14.514593 -14.093127 4294967295
22.515108 9.7074423 -14.100479 4294967295
22.516483 8.7471237 -13.981433 4294967295
22.52034 10.187557 -14.13413 4294967295
22.520607 11.307689 -14.264807 4294967295
22.53194 10.507675 -14.12111 4294967295
22.557037 12.108255 -14.199809 4294967295
22.569164 13.388627 -14.297502 4294967295
22.570391 10.027617 -13.896549 4294967295
22.579302 10.828095 -13.951821 4294967295
22.585869 11.62854 -14.017336 4294967295
22.59396 12.428985 -14.076183 4294967295
22.600245 14.509591 -14.293586 4294967295
22.607485 14.829861 -14.299631 4294967295
22.611645 11.949064 -13.942407 4294967295
22.614887 12.749527 -14.022447 4294967295
22.617725 9.5437794 -14.350184 4294967295
22.625275 13.710175 -14.09011 4294967295
22.62866 8.7437401 -14.208313 4294967295
22.628897 13.230065 -14.017769 4294967295
22.634424 14.030558 -14.087827 4294967295
22.635237 8.4236412 -14.141943 4294967295
22.665668 7.9431477 -13.952551 4294967295
22.66777 10.823879 -14.282322 4294967295
22.677675 10.02382 -14.144954 4294967295
22.679768 11.143997 -14.267617 4294967295
22.688393 8.2630568 -13.890986 4294967295
22.688393 8.9033985 -13.966336 4294967295
22.689266 13.064046 -14.452041 4294967295
22.690893 9.7037334 -14.049584 4294967295
22.691944 8.5832062 -13.913153 4294967295
22.703642 12.744393 -14.351675 4294967295
22.709751 11.464366 -14.174412 4294967295
22.714968 10.344038 -14.019823 4294967295
22.715572 11.784512 -14.186665 4294967295
22.719152 13.544731 -14.378118 4294967295
22.72147 14.984584 -14.53738 4294967295
22.737373 9.0632372 -13.771309 4294967295
22.738506 11.304639 -14.030087 4294967295
22.76939 14.026184 -14.215438 4294967295
22.789499 15.147093 -14.25951 4294967295
22.809788 9.0599451 -14.171673 4294967295
22.838526 10.180162 -14.178107 4294967295
22.886822 9.3798018 -13.873375 4294967295
22.894588 11.140847 -14.046627 4294967295
22.909609 13.381866 -14.244667 4294967295
22.910433 12.741715 -14.165799 4294967295
22.915674 12.261636 -14.086485 4294967295
22.919916 14.822368 -14.369107 4294967295
22.921896 12.101665 -14.040541 4294967295
22.928133 14.342587 -14.27686 4294967295
22.929626 14.022563 -14.232717 4294967295
22.93302 13.542515 -14.161469 4294967295
22.962378 15.143966 -14.221763 4294967295
22.979134 8.576026 -14.092486 4294967295
22.982201 9.216217 -14.154396 4294967295
22.986725 9.536294 -14.172316 4294967295
23.006168 11.616755 -14.332199 4294967295
23.012905 9.3761797 -14.039457 4294967295
23.02129 8.8958836 -13.946475 4294967295
23.02318 7.9352012 -13.825295 4294967295
23.024982 8.2554226 -13.855093 4294967295
23.028755 10.176555 -14.064516 4294967295
23.03879 8.0951433 -13.776114 4294967295
23.047066 10.016513 -13.965948 4294967295
23.047964 10.656876 -14.037318 4294967295
23.050228 14.497746 -14.478937 4294967295
23.058804 9.6963043 -13.877182 4294967295
23.060505 13.057937 -14.264943 4294967295
23.074091 10.977254 -13.961182 4294967295
23.097237 9.8564482 -13.728606 4294967295
23.116476 11.297906 -13.814256 4294967295
23.117029 13.37942 -14.056529 4294967295
23.130619 11.458213 -13.771504 4294967295
23.136089 8.7323828 -14.142614 4294967295
23.136959 14.980832 -14.157952 4294967295
23.142712 14.820962 -14.114101 4294967295
23.170893 10.172807 -14.160468 4294967295
23.189135 10.97319 -14.175153 4294967295
23.225716 8.5715895 -13.733786 4294967295
23.233175 12.414341 -14.152883 4294967295
23.248432 11.133811 -13.936047 4294967295
23.250027 13.53516 -14.211262 4294967295
23.255491 14.335573 -14.281533 4294967295
23.261101 10.81366 -13.843306 4294967295
23.261271 12.094652 -13.993093 4294967295
23.26687 13.055352 -14.081604 4294967295
23.267395 14.175892 -14.210978 4294967295
23.272482 12.254952 -13.963151 4294967295
23.281944 11.454433 -13.827916 4294967295
23.282907 11.614591 -13.842546 4294967295
23.290262 14.656835 -14.167994 4294967295
23.30184 15.13747 -14.174091 4294967295
23.306271 13.696753 -13.98555 4294967295
23.307362 14.01701 -14.018432 4294967295
23.308519 12.57588 -13.844072 4294967295
23.342497 9.6889086 -14.071815 4294967295
23.345039 14.818829 -13.94871 4294967295
23.345482 8.0878286 -13.87077 4294967295
23.346886 9.0485182 -13.977518 4294967295
23.36569 8.4078875 -13.820549 4294967295
23.366043 9.2085485 -13.913063 4294967295
23.409031 10.169333 -13.839108 4294967295
23.415117 13.691719 -14.226369 4294967295
23.419113 9.84904 -13.757671 4294967295
23.469513 14.493766 -14.084171 4294967295
23.472075 10.165359 -14.278531 4294967295
23.49736 15.13518 -14.038482 4294967295
23.518465 11.606159 -14.24632 4294967295
23.522825 11.126015 -14.171019 4294967295
23.538952 9.8453102 -13.950652 4294967295
23.540741 8.5641775 -13.792463 4294967295
23.58046 12.887819 -14.127684 4294967295
23.58717 11.927295 -13.985792 4294967295
23.589397 12.407689 -14.032524 4294967295
23.591299 9.6851587 -13.70462 4294967295
23.60103 14.329131 -14.207596 4294967295
23.604168 13.848969 -14.13761 4294967295
23.605608 14.649434 -14.225326 4294967295
23.606144 13.208609 -14.053853 4294967295
23.606249 10.806466 -13.771386 4294967295
23.606283 11.767435 -13.884061 4294967295
23.614582 10.966708 -13.754022 4294967295
23.615274 10.486156 -13.694596 4294967295
23.619432 8.4010506 -14.144842 4294967295
23.620872 14.970126 -14.196712 4294967295
23.634047 8.0807238 -14.043883 4294967295
23.6367 10.001625 -14.25783 4294967295
23.636942 14.170148 -14.033049 4294967295
23.646376 13.049411 -13.86053 4294967295
23.665171 14.811589 -13.985811 4294967295
23.665611 8.7208614 -13.982154 4294967295
23.672581 8.2404165 -13.895546 4294967295
23.68078 15.132435 -13.955719 4294967295
23.683731 10.642094 -14.129073 4294967295
23.6901 9.3612328 -13.951134 4294967295
23.697443 11.442648 -14.163574 4294967295
23.698128 12.40309 -14.273315 4294967295
23.700253 9.0409174 -13.869524 4294967295
23.700834 10.161856 -13.998557 4294967295
23.707726 11.28267 -14.100215 4294967295
23.709402 7.9196644 -13.69825 4294967295
23.713032 9.5213223 -13.870497 4294967295
23.723103 9.8416204 -13.864427 4294967295
23.730164 10.96265 -13.965371 4294967295
23.739384 14.004699 -14.28239 4294967295
23.742243 10.802604 -13.894215 4294967295
23.756168 13.364825 -14.134521 4294967295
23.763243 9.2008209 -13.615171 4294967295
23.776869 13.845692 -14.101198 4294967295
23.793043 12.56499 -13.880777 4294967295
23.795731 8.7173519 -14.129989 4294967295
23.852493 12.079206 -14.278544 4294967295
23.865654 13.039821 -14.33423 4294967295
