# .PCD v0.7 - Point Cloud Data file format
VERSION 0.7
FIELDS x y z rgb
SIZE 4 4 4 4
TYPE F F F U
COUNT 1 1 1 1
WIDTH 1121
HEIGHT 1
VIEWPOINT 0 0 0 1 0 0 0
POINTS 1121
DATA ascii
288.89929 -61.220486 -28.833273 4294967295
288.89987 -49.012341 -28.402546 4294967295
288.9068 -48.48938 -29.010715 4294967295
288.92783 -60.809139 -28.218307 4294967295
288.93161 -48.053444 -28.607811 4294967295
288.94235 -60.321396 -28.396126 4294967295
288.94711 -59.781208 -29.125494 4294967295
288.95477 -47.609333 -28.297148 4294967295
288.97659 -47.158333 -28.064917 4294967295
288.98035 -46.621124 -28.851259 4294967295
288.98154 -59.400562 -28.18088 4294967295
288.98901 -58.875446 -28.755833 4294967295
289.00293 -58.384903 -28.968624 4294967295
289.03442 -57.423885 -29.184616 4294967295
289.03644 -57.997898 -28.079416 4294967295
289.05502 -56.968903 -29.019485 4294967295
289.10248 -56.09042 -28.343937 4294967295
289.12054 -55.621857 -28.321032 4294967295
289.12546 -55.085823 -29.035507 4294967295
289.15424 -54.672058 -28.413767 4294967295
289.17816 -53.673058 -29.052996 4294967295
289.17838 -54.233978 -28.054808 4294967295
289.19882 -53.217659 -28.886265 4294967295
289.21481 -52.738785 -28.980225 4294967295
289.24963 -51.79528 -29.010275 4294967295
289.24985 -52.354431 -28.014677 4294967295
289.27362 -51.355965 -28.658342 4294967295
289.29239 -50.890682 -28.598618 4294967295
289.32025 -50.469673 -28.032667 4294967295
289.32913 -49.956234 -28.521784 4294967295
289.37082 -61.259499 -28.558231 4294967295
289.37173 -49.04961 -28.121704 4294967295
289.38721 -48.568329 -28.243984 4294967295
289.40613 -48.10342 -28.176384 4294967295
289.40765 -47.556496 -29.070145 4294967295
289.42606 -59.859234 -28.438541 4294967295
289.43008 -47.108479 -28.806505 4294967295
289.44858 -59.41404 -28.17107 4294967295
289.45148 -58.866417 -28.984089 4294967295
289.48157 -58.460403 -28.300625 4294967295
289.4953 -57.969341 -28.518108 4294967295
289.52203 -56.983829 -28.994808 4294967295
289.56348 -56.634285 -27.690563 4294967295
289.57303 -56.122387 -28.13488 4294967295
289.59772 -55.127449 -28.719463 4294967295
289.59897 -55.693146 -27.683304 4294967295
289.62714 -54.715237 -28.079594 4294967295
289.63623 -54.202038 -28.54768 4294967295
289.65814 -53.752304 -28.316906 4294967295
289.67261 -53.265915 -28.491894 4294967295
289.68927 -52.790184 -28.549408 4294967295
289.71561 -52.361584 -28.078617 4294967295
289.73453 -51.341125 -28.972176 4294967295
289.78259 -50.46069 -28.282932 4294967295
289.80679 -50.020927 -27.928272 4294967295
289.82941 -49.573307 -27.661297 4294967295
289.85043 -48.564674 -28.43774 4294967295
289.87259 -48.114891 -28.19453 4294967295
289.89505 -47.11412 -28.893997 4294967295
289.91647 -46.660912 -28.690197 4294967295
289.99863 -57.606674 -27.498222 4294967295
290.00775 -57.092735 -27.960289 4294967295
290.03186 -56.653954 -27.614971 4294967295
290.04132 -56.142372 -28.05574 4294967295
290.06274 -55.689999 -27.855869 4294967295
290.0733 -55.184151 -28.238747 4294967295
290.09775 -54.746613 -27.875084 4294967295
290.10052 -54.203274 -28.674709 4294967295
290.13345 -53.806538 -27.858093 4294967295
290.14066 -53.285362 -28.418068 4294967295
290.15805 -52.813225 -28.435184 4294967295
290.1778 -52.352516 -28.324474 4294967295
290.20355 -51.920074 -27.894184 4294967295
290.21637 -51.426399 -28.152927 4294967295
290.22333 -50.905407 -28.724483 4294967295
290.24359 -50.44698 -28.587048 4294967295
290.26291 -49.984043 -28.499851 4294967295
290.30048 -49.60527 -27.4426 4294967295
290.3063 -49.079792 -28.073139 4294967295
290.3215 -48.597702 -28.205162 4294967295
290.34738 -48.164082 -27.772404 4294967295
290.37228 -47.725815 -27.39027 4294967295
290.4035 -46.765331 -27.609116 4294967295
290.53305 -55.719418 -27.673996 4294967295
290.5433 -55.212688 -28.06601 4294967295
290.57455 -54.806808 -27.35429 4294967295
290.58844 -54.317719 -27.553925 4294967295
290.60773 -53.854206 -27.472031 4294967295
290.63571 -52.877678 -27.858746 4294967295
290.66937 -52.481499 -27.0219 4294967295
290.68881 -52.018265 -26.933102 4294967295
290.68881 -51.465488 -27.856537 4294967295
290.75491 -50.112305 -27.177704 4294967295
290.77548 -49.654324 -27.027084 4294967295
290.77881 -49.118408 -27.776623 4294967295
290.79959 -48.661469 -27.615288 4294967295
290.81342 -48.17334 -27.816532 4294967295
290.8454 -47.765739 -27.075249 4294967295
290.85788 -47.271748 -27.344841 4294967295
290.86395 -46.749802 -27.947826 4294967295
291.08627 -53.367889 -27.785255 4294967295
291.11783 -52.4086 -27.983673 4294967295
291.15799 -51.489029 -27.736008 4294967295
291.15878 -52.0439 -26.789371 4294967295
291.16739 -50.980869 -28.160301 4294967295
291.20602 -50.604034 -27.089405 4294967295
291.22092 -50.120316 -27.234493 4294967295
291.24017 -49.107006 -28.058945 4294967295
291.24643 -49.684052 -26.834217 4294967295
291.27505 -48.163616 -28.082233 4294967295
291.31104 -47.772331 -27.151127 4294967295
291.31641 -47.248074 -27.777897 4294967295
291.34091 -46.806412 -27.432922 4294967295
291.66113 -50.564251 -27.69109 4294967295
291.69894 -50.181358 -26.683212 4294967295
291.711 -49.685509 -26.966869 4294967295
291.72568 -48.654221 -28.001854 4294967295
291.73178 -49.22784 -26.811558 4294967295
291.75589 -48.237099 -27.376659 4294967295
291.76593 -47.733574 -27.758598 4294967295
291.79227 -47.299355 -27.327885 4294967295
291.80386 -46.802753 -27.631126 4294967295
292.18613 -49.186478 -27.440235 4294967295
292.28973 -46.894524 -26.700348 4294967295
243.77417 -45.87252 -44.899788 4294967295
243.77895 -46.243462 -46.015953 4294967295
244.22227 -46.346008 -44.965836 4294967295
244.23476 -45.901733 -44.708328 4294967295
244.27306 -45.345478 -45.772308 4294967295
244.2778 -44.934555 -45.119846 4294967295
244.29021 -44.490314 -44.858795 4294967295
244.30687 -44.027737 -44.81538 4294967295
244.69473 -46.322502 -45.392532 4294967295
244.71942 -45.824596 -45.768257 4294967295
244.72363 -45.417496 -45.073948 4294967295
244.75317 -44.898449 -45.702896 4294967295
244.77477 -44.025261 -45.001244 4294967295
244.78482 -43.591476 -44.611542 4294967295
244.80472 -43.114796 -44.737354 4294967295
244.82356 -42.642776 -44.807617 4294967295
244.84283 -42.169094 -44.899094 4294967295
244.85497 -41.725945 -44.616444 4294967295
245.13957 -46.422726 -44.370018 4294967295
245.16348 -45.927364 -44.711296 4294967295
245.19611 -45.393051 -45.516129 4294967295
245.21469 -44.922215 -45.574745 4294967295
245.22638 -44.48233 -45.264488 4294967295
245.25615 -43.573555 -44.984528 4294967295
245.28209 -43.070133 -45.435936 4294967295
245.30229 -42.20311 -44.643616 4294967295
245.32793 -41.701393 -45.078957 4294967295
245.32806 -41.310905 -44.146599 4294967295
245.35753 -40.792629 -44.78894 4294967295
245.36401 -40.37402 -44.19627 4294967295
245.38261 -39.902966 -44.254272 4294967295
245.41026 -39.393204 -44.799492 4294967295
245.41478 -38.982361 -44.099998 4294967295
245.43723 -38.495026 -44.365013 4294967295
245.4633 -37.599983 -43.881607 4294967295
245.61336 -46.392223 -44.878654 4294967295
245.61951 -45.978554 -44.261311 4294967295
245.67009 -44.974442 -45.108601 4294967295
245.68802 -44.506462 -45.13166 4294967295
245.70613 -43.650852 -44.210789 4294967295
245.72566 -43.1754 -44.320305 4294967295
245.74864 -42.684429 -44.619537 4294967295
245.7601 -42.245342 -44.287807 4294967295
245.77441 -41.793274 -44.112312 4294967295
245.80095 -41.286789 -44.606178 4294967295
245.8143 -40.838932 -44.378319 4294967295
245.82776 -40.390568 -44.154503 4294967295
245.85956 -39.861259 -44.941338 4294967295
245.8709 -39.422153 -44.601761 4294967295
245.88254 -38.981506 -44.278244 4294967295
245.90492 -38.493984 -44.546696 4294967295
245.92174 -38.030704 -44.50856 4294967295
245.93454 -37.584736 -44.248081 4294967295
245.94931 -37.129963 -44.098228 4294967295
245.97357 -36.634911 -44.468956 4294967295
246.07385 -46.422489 -44.675407 4294967295
246.09503 -45.938988 -44.879128 4294967295
246.09671 -45.547394 -43.998428 4294967295
246.12439 -45.033272 -44.564178 4294967295
246.13251 -44.610897 -44.040993 4294967295
246.1539 -44.126484 -44.256226 4294967295
246.20447 -43.12199 -45.124535 4294967295
246.21741 -42.676945 -44.869564 4294967295
246.23543 -42.208462 -44.898384 4294967295
246.24846 -41.762707 -44.648563 4294967295
246.26614 -41.295654 -44.658989 4294967295
246.26878 -40.896713 -43.825523 4294967295
246.29465 -40.39262 -44.293152 4294967295
246.33505 -39.435875 -44.595581 4294967295
246.34567 -39.000343 -44.207672 4294967295
246.37166 -38.49638 -44.684875 4294967295
246.37299 -38.101704 -43.772171 4294967295
246.40642 -37.565212 -44.669182 4294967295
246.42554 -37.091927 -44.760422 4294967295
246.43382 -36.665955 -44.239693 4294967295
246.47488 -35.707142 -44.580879 4294967295
246.49211 -35.242081 -44.56543 4294967295
246.52866 -34.303078 -44.652016 4294967295
246.53773 -46.437126 -44.655384 4294967295
246.54962 -45.998077 -44.336258 4294967295
246.55872 -45.572182 -43.858673 4294967295
246.58817 -45.048557 -44.536911 4294967295
246.60208 -44.599415 -44.333076 4294967295
246.62184 -44.122498 -44.460136 4294967295
246.66074 -43.171749 -44.680664 4294967295
246.67339 -42.728336 -44.403965 4294967295
246.69617 -42.237373 -44.705315 4294967295
246.71117 -41.782829 -44.562683 4294967295
246.71991 -41.357376 -44.060066 4294967295
246.74081 -40.87534 -44.253487 4294967295
246.76538 -40.376564 -44.657238 4294967295
246.76674 -39.984318 -43.732239 4294967295
246.80281 -39.433083 -44.79694 4294967295
246.82091 -38.964218 -44.831398 4294967295
246.83115 -38.531178 -44.411583 4294967295
246.8391 -38.107903 -43.86274 4294967295
246.86951 -37.58345 -44.605858 4294967295
246.88708 -37.116928 -44.610031 4294967295
246.89571 -36.690338 -44.096748 4294967295
246.92619 -35.77766 -43.833313 4294967295
246.95749 -35.250565 -44.630264 4294967295
246.97879 -34.767681 -44.850792 4294967295
246.99522 -34.306149 -44.789837 4294967295
246.99591 -46.479755 -44.30764 4294967295
247.01303 -46.015472 -44.283966 4294967295
247.02342 -33.403481 -44.392342 4294967295
247.02345 -45.583992 -43.872471 4294967295
247.03627 -32.957256 -44.12141 4294967295
247.05942 -45.027119 -44.945435 4294967295
247.06711 -44.608917 -44.374725 4294967295
247.0733 -32.015938 -44.237686 4294967295
247.07367 -44.195873 -43.737064 4294967295
247.08202 -31.586926 -43.725395 4294967295
247.09927 -43.690254 -44.20768 4294967295
247.11293 -43.242527 -43.98262 4294967295
247.15283 -42.28627 -44.26828 4294967295
247.17918 -41.777931 -44.783779 4294967295
247.18773 -41.354321 -44.259941 4294967295
247.19743 -40.925037 -43.80109 4294967295
247.23834 -39.964363 -44.147224 4294967295
247.25131 -39.519325 -43.879105 4294967295
247.31413 -38.072502 -44.484032 4294967295
247.34352 -37.165741 -44.152748 4294967295
247.36746 -36.670139 -44.531376 4294967295
247.37912 -36.230469 -44.185753 4294967295
247.39273 -35.781784 -43.954674 4294967295
247.42018 -35.270721 -44.541557 4294967295
247.46431 -46.471817 -44.551804 4294967295
247.47417 -33.865532 -44.629005 4294967295
247.47507 -33.472794 -43.642769 4294967295
247.48727 -45.97805 -44.876118 4294967295
247.49847 -45.543636 -44.502258 4294967295
247.49988 -32.974106 -44.076351 4294967295
247.51564 -45.079216 -44.481163 4294967295
247.52144 -32.489929 -44.317726 4294967295
247.53056 -44.625881 -44.327587 4294967295
247.53754 -44.212067 -43.6991 4294967295
247.54176 -31.62121 -43.441505 4294967295
247.54433 -32.000225 -44.636993 4294967295
247.56665 -31.122814 -43.87925 4294967295
247.57442 -43.269958 -43.808998 4294967295
247.58357 -30.658918 -43.843681 4294967295
247.59657 -42.780727 -44.085346 4294967295
247.60062 -30.194416 -43.815845 4294967295
247.60764 -42.345848 -43.700943 4294967295
247.61552 -29.739145 -43.658482 4294967295
247.63396 -41.836487 -44.226524 4294967295
247.64865 -41.383842 -44.057999 4294967295
247.66383 -40.928715 -43.918533 4294967295
247.6918 -40.41188 -44.545937 4294967295
247.70546 -39.96418 -44.314728 4294967295
247.7431 -39.019138 -44.472343 4294967295
247.75064 -38.600285 -43.871201 4294967295
247.77272 -38.112259 -44.146317 4294967295
247.79631 -37.617374 -44.512207 4294967295
247.8129 -37.155514 -44.456276 4294967295
247.83066 -36.688095 -44.471733 4294967295
247.84683 -36.228092 -44.390778 4294967295
247.84814 -35.836761 -43.410629 4294967295
247.87468 -35.32869 -43.955597 4294967295
247.9093 -34.397598 -43.932297 4294967295
247.92557 -46.499649 -44.377232 4294967295
247.9425 -33.47303 -43.82093 4294967295
247.95248 -45.608929 -43.884125 4294967295
247.96086 -33.002804 -43.871452 4294967295
247.9897 -32.097599 -43.493557 4294967295
247.99745 -44.625374 -44.488739 4294967295
248.01109 -44.178799 -44.253708 4294967295
248.01181 -31.610546 -43.774078 4294967295
248.02034 -31.18391 -43.224442 4294967295
248.04448 -43.254597 -44.152634 4294967295
248.04477 -30.686802 -43.645905 4294967295
248.06261 -30.218845 -43.665524 4294967295
248.08107 -42.314022 -44.249435 4294967295
248.09462 -29.688976 -44.553192 4294967295
248.09718 -41.854733 -44.163681 4294967295
248.10959 -29.233807 -44.397789 4294967295
248.11534 -41.385185 -44.203556 4294967295
248.12137 -28.792414 -44.045643 4294967295
248.12289 -40.968372 -43.590729 4294967295
248.13461 -28.344557 -43.781563 4294967295
248.16672 -39.992012 -44.131798 4294967295
248.17409 -39.575428 -43.506706 4294967295
248.21594 -38.609192 -43.926582 4294967295
248.25816 -37.641693 -44.370995 4294967295
248.28738 -36.73687 -44.012943 4294967295
248.30618 -36.264503 -44.090965 4294967295
248.32166 -35.807808 -43.964615 4294967295
248.33832 -35.345383 -43.912483 4294967295
248.35207 -34.896709 -43.677956 4294967295
248.37817 -34.38998 -44.212158 4294967295
248.38176 -46.555004 -43.880642 4294967295
248.38788 -33.960022 -43.726906 4294967295
248.39233 -46.125294 -43.449219 4294967295
248.41376 -33.454868 -44.245884 4294967295
248.42657 -45.196468 -43.397942 4294967295
248.436 -32.966583 -44.542736 4294967295
248.44002 -32.56258 -43.69931 4294967295
248.45459 -32.109585 -43.515186 4294967295
248.4783 -44.17617 -44.441116 4294967295
248.4817 -43.783375 -43.558155 4294967295
248.48819 -31.569668 -44.520779 4294967295
248.49023 -31.173706 -43.552727 4294967295
248.50241 -30.731232 -43.218842 4294967295
248.5304 -42.779911 -44.41328 4294967295
248.5338 -30.202259 -44.086926 4294967295
248.53493 -42.380379 -43.599613 4294967295
248.54681 -29.756008 -43.805168 4294967295
248.55151 -41.918621 -43.541225 4294967295
248.5687 -29.2701 -44.079082 4294967295
248.56967 -41.448776 -43.581833 4294967295
248.58818 -28.795059 -44.202232 4294967295
248.60141 -28.347626 -43.933235 4294967295
248.61316 -27.906548 -43.570396 4294967295
248.61884 -40.444252 -44.471176 4294967295
248.61964 -40.06242 -43.416603 4294967295
248.63144 -27.436714 -43.61763 4294967295
248.64455 -26.989346 -43.339798 4294967295
248.64595 -39.551651 -43.971672 4294967295
248.65622 -39.121536 -43.513882 4294967295
248.66096 -26.527618 -43.268166 4294967295
248.68025 -38.62265 -43.924324 4294967295
248.69106 -26.00663 -44.064117 4294967295
248.73827 -24.63023 -43.7257 4294967295
248.75052 -36.755974 -43.938446 4294967295
248.78694 -35.816486 -44.026398 4294967295
248.80408 -35.351944 -44.002602 4294967295
248.82092 -34.888836 -43.959541 4294967295
248.84367 -46.58102 -43.727493 4294967295
248.8631 -33.921875 -44.416115 4294967295
248.86862 -45.702766 -43.08223 4294967295
248.87013 -46.066021 -44.29818 4294967295
248.87817 -33.467262 -44.260704 4294967295
248.8791 -33.079582 -43.200356 4294967295
248.8904 -45.213112 -43.354576 4294967295
248.91576 -44.704472 -43.85569 4294967295
248.92914 -32.075829 -44.160358 4294967295
248.93846 -31.64781 -43.635464 4294967295
248.94031 -43.827492 -43.184307 4294967295
248.96783 -31.126247 -44.394409 4294967295
248.96838 -30.738543 -43.306465 4294967295
248.96918 -43.300591 -43.912498 4294967295
248.97728 -42.884071 -43.30698 4294967295
248.97896 -30.303919 -42.860332 4294967295
249.00497 -42.363796 -43.961815 4294967295
249.00763 -29.786003 -43.57634 4294967295
249.01596 -41.931816 -43.540428 4294967295
249.02385 -29.32542 -43.492439 4294967295
249.03946 -41.434006 -43.925873 4294967295
249.04707 -41.019264 -43.286747 4294967295
249.06888 -40.530495 -43.562389 4294967295
249.08485 -40.07188 -43.463642 4294967295
249.09193 -27.855782 -44.494392 4294967295
249.09467 -27.455925 -43.539055 4294967295
249.10345 -27.028374 -42.974293 4294967295
249.10506 -39.591496 -43.637352 4294967295
249.12842 -26.52854 -43.456017 4294967295
249.13748 -38.671932 -43.467319 4294967295
249.14597 -26.061869 -43.457241 4294967295
249.15744 -38.19297 -43.625572 4294967295
249.17201 -37.741394 -43.434456 4294967295
249.18903 -25.093641 -43.977104 4294967295
249.19388 -24.682468 -43.154011 4294967295
249.19562 -37.24419 -43.829094 4294967295
249.20474 -36.819897 -43.283928 4294967295
249.22 -24.178431 -43.713997 4294967295
249.23474 -36.290821 -44.096401 4294967295
249.24741 -23.669209 -44.358612 4294967295
249.24818 -35.844879 -43.8302 4294967295
249.25665 -23.238518 -43.819489 4294967295
249.26181 -35.397781 -43.576393 4294967295
249.26561 -22.808666 -43.260986 4294967295
249.28836 -34.88665 -44.165833 4294967295
249.29794 -21.886898 -43.082623 4294967295
249.31947 -33.973141 -43.911663 4294967295
249.32404 -33.570114 -43.061539 4294967295
249.32703 -46.119232 -43.82486 4294967295
249.332 -45.722404 -43.003521 4294967295
249.35387 -45.231712 -43.288136 4294967295
249.35677 -32.647873 -42.90979 4294967295
249.36034 -33.012131 -44.292686 4294967295
249.37439 -44.748562 -43.485287 4294967295
249.3775 -32.165726 -43.119568 4294967295
249.38844 -44.301083 -43.257355 4294967295
249.41006 -43.812145 -43.525894 4294967295
249.41174 -31.618759 -44.219826 4294967295
249.42014 -31.196112 -43.618851 4294967295
249.44498 -30.694868 -44.100342 4294967295
249.44913 -30.29175 -43.220039 4294967295
249.46097 -29.851952 -42.843925 4294967295
249.47174 -42.363403 -44.126534 4294967295
249.4834 -29.36208 -43.168884 4294967295
249.4847 -41.92173 -43.825111 4294967295
249.5022 -41.455338 -43.825119 4294967295
249.50435 -28.879383 -43.395828 4294967295
249.51541 -41.012032 -43.539394 4294967295
249.54953 -40.083801 -43.479782 4294967295
249.55095 -27.892811 -44.160702 4294967295
249.5625 -39.641319 -43.177742 4294967295
249.56633 -27.436348 -44.019257 4294967295
249.57965 -26.989178 -43.74165 4294967295
249.60107 -26.504944 -44.000736 4294967295
249.60284 -38.680275 -43.529839 4294967295
249.61351 -38.249512 -43.074081 4294967295
249.6245 -26.011763 -44.393784 4294967295
249.63213 -37.777145 -43.146954 4294967295
249.63504 -25.577061 -43.929836 4294967295
249.66098 -25.072796 -44.491432 4294967295
249.66216 -24.67976 -43.401482 4294967295
249.66418 -37.235352 -44.114647 4294967295
249.67844 -24.218668 -43.319176 4294967295
249.67914 -36.782192 -43.944733 4294967295
249.68907 -23.782587 -42.858665 4294967295
249.71533 -23.277315 -43.442459 4294967295
249.72682 -35.407997 -43.618416 4294967295
249.73405 -22.805424 -43.523674 4294967295
249.74484 -22.36833 -43.071747 4294967295
249.75388 -34.893101 -44.258064 4294967295
249.76332 -21.897556 -43.134438 4294967295
249.77388 -34.036186 -43.249893 4294967295
249.78885 -46.146164 -43.660545 4294967295
249.78938 -21.393967 -43.707809 4294967295
249.79221 -33.565517 -43.304237 4294967295
249.79428 -45.748528 -42.848366 4294967295
249.8166 -20.494411 -43.182899 4294967295
249.81749 -45.249638 -43.229557 4294967295
249.83377 -32.600044 -43.741962 4294967295
249.8343 -20.027031 -43.194187 4294967295
249.8544 -32.118191 -43.952354 4294967295
249.85677 -44.292534 -43.515656 4294967295
249.86201 -31.700565 -43.284615 4294967295
249.88054 -43.790985 -43.937328 4294967295
249.89847 -30.760571 -43.378712 4294967295
249.90749 -42.903252 -43.391998 4294967295
249.92503 -29.868376 -42.805321 4294967295
249.92732 -42.423897 -43.54842 4294967295
249.94186 -41.973904 -43.346363 4294967295
249.94536 -29.388151 -42.994484 4294967295
249.96043 -41.501602 -43.417152 4294967295
249.96826 -28.895721 -43.358597 4294967295
249.97726 -41.038895 -43.369919 4294967295
249.99654 -40.562836 -43.48819 4294967295
250.00227 -27.967388 -43.289536 4294967295
250.01942 -40.066963 -43.855133 4294967295
250.02179 -27.491501 -43.423256 4294967295
250.02682 -27.083591 -42.573952 4294967295
250.03252 -39.624657 -43.553211 4294967295
250.05499 -39.131363 -43.891579 4294967295
250.06145 -26.53677 -43.738174 4294967295
250.06252 -38.718811 -43.20945 4294967295
250.07445 -38.282188 -42.827175 4294967295
250.08443 -26.044794 -44.112465 4294967295
250.09058 -25.631245 -43.335548 4294967295
250.0907 -37.822189 -42.740433 4294967295
250.1129 -25.142464 -43.664322 4294967295
250.1163 -37.312565 -43.292023 4294967295
250.13504 -36.839497 -43.375946 4294967295
250.1394 -24.634773 -44.278816 4294967295
250.14476 -24.224075 -43.446571 4294967295
250.15149 -36.378723 -43.300976 4294967295
250.17969 -35.481323 -42.83123 4294967295
250.18437 -23.27029 -43.760506 4294967295
250.19232 -22.847044 -43.101841 4294967295
250.20018 -34.999157 -43.034634 4294967295
250.21404 -22.361578 -43.390144 4294967295
250.22043 -34.518303 -43.222836 4294967295
250.23926 -34.044891 -43.313625 4294967295
250.2561 -45.777718 -42.65678 4294967295
250.25839 -33.570122 -43.423672 4294967295
250.28125 -45.266636 -43.182014 4294967295
250.28786 -20.478949 -43.647522 4294967295
250.29367 -32.635818 -43.440487 4294967295
250.30562 -44.760239 -43.656082 4294967295
250.31877 -44.31908 -43.353912 4294967295
250.32921 -31.700294 -43.474464 4294967295
250.33934 -19.084206 -43.572819 4294967295
250.34192 -31.257999 -43.140892 4294967295
250.34296 -43.814091 -43.81633 4294967295
250.35995 -43.350655 -43.78112 4294967295
250.36188 -30.779131 -43.310196 4294967295
250.36472 -18.192596 -42.901405 4294967295
250.3703 -42.925373 -43.282501 4294967295
250.38582 -30.280569 -43.755665 4294967295
250.3862 -17.708977 -43.176689 4294967295
250.39146 -42.438053 -43.535614 4294967295
250.39725 -29.84444 -43.331917 4294967295
250.4108 -29.397472 -43.055874 4294967295
250.41438 -41.940849 -43.912392 4294967295
250.42993 -41.48568 -43.775112 4294967295
250.4332 -28.906769 -43.396088 4294967295
250.43803 -28.502571 -42.508583 4294967295
250.44397 -41.03899 -43.531693 4294967295
250.47525 -40.127106 -43.268768 4294967295
250.47641 -27.933907 -43.965698 4294967295
250.4846 -27.512814 -43.314499 4294967295
250.48576 -39.699562 -42.778625 4294967295
250.50848 -27.015518 -43.759346 4294967295
250.50922 -39.199871 -43.194294 4294967295
250.54025 -38.288864 -42.911621 4294967295
250.54785 -26.062014 -44.062508 4294967295
250.55092 -25.664534 -43.049137 4294967295
250.56662 -37.773655 -43.532925 4294967295
250.57582 -25.162924 -43.56662 4294967295
250.5829 -37.313934 -43.44606 4294967295
250.60336 -36.831375 -43.653778 4294967295
250.61543 -23.82395 -42.655205 4294967295
250.62033 -36.36795 -43.614883 4294967295
250.62643 -35.963188 -42.808815 4294967295
250.63632 -23.341534 -42.891617 4294967295
250.65143 -35.456272 -43.33651 4294967295
250.66476 -22.43861 -42.4226 4294967295
250.66577 -22.819614 -43.733353 4294967295
250.66876 -34.990791 -43.322639 4294967295
250.68417 -34.535557 -43.172466 4294967295
250.69058 -21.933697 -43.009155 4294967295
250.70551 -21.478882 -42.824638 4294967295
250.71364 -33.631771 -42.777657 4294967295
250.71678 -46.17564 -43.618256 4294967295
250.71867 -21.031891 -42.515476 4294967295
250.72295 -45.777382 -42.813995 4294967295
250.74588 -45.278351 -43.197044 4294967295
250.76062 -44.828419 -42.998775 4294967295
250.76459 -32.614941 -43.907021 4294967295
250.76837 -20.032366 -43.555717 4294967295
250.78181 -19.584076 -43.266064 4294967295
250.78302 -32.143921 -43.971062 4294967295
250.78444 -31.761158 -42.826614 4294967295
250.79514 -19.136204 -42.966099 4294967295
250.79626 -43.891617 -43.040855 4294967295
250.8084 -18.688326 -42.662464 4294967295
250.81073 -43.443016 -42.823078 4294967295
250.81528 -30.849482 -42.524681 4294967295
250.83032 -42.96405 -42.971786 4294967295
250.83658 -18.174652 -43.422363 4294967295
250.83954 -30.348125 -43.005009 4294967295
250.84486 -42.514889 -42.758301 4294967295
250.84921 -17.729498 -43.073326 4294967295
250.85854 -29.873995 -43.109421 4294967295
250.86099 -17.287802 -42.662956 4294967295
250.88315 -29.371256 -43.617722 4294967295
250.88457 -16.79495 -43.093327 4294967295
250.88509 -28.983639 -42.501869 4294967295
250.89627 -16.353308 -42.676693 4294967295
250.90915 -41.046967 -43.595825 4294967295
250.91161 -28.471552 -43.145493 4294967295
250.91759 -28.062801 -42.317101 4294967295
250.91896 -15.864439 -43.046093 4294967295
250.92618 -40.583374 -43.560734 4294967295
250.92709 -15.437749 -42.371468 4294967295
250.93997 -40.138344 -43.293373 4294967295
250.95103 -27.516485 -43.45982 4294967295
250.95752 -39.671665 -43.295219 4294967295
250.99744 -38.343719 -42.382004 4294967295
251.00479 -26.111126 -43.545837 4294967295
251.01042 -25.702911 -42.68787 4294967295
251.02933 -37.795883 -43.418655 4294967295
251.03932 -37.371559 -42.875854 4294967295
251.041 -24.790977 -42.365082 4294967295
251.0448 -25.15395 -43.904945 4294967295
251.0549 -36.915794 -42.73439 4294967295
251.07037 -36.46051 -42.585312 4294967295
251.08359 -23.821117 -42.907978 4294967295
251.09445 -35.957382 -43.059898 4294967295
251.11009 -22.928326 -42.288158 4294967295
251.11684 -35.463917 -43.412399 4294967295
251.13864 -34.603485 -42.449501 4294967295
251.14011 -22.40229 -43.19471 4294967295
251.15068 -21.96846 -42.688744 4294967295
251.16428 -46.292225 -42.400787 4294967295
251.16917 -34.065582 -43.39719 4294967295
251.1698 -21.494213 -42.804443 4294967295
251.1801 -21.061283 -42.275894 4294967295
251.18512 -45.804924 -42.641899 4294967295
251.19733 -45.370953 -42.253059 4294967295
251.1981 -33.165733 -42.950214 4294967295
251.20952 -20.539146 -43.143433 4294967295
251.21346 -32.710789 -42.791328 4294967295
251.22086 -20.101059 -42.691933 4294967295
251.22598 -44.835827 -43.065582 4294967295
251.23561 -32.2192 -43.129967 4294967295
251.24887 -19.586054 -43.45911 4294967295
251.25012 -44.328804 -43.549271 4294967295
251.25238 -43.955399 -42.430977 4294967295
251.25311 -31.75272 -43.12825 4294967295
251.2576 -19.159679 -42.816467 4294967295
251.27129 -31.282688 -43.175491 4294967295
251.27173 -18.708488 -42.565689 4294967295
251.27205 -43.475544 -42.588036 4294967295
251.28477 -30.837528 -42.878815 4294967295
251.28848 -18.245108 -42.509384 4294967295
251.29842 -30.391272 -42.594162 4294967295
251.30333 -42.925583 -43.5975 4294967295
251.30701 -17.773819 -42.581528 4294967295
251.31429 -42.498745 -43.115158 4294967295
251.33134 -17.276464 -43.08271 4294967295
251.33136 -29.468769 -42.437607 4294967295
251.33154 -42.033714 -43.096016 4294967295
251.3403 -16.848034 -42.450863 4294967295
251.34296 -41.603706 -42.645714 4294967295
251.3533 -28.978813 -42.764221 4294967295
251.35854 -16.378002 -42.503128 4294967295
251.3654 -41.107605 -43.008537 4294967295
251.37752 -15.904781 -42.609261 4294967295
251.38002 -40.658237 -42.794064 4294967295
251.38403 -28.067762 -42.44313 4294967295
251.40001 -40.176971 -42.975777 4294967295
251.40323 -27.592337 -42.566071 4294967295
251.41609 -27.149431 -42.219959 4294967295
251.42149 -39.687088 -43.267685 4294967295
251.43756 -26.662437 -42.511478 4294967295
251.44102 -39.208702 -43.417259 4294967295
251.45064 -38.788467 -42.831116 4294967295
251.45105 -14.022758 -42.862 4294967295
251.46375 -26.151726 -43.153664 4294967295
251.47275 -38.295124 -43.170631 4294967295
251.47739 -25.70475 -42.864841 4294967295
251.48561 -37.855621 -42.824127 4294967295
251.49704 -25.227406 -43.022377 4294967295
251.50114 -37.400364 -42.676765 4294967295
251.50485 -24.809244 -42.300079 4294967295
251.51871 -36.93354 -42.67775 4294967295
251.53569 -24.276237 -43.2901 4294967295
251.53571 -36.469666 -42.640205 4294967295
251.54742 -36.036255 -42.204254 4294967295
251.55684 -23.791674 -43.56163 4294967295
251.58675 -22.883987 -43.177471 4294967295
251.58733 -35.074951 -42.566216 4294967295
251.59727 -22.451458 -42.654915 4294967295
251.605 -34.607319 -42.577263 4294967295
251.61604 -21.978704 -42.746941 4294967295
251.62407 -34.131943 -42.691742 4294967295
251.63277 -21.515854 -42.686333 4294967295
251.63997 -46.234753 -43.227871 4294967295
251.64175 -45.868462 -42.045349 4294967295
251.6535 -33.598629 -43.584267 4294967295
251.65393 -33.227352 -42.301926 4294967295
251.65424 -21.030115 -42.982521 4294967295
251.66681 -20.58717 -42.609657 4294967295
251.66707 -45.352142 -42.630169 4294967295
251.67601 -32.73518 -42.644264 4294967295
251.68425 -44.887516 -42.604771 4294967295
251.69351 -20.076708 -43.300056 4294967295
251.69855 -32.240833 -43.019974 4294967295
251.705 -19.63884 -42.84375 4294967295
251.71237 -43.997429 -42.082661 4294967295
251.71457 -31.782495 -42.906475 4294967295
251.7347 -43.500641 -42.442924 4294967295
251.74011 -31.271828 -43.512367 4294967295
251.74231 -18.694824 -43.014057 4294967295
251.75894 -30.798214 -43.611641 4294967295
251.76009 -42.984886 -43.036583 4294967295
251.7601 -18.226835 -43.035645 4294967295
251.77135 -30.359703 -43.223534 4294967295
251.7719 -42.553822 -42.603428 4294967295
251.77214 -17.785664 -42.619972 4294967295
251.79294 -29.499023 -42.204391 4294967295
251.79575 -17.290882 -43.079453 4294967295
251.80402 -41.63829 -42.381824 4294967295
251.80846 -16.846245 -42.715912 4294967295
251.82397 -41.156738 -42.563789 4294967295
251.82516 -16.383255 -42.652977 4294967295
251.8504 -40.635387 -43.241989 4294967295
251.85608 -28.04225 -43.00489 4294967295
251.86906 -15.409773 -43.325462 4294967295
251.86967 -40.158298 -43.374142 4294967295
251.87077 -15.014231 -42.120728 4294967295
251.87425 -27.572205 -43.05397 4294967295
251.87781 -39.748825 -42.658775 4294967295
251.89653 -14.510603 -42.746471 4294967295
251.8992 -26.691891 -42.283913 4294967295
251.90425 -39.228249 -43.337704 4294967295
251.91237 -14.051271 -42.6185 4294967295
251.92281 -26.193317 -42.747219 4294967295
251.92342 -38.751793 -43.46434 4294967295
251.92902 -13.588369 -42.550777 4294967295
251.93327 -38.331333 -42.878666 4294967295
251.94029 -25.726776 -42.744408 4294967295
251.9433 -37.909485 -42.304893 4294967295
251.94563 -13.125594 -42.480103 4294967295
251.96753 -12.639603 -42.815804 4294967295
251.9689 -24.826611 -42.248459 4294967295
251.96936 -37.391918 -42.957199 4294967295
251.98343 -12.18003 -42.689301 4294967295
251.98993 -36.907173 -43.191452 4294967295
251.99748 -24.303051 -43.096672 4294967295
252.00101 -11.713062 -42.69249 4294967295
252.01091 -36.420238 -43.456608 4294967295
252.01176 -36.05191 -42.174953 4294967295
252.02153 -11.233384 -42.923645 4294967295
252.03389 -10.788714 -42.526123 4294967295
252.03801 -35.533821 -42.846649 4294967295
252.05609 -35.063946 -42.888977 4294967295
252.07037 -34.616158 -42.638664 4294967295
252.07111 -22.418888 -43.369194 4294967295
252.0787 -22.002008 -42.603554 4294967295
252.09407 -46.314674 -42.44136 4294967295
252.09563 -34.104641 -43.23563 4294967295
252.09692 -21.531822 -42.656319 4294967295
252.11658 -33.25264 -42.143425 4294967295
252.11754 -21.049831 -42.893982 4294967295
252.12834 -20.616215 -42.374355 4294967295
252.13081 -45.37014 -42.570831 4294967295
252.14163 -32.742531 -42.728119 4294967295
252.15196 -20.119457 -42.846748 4294967295
252.16272 -32.25565 -43.002861 4294967295
252.16315 -19.683764 -42.3535 4294967295
252.16884 -44.417538 -42.799316 4294967295
252.17778 -31.803066 -42.810699 4294967295
252.17987 -43.992767 -42.295708 4294967295
252.18481 -19.196754 -42.675465 4294967295
252.19579 -18.761791 -42.163193 4294967295
252.19852 -43.518677 -42.382965 4294967295
252.21489 -18.287216 -42.286507 4294967295
252.22092 -43.020615 -42.761898 4294967295
252.22102 -30.455204 -42.084167 4294967295
252.2305 -17.829439 -42.137192 4294967295
252.23209 -42.594582 -42.266392 4294967295
252.24652 -29.943882 -42.704819 4294967295
252.25269 -17.340397 -42.499641 4294967295
252.25961 -42.064137 -43.045113 4294967295
252.26122 -29.492973 -42.482227 4294967295
252.27174 -29.064747 -41.936188 4294967295
252.27365 -16.857357 -42.767498 4294967295
252.27403 -41.61718 -42.803627 4294967295
252.29027 -16.394947 -42.695595 4294967295
252.29156 -28.585186 -42.114487 4294967295
252.2934 -41.139034 -42.945602 4294967295
252.30608 -15.936207 -42.561367 4294967295
252.30917 -40.683353 -42.809875 4294967295
252.31882 -28.065014 -42.875748 4294967295
252.32169 -40.248135 -42.417084 4294967295
252.34743 -39.730019 -43.060951 4294967295
252.3497 -27.15435 -42.547882 4294967295
252.35345 -39.335155 -42.156574 4294967295
252.35815 -14.538183 -42.520267 4294967295
252.37517 -38.842236 -42.486053 4294967295
252.37685 -26.635731 -43.302151 4294967295
252.38304 -14.03772 -43.098541 4294967295
252.39165 -38.381977 -42.402981 4294967295
252.39359 -26.173332 -43.242023 4294967295
252.40692 -37.928986 -42.225784 4294967295
252.40852 -25.720577 -43.039436 4294967295
252.41187 -13.132722 -42.606895 4294967295
252.42494 -12.686041 -42.254005 4294967295
252.43614 -24.826778 -42.452789 4294967295
252.44662 -36.967003 -42.590485 4294967295
252.44798 -12.194351 -42.691315 4294967295
252.46329 -24.309238 -43.212212 4294967295
252.46663 -36.485176 -42.786453 4294967295
252.46977 -11.708684 -43.027878 4294967295
252.47464 -23.875149 -42.72348 4294967295
252.47641 -11.290115 -42.166531 4294967295
252.4863 -36.005463 -42.95665 4294967295
252.49466 -23.395359 -42.921524 4294967295
252.50807 -35.51326 -43.292885 4294967295
252.51698 -22.528107 -41.9086 4294967295
252.51761 -35.09473 -42.660065 4294967295
252.53081 -34.654018 -42.314888 4294967295
252.54735 -21.994894 -42.929501 4294967295
252.54744 -34.192459 -42.244209 4294967295
252.55992 -46.318787 -42.544991 4294967295
252.56131 -21.546543 -42.645569 4294967295
252.56755 -33.710262 -42.449371 4294967295
252.57027 -45.900707 -41.971043 4294967295
252.57739 -21.08725 -42.528996 4294967295
252.59279 -33.197941 -43.062813 4294967295
252.59454 -20.62228 -42.50029 4294967295
252.59792 -45.365543 -42.779137 4294967295
252.6033 -32.772633 -42.50386 4294967295
252.60931 -20.169472 -42.278809 4294967295
252.6156 -44.89801 -42.789688 4294967295
252.62784 -32.264809 -43.062683 4294967295
252.63161 -19.678656 -42.659317 4294967295
252.63533 -31.85684 -42.260406 4294967295
252.63785 -44.05011 -41.763412 4294967295
252.6478 -19.218683 -42.550724 4294967295
252.65401 -31.383278 -42.35231 4294967295
252.6674 -43.503227 -42.727352 4294967295
252.68109 -18.29377 -42.410103 4294967295
252.68346 -43.046242 -42.609795 4294967295
252.69643 -17.837761 -42.233288 4294967295
252.69658 -42.608513 -42.256367 4294967295
252.70126 -30.379271 -43.33094 4294967295
252.71114 -42.16127 -42.016212 4294967295
252.72235 -17.329678 -42.909153 4294967295
252.73787 -41.634155 -42.756569 4294967295
252.75075 -28.997377 -43.083191 4294967295
252.75798 -16.393589 -42.955414 4294967295
252.76428 -28.553486 -42.760826 4294967295
252.76828 -15.961882 -42.370602 4294967295
252.78139 -40.292835 -42.023952 4294967295
252.78221 -28.084499 -42.793594 4294967295
252.78716 -15.488626 -42.478336 4294967295
252.79382 -27.651058 -42.315514 4294967295
252.80571 -39.78215 -42.572739 4294967295
252.80891 -15.001566 -42.821663 4294967295
252.81357 -39.377533 -41.78944 4294967295
252.81564 -27.160229 -42.662296 4294967295
252.82545 -26.736546 -42.036102 4294967295
252.82907 -14.522285 -43.036522 4294967295
252.84261 -38.836853 -42.72258 4294967295
252.85443 -26.206116 -42.964653 4294967295
252.85944 -38.374748 -42.664291 4294967295
252.87038 -13.175187 -42.11784 4294967295
252.87061 -37.948383 -42.148148 4294967295
252.87624 -25.71574 -43.314381 4294967295
252.88208 -25.313478 -42.363991 4294967295
252.89172 -12.690565 -42.427551 4294967295
252.89572 -24.867989 -42.046059 4294967295
252.90718 -37.0051 -42.270493 4294967295
252.91833 -12.181801 -43.168182 4294967295
252.91925 -36.572609 -41.824051 4294967295
252.92761 -24.32291 -43.215725 4294967295
252.93568 -23.90765 -42.443756 4294967295
252.94031 -11.308323 -42.09993 4294967295
252.9498 -36.024178 -42.887268 4294967295
252.95645 -23.423237 -42.710411 4294967295
252.95718 -35.620636 -42.059181 4294967295
252.96858 -10.792563 -42.980087 4294967295
252.97375 -22.957775 -42.691391 4294967295
252.97905 -35.126999 -42.411499 4294967295
252.99092 -22.493025 -42.661205 4294967295
252.9985 -34.648239 -42.570171 4294967295
253.00726 -22.032539 -42.56488 4294967295
253.01648 -34.178753 -42.60675 4294967295
253.02435 -21.568188 -42.527332 4294967295
253.04216 -33.662056 -43.276531 4294967295
253.04279 -45.859295 -42.612667 4294967295
253.04427 -21.088835 -42.723663 4294967295
253.05276 -20.669497 -41.979431 4294967295
253.05957 -45.397701 -42.552048 4294967295
253.0658 -32.79845 -42.337517 4294967295
253.07607 -44.938148 -42.466759 4294967295
253.07831 -20.160786 -42.639 4294967295
253.08675 -32.310917 -42.619514 4294967295
253.08809 -19.734184 -42.000416 4294967295
253.09854 -44.437199 -42.875793 4294967295
253.1046 -31.842232 -42.646393 4294967295
253.10558 -19.267492 -41.995758 4294967295
253.11673 -31.407961 -42.199829 4294967295
253.11818 -43.956032 -43.050797 4294967295
253.12846 -43.539047 -42.452652 4294967295
253.13379 -18.745602 -42.87989 4294967295
253.14938 -30.488571 -41.99968 4294967295
253.15199 -43.031387 -42.948807 4294967295
253.15236 -18.273615 -42.966515 4294967295
253.1622 -17.846245 -42.326584 4294967295
253.17755 -17.390282 -42.14756 4294967295
253.1778 -42.160995 -42.180328 4294967295
253.19263 -29.506451 -42.677696 4294967295
253.20467 -29.072155 -42.219345 4294967295
253.20596 -41.62233 -43.063934 4294967295
253.21202 -41.232956 -42.110016 4294967295
253.2215 -16.411995 -42.886265 4294967295
253.22554 -40.793011 -41.775108 4294967295
253.22708 -28.57655 -42.627995 4294967295
253.2292 -15.994335 -42.066444 4294967295
253.23737 -28.152107 -42.023247 4294967295
253.24554 -40.30962 -41.979439 4294967295
253.24837 -27.723104 -41.477291 4294967295
253.25041 -15.509164 -42.3731 4294967295
253.27112 -15.026663 -42.638641 4294967295
253.27541 -39.760307 -43.012882 4294967295
253.28044 -27.171955 -42.692051 4294967295
253.28397 -14.582939 -42.245728 4294967295
253.28712 -26.767687 -41.784077 4294967295
253.29399 -14.152685 -41.615864 4294967295
253.30879 -26.27689 -42.131371 4294967295
253.32124 -13.638494 -42.430042 4294967295
253.32222 -38.398735 -42.528252 4294967295
253.32948 -25.792118 -42.394104 4294967295
253.33525 -37.96162 -42.149166 4294967295
253.33784 -13.176037 -42.353958 4294967295
253.35121 -12.729254 -42.002029 4294967295
253.35147 -25.299892 -42.770229 4294967295
253.35921 -24.888737 -41.944099 4294967295
253.36154 -37.437336 -42.887344 4294967295
253.36974 -37.031387 -42.103401 4294967295
253.37332 -12.240499 -42.386238 4294967295
253.38086 -24.398563 -42.291145 4294967295
253.38466 -11.802979 -41.864841 4294967295
253.39883 -23.929234 -42.328453 4294967295
253.40234 -11.335188 -41.878227 4294967295
253.41678 -36.020363 -43.111927 4294967295
253.41798 -10.877183 -41.715271 4294967295
253.42087 -23.437246 -42.709488 4294967295
253.42957 -35.584435 -42.710625 4294967295
253.42982 -23.018103 -41.984856 4294967295
253.44232 -35.148266 -42.30822 4294967295
253.45076 -22.532394 -42.272133 4294967295
253.46013 -34.679718 -42.331047 4294967295
253.4725 -34.245712 -41.893806 4294967295
253.48985 -33.779884 -41.87822 4294967295
253.49364 -46.310001 -42.952202 4294967295
253.49579 -21.173126 -41.627144 4294967295
253.50578 -45.882355 -42.493572 4294967295
253.51668 -33.25441 -42.666206 4294967295
253.52451 -20.645428 -42.578674 4294967295
253.52917 -45.373489 -42.992828 4294967295
253.53659 -32.772621 -42.870789 4294967295
253.53931 -20.193386 -42.346382 4294967295
253.54164 -32.384163 -41.806786 4294967295
253.54564 -44.914543 -42.902626 4294967295
253.54915 -19.767815 -41.690224 4294967295
253.55386 -44.514256 -42.109932 4294967295
253.55824 -31.922993 -41.726776 4294967295
253.57819 -43.999126 -42.689812 4294967295
253.57903 -19.234909 -42.743366 4294967295
253.58514 -31.397879 -42.525944 4294967295
253.60257 -30.931799 -42.516739 4294967295
253.60411 -18.354336 -41.888168 4294967295
253.60898 -43.095974 -42.324089 4294967295
253.61305 -30.508389 -41.913933 4294967295
253.63213 -17.83215 -42.78791 4294967295
253.63283 -42.241135 -41.359947 4294967295
253.63623 -30.006796 -42.398193 4294967295
253.64403 -17.39493 -42.304665 4294967295
253.65735 -29.5182 -42.70488 4294967295
253.66103 -41.699532 -42.27586 4294967295
253.66582 -29.106625 -41.925716 4294967295
253.67749 -28.675179 -41.420475 4294967295
253.68112 -16.450705 -42.47966 4294967295
253.68303 -41.201427 -42.662697 4294967295
253.69475 -16.00412 -42.141708 4294967295
253.70059 -40.734497 -42.666012 4294967295
253.70369 -28.155729 -42.168095 4294967295
253.70769 -15.560747 -41.745087 4294967295
253.72295 -27.678516 -42.316589 4294967295
253.73337 -39.816788 -42.470142 4294967295
253.74269 -27.198393 -42.509026 4294967295
253.74855 -26.801304 -41.495956 4294967295
253.75281 -14.575686 -42.614288 4294967295
253.75639 -39.312412 -42.944733 4294967295
253.76562 -14.132829 -42.204041 4294967295
253.76633 -38.897816 -42.286552 4294967295
253.78189 -13.672182 -42.096058 4294967295
253.7825 -26.2369 -42.918659 4294967295
253.79002 -25.829315 -42.050655 4294967295
253.79193 -38.376038 -42.986462 4294967295
253.80215 -37.958961 -42.353558 4294967295
253.81659 -25.309395 -42.83485 4294967295
253.82446 -12.701157 -42.747803 4294967295
253.82565 -37.451965 -42.870735 4294967295
253.82704 -12.308199 -41.445801 4294967295
253.83641 -37.030941 -42.281883 4294967295
253.84209 -24.431656 -42.003906 4294967295
253.84848 -36.600815 -41.805344 4294967295
253.85246 -11.802423 -42.132019 4294967295
253.85832 -23.972301 -41.889648 4294967295
253.87184 -11.326452 -42.294128 4294967295
253.87663 -23.500814 -41.957767 4294967295
253.88109 -35.683159 -41.590939 4294967295
253.88832 -10.864647 -42.202957 4294967295
253.90155 -22.991516 -42.602913 4294967295
253.91309 -35.120293 -42.85453 4294967295
253.92097 -22.514076 -42.767357 4294967295
253.92177 -34.712036 -42.080986 4294967295
253.9269 -22.113407 -41.749878 4294967295
253.94664 -21.633938 -41.942673 4294967295
253.94748 -34.191391 -42.797592 4294967295
253.9519 -46.367588 -42.428215 4294967295
253.95973 -33.759312 -42.334915 4294967295
253.96571 -45.928646 -42.100525 4294967295
253.98022 -33.273205 -42.595093 4294967295
253.98683 -20.671322 -42.393063 4294967295
253.98755 -45.429913 -42.478172 4294967295
254.00031 -44.998508 -42.058052 4294967295
254.0009 -32.786098 -42.871597 4294967295
254.00142 -20.220886 -42.134495 4294967295
254.02122 -19.741386 -42.335014 4294967295
254.02585 -44.472542 -42.764633 4294967295
254.026 -31.917105 -41.993366 4294967295
254.03647 -31.495667 -41.367462 4294967295
254.03679 -19.285496 -42.160141 4294967295
254.05101 -43.611839 -41.889549 4294967295
254.05602 -18.809292 -42.310112 4294967295
254.06264 -43.188042 -41.366341 4294967295
254.06552 -18.38633 -41.599434 4294967295
254.06577 -30.953203 -42.40905 4294967295
254.08383 -30.483025 -42.456543 4294967295
254.08554 -17.905754 -41.819107 4294967295
254.09259 -42.630554 -42.467255 4294967295
254.09828 -30.035969 -42.181267 4294967295
254.10434 -42.205734 -41.954235 4294967295
254.10643 -17.420681 -42.115356 4294967295
254.11165 -29.595306 -41.812847 4294967295
254.12366 -41.725903 -42.113052 4294967295
254.13213 -16.909843 -42.841003 4294967295
254.13266 -41.320625 -41.35199 4294967295
254.14163 -16.486065 -42.12886 4294967295
254.1521 -28.62764 -42.291729 4294967295
254.15666 -16.032583 -41.904282 4294967295
254.15923 -40.788662 -42.157116 4294967295
254.18356 -40.273159 -42.764526 4294967295
254.18506 -27.707092 -42.103714 4294967295
254.19368 -15.088362 -42.078049 4294967295
254.19775 -39.830418 -42.465302 4294967295
254.20419 -39.442406 -41.473129 4294967295
254.20769 -27.208759 -42.558418 4294967295
254.21689 -26.793396 -41.811874 4294967295
254.23567 -38.876694 -42.722301 4294967295
254.24515 -26.260637 -42.773556 4294967295
254.25319 -13.651815 -42.697186 4294967295
254.26665 -37.972141 -42.355331 4294967295
254.28642 -24.929138 -41.756279 4294967295
254.28839 -12.717693 -42.710442 4294967295
254.29851 -12.28892 -42.041363 4294967295
254.31052 -36.632542 -41.567154 4294967295
254.31491 -11.827724 -41.939388 4294967295
254.32104 -23.997921 -41.713814 4294967295
254.32851 -11.380611 -41.58387 4294967295
254.3333 -36.12907 -42.042377 4294967295
254.34752 -23.477581 -42.520996 4294967295
254.35512 -35.632721 -42.428978 4294967295
254.35698 -23.058813 -41.790527 4294967295
254.3709 -35.177876 -42.272133 4294967295
254.38103 -22.553143 -42.383057 4294967295
254.39987 -22.078678 -42.501476 4294967295
254.40858 -34.22649 -42.509373 4294967295
254.40936 -46.434334 -41.796799 4294967295
254.4184 -21.606066 -42.592667 4294967295
254.42813 -33.746128 -42.692375 4294967295
254.42941 -21.177361 -41.999783 4294967295
254.43066 -45.938492 -42.13739 4294967295
254.43927 -45.540154 -41.326218 4294967295
254.44434 -33.28833 -42.573441 4294967295
254.44582 -20.716988 -41.896942 4294967295
254.44998 -32.901802 -41.488365 4294967295
254.46143 -45.037693 -41.746479 4294967295
254.46432 -20.244539 -41.983582 4294967295
254.46851 -32.428146 -41.577477 4294967295
254.47647 -44.589737 -41.519047 4294967295
254.49364 -31.910341 -42.27177 4294967295
254.49908 -44.084042 -41.98312 4294967295
254.50058 -19.303963 -42.090851 4294967295
254.50688 -31.472054 -41.879517 4294967295
254.51408 -43.636581 -41.748817 4294967295
254.52284 -31.015572 -41.734825 4294967295
254.5363 -43.13414 -42.178772 4294967295
254.5396 -30.553808 -41.661797 4294967295
254.54805 -42.710983 -41.647064 4294967295
254.55762 -30.083641 -41.705734 4294967295
254.57043 -17.437902 -42.066063 4294967295
254.57193 -42.196205 -42.231674 4294967295
254.57608 -41.82972 -40.99791 4294967295
254.58006 -17.015291 -41.334736 4294967295
254.58052 -29.581432 -42.20047 4294967295
254.59248 -29.15097 -41.68647 4294967295
254.60648 -41.266666 -42.181839 4294967295
254.60883 -16.485874 -42.36895 4294967295
254.61951 -40.83313 -41.768585 4294967295
254.62161 -28.608599 -42.757431 4294967295
254.6236 -16.034286 -42.114784 4294967295
254.63387 -28.176245 -42.267845 4294967295
254.64261 -15.559205 -42.252739 4294967295
254.64371 -27.758968 -41.555882 4294967295
254.64468 -40.309666 -42.473713 4294967295
254.66434 -39.827309 -42.670227 4294967295
254.66568 -15.06212 -42.765606 4294967295
254.66728 -27.253078 -42.11702 4294967295
254.67047 -39.444565 -41.613079 4294967295
254.67778 -14.624989 -42.262188 4294967295
254.68942 -38.967125 -41.745022 4294967295
254.69061 -14.183704 -41.823563 4294967295
254.69627 -26.358006 -41.551964 4294967295
254.71027 -13.705077 -42.024467 4294967295
254.71268 -38.458317 -42.277332 4294967295
254.71457 -25.886189 -41.621552 4294967295
254.73392 -13.20554 -42.592445 4294967295
254.73535 -37.614815 -41.119804 4294967295
254.73663 -25.390736 -42.041664 4294967295
254.74965 -12.748405 -42.424805 4294967295
254.75259 -24.933674 -41.895496 4294967295
254.75603 -37.125065 -41.410934 4294967295
254.76718 -12.28164 -42.424805 4294967295
254.77095 -24.461592 -41.97245 4294967295
254.77681 -36.634457 -41.716064 4294967295
254.78317 -11.82291 -42.281952 4294967295
254.79385 -11.392019 -41.639 4294967295
254.79573 -36.157688 -41.843716 4294967295
254.80627 -35.740627 -41.189278 4294967295
254.81044 -23.500397 -42.386669 4294967295
254.81953 -23.085499 -41.596771 4294967295
254.83563 -35.189316 -42.298576 4294967295
254.85925 -22.123207 -42.030998 4294967295
254.86115 -34.323303 -41.398918 4294967295
254.86775 -46.497261 -41.210251 4294967295
254.88327 -46.046368 -41.018524 4294967295
254.88919 -33.782154 -42.39064 4294967295
254.89232 -21.201649 -41.840271 4294967295
254.89319 -33.410492 -41.110359 4294967295
254.90788 -20.746536 -41.654091 4294967295
254.9101 -45.505028 -41.896149 4294967295
254.91422 -32.918831 -41.441139 4294967295
254.92833 -45.032616 -41.961693 4294967295
254.93034 -20.250023 -42.119614 4294967295
254.94286 -19.813038 -41.644768 4294967295
