# .PCD v0.7 - Point Cloud Data file format
VERSION 0.7
FIELDS x y z rgb
SIZE 4 4 4 4
TYPE F F F U
COUNT 1 1 1 1
WIDTH 1148
HEIGHT 1
VIEWPOINT 0 0 0 1 0 0 0
POINTS 1148
DATA ascii
287.60541 79.664299 -31.596373 4294967295
287.61649 67.435463 -31.355358 4294967295
287.61929 55.203011 -31.608572 4294967295
287.64337 67.911026 -30.802057 4294967295
287.64365 80.607445 -31.421387 4294967295
287.64969 68.373718 -31.481501 4294967295
287.64996 55.672901 -30.829044 4294967295
287.66284 68.840469 -31.751013 4294967295
287.66412 43.912209 -31.461327 4294967295
287.67023 56.142986 -30.672869 4294967295
287.67392 56.612167 -31.511719 4294967295
287.68283 69.311745 -31.611462 4294967295
287.68283 81.552124 -31.188074 4294967295
287.69351 57.082066 -31.39345 4294967295
287.69928 82.466499 -32.318123 4294967295
287.70792 82.031845 -30.744081 4294967295
287.7153 69.792046 -30.725395 4294967295
287.71811 57.552589 -30.97649 4294967295
287.72717 45.316334 -30.857521 4294967295
287.737 70.265099 -30.482595 4294967295
287.73755 70.722214 -31.505751 4294967295
287.74631 82.976166 -30.561712 4294967295
287.74747 58.024059 -30.278309 4294967295
287.75076 58.492039 -31.136856 4294967295
287.75101 45.783348 -30.488049 4294967295
287.75204 83.429756 -31.273115 4294967295
287.75809 71.194244 -31.332973 4294967295
287.76907 83.89875 -31.309914 4294967295
287.77191 84.347359 -32.192612 4294967295
287.7731 58.962738 -30.857119 4294967295
287.77914 71.666794 -31.130533 4294967295
287.78775 46.722931 -30.402756 4294967295
287.79565 47.197021 -30.986267 4294967295
287.79971 84.831642 -31.588766 4294967295
287.80737 59.902466 -30.919886 4294967295
287.80792 72.145905 -30.468567 4294967295
287.81787 60.370667 -31.344612 4294967295
287.81912 47.664692 -30.636978 4294967295
287.83148 85.322235 -30.749756 4294967295
287.83371 73.532005 -32.084908 4294967295
287.83691 60.840828 -31.261784 4294967295
287.84506 85.786179 -30.992552 4294967295
287.85559 74.005478 -31.83029 4294967295
287.85577 86.245583 -31.405291 4294967295
287.85638 48.604141 -30.523996 4294967295
287.87622 49.073551 -30.39489 4294967295
287.88287 62.247932 -31.675798 4294967295
287.88312 74.484344 -31.246841 4294967295
287.88486 49.546272 -30.930157 4294967295
287.88504 86.73333 -30.716042 4294967295
287.90002 87.199249 -30.873808 4294967295
287.90228 50.016266 -30.944803 4294967295
287.9129 75.418625 -31.573584 4294967295
287.91879 63.187496 -31.639004 4294967295
287.9216 62.725185 -30.430693 4294967295
287.92798 88.12748 -31.309072 4294967295
287.93539 50.956585 -31.074776 4294967295
287.94186 88.591217 -31.530825 4294967295
287.94846 76.358353 -31.557589 4294967295
287.95395 51.426285 -31.02136 4294967295
287.97025 64.133789 -30.685215 4294967295
287.98175 51.894444 -30.421616 4294967295
287.98175 64.601021 -31.050856 4294967295
287.9949 77.309784 -30.900799 4294967295
288.00269 65.533714 -31.896355 4294967295
288.00879 65.075394 -30.498026 4294967295
288.02127 52.834183 -30.175711 4294967295
288.03458 53.30484 -30.431955 4294967295
288.03598 66.011421 -30.97542 4294967295
288.04333 53.775661 -30.956635 4294967295
288.04333 78.714584 -31.16761 4294967295
288.04453 66.476425 -31.510775 4294967295
288.06125 79.184769 -31.15309 4294967295
288.06818 54.245178 -30.533377 4294967295
288.06992 66.950516 -31.056038 4294967295
288.0929 79.671219 -30.331514 4294967295
288.09476 67.424652 -30.633169 4294967295
288.09479 54.714989 -30.008095 4294967295
288.10339 80.132759 -30.753258 4294967295
288.10522 55.185329 -30.430986 4294967295
288.11475 67.896133 -30.497303 4294967295
288.11832 80.599518 -30.910782 4294967295
288.12167 68.359474 -31.126684 4294967295
288.12482 55.655487 -30.318865 4294967295
288.13617 68.827278 -31.312155 4294967295
288.13623 43.891739 -31.096889 4294967295
288.1376 56.125469 -30.605141 4294967295
288.15619 56.595581 -30.552341 4294967295
288.15811 81.992416 -31.683012 4294967295
288.16531 81.554283 -30.229378 4294967295
288.16992 82.454498 -32.021568 4294967295
288.17511 57.534016 -31.508034 4294967295
288.17841 44.827896 -30.69429 4294967295
288.18326 45.304146 -31.442999 4294967295
288.19034 70.237579 -31.240774 4294967295
288.2012 70.702377 -31.636456 4294967295
288.20895 82.952614 -30.772594 4294967295
288.21088 83.40126 -31.692373 4294967295
288.21161 58.006138 -30.405275 4294967295
288.21252 45.768448 -30.764942 4294967295
288.21255 58.473755 -31.383362 4294967295
288.21942 71.172516 -31.601994 4294967295
288.22717 83.869057 -31.772245 4294967295
288.23438 46.236565 -30.51977 4294967295
288.24036 84.332504 -32.03056 4294967295
288.2485 58.946671 -30.31728 4294967295
288.25037 71.652664 -30.827517 4294967295
288.25302 59.414272 -31.082323 4294967295
288.25577 47.182201 -31.330393 4294967295
288.25595 46.704987 -30.291201 4294967295
288.27686 59.88549 -30.72356 4294967295
288.27832 84.830917 -30.849272 4294967295
288.2858 60.353409 -31.229897 4294967295
288.29065 73.051819 -31.565943 4294967295
288.29242 72.598251 -30.435667 4294967295
288.30087 60.82254 -31.380051 4294967295
288.30542 85.758896 -31.327503 4294967295
288.30737 73.520729 -31.619724 4294967295
288.32275 48.586876 -30.516577 4294967295
288.33466 73.999023 -31.06222 4294967295
288.33499 61.296989 -30.425596 4294967295
288.33856 86.251785 -30.4268 4294967295
288.34113 86.699173 -31.303751 4294967295
288.34399 74.461327 -31.542196 4294967295
288.3515 61.766769 -30.491198 4294967295
288.36414 62.69899 -31.804052 4294967295
288.36536 49.52496 -30.093916 4294967295
288.36679 74.935905 -31.243017 4294967295
288.37555 50.47134 -31.548382 4294967295
288.38251 87.205292 -29.928518 4294967295
288.39728 75.418022 -30.503983 4294967295
288.39886 50.939804 -31.220373 4294967295
288.40427 88.124664 -30.715021 4294967295
288.40848 51.411118 -31.684757 4294967295
288.41541 75.888634 -30.475676 4294967295
288.41943 63.646122 -30.646902 4294967295
288.43524 51.879211 -31.158958 4294967295
288.436 64.115707 -30.709181 4294967295
288.43607 76.361763 -30.303385 4294967295
288.44403 76.822029 -30.862244 4294967295
288.46152 64.589165 -30.258722 4294967295
288.46875 77.299446 -30.453167 4294967295
288.47549 65.057678 -30.469427 4294967295
288.47989 52.345131 -29.601978 4294967295
288.48264 52.817371 -30.460718 4294967295
288.48779 65.525177 -30.779091 4294967295
288.4931 65.988892 -31.490959 4294967295
288.49765 53.287727 -30.616417 4294967295
288.49811 78.2332 -30.797764 4294967295
288.49976 78.685394 -31.718697 4294967295
288.52274 53.757187 -30.189201 4294967295
288.5322 79.171844 -30.867674 4294967295
288.54309 54.698063 -31.046597 4294967295
288.54321 66.936516 -30.637194 4294967295
288.54825 67.39933 -31.36199 4294967295
288.55893 55.167946 -31.153681 4294967295
288.57513 80.12075 -30.432625 4294967295
288.57864 68.335808 -31.646292 4294967295
288.58173 80.577637 -31.066807 4294967295
288.60684 68.81221 -31.040764 4294967295
288.61371 43.868454 -30.4391 4294967295
288.61517 56.108315 -29.952036 4294967295
288.61917 81.520058 -30.946571 4294967295
288.62332 56.578072 -30.499382 4294967295
288.63455 44.336845 -30.254967 4294967295
288.6398 44.81321 -30.965061 4294967295
288.64047 82.442024 -31.744928 4294967295
288.64151 69.293335 -30.068346 4294967295
288.64255 81.997276 -30.617607 4294967295
288.64951 45.286873 -31.41864 4294967295
288.6543 70.218002 -31.355595 4294967295
288.65771 69.762596 -30.152531 4294967295
288.66162 57.049789 -29.317434 4294967295
288.66571 57.518944 -30.095306 4294967295
288.67645 45.752331 -30.887768 4294967295
288.68457 70.696938 -30.634993 4294967295
288.68814 83.397751 -31.038267 4294967295
288.68961 57.989948 -29.739365 4294967295
288.69348 46.222523 -30.925062 4294967295
288.69797 83.857109 -31.484644 4294967295
288.70709 46.694061 -31.156097 4294967295
288.70782 71.171165 -30.315737 4294967295
288.71094 58.928349 -30.536442 4294967295
288.72638 47.163219 -31.060957 4294967295
288.73163 84.34874 -30.574177 4294967295
288.73672 72.562126 -31.687176 4294967295
288.74127 84.807716 -31.029293 4294967295
288.74811 85.262367 -31.645254 4294967295
288.75247 47.629971 -30.580917 4294967295
288.75339 59.869987 -30.13286 4294967295
288.75388 48.105568 -31.506044 4294967295
288.76315 60.338352 -30.580021 4294967295
288.77322 73.047485 -30.615067 4294967295
288.78207 73.510025 -31.11488 4294967295
288.78888 73.970367 -31.731733 4294967295
288.78998 85.766731 -30.269339 4294967295
288.79623 49.042786 -31.104536 4294967295
288.7998 48.566177 -29.900616 4294967295
288.80328 86.230621 -30.51622 4294967295
288.81546 49.512173 -31.015551 4294967295
288.8158 74.448334 -31.204481 4294967295
288.81604 61.748466 -30.586796 4294967295
288.81888 86.69767 -30.634489 4294967295
288.82733 62.216469 -30.947058 4294967295
288.83215 49.982262 -31.069952 4294967295
288.8356 62.68314 -31.479631 4294967295
288.83606 87.167053 -30.661201 4294967295
288.84137 74.92543 -30.756855 4294967295
288.85605 87.640648 -30.529394 4294967295
288.8587 50.450039 -30.56456 4294967295
288.8652 50.922398 -31.19772 4294967295
288.86902 63.158607 -30.586805 4294967295
288.88171 76.323051 -31.470087 4294967295
288.88519 63.628086 -30.669271 4294967295
288.88947 75.877708 -30.034779 4294967295
288.90631 51.861012 -30.869081 4294967295
288.91196 64.101822 -30.155161 4294967295
288.92926 64.571884 -30.17621 4294967295
288.93185 52.3298 -30.423143 4294967295
288.94116 65.039474 -30.50127 4294967295
288.94452 77.290688 -29.91861 4294967295
288.94562 65.503288 -31.247143 4294967295
288.94778 77.745934 -30.731274 4294967295
288.97028 53.269669 -30.249226 4294967295
288.9823 66.443573 -31.169731 4294967295
288.99139 78.694992 -30.26519 4294967295
289.00595 79.161736 -30.43996 4294967295
289.0181 79.625641 -30.749372 4294967295
289.02652 54.208839 -29.074606 4294967295
289.03564 80.095505 -30.755892 4294967295
289.03589 80.545143 -31.73127 4294967295
289.03952 67.3955 -29.937321 4294967295
289.04037 54.679581 -29.2894 4294967295
289.056 67.865082 -30.006252 4294967295
289.06247 55.150055 -29.041872 4294967295
289.07629 68.796265 -30.848007 4294967295
289.08191 81.048615 -30.141264 4294967295
289.08313 81.498909 -31.061747 4294967295
289.09357 69.265968 -30.868443 4294967295
289.09402 56.560749 -30.245914 4294967295
289.09509 56.091221 -29.194878 4294967295
289.112 44.793114 -30.617805 4294967295
289.11517 69.738548 -30.646774 4294967295
289.11639 57.031261 -29.98325 4294967295
289.12891 82.451782 -30.47813 4294967295
289.13013 45.26289 -30.592819 4294967295
289.13434 57.501556 -29.968113 4294967295
289.14542 70.217209 -29.945335 4294967295
289.1615 71.143738 -31.020452 4294967295
289.16644 57.973549 -29.159189 4294967295
289.17276 83.850105 -30.987665 4294967295
289.1731 83.403519 -29.983248 4294967295
289.17322 46.1996 -30.161013 4294967295
289.18442 84.312019 -31.321079 4294967295
289.18536 46.671967 -30.466658 4294967295
289.18857 71.620712 -30.494411 4294967295
289.18921 58.912643 -29.863373 4294967295
289.203 47.142021 -30.46826 4294967295
289.20636 72.090889 -30.488131 4294967295
289.21017 59.850288 -30.663935 4294967295
289.22113 59.385605 -29.06811 4294967295
289.22226 73.015259 -31.566818 4294967295
289.22241 72.5597 -30.577366 4294967295
289.2262 48.086182 -31.141092 4294967295
289.2272 84.815926 -29.923319 4294967295
289.22885 60.320518 -30.605595 4294967295
289.2637 85.758194 -29.859449 4294967295
289.26447 60.795021 -29.607857 4294967295
289.26791 73.508301 -30.013048 4294967295
289.26859 48.548195 -29.767624 4294967295
289.27072 61.727318 -31.22337 4294967295
289.27194 61.262661 -30.175285 4294967295
289.2829 49.019489 -29.952637 4294967295
289.28873 86.684059 -30.431753 4294967295
289.29642 74.442863 -30.390913 4294967295
289.30014 87.145073 -30.777964 4294967295
289.30231 62.201473 -30.44965 4294967295
289.31357 49.96114 -30.211378 4294967295
289.31433 74.913231 -30.376024 4294967295
289.31519 50.434937 -31.102571 4294967295
289.3252 87.626045 -30.367758 4294967295
289.33392 62.676231 -29.677034 4294967295
289.33835 50.903599 -30.794353 4294967295
289.34601 88.100891 -30.19496 4294967295
289.34787 63.608902 -30.860889 4294967295
289.34869 63.145569 -29.83865 4294967295
289.37598 64.082977 -30.284353 4294967295
289.37714 76.786072 -30.809639 4294967295
289.39859 64.555206 -30.010981 4294967295
289.40787 65.021759 -30.472681 4294967295
289.41202 65.48558 -31.217966 4294967295
289.41617 77.277435 -29.630163 4294967295
289.42389 77.737679 -30.179596 4294967295
289.43152 78.197403 -30.733217 4294967295
289.44946 65.964943 -30.126446 4294967295
289.46179 66.432442 -30.421364 4294967295
289.46503 79.135452 -30.831566 4294967295
289.47299 66.899139 -30.776466 4294967295
289.48047 79.602966 -30.953165 4294967295
289.48886 54.191593 -29.314178 4294967295
289.49084 80.064636 -31.355145 4294967295
289.49692 54.662399 -29.843723 4294967295
289.50192 67.375259 -30.156361 4294967295
289.52017 80.547798 -30.713287 4294967295
289.52762 67.850021 -29.715223 4294967295
289.52768 55.132549 -29.124128 4294967295
289.53146 55.602966 -29.88718 4294967295
289.54022 81.02063 -30.58061 4294967295
289.54749 68.321671 -29.597059 4294967295
289.55643 81.488907 -30.66246 4294967295
289.55725 44.307701 -30.792835 4294967295
289.56168 68.789978 -29.785143 4294967295
289.56985 69.254288 -30.30875 4294967295
289.57425 44.777912 -30.829023 4294967295
289.58304 81.969734 -30.172356 4294967295
289.58499 57.013832 -29.86084 4294967295
289.58902 45.249115 -30.986221 4294967295
289.60318 70.193253 -30.41658 4294967295
289.60342 82.891525 -30.989244 4294967295
289.62204 57.485985 -28.797703 4294967295
289.62213 45.712181 -30.141647 4294967295
289.62698 70.66758 -30.082027 4294967295
289.62872 83.371109 -30.572124 4294967295
289.63412 71.130325 -30.655125 4294967295
289.63486 58.424263 -30.031954 4294967295
289.63632 57.956276 -28.984068 4294967295
289.64282 46.181065 -29.974854 4294967295
289.64719 58.893635 -30.321714 4294967295
289.64883 83.84436 -30.436869 4294967295
289.65073 71.599556 -30.712236 4294967295
289.65405 46.653816 -30.326551 4294967295
289.6582 84.303627 -30.888945 4294967295
289.67245 59.365105 -29.907755 4294967295
289.67413 72.073868 -30.398987 4294967295
289.67795 47.121586 -29.988396 4294967295
289.69373 59.836102 -29.710196 4294967295
289.70023 47.590176 -29.736908 4294967295
289.71188 48.062458 -30.062634 4294967295
289.71753 73.02047 -29.96166 4294967295
289.71957 85.278656 -29.469589 4294967295
289.72137 60.77491 -30.131422 4294967295
289.72656 73.483673 -30.431732 4294967295
289.72717 85.735291 -30.020248 4294967295
289.73587 48.530693 -29.719683 4294967295
289.74182 61.245834 -29.978416 4294967295
289.74634 74.410568 -31.273281 4294967295
289.75092 49.001755 -29.860634 4294967295
289.7547 86.664871 -30.443279 4294967295
289.75516 61.714844 -30.21353 4294967295
289.75549 49.475498 -30.572264 4294967295
289.75638 86.221596 -29.393278 4294967295
289.76791 62.183475 -30.481375 4294967295
289.77472 74.889717 -30.693789 4294967295
289.77679 62.65065 -30.956638 4294967295
289.78073 87.591591 -30.948771 4294967295
289.7858 50.416588 -30.844933 4294967295
289.7868 87.155617 -29.660002 4294967295
289.79086 75.358353 -30.775274 4294967295
289.79221 49.94083 -29.53812 4294967295
289.80786 63.125187 -30.229538 4294967295
289.81561 75.834839 -30.390388 4294967295
289.81668 50.883801 -30.128872 4294967295
289.82181 88.095985 -29.676991 4294967295
289.82443 51.355747 -30.665829 4294967295
289.82486 63.595093 -30.264744 4294967295
289.83789 76.30928 -30.141018 4294967295
289.84048 64.064415 -30.377249 4294967295
289.84253 76.766983 -30.84532 4294967295
289.86142 64.535866 -30.197664 4294967295
289.86636 77.242989 -30.510405 4294967295
289.87964 77.708664 -30.746729 4294967295
289.88943 65.010475 -29.639692 4294967295
289.89566 65.475662 -30.259579 4294967295
289.90573 65.942215 -30.667631 4294967295
289.90598 52.762264 -29.122433 4294967295
289.90677 78.188255 -30.238386 4294967295
289.92685 79.112411 -31.059498 4294967295
289.9288 66.414841 -30.377502 4294967295
289.93317 53.231903 -28.607027 4294967295
289.93753 53.703651 -29.327883 4294967295
289.94958 54.174416 -29.631199 4294967295
289.97745 67.36216 -29.659889 4294967295
289.97751 54.644444 -29.078743 4294967295
289.98111 80.523453 -30.987745 4294967295
289.98557 55.11512 -29.595266 4294967295
289.98605 80.078423 -29.774734 4294967295
289.98621 67.827583 -30.138348 4294967295
289.99835 80.992836 -31.011131 4294967295
290.00095 68.296066 -30.296398 4294967295
290.00476 55.585506 -29.512793 4294967295
290.02518 81.473358 -30.519163 4294967295
290.03482 56.526028 -29.796661 4294967295
290.03647 69.236427 -30.286428 4294967295
290.03958 56.056427 -28.59276 4294967295
290.05542 69.707382 -30.2164 4294967295
290.0563 81.959312 -29.797756 4294967295
290.06369 82.865883 -31.292517 4294967295
290.06839 70.174454 -30.467505 4294967295
290.07837 57.467373 -29.358315 4294967295
290.08377 56.998585 -28.120565 4294967295
290.08551 70.644142 -30.496309 4294967295
290.08575 45.21814 -29.331964 4294967295
290.08832 57.936951 -29.771065 4294967295
290.09119 45.693863 -29.990196 4294967295
290.09378 46.170204 -30.795668 4294967295
290.10812 71.117638 -30.231419 4294967295
290.10947 83.818619 -30.732975 4294967295
290.11407 58.40834 -29.339605 4294967295
290.12552 46.634621 -30.042273 4294967295
290.1264 71.588211 -30.200279 4294967295
290.1358 72.052292 -30.639227 4294967295
290.13733 84.301636 -30.188938 4294967295
290.14334 59.348221 -29.663237 4294967295
290.14368 58.880669 -28.701223 4294967295
290.15234 47.101437 -29.553066 4294967295
290.15967 59.818298 -29.734636 4294967295
290.16074 84.779289 -29.882704 4294967295
290.16254 47.574383 -29.9534 4294967295
290.16339 72.529785 -30.111904 4294967295
290.16446 48.049683 -30.792475 4294967295
290.17072 60.287155 -30.090509 4294967295
290.173 85.242455 -30.170721 4294967295
290.17868 72.998161 -30.236843 4294967295
290.1813 48.519806 -30.835199 4294967295
290.18265 85.701897 -30.598942 4294967295
290.19553 73.467613 -30.282511 4294967295
290.20743 48.987274 -30.383654 4294967295
290.21286 60.763168 -28.784817 4294967295
290.21408 49.460186 -30.970488 4294967295
290.21591 61.230064 -29.563782 4294967295
290.21805 86.196068 -29.653524 4294967295
290.21954 86.64418 -30.513033 4294967295
290.22516 61.698105 -30.011244 4294967295
290.23489 87.110977 -30.636734 4294967295
290.2359 49.929008 -30.750629 4294967295
290.237 74.413063 -29.953985 4294967295
290.24524 87.570633 -31.02495 4294967295
290.2529 62.171322 -29.477493 4294967295
290.25909 74.887123 -29.718271 4294967295
290.26175 88.038849 -31.085751 4294967295
290.2691 62.64127 -29.554678 4294967295
290.27274 63.106865 -30.302248 4294967295
290.28323 75.363159 -29.374849 4294967295
290.2861 75.820312 -30.16128 4294967295
290.29187 50.8647 -29.653288 4294967295
290.29984 50.388756 -28.289425 4294967295
290.30295 51.336189 -30.001675 4294967295
290.30545 63.582405 -29.501019 4294967295
290.3093 76.295563 -29.86882 4294967295
290.31335 51.80751 -30.386742 4294967295
290.31354 76.753258 -30.579185 4294967295
290.31851 64.514259 -30.682875 4294967295
290.3226 64.052612 -29.530436 4294967295
290.33127 77.223358 -30.574509 4294967295
290.34332 52.275879 -29.735281 4294967295
290.35013 64.990097 -29.944292 4294967295
290.35309 77.697418 -30.35565 4294967295
290.36795 65.460403 -29.936295 4294967295
290.36902 52.745255 -29.312424 4294967295
290.38107 65.928543 -30.176704 4294967295
290.3866 78.18335 -29.518017 4294967295
290.39041 53.215355 -29.113373 4294967295
290.40948 79.562759 -31.10652 4294967295
290.4169 66.869095 -30.148767 4294967295
290.42081 54.156685 -29.375704 4294967295
290.42239 53.684834 -28.358377 4294967295
290.43271 80.038513 -30.815531 4294967295
290.4433 67.343826 -29.688021 4294967295
290.45361 80.512077 -30.641356 4294967295
290.45728 67.812149 -29.883127 4294967295
290.4603 54.626419 -28.226171 4294967295
290.46713 55.097424 -28.798237 4294967295
290.47595 68.282974 -29.831062 4294967295
290.47836 80.989998 -30.267904 4294967295
290.4837 55.568077 -28.855732 4294967295
290.48862 68.750305 -30.09621 4294967295
290.50546 44.265732 -29.932915 4294967295
290.51306 69.224602 -29.737635 4294967295
290.51578 69.6856 -30.522875 4294967295
290.5162 81.933151 -30.136448 4294967295
290.52365 56.039352 -27.684649 4294967295
290.52371 44.735653 -29.902386 4294967295
290.52853 56.509819 -28.358887 4294967295
290.53366 70.155754 -30.511671 4294967295
290.53677 82.406738 -29.985416 4294967295
290.53958 45.206665 -29.998777 4294967295
290.552 57.450394 -28.98377 4294967295
290.56076 82.884514 -29.655409 4294967295
290.56216 45.674767 -29.741726 4294967295
290.56354 46.151554 -30.595119 4294967295
290.56439 56.981918 -27.406197 4294967295
290.58035 71.103561 -29.915024 4294967295
290.58514 57.922699 -28.171658 4294967295
290.59323 58.392342 -28.67564 4294967295
290.60336 47.089802 -30.359003 4294967295
290.60489 46.61248 -29.352835 4294967295
290.60498 83.83622 -29.190748 4294967295
290.62198 47.559509 -30.310255 4294967295
290.62485 59.333111 -28.872366 4294967295
290.62845 58.8657 -27.758526 4294967295
290.6337 59.802036 -29.335602 4294967295
290.63461 84.770088 -29.48851 4294967295
290.63828 72.517952 -29.659231 4294967295
290.65164 85.239662 -29.5231 4294967295
290.65399 60.273041 -29.199085 4294967295
290.66309 73.450394 -30.209726 4294967295
290.66742 48.49659 -29.78163 4294967295
290.68228 86.174255 -29.768675 4294967295
290.69095 73.928741 -29.676111 4294967295
290.69641 86.639832 -29.952206 4294967295
290.6972 49.438503 -30.068724 4294967295
290.69998 87.090759 -30.687551 4294967295
290.70596 74.85231 -30.735729 4294967295
290.70721 74.397911 -29.750584 4294967295
290.7218 62.154205 -29.35051 4294967295
290.72461 61.689342 -28.282835 4294967295
290.73309 87.582161 -29.884504 4294967295
290.74347 75.794113 -30.620762 4294967295
290.74908 49.900585 -28.287714 4294967295
290.75714 76.260483 -30.828676 4294967295
290.75922 50.373047 -28.681416 4294967295
290.77014 63.563904 -29.593523 4294967295
290.78708 51.315727 -29.073027 4294967295
290.78818 76.742706 -30.133553 4294967295
290.78955 50.841263 -28.023035 4294967295
290.79114 64.498962 -30.338421 4294967295
290.81219 77.218826 -29.804392 4294967295
290.83142 78.143684 -30.637394 4294967295
290.84344 77.702118 -29.101511 4294967295
290.84531 52.253723 -27.88479 4294967295
290.84625 65.447655 -29.311874 4294967295
290.85959 52.725098 -28.060719 4294967295
290.86191 65.917183 -29.41799 4294967295
290.86694 53.19698 -28.596977 4294967295
290.87204 79.089005 -30.364122 4294967295
290.89059 54.13903 -29.204277 4294967295
290.90158 79.571388 -29.750362 4294967295
290.9024 80.02388 -30.622259 4294967295
290.923 67.793777 -29.912994 4294967295
290.93225 54.608734 -27.963346 4294967295
290.93591 80.510925 -29.803305 4294967295
290.93979 55.079819 -28.489887 4294967295
290.94504 68.266403 -29.687843 4294967295
290.94611 80.973053 -30.188347 4294967295
290.95801 68.734032 -29.931591 4294967295
290.96399 44.25238 -30.333487 4294967295
290.97171 81.902306 -30.689722 4294967295
290.97235 81.452751 -29.746069 4294967295
290.97653 69.204781 -29.885185 4294967295
290.98529 55.5508 -27.052597 4294967295
291.00357 56.492607 -27.937626 4294967295
291.0065 69.682526 -29.252811 4294967295
291.01166 44.708744 -28.786686 4294967295
291.01627 70.148018 -29.659908 4294967295
291.01678 45.184822 -29.433773 4294967295
291.01736 56.963314 -28.138664 4294967295
291.02902 82.867989 -29.558352 4294967295
291.03778 83.327789 -30.015535 4294967295
291.0451 70.62561 -29.085642 4294967295
291.05289 71.547729 -30.500706 4294967295
291.05704 83.799934 -29.934042 4294967295
291.06088 57.436474 -26.809835 4294967295
291.06113 46.122002 -28.970131 4294967295
291.06604 84.259499 -30.379778 4294967295
291.06708 72.015259 -30.679575 4294967295
291.07019 46.59576 -29.412117 4294967295
291.07233 47.071625 -30.210266 4294967295
291.07846 84.723068 -30.6469 4294967295
291.0795 57.90799 -26.762688 4294967295
291.0878 72.487411 -30.522989 4294967295
291.08813 58.378258 -27.229273 4294967295
291.10236 59.317211 -28.316694 4294967295
291.10492 47.53672 -29.444868 4294967295
291.10901 48.011322 -30.140217 4294967295
291.11237 58.850483 -26.895037 4294967295
291.11276 72.962898 -30.146914 4294967295
291.12347 85.227638 -29.247667 4294967295
291.12527 60.256287 -28.953911 4294967295
291.1268 48.481369 -30.131973 4294967295
291.1377 48.953316 -30.481249 4294967295
291.13855 73.439217 -29.733908 4294967295
291.14456 73.900368 -30.328985 4294967295
291.15121 61.195126 -29.435389 4294967295
291.15964 86.169731 -29.206188 4294967295
291.16171 60.731125 -27.993177 4294967295
291.17786 86.641006 -29.177757 4294967295
291.17917 74.384071 -29.463581 4294967295
291.18646 74.845947 -29.991692 4294967295
291.1875 62.136158 -29.389103 4294967295
291.1886 87.102203 -29.53326 4294967295
291.19223 61.67173 -28.24395 4294967295
291.19586 49.413071 -28.411575 4294967295
291.20264 75.314857 -30.069862 4294967295
291.2034 87.568687 -29.680237 4294967295
291.20908 75.775391 -30.639832 4294967295
291.2142 63.074165 -29.830818 4294967295
291.22327 62.612114 -28.465794 4294967295
291.22394 49.881432 -27.880342 4294967295
291.24387 63.548542 -29.219467 4294967295
291.24536 50.82605 -28.591337 4294967295
291.24716 50.351223 -27.596567 4294967295
291.26538 64.020424 -29.023602 4294967295
291.27646 76.744141 -29.009714 4294967295
291.27802 64.489029 -29.280411 4294967295
291.28058 77.655968 -30.597366 4294967295
291.28116 51.293633 -27.66786 4294967295
291.28387 51.76696 -28.430183 4294967295
291.29501 64.959221 -29.314024 4294967295
291.29663 77.217041 -28.882063 4294967295
291.30853 65.427895 -29.526997 4294967295
291.3157 78.595726 -30.606728 4294967295
291.32919 52.234085 -27.02816 4294967295
291.33029 65.900055 -29.319193 4294967295
291.33618 79.068489 -30.464056 4294967295
291.34775 52.705288 -26.982615 4294967295
291.35446 53.177635 -27.543646 4294967295
291.36108 66.376564 -28.652821 4294967295
291.36917 79.5541 -29.68556 4294967295
291.37741 66.846603 -28.722006 4294967295
291.38422 54.120132 -27.828167 4294967295
291.39014 80.479591 -30.413713 4294967295
291.39438 80.032196 -29.305304 4294967295
291.39462 67.317055 -28.745399 4294967295
291.40121 54.591148 -27.863379 4294967295
291.40894 67.78595 -28.917261 4294967295
291.42551 68.255959 -28.971922 4294967295
291.42877 80.972122 -29.352823 4294967295
291.42935 55.53307 -28.230879 4294967295
291.44061 68.725082 -29.103033 4294967295
291.45023 44.225914 -29.31109 4294967295
291.45953 69.196335 -29.039879 4294967295
291.46536 81.914413 -29.290291 4294967295
291.47192 56.004562 -26.97192 4294967295
291.47708 56.475319 -27.605343 4294967295
291.48285 82.834816 -30.193001 4294967295
291.48813 82.390587 -29.035717 4294967295
291.49768 70.139137 -28.90016 4294967295
291.50317 83.30806 -30.057957 4294967295
291.50842 71.064224 -30.139734 4294967295
291.51028 56.947414 -26.8237 4294967295
291.51147 57.417385 -27.658289 4294967295
291.51147 70.607292 -29.095045 4294967295
291.51834 46.10849 -29.442347 4294967295
291.52649 71.53463 -30.118441 4294967295
291.54037 46.577225 -29.221596 4294967295
291.54526 47.052101 -29.866623 4294967295
291.54944 72.0084 -29.85401 4294967295
291.55795 72.47213 -30.312464 4294967295
291.55951 47.523384 -30.036531 4294967295
291.5722 84.738167 -29.253622 4294967295
291.58331 72.947823 -29.925663 4294967295
291.58362 47.991516 -29.713219 4294967295
291.59167 85.210907 -29.162531 4294967295
291.59479 58.834927 -26.13575 4294967295
291.59659 60.239494 -28.717333 4294967295
291.59787 59.772316 -27.763195 4294967295
291.60153 59.304794 -26.688164 4294967295
291.60416 86.122688 -30.311068 4294967295
291.60657 73.422211 -29.645958 4294967295
291.60727 85.678825 -29.266554 4294967295
291.61676 48.457314 -28.936831 4294967295
291.62173 48.931248 -29.574347 4294967295
291.63107 61.180592 -28.7603 4294967295
291.63156 73.898163 -29.278856 4294967295
291.63336 60.714378 -27.75902 4294967295
291.64288 74.363609 -29.596724 4294967295
291.64749 87.07341 -29.909273 4294967295
291.64777 49.399467 -29.154512 4294967295
291.66113 61.65443 -28.142149 4294967295
291.67102 62.588551 -29.418961 4294967295
291.67715 87.559647 -29.309155 4294967295
291.68179 75.30719 -29.420441 4294967295
291.68515 49.865429 -28.168571 4294967295
291.69086 50.33876 -28.766443 4294967295
291.69354 63.060486 -29.174097 4294967295
291.69598 50.811733 -29.394722 4294967295
291.72595 51.280022 -28.781345 4294967295
291.73499 63.53899 -27.987036 4294967295
291.73956 64.469269 -29.523745 4294967295
291.74417 76.726707 -28.95153 4294967295
291.74805 77.184837 -29.640444 4294967295
291.75644 51.748707 -28.140512 4294967295
291.75748 77.64756 -30.05162 4294967295
291.78265 78.578163 -30.556612 4294967295
291.78738 52.217834 -27.481085 4294967295
291.7879 78.129707 -29.415531 4294967295
291.797 65.882202 -29.303497 4294967295
291.80887 52.688522 -27.291363 4294967295
291.81628 66.35334 -29.224712 4294967295
291.82483 66.819511 -29.676294 4294967295
291.82581 53.159782 -27.329044 4294967295
291.83328 79.080307 -28.917068 4294967295
291.83344 53.631668 -27.831371 4294967295
291.83746 67.287308 -29.927938 4294967295
291.84589 79.54583 -29.170673 4294967295
291.86429 80.017113 -29.132887 4294967295
291.86505 67.762535 -29.43647 4294967295
291.87024 54.57357 -27.762053 4294967295
291.87759 80.483078 -29.351404 4294967295
291.88138 54.101067 -26.326977 4294967295
291.89172 81.401245 -30.403357 4294967295
291.90302 80.961647 -28.967554 4294967295
291.91531 44.20948 -29.376541 4294967295
291.91766 55.044163 -26.286232 4294967295
291.91809 68.712967 -28.559544 4294967295
291.92584 69.178055 -29.05163 4294967295
291.92648 69.638626 -29.894218 4294967295
291.93924 81.903755 -28.924719 4294967295
291.94003 70.106323 -30.097971 4294967295
291.94427 44.67485 -28.815096 4294967295
291.95416 55.987354 -26.232063 4294967295
291.95544 82.372742 -28.99674 4294967295
291.95993 45.623871 -29.792465 4294967295
291.96524 45.144039 -28.652821 4294967295
291.97253 82.842651 -29.026411 4294967295
291.98071 71.049988 -29.833403 4294967295
291.98865 71.513771 -30.314409 4294967295
291.99158 83.314781 -28.958094 4294967295
291.99185 57.870338 -27.873253 4294967295
291.99976 83.774307 -29.427992 4294967295
292.00177 46.084866 -28.59705 4294967295
292.00842 57.402222 -26.178146 4294967295
292.01068 84.236725 -29.761856 4294967295
292.01154 56.460709 -24.266962 4294967295
292.02237 46.554459 -28.451273 4294967295
292.02374 71.995651 -29.455328 4294967295
292.03183 56.93325 -24.139906 4294967295
292.03922 84.720001 -29.226959 4294967295
292.04608 85.177383 -29.757677 4294967295
292.04651 47.022984 -28.135578 4294967295
292.04761 72.470337 -29.150259 4294967295
292.04785 58.815155 -26.856297 4294967295
292.05038 47.974144 -29.685974 4294967295
292.05789 59.285286 -27.233658 4294967295
292.05811 72.935692 -29.502237 4294967295
292.06723 59.754986 -27.648571 4294967295
292.0712 73.402679 -29.727909 4294967295
292.07144 85.657143 -29.379128 4294967295
292.07397 58.349129 -24.691 4294967295
292.07477 60.224022 -28.148315 4294967295
292.08984 86.128448 -29.34454 4294967295
292.09418 60.695251 -28.063486 4294967295
292.09692 48.436218 -28.264994 4294967295
292.10382 86.594246 -29.524027 4294967295
292.10629 48.909199 -28.675737 4294967295
292.11041 61.165787 -28.135143 4294967295
292.11145 74.346985 -29.486734 4294967295
292.12308 61.635365 -28.38311 4294967295
292.1272 49.379028 -28.516783 4294967295
292.12766 87.07254 -29.222048 4294967295
292.14078 87.537071 -29.446232 4294967295
292.1423 74.827789 -28.839289 4294967295
292.15118 62.108974 -27.870689 4294967295
292.15158 75.291557 -29.253315 4294967295
292.15198 49.848122 -28.168837 4294967295
292.15729 63.041763 -29.308226 4294967295
292.16333 75.757111 -29.542879 4294967295
292.17755 76.224533 -29.711792 4294967295
292.18631 50.315529 -27.350925 4294967295
292.18939 50.789375 -28.067392 4294967295
292.20074 63.520702 -28.043806 4294967295
292.20966 76.707298 -29.004393 4294967295
292.2298 77.634651 -29.748732 4294967295
292.2301 64.460274 -28.338186 4294967295
292.23724 65.390358 -29.719458 4294967295
292.23779 52.202553 -28.29641 4294967295
292.24121 64.92849 -28.660883 4294967295
292.25745 78.114082 -29.262196 4294967295
292.26129 51.725708 -26.277285 4294967295
292.26477 52.67231 -27.842703 4294967295
292.29495 79.510277 -30.018974 4294967295
292.30063 79.062492 -28.878828 4294967295
292.30548 53.141193 -26.717833 4294967295
292.30807 66.809311 -28.850861 4294967295
292.32019 54.08503 -27.728569 4294967295
292.32288 53.612598 -26.732244 4294967295
292.32635 67.280197 -28.819965 4294967295
292.32895 79.996643 -29.223671 4294967295
292.34729 80.467773 -29.191172 4294967295
292.35129 67.754402 -28.467598 4294967295
292.36172 68.68248 -29.680077 4294967295
292.38361 44.191536 -29.279226 4294967295
292.3873 69.157135 -29.29558 4294967295
292.39285 81.419434 -28.69491 4294967295
292.39386 54.554192 -24.997915 4294967295
292.39587 69.622322 -29.737698 4294967295
292.40768 81.887077 -28.83292 4294967295
292.40836 70.0895 -29.988251 4294967295
292.42468 44.651817 -28.142242 4294967295
292.42838 70.561073 -29.874863 4294967295
292.43179 82.364662 -28.520714 4294967295
292.43945 55.49836 -24.505424 4294967295
292.4541 71.036316 -29.484821 4294967295
292.45578 45.595108 -28.350216 4294967295
292.45721 55.970604 -24.505676 4294967295
292.46487 46.545876 -29.624739 4294967295
292.46738 71.503815 -29.697449 4294967295
292.47168 46.066498 -28.436411 4294967295
292.47495 56.442848 -24.505924 4294967295
292.48196 84.223785 -29.517191 4294967295
292.49268 56.9151 -24.506172 4294967295
292.49579 71.981201 -29.178509 4294967295
292.50266 58.326721 -26.603975 4294967295
292.50378 72.445038 -29.64636 4294967295
292.50641 84.70208 -29.190083 4294967295
292.50696 58.79631 -27.25518 4294967295
292.50864 85.154137 -29.936516 4294967295
292.51041 57.387344 -24.506424 4294967295
292.51608 47.957081 -29.708481 4294967295
292.51706 47.481003 -28.807779 4294967295
292.52164 85.618637 -30.163044 4294967295
292.52588 57.859375 -24.616617 4294967295
292.52997 72.921295 -29.234655 4294967295
292.54303 59.270355 -26.364508 4294967295
292.54623 73.848053 -30.155706 4294967295
292.55356 59.740631 -26.71184 4294967295
292.55383 73.39621 -28.934496 4294967295
292.55939 86.113434 -29.193539 4294967295
292.55948 60.677155 -28.136395 4294967295
292.56689 86.571297 -29.68119 4294967295
292.56705 48.418041 -28.101877 4294967295
292.56711 74.320572 -30.000334 4294967295
292.5795 87.035118 -29.927172 4294967295
292.58255 60.214207 -26.167015 4294967295
292.58966 48.887589 -27.863255 4294967295
292.59116 61.151211 -27.461678 4294967295
292.59357 74.797531 -29.576561 4294967295
292.62213 75.73262 -29.903198 4294967295
292.63031 49.828266 -27.611332 4294967295
292.63107 62.560722 -28.098358 4294967295
292.63217 62.094902 -27.192282 4294967295
292.63751 63.028145 -28.63863 4294967295
292.65054 63.497276 -28.863211 4294967295
292.65128 76.212296 -29.352739 4294967295
292.65149 50.298576 -27.443874 4294967295
292.65842 50.771626 -27.961149 4294967295
292.68341 63.973034 -28.132719 4294967295
292.68683 51.240746 -27.445116 4294967295
292.69571 77.615891 -29.763346 4294967295
292.69827 64.442848 -28.26877 4294967295
292.70181 77.166275 -28.621304 4294967295
292.71176 64.912041 -28.470209 4294967295
292.71359 78.086311 -29.753006 4294967295
292.71878 65.378494 -28.982899 4294967295
292.73309 78.558243 -29.66498 4294967295
292.73444 52.181366 -26.859514 4294967295
292.73489 52.654533 -27.688423 4294967295
292.74234 51.706329 -25.628208 4294967295
292.74277 79.020981 -30.048864 4294967295
292.74805 65.853836 -28.42687 4294967295
292.77026 53.596508 -27.689663 4294967295
292.78131 79.964348 -29.895218 4294967295
292.78479 66.795906 -28.36125 4294967295
292.7887 79.518166 -28.695431 4294967295
292.8168 67.735756 -28.522301 4294967295
292.82596 80.914124 -29.45052 4294967295
292.83484 68.206635 -28.50482 4294967295
292.83691 68.669106 -29.251198 4294967295
292.85284 81.39399 -29.008654 4294967295
292.85553 54.064011 -24.451841 4294967295
292.85901 44.170475 -28.846239 4294967295
292.86066 69.142815 -28.961737 4294967295
292.8667 81.860519 -29.190996 4294967295
292.8837 70.076698 -29.548426 4294967295
292.88724 82.334 -29.055445 4294967295
292.90424 82.803726 -29.089916 4294967295
292.90784 83.258789 -29.757711 4294967295
292.91095 45.10479 -28.056202 4294967295
292.91394 70.55452 -28.950172 4294967295
292.92471 46.054352 -29.083038 4294967295
292.93454 71.026817 -28.812029 4294967295
292.93689 83.741714 -29.217224 4294967295
292.94623 84.202728 -29.612806 4294967295
292.95361 46.520863 -28.549982 4294967295
292.95865 71.501518 -28.503611 4294967295
292.96805 84.677811 -29.415203 4294967295
292.97592 46.989971 -28.330069 4294967295
292.97913 71.974014 -28.372972 4294967295
292.98163 85.143341 -29.611208 4294967295
292.98517 72.895294 -29.764767 4294967295
292.99103 72.440887 -28.646929 4294967295
292.9928 47.460941 -28.369719 4294967295
293.00037 85.614929 -29.559381 4294967295
293.00668 73.368217 -29.582666 4294967295
293.02063 59.722832 -26.723011 4294967295
293.02371 86.092072 -29.291107 4294967295
293.02429 47.927605 -27.713655 4294967295
293.02911 60.192436 -27.162706 4294967295
293.03293 58.786491 -24.454336 4294967295
293.03967 48.399204 -27.825336 4294967295
293.04163 74.308525 -29.599052 4294967295
293.04324 86.564781 -29.202219 4294967295
293.04849 73.856003 -28.43861 4294967295
293.05026 49.346878 -28.998583 4294967295
293.05341 48.871117 -28.011892 4294967295
293.06857 74.785828 -29.161104 4294967295
293.07159 87.048447 -28.698545 4294967295
293.07706 49.81535 -28.56749 4294967295
293.07968 60.670452 -25.604624 4294967295
293.08047 75.251762 -29.435053 4294967295
293.09485 62.542015 -28.240473 4294967295
293.09961 63.008926 -28.851444 4294967295
293.10272 50.284374 -28.188234 4294967295
293.10687 61.612045 -25.995319 4294967295
293.1134 50.756409 -28.51959 4294967295
293.11505 62.081192 -26.445362 4294967295
293.12601 63.946995 -29.274765 4294967295
293.14392 77.126938 -29.776979 4294967295
293.15479 64.421295 -28.750484 4294967295
293.1568 77.593018 -30.001186 4294967295
293.15924 51.69619 -28.0257 4294967295
293.16327 76.687561 -28.029978 4294967295
293.16345 51.221817 -26.99271 4294967295
293.17432 78.062988 -30.009195 4294967295
293.17657 64.89341 -28.556807 4294967295
293.18384 65.359985 -29.048582 4294967295
293.18866 52.165562 -27.472456 4294967295
293.19797 65.829002 -29.215918 4294967295
293.20505 78.544891 -29.394562 4294967295
293.21381 66.298615 -29.302727 4294967295
293.24561 66.775276 -28.635616 4294967295
293.24719 79.945572 -29.904301 4294967295
293.24829 79.493042 -29.021757 4294967295
293.26532 67.246803 -28.543146 4294967295
293.27646 68.176071 -29.679018 4294967295
293.28412 80.434502 -28.999718 4294967295
293.28503 67.718445 -28.446373 4294967295
293.28937 53.101917 -24.398506 4294967295
293.33237 69.127502 -28.714186 4294967295
293.33444 81.843224 -29.127897 4294967295
293.33871 82.29966 -29.756315 4294967295
293.33936 44.6255 -29.023872 4294967295
293.35513 69.600883 -28.477411 4294967295
293.37201 70.071121 -28.514353 4294967295
293.37308 83.239044 -29.80114 4294967295
293.37778 45.565166 -28.878448 4294967295
293.37848 45.087372 -28.018429 4294967295
293.38004 82.794975 -28.650427 4294967295
293.38596 70.539597 -28.689199 4294967295
293.39014 46.037571 -29.128181 4294967295
293.3942 71.004486 -29.130737 4294967295
293.39926 83.71859 -29.403084 4294967295
293.40442 71.470276 -29.477968 4294967295
293.42206 84.194672 -29.162876 4294967295
293.42267 46.502857 -28.433544 4294967295
293.42776 84.651535 -29.722467 4294967295
293.43002 46.97686 -28.914906 4294967295
293.44327 71.95414 -28.489983 4294967295
293.4483 47.447147 -28.887939 4294967295
293.44922 72.417114 -29.03594 4294967295
293.46191 47.918785 -29.077209 4294967295
293.47601 72.89373 -28.612133 4294967295
293.48038 85.612152 -28.91799 4294967295
293.49161 73.362892 -28.71125 4294967295
293.51163 73.835167 -28.601175 4294967295
293.52457 60.648006 -26.666336 4294967295
293.52563 74.303146 -28.771341 4294967295
293.53537 60.181919 -25.336597 4294967295
293.5433 48.848045 -26.935051 4294967295
293.54431 49.323166 -27.710846 4294967295
293.54498 49.797752 -28.503014 4294967295
293.55099 87.045181 -28.101324 4294967295
293.55511 59.716301 -23.589802 4294967295
293.56265 62.058247 -27.365265 4294967295
293.56668 61.59235 -26.354317 4294967295
293.56757 61.124973 -25.489414 4294967295
293.56784 62.525902 -27.946829 4294967295
293.57306 75.253479 -28.212833 4294967295
293.58392 63.461636 -28.842274 4294967295
293.60443 63.0023 -27.070477 4294967295
293.61627 63.936981 -28.161953 4294967295
293.62515 50.731033 -26.421936 4294967295
293.63156 76.67028 -27.962027 4294967295
293.63577 77.129936 -28.585188 4294967295
293.65005 77.597672 -28.743412 4294967295
293.66861 51.672771 -26.049686 4294967295
293.67368 78.073463 -28.466742 4294967295
293.67398 65.351112 -27.947338 4294967295
293.69943 78.5513 -28.094528 4294967295
293.69983 79.460754 -29.70912 4294967295
293.70187 66.289734 -28.293106 4294967295
293.71542 66.758636 -28.486303 4294967295
293.72342 79.02784 -27.803333 4294967295
293.7287 79.941452 -29.193453 4294967295
293.73282 67.691521 -29.313774 4294967295
293.76511 68.168999 -28.640232 4294967295
293.76855 80.43309 -28.170013 4294967295
293.77158 80.889603 -28.846241 4294967295
293.77835 68.637352 -28.844761 4294967295
293.78888 69.104126 -29.174269 4294967295
293.79431 81.365173 -28.613405 4294967295
293.80908 81.832825 -28.749216 4294967295
293.81497 44.12648 -27.781765 4294967295
293.81931 69.581413 -28.587904 4294967295
293.82446 44.600727 -28.1586 4294967295
293.82861 70.047348 -28.973808 4294967295
293.83652 82.313469 -28.298079 4294967295
293.84573 45.070065 -27.994198 4294967295
293.85092 70.520515 -28.758949 4294967295
293.8623 45.541283 -28.044941 4294967295
293.87436 83.257584 -28.186283 4294967295
293.88 83.715424 -28.738392 4294967295
293.88095 46.01173 -28.001598 4294967295
293.90244 46.481255 -27.828331 4294967295
293.90698 46.956314 -28.430397 4294967295
293.91064 71.936371 -28.454317 4294967295
293.91147 84.201111 -28.105516 4294967295
293.9119 84.652748 -28.89748 4294967295
293.9332 47.424389 -28.040634 4294967295
293.93652 72.412346 -28.078512 4294967295
293.94153 73.333298 -29.468578 4294967295
293.94302 72.87574 -28.590385 4294967295
293.94308 85.138535 -28.278517 4294967295
293.95602 85.603836 -28.496706 4294967295
293.96481 73.807518 -29.210617 4294967295
293.96912 47.890007 -27.205093 4294967295
293.98105 86.083046 -28.160933 4294967295
293.98248 48.362267 -27.403851 4294967295
293.98978 86.543335 -28.569721 4294967295
294.00143 49.308094 -28.153454 4294967295
294.00241 48.832748 -27.301399 4294967295
294.00311 74.292679 -28.267414 4294967295
294.0174 87.025871 -28.115877 4294967295
294.01849 49.778976 -28.183502 4294967295
294.02112 74.763611 -28.255587 4294967295
294.03635 60.639069 -24.63018 4294967295
294.03955 75.23494 -28.220629 4294967295
294.04022 61.108208 -25.263863 4294967295
294.04245 60.171261 -23.537186 4294967295
294.04678 75.697678 -28.697649 4294967295
294.04865 62.045181 -26.498348 4294967295
294.04883 50.247265 -27.605087 4294967295
294.04892 61.577988 -25.676998 4294967295
294.05255 62.512878 -27.127724 4294967295
294.06406 50.718647 -27.717529 4294967295
294.06406 76.624344 -29.521173 4294967295
294.0697 62.983894 -27.152851 4294967295
294.07446 63.451092 -27.743797 4294967295
294.08176 76.181824 -27.910084 4294967295
294.091 64.386543 -28.602215 4294967295
294.10123 63.924942 -27.330669 4294967295
294.10312 77.112129 -28.547678 4294967295
294.10672 51.185635 -26.581619 4294967295
294.11606 65.323891 -29.069294 4294967295
294.11847 77.580795 -28.655054 4294967295
294.13019 64.864822 -27.623871 4294967295
294.14688 66.262856 -29.274445 4294967295
294.14709 65.799515 -28.464302 4294967295
294.14859 78.062012 -28.089378 4294967295
294.16714 78.533615 -28.048872 4294967295
294.17703 79.452202 -29.206455 4294967295
294.18533 66.74205 -28.33292 4294967295
294.19287 79.011604 -27.683289 4294967295
294.20346 67.212936 -28.314449 4294967295
294.20865 67.677887 -28.879169 4294967295
294.21417 79.940514 -28.324944 4294967295
294.22641 80.406151 -28.570351 4294967295
294.2363 80.869331 -28.9235 4294967295
294.23929 68.154579 -28.292904 4294967295
294.26852 69.55407 -29.3694 4294967295
294.27359 44.112862 -28.150269 4294967295
294.27673 69.097084 -28.198956 4294967295
294.28506 81.823578 -28.318178 4294967295
294.28717 70.024902 -29.326057 4294967295
294.30005 45.057747 -28.553841 4294967295
294.30072 44.579781 -27.724659 4294967295
294.30508 82.296669 -28.212286 4294967295
294.31888 83.215744 -29.186403 4294967295
294.3259 45.525291 -28.183899 4294967295
294.33252 70.971367 -28.874142 4294967295
294.34491 83.695007 -28.808386 4294967295
294.35022 71.441872 -28.872665 4294967295
294.35568 71.904854 -29.421749 4294967295
294.37006 46.463802 -27.788582 4294967295
294.38318 46.9361 -27.993755 4294967295
294.38867 85.096352 -29.225939 4294967295
294.3942 72.388306 -28.486504 4294967295
294.40018 84.657806 -27.912716 4294967295
294.40179 47.406609 -27.952255 4294967295
294.40335 72.853409 -28.868607 4294967295
294.42371 85.586273 -28.445156 4294967295
294.42969 47.874561 -27.493885 4294967295
294.44318 73.797485 -28.66642 4294967295
294.44672 48.820988 -28.317902 4294967295
294.44751 86.063904 -28.171551 4294967295
294.45834 74.266281 -28.780697 4294967295
294.46744 48.340305 -26.592178 4294967295
294.47073 86.54113 -27.921841 4294967295
294.47821 74.738396 -28.681568 4294967295
294.48306 49.287437 -27.481335 4294967295
294.48822 75.2033 -29.026237 4294967295
294.49271 61.554665 -26.744736 4294967295
294.5322 75.693527 -27.849274 4294967295
294.53238 62.03138 -25.760181 4294967295
294.53751 62.499741 -26.32444 4294967295
294.54327 76.159355 -28.143337 4294967295
294.54477 76.61734 -28.870472 4294967295
294.54791 60.629738 -22.671066 4294967295
294.55212 62.970325 -26.463104 4294967295
294.55472 63.902771 -27.931747 4294967295
294.56412 50.220703 -25.433697 4294967295
294.56448 50.695488 -26.212143 4294967295
294.56467 63.440201 -26.693638 4294967295
294.5665 77.547157 -29.478786 4294967295
294.58615 51.166355 -26.035542 4294967295
294.59146 77.111191 -27.57148 4294967295
294.59323 64.84552 -27.793701 4294967295
294.59457 64.380966 -26.943256 4294967295
294.59763 65.311531 -28.386776 4294967295
294.6026 78.032867 -28.654617 4294967295
294.62155 66.248238 -28.898571 4294967295
294.62427 65.785622 -27.98877 4294967295
294.63181 78.968681 -28.92873 4294967295
294.63199 78.513474 -28.131771 4294967295
294.67419 79.915962 -28.616703 4294967295
294.68414 68.126259 -29.259888 4294967295
294.7298 81.330208 -28.502678 4294967295
294.73099 68.610809 -27.961201 4294967295
294.7529 69.083748 -27.774513 4294967295
294.75516 81.808266 -28.163311 4294967295
294.76163 69.54998 -28.172401 4294967295
294.7739 44.560162 -27.440311 4294967295
294.78073 45.035248 -27.921246 4294967295
294.78433 82.743599 -28.437424 4294967295
294.79193 45.508385 -28.209194 4294967295
294.81488 83.227394 -27.867905 4294967295
294.8161 70.962997 -28.110836 4294967295
294.81943 83.684647 -28.449745 4294967295
294.81982 45.975536 -27.754375 4294967295
294.8331 71.433388 -28.139774 4294967295
294.84393 71.899971 -28.444809 4294967295
294.84598 84.164673 -28.057056 4294967295
294.84598 84.616539 -28.839115 4294967295
294.8476 46.443108 -27.309776 4294967295
294.84857 46.919315 -28.050571 4294967295
294.87509 85.099472 -28.33437 4294967295
294.88669 47.860039 -27.927914 4294967295
294.89044 72.848389 -27.951618 4294967295
294.90509 85.583763 -27.790836 4294967295
294.91193 73.321686 -27.784142 4294967295
294.91388 86.044746 -28.182545 4294967295
294.92825 73.791679 -27.844242 4294967295
294.92853 48.324623 -26.862728 4294967295
294.93686 48.798061 -27.274937 4294967295
294.94736 74.263504 -27.783039 4294967295
294.95346 61.067917 -26.246075 4294967295
294.95389 61.535484 -27.008991 4294967295
294.9577 49.268417 -27.137253 4294967295
