# .PCD v0.7 - Point Cloud Data file format
VERSION 0.7
FIELDS x y z rgb
SIZE 4 4 4 4
TYPE F F F U
COUNT 1 1 1 1
WIDTH 1146
HEIGHT 1
VIEWPOINT 0 0 0 1 0 0 0
POINTS 1146
DATA ascii
203.76561 36.420307 -76.449615 4294967295
203.77573 37.776398 -75.699707 4294967295
203.79141 51.018826 -75.248978 4294967295
203.81282 38.237869 -76.063171 4294967295
203.81496 39.593597 -75.166382 4294967295
203.82254 38.691906 -75.928375 4294967295
203.82491 51.476139 -75.546989 4294967295
203.83362 39.146389 -75.818497 4294967295
203.85178 52.388187 -75.412445 4294967295
203.85275 40.05489 -75.543159 4294967295
203.86005 52.84409 -75.251282 4294967295
203.8681 53.30011 -75.085724 4294967295
203.88861 40.967602 -75.572334 4294967295
203.8994 40.51796 -76.081467 4294967295
203.94321 41.431976 -76.256058 4294967295
203.9476 43.243347 -75.086502 4294967295
203.95177 42.791203 -75.475128 4294967295
203.95644 41.887047 -76.185486 4294967295
203.96928 42.342094 -76.10759 4294967295
203.98529 43.703476 -75.462067 4294967295
204.03925 44.166176 -76.134926 4294967295
204.04514 45.526962 -75.303818 4294967295
204.05037 45.981476 -75.086357 4294967295
204.06761 45.07711 -76.027603 4294967295
204.07382 46.892742 -74.888313 4294967295
204.09248 46.441345 -75.543358 4294967295
204.10326 33.664093 -76.166771 4294967295
204.11436 34.568333 -75.744057 4294967295
204.11525 33.218349 -76.69902 4294967295
204.13579 47.354847 -75.709518 4294967295
204.14539 48.718803 -74.944229 4294967295
204.14813 34.129299 -76.674583 4294967295
204.15097 47.810726 -75.673988 4294967295
204.15179 35.932278 -75.488724 4294967295
204.15504 48.265388 -75.434677 4294967295
204.17818 35.039383 -76.598755 4294967295
204.18001 49.63166 -74.951057 4294967295
204.19231 49.178123 -75.48999 4294967295
204.1978 36.397095 -76.017914 4294967295
204.2027 50.543598 -74.73848 4294967295
204.22101 36.854851 -76.129501 4294967295
204.2249 50.090382 -75.459702 4294967295
204.24803 37.76469 -75.997513 4294967295
204.24933 53.280716 -73.70652 4294967295
204.25153 51.457489 -75.005859 4294967295
204.25853 38.218872 -75.876266 4294967295
204.26604 52.369335 -74.643234 4294967295
204.26819 38.672924 -75.739388 4294967295
204.2699 52.825333 -74.399292 4294967295
204.27046 51.003586 -75.667496 4294967295
204.27052 51.913979 -75.03968 4294967295
204.2774 39.126976 -75.594574 4294967295
204.29297 39.582714 -75.565628 4294967295
204.3045 40.037506 -75.463188 4294967295
204.33571 40.497005 -75.721664 4294967295
204.34964 41.40469 -75.348892 4294967295
204.36708 40.956345 -75.983688 4294967295
204.37294 41.86224 -75.462318 4294967295
204.38045 42.769276 -74.970612 4294967295
204.41885 42.324379 -75.991745 4294967295
204.45294 43.689117 -75.674271 4294967295
204.45366 43.236443 -76.002235 4294967295
204.45576 44.142681 -75.411148 4294967295
204.47603 44.599419 -75.468651 4294967295
204.51128 33.18137 -75.601585 4294967295
204.52565 45.967716 -75.436768 4294967295
204.53491 46.422798 -75.29184 4294967295
204.54216 45.516773 -76.055946 4294967295
204.55206 46.879059 -75.292198 4294967295
204.57674 47.336273 -75.431267 4294967295
204.58641 35.458611 -75.409012 4294967295
204.59383 47.792473 -75.430771 4294967295
204.59682 33.661079 -76.86232 4294967295
204.60239 48.247704 -75.272522 4294967295
204.60701 34.114357 -76.73497 4294967295
204.60968 49.157574 -74.774841 4294967295
204.61522 48.703514 -75.193413 4294967295
204.63934 36.37661 -75.753334 4294967295
204.66393 50.527168 -74.827705 4294967295
204.67053 50.072731 -75.266045 4294967295
204.67307 51.894154 -74.046379 4294967295
204.67378 35.936501 -76.704544 4294967295
204.69136 51.439621 -74.701202 4294967295
204.71678 37.30114 -76.551163 4294967295
204.72186 53.720623 -73.680435 4294967295
204.72876 52.808521 -74.442215 4294967295
204.73734 52.353165 -74.918045 4294967295
204.75223 53.265327 -74.559555 4294967295
204.75491 39.56789 -75.674553 4294967295
204.75761 39.116943 -76.041245 4294967295
204.78873 40.028061 -75.983727 4294967295
204.80392 40.483566 -75.948067 4294967295
204.84012 40.943924 -76.301193 4294967295
204.87531 41.855808 -76.319016 4294967295
204.89133 43.669342 -75.347404 4294967295
204.899 43.217941 -75.807259 4294967295
204.91071 42.767712 -76.34111 4294967295
204.93019 45.035915 -75.115646 4294967295
204.96747 46.402809 -74.853722 4294967295
204.99281 33.624352 -75.757652 4294967295
205.0116 33.181068 -76.423645 4294967295
205.03162 47.319473 -75.409042 4294967295
205.03831 47.774395 -75.215134 4294967295
205.03854 46.86655 -75.855347 4294967295
205.05878 48.685455 -74.959076 4294967295
205.07291 34.551697 -76.609489 4294967295
205.07907 35.003822 -76.406059 4294967295
205.08896 48.234489 -75.837875 4294967295
205.10025 35.911304 -76.163651 4294967295
205.10292 35.461746 -76.531342 4294967295
205.10788 36.81514 -75.669586 4294967295
205.10857 50.054413 -74.929024 4294967295
205.11014 49.599766 -75.276909 4294967295
205.12424 50.510685 -74.901672 4294967295
205.12491 49.146702 -75.869614 4294967295
205.12753 36.370262 -76.352676 4294967295
205.13007 37.723858 -75.445267 4294967295
205.14366 37.276619 -76.01651 4294967295
205.14664 38.179859 -75.434998 4294967295
205.15076 51.42297 -74.757584 4294967295
205.1595 53.246731 -73.643234 4294967295
205.17441 38.63887 -75.633057 4294967295
205.17609 52.791241 -74.271835 4294967295
205.18178 51.880199 -75.016205 4294967295
205.20367 39.549767 -75.540733 4294967295
205.20554 39.098602 -75.894135 4294967295
205.21013 52.33709 -75.225365 4294967295
205.22452 40.00679 -75.609856 4294967295
205.24957 40.916843 -75.438644 4294967295
205.25385 41.822636 -74.879982 4294967295
205.26486 41.372581 -75.40432 4294967295
205.27975 40.472008 -76.32029 4294967295
205.33763 42.293015 -76.12294 4294967295
205.34763 43.652893 -75.35144 4294967295
205.41595 45.024292 -75.668304 4294967295
205.44241 45.935246 -75.522987 4294967295
205.44908 46.843704 -75.007309 4294967295
205.452 46.390278 -75.381699 4294967295
205.45544 34.060757 -75.563263 4294967295
205.46519 33.614098 -76.065903 4294967295
205.47165 47.300739 -75.109024 4294967295
205.47575 33.168098 -76.582703 4294967295
205.49271 48.211792 -74.861984 4294967295
205.49448 47.757725 -75.2155 4294967295
205.513 34.53043 -76.319893 4294967295
205.53688 50.035244 -74.405769 4294967295
205.54245 49.126122 -75.151871 4294967295
205.54364 48.671829 -75.494514 4294967295
205.54652 35.441772 -76.306702 4294967295
205.55925 35.896198 -76.224876 4294967295
205.56691 50.492817 -74.646927 4294967295
205.57375 36.351212 -76.175789 4294967295
205.58791 36.806175 -76.120583 4294967295
205.58839 49.585087 -75.691597 4294967295
205.60464 51.405975 -74.712128 4294967295
205.60718 51.861603 -74.438606 4294967295
205.60825 37.262989 -76.181274 4294967295
205.61635 38.618824 -75.370781 4294967295
205.6188 52.317879 -74.334923 4294967295
205.62738 37.719402 -76.219009 4294967295
205.64377 39.529396 -75.242432 4294967295
205.66081 39.985588 -75.240959 4294967295
205.70912 40.901299 -75.504845 4294967295
205.72354 41.3568 -75.454407 4294967295
205.73318 42.263851 -74.99231 4294967295
205.73849 41.812462 -75.413986 4294967295
205.77454 43.177864 -75.125168 4294967295
205.80411 42.731171 -76.003433 4294967295
205.81334 44.544441 -74.888985 4294967295
205.81847 43.639221 -75.629623 4294967295
205.84529 44.097054 -75.812187 4294967295
205.88361 45.462929 -75.566849 4294967295
205.88611 33.135811 -75.732552 4294967295
205.90166 47.280663 -74.616531 4294967295
205.91174 45.920708 -75.774567 4294967295
205.91895 34.047318 -75.706047 4294967295
205.92802 46.830227 -75.435928 4294967295
205.94716 33.607319 -76.559563 4294967295
205.98328 48.653343 -75.186432 4294967295
205.98396 34.519547 -76.608284 4294967295
205.9865 49.108166 -74.924118 4294967295
205.98883 34.971142 -76.377838 4294967295
206.00912 49.565025 -75.027672 4294967295
206.01871 37.233463 -75.327568 4294967295
206.01926 36.782642 -75.660843 4294967295
206.02101 36.332455 -76.01683 4294967295
206.02522 35.883324 -76.418869 4294967295
206.04788 50.023205 -75.436028 4294967295
206.04951 50.478115 -75.143799 4294967295
206.04956 37.693562 -75.586578 4294967295
206.05743 50.933704 -74.970154 4294967295
206.05769 52.7561 -73.679245 4294967295
206.06505 38.600574 -75.232918 4294967295
206.077 52.301086 -74.368103 4294967295
206.08055 38.153507 -75.8489 4294967295
206.08591 51.84602 -74.860611 4294967295
206.08925 53.669685 -73.627106 4294967295
206.10144 53.213863 -74.182365 4294967295
206.11873 39.517975 -75.600128 4294967295
206.12396 40.423019 -75.051552 4294967295
206.13452 40.877735 -74.927345 4294967295
206.18015 39.985123 -76.437393 4294967295
206.18069 41.340687 -75.476776 4294967295
206.25418 42.713554 -75.895638 4294967295
206.28351 44.077309 -75.478584 4294967295
206.29367 43.626438 -75.995529 4294967295
206.29466 44.532356 -75.365746 4294967295
206.31056 44.988297 -75.342285 4294967295
206.31474 45.895954 -74.771729 4294967295
206.32706 33.11438 -75.450104 4294967295
206.33704 45.445965 -75.519852 4294967295
206.34737 46.808483 -74.740585 4294967295
206.37524 34.031418 -75.714508 4294967295
206.41576 47.725533 -75.388802 4294967295
206.42587 35.399143 -75.701309 4294967295
206.42825 47.273319 -75.951294 4294967295
206.43051 35.851135 -75.463638 4294967295
206.43874 34.953167 -76.270309 4294967295
206.45055 48.183746 -75.724754 4294967295
206.47249 36.765663 -75.610924 4294967295
206.47475 48.640533 -75.859329 4294967295
206.47929 49.095192 -75.620331 4294967295
206.48218 50.004536 -75.023766 4294967295
206.48253 50.914627 -74.378716 4294967295
206.50024 36.323635 -76.463623 4294967295
206.50754 50.461487 -75.180931 4294967295
206.51103 37.228062 -76.018456 4294967295
206.51627 37.680485 -75.792511 4294967295
206.52736 52.283901 -74.253403 4294967295
206.52887 51.373077 -74.934601 4294967295
206.52914 52.73983 -73.961166 4294967295
206.54019 53.196312 -73.845139 4294967295
206.54898 39.043362 -75.437851 4294967295
206.55077 38.141354 -76.12336 4294967295
206.58572 39.504559 -75.811554 4294967295
206.58908 40.408882 -75.223267 4294967295
206.64 41.777325 -75.215073 4294967295
206.67003 41.332008 -76.113564 4294967295
206.67522 42.689892 -75.233505 4294967295
206.71475 43.15057 -75.661186 4294967295
206.72765 43.605762 -75.580467 4294967295
206.74568 44.968185 -74.944046 4294967295
206.77325 44.067093 -76.12429 4294967295
206.77818 45.426987 -75.237762 4294967295
206.78535 44.522034 -76.028908 4294967295
206.78683 33.099781 -75.523903 4294967295
206.79378 45.882927 -75.208687 4294967295
206.81516 33.559837 -75.738113 4294967295
206.84233 46.343784 -75.809425 4294967295
206.85846 34.47488 -75.911789 4294967295
206.87192 34.929535 -75.841919 4294967295
206.87686 34.031479 -76.590607 4294967295
206.89285 47.711536 -75.793427 4294967295
206.90552 48.621063 -75.380997 4294967295
206.92537 49.986626 -74.777069 4294967295
206.9258 36.298073 -75.890396 4294967295
206.92892 49.077831 -75.501534 4294967295
206.95543 51.809807 -74.039291 4294967295
206.9619 53.178123 -73.176086 4294967295
206.97238 36.763023 -76.454895 4294967295
206.97298 50.445457 -75.360947 4294967295
206.97447 50.900436 -75.061371 4294967295
206.97899 38.568577 -75.269821 4294967295
206.98129 37.216236 -76.297699 4294967295
206.98445 39.021576 -75.046196 4294967295
206.99654 53.635612 -73.511444 4294967295
206.99751 51.357079 -75.17482 4294967295
207.00232 37.673119 -76.373177 4294967295
207.01672 38.128059 -76.321152 4294967295
207.02325 39.483486 -75.461929 4294967295
207.03099 40.389053 -74.953247 4294967295
207.03166 39.937332 -75.294975 4294967295
207.10612 41.3111 -75.738548 4294967295
207.11037 40.860264 -76.148308 4294967295
207.12148 42.671406 -75.046661 4294967295
207.13551 41.769814 -75.974022 4294967295
207.16382 43.585445 -75.202126 4294967295
207.1703 43.134064 -75.656219 4294967295
207.17732 44.040928 -75.132263 4294967295
207.20999 44.499928 -75.43161 4294967295
207.2386 45.411156 -75.323029 4294967295
207.24854 44.959709 -75.844292 4294967295
207.25418 33.088017 -75.745743 4294967295
207.25429 45.867058 -75.295784 4294967295
207.25899 46.775112 -74.726524 4294967295
207.29324 46.326469 -75.716286 4294967295
207.30635 33.556633 -76.420425 4294967295
207.31047 47.690025 -75.058838 4294967295
207.31992 34.460804 -76.022858 4294967295
207.32104 35.361454 -75.384674 4294967295
207.32155 47.237606 -75.602325 4294967295
207.34251 34.918495 -76.128746 4294967295
207.35219 49.512329 -74.541351 4294967295
207.35564 48.149616 -75.599518 4294967295
207.36987 49.059544 -75.213455 4294967295
207.37578 48.605965 -75.657768 4294967295
207.38249 50.424866 -74.465378 4294967295
207.39047 36.284771 -76.063637 4294967295
207.3923 49.970821 -74.985542 4294967295
207.401 52.248119 -73.498077 4294967295
207.40718 50.881886 -74.610718 4294967295
207.41249 36.7421 -76.158661 4294967295
207.41289 51.337532 -74.390381 4294967295
207.41876 51.79335 -74.172745 4294967295
207.42352 52.705193 -73.601646 4294967295
207.44112 37.201344 -76.380829 4294967295
207.46257 38.109062 -76.13459 4294967295
207.4985 39.923817 -75.506172 4294967295
207.50188 39.473217 -75.902145 4294967295
207.52054 41.285023 -74.938583 4294967295
207.52063 40.381104 -75.602905 4294967295
207.54997 41.744076 -75.17688 4294967295
207.56554 40.843819 -76.140678 4294967295
207.59653 42.659 -75.415527 4294967295
207.59984 42.207424 -75.811012 4294967295
207.61494 43.115326 -75.440689 4294967295
207.62231 43.569458 -75.251617 4294967295
207.64632 44.026901 -75.385109 4294967295
207.68115 44.486195 -75.728554 4294967295
207.71831 45.851765 -75.453369 4294967295
207.72377 46.306049 -75.226799 4294967295
207.73817 46.761795 -75.174034 4294967295
207.74911 33.086628 -76.506866 4294967295
207.76495 33.541779 -76.482178 4294967295
207.77078 47.22007 -75.474976 4294967295
207.7926 47.67672 -75.566216 4294967295
207.79488 48.130936 -75.277718 4294967295
207.81117 35.356834 -76.051125 4294967295
207.81801 35.809258 -75.851166 4294967295
207.81989 34.909882 -76.552406 4294967295
207.82364 49.951817 -74.504936 4294967295
207.82726 36.262611 -75.698372 4294967295
207.82878 49.04314 -75.271362 4294967295
207.83823 36.716621 -75.578903 4294967295
207.8577 50.409649 -74.834465 4294967295
207.86243 50.865013 -74.593369 4294967295
207.86765 49.5014 -75.694443 4294967295
207.87328 37.178074 -75.927872 4294967295
207.87386 52.688007 -73.480194 4294967295
207.88745 51.321934 -74.746513 4294967295
207.89223 52.233047 -74.172096 4294967295
207.90172 37.637276 -76.148209 4294967295
207.90765 51.77845 -74.806732 4294967295
207.91321 39.445095 -75.039139 4294967295
207.92506 38.996864 -75.603439 4294967295
207.97569 40.364586 -75.589386 4294967295
207.98221 41.269981 -75.049255 4294967295
207.98636 40.818996 -75.463943 4294967295
208.03839 41.735123 -75.811195 4294967295
208.05457 42.190792 -75.792374 4294967295
208.05496 42.64312 -75.466255 4294967295
208.07697 43.552734 -75.227333 4294967295
208.10089 44.010159 -75.360336 4294967295
208.13765 44.922737 -75.409676 4294967295
208.14828 45.377697 -75.28289 4294967295
208.16469 46.287163 -74.9338 4294967295
208.18558 45.837029 -75.677414 4294967295
208.19089 33.514915 -75.906464 4294967295
208.19331 47.652916 -74.488579 4294967295
208.20064 46.746128 -75.302429 4294967295
208.20326 47.20023 -75.018684 4294967295
208.20541 48.108704 -74.390015 4294967295
208.21033 33.072815 -76.620789 4294967295
208.24362 34.882885 -75.933807 4294967295
208.24365 35.783222 -75.264191 4294967295
208.24516 34.433643 -76.298553 4294967295
208.25662 35.337307 -75.853195 4294967295
208.28265 36.246368 -75.693054 4294967295
208.28824 36.698643 -75.467064 4294967295
208.31613 50.393063 -74.881615 4294967295
208.32751 37.612171 -75.56588 4294967295
208.33054 52.671108 -73.482582 4294967295
208.33267 53.583755 -72.850609 4294967295
208.33905 52.215668 -73.986298 4294967295
208.34325 37.166302 -76.20961 4294967295
208.35027 53.128017 -73.532898 4294967295
208.3531 50.850834 -75.270515 4294967295
208.35881 51.30616 -75.046631 4294967295
208.37399 38.076706 -76.141563 4294967295
208.40144 38.535381 -76.344444 4294967295
208.40395 39.438171 -75.722588 4294967295
208.423 39.894577 -75.760567 4294967295
208.45441 40.354095 -76.041016 4294967295
208.48218 42.168118 -75.241173 4294967295
208.48238 41.264164 -75.918373 4294967295
208.4933 41.718559 -75.796707 4294967295
208.52399 43.534492 -75.053787 4294967295
208.52679 43.082474 -75.446007 4294967295
208.53711 44.442913 -74.637741 4294967295
208.54257 43.990936 -75.082359 4294967295
208.5845 45.811264 -74.559441 4294967295
208.5961 44.906677 -75.46225 4294967295
208.62404 46.27108 -75.000755 4294967295
208.62868 33.492283 -75.556061 4294967295
208.64636 34.398289 -75.230026 4294967295
208.66028 33.953491 -75.841286 4294967295
208.66811 47.638687 -74.856613 4294967295
208.6745 47.185711 -75.320526 4294967295
208.6969 48.550549 -74.748505 4294967295
208.7039 34.868435 -76.026962 4294967295
208.71368 36.222214 -75.207291 4294967295
208.72423 35.775341 -75.753075 4294967295
208.72835 50.372559 -74.016212 4294967295
208.73547 35.329128 -76.312187 4294967295
208.73581 48.101181 -75.854553 4294967295
208.73743 49.009365 -75.210709 4294967295
208.74362 49.464378 -74.994995 4294967295
208.75198 36.68502 -75.625305 4294967295
208.75516 49.920055 -74.884811 4294967295
208.76135 50.830364 -74.330009 4294967295
208.76256 51.285713 -74.014984 4294967295
208.77812 51.742188 -73.983963 4294967295
208.78398 52.198174 -73.760544 4294967295
208.79619 52.654625 -73.662827 4294967295
208.79971 37.600937 -75.89196 4294967295
208.81224 53.567497 -73.301743 4294967295
208.81662 53.111465 -73.728165 4294967295
208.82333 38.058678 -76.020706 4294967295
208.83527 38.512955 -75.918213 4294967295
208.85243 39.419937 -75.581184 4294967295
208.85864 39.873001 -75.365448 4294967295
208.89305 41.236977 -75.029518 4294967295
208.89786 40.334682 -75.802521 4294967295
208.91739 40.791138 -75.850525 4294967295
208.93321 42.150627 -75.147034 4294967295
208.93394 41.698685 -75.50042 4294967295
208.9695 43.063282 -75.187454 4294967295
208.99684 44.427074 -74.71067 4294967295
209.01468 43.525051 -75.74398 4294967295
209.01683 44.883865 -74.767479 4294967295
209.05316 45.796726 -74.808754 4294967295
209.05638 45.343971 -75.212471 4294967295
209.09319 33.479568 -75.731781 4294967295
209.0976 46.710724 -75.011154 4294967295
209.10493 33.933456 -75.625259 4294967295
209.12852 47.168831 -75.285873 4294967295
209.13176 47.623043 -75.009567 4294967295
209.13312 35.293198 -75.164948 4294967295
209.1658 36.204842 -75.133789 4294967295
209.18353 48.991589 -75.017494 4294967295
209.19305 49.44698 -74.866508 4294967295
209.19351 49.901642 -74.53437 4294967295
209.19525 48.538803 -75.591492 4294967295
209.22054 51.724464 -73.707138 4294967295
209.22537 50.814167 -74.486603 4294967295
209.2338 50.359982 -74.995499 4294967295
209.24341 51.270599 -74.504425 4294967295
209.2468 52.637451 -73.547356 4294967295
209.25494 53.093842 -73.367661 4294967295
209.25714 37.134895 -76.270477 4294967295
209.26071 52.182407 -74.166672 4294967295
209.2637 38.488865 -75.3787 4294967295
209.27017 37.589298 -76.18924 4294967295
209.27884 53.550869 -73.502388 4294967295
209.28737 38.946716 -75.509537 4294967295
209.28993 38.045757 -76.242126 4294967295
209.30777 39.403557 -75.575005 4294967295
209.33357 39.861797 -75.748108 4294967295
209.34622 41.219948 -74.976044 4294967295
209.35017 40.317513 -75.737839 4294967295
209.35651 40.770672 -75.522957 4294967295
209.40524 41.685959 -75.812218 4294967295
209.43127 42.143822 -75.99057 4294967295
209.43239 42.596073 -75.671364 4294967295
209.45224 43.504902 -75.383797 4294967295
209.47311 43.961639 -75.45916 4294967295
209.50389 45.779285 -74.704811 4294967295
209.50589 46.233177 -74.401855 4294967295
209.55316 33.465206 -75.820168 4294967295
209.55487 46.694321 -75.039658 4294967295
209.58258 47.605713 -74.908569 4294967295
209.5854 33.926609 -76.123138 4294967295
209.59041 47.153061 -75.408684 4294967295
209.60651 34.383728 -76.202911 4294967295
209.61 35.284393 -75.587799 4294967295
209.63765 48.066681 -75.669365 4294967295
209.63843 34.844643 -76.500252 4294967295
209.64943 36.197906 -75.692123 4294967295
209.65239 35.748856 -76.094414 4294967295
209.65855 37.101696 -75.188553 4294967295
209.66379 50.340961 -74.476471 4294967295
209.66864 36.654438 -75.734268 4294967295
209.67334 49.432739 -75.35553 4294967295
209.6786 50.797138 -74.430168 4294967295
209.69072 51.708481 -73.984894 4294967295
209.69467 53.076252 -73.030334 4294967295
209.70749 53.533039 -72.943108 4294967295
209.71268 38.470661 -75.24424 4294967295
209.7244 51.255547 -75.005539 4294967295
209.72467 37.572819 -76.171608 4294967295
209.73656 38.026924 -76.067039 4294967295
209.77596 39.841957 -75.483917 4294967295
209.80203 40.300228 -75.663872 4294967295
209.81342 41.20636 -75.204277 4294967295
209.82048 41.660019 -75.002213 4294967295
209.82426 40.757393 -75.766975 4294967295
209.84737 42.118385 -75.198654 4294967295
209.87816 43.4823 -74.784256 4294967295
209.89075 43.032444 -75.382874 4294967295
209.91264 43.941948 -75.134254 4294967295
209.93326 44.398689 -75.204742 4294967295
209.95018 44.854706 -75.200584 4294967295
209.95497 45.308605 -74.952469 4294967295
209.95518 45.761925 -74.610771 4294967295
209.99501 33.443993 -75.545235 4294967295
209.99536 46.221874 -75.076096 4294967295
210.0284 46.680374 -75.397629 4294967295
210.04738 35.261929 -75.220497 4294967295
210.05304 34.364468 -76.025726 4294967295
210.06459 34.818188 -75.91394 4294967295
210.09787 35.729351 -75.894386 4294967295
210.09793 49.867378 -74.380089 4294967295
210.10559 48.959312 -75.227921 4294967295
210.11424 49.414474 -75.056885 4294967295
210.11597 36.635601 -75.568787 4294967295
210.13196 37.541706 -75.199959 4294967295
210.14554 50.326431 -74.996773 4294967295
210.1586 37.099609 -76.084839 4294967295
210.16017 38.001091 -75.4245 4294967295
210.17696 38.907967 -75.071304 4294967295
210.17963 52.60461 -73.952866 4294967295
210.18024 53.06049 -73.617889 4294967295
210.18326 38.45879 -75.545204 4294967295
210.18527 53.516777 -73.372459 4294967295
210.20869 39.368126 -75.367439 4294967295
210.22383 39.823551 -75.327362 4294967295
210.23112 40.728622 -74.781136 4294967295
210.23688 40.278458 -75.244774 4294967295
210.27094 41.190434 -75.241219 4294967295
210.31927 41.653927 -75.874664 4294967295
210.32729 42.107586 -75.689819 4294967295
210.33601 43.91898 -74.476784 4294967295
210.34563 43.015827 -75.367165 4294967295
210.36575 43.472416 -75.428978 4294967295
210.38985 44.83522 -74.875046 4294967295
210.39412 44.383171 -75.309731 4294967295
210.43739 45.749771 -75.145287 4294967295
210.45818 46.206413 -75.219925 4294967295
210.46074 46.660213 -74.923424 4294967295
210.47525 47.569801 -74.522079 4294967295
210.48291 47.117085 -75.026398 4294967295
210.48517 33.890423 -75.901321 4294967295
210.50702 34.797424 -75.649628 4294967295
210.50899 34.348625 -76.038025 4294967295
210.53568 35.25732 -75.884453 4294967295
210.54471 35.710278 -75.720245 4294967295
210.55423 48.941799 -75.084061 4294967295
210.5554 50.305576 -74.060509 4294967295
210.55756 49.850964 -74.453537 4294967295
210.55882 48.48835 -75.526672 4294967295
210.56184 36.616257 -75.372032 4294967295
210.57814 50.762508 -74.174858 4294967295
210.58286 49.399082 -75.318855 4294967295
210.59334 37.076824 -75.665375 4294967295
210.61325 52.13089 -73.842415 4294967295
210.62064 51.220795 -74.692726 4294967295
210.62735 37.988407 -75.661209 4294967295
210.63049 53.499466 -73.143723 4294967295
210.63702 52.58778 -73.978149 4294967295
210.63956 37.541759 -76.258652 4294967295
210.64149 38.894253 -75.251556 4294967295
210.64651 38.444843 -75.702751 4294967295
210.66458 39.351913 -75.372986 4294967295
210.69287 39.810909 -75.601334 4294967295
210.72824 40.27161 -75.974213 4294967295
210.72873 41.626434 -74.935097 4294967295
210.73021 41.174969 -75.315193 4294967295
210.74661 42.082726 -74.950607 4294967295
210.75758 42.537434 -74.824516 4294967295
210.78082 42.99493 -74.949745 4294967295
210.80316 43.452133 -75.056656 4294967295
210.80495 43.905098 -74.742653 4294967295
210.83096 44.815952 -74.574295 4294967295
210.86002 45.274326 -74.818512 4294967295
210.87164 44.370911 -75.758041 4294967295
210.87761 45.730568 -74.828278 4294967295
210.88333 46.184875 -74.594322 4294967295
210.89595 33.40802 -75.337906 4294967295
210.92783 46.645344 -75.155838 4294967295
210.9525 48.464115 -74.256485 4294967295
210.95412 47.556301 -74.992722 4294967295
210.95926 47.103462 -75.449661 4294967295
210.96793 33.884781 -76.462708 4294967295
210.96814 48.011993 -74.929184 4294967295
210.97992 34.338371 -76.358124 4294967295
210.99074 48.922901 -74.689835 4294967295
210.99481 34.793098 -76.31266 4294967295
210.99696 49.37796 -74.466003 4294967295
211.00462 35.246063 -76.163605 4294967295
211.01022 49.833881 -74.386597 4294967295
211.01962 35.700932 -76.11998 4294967295
211.02315 36.151936 -75.841034 4294967295
211.03709 36.606625 -75.776398 4294967295
211.03777 37.05706 -75.438812 4294967295
211.04582 50.29187 -74.766304 4294967295
211.05215 51.202179 -74.1922 4294967295
211.06985 52.11404 -73.850838 4294967295
211.07259 37.969036 -75.45089 4294967295
211.07306 52.569893 -73.564087 4294967295
211.07733 50.749229 -75.061974 4294967295
211.07828 38.872482 -74.864174 4294967295
211.08771 53.482552 -73.159447 4294967295
211.10129 38.428402 -75.689384 4294967295
211.10602 53.027206 -73.889565 4294967295
211.15625 40.247963 -75.41153 4294967295
211.15662 39.345989 -76.123611 4294967295
211.16536 40.70179 -75.247192 4294967295
211.1723 41.155197 -75.037415 4294967295
211.18857 41.611042 -75.019928 4294967295
211.2083 42.067715 -75.073448 4294967295
211.21741 42.974266 -74.555267 4294967295
211.25655 42.530857 -75.715378 4294967295
211.27591 44.344391 -74.702362 4294967295
211.28912 43.442078 -75.681526 4294967295
211.31691 45.257973 -74.841888 4294967295
211.32025 44.805691 -75.264397 4294967295
211.33372 46.167385 -74.481445 4294967295
211.36644 45.719669 -75.511566 4294967295
211.37753 47.081337 -74.678886 4294967295
211.3869 33.405838 -76.069504 4294967295
211.39233 46.630108 -75.339149 4294967295
211.41013 34.762405 -75.488747 4294967295
211.42357 34.318016 -76.120705 4294967295
211.42378 47.995308 -74.927269 4294967295
211.43709 47.543453 -75.556992 4294967295
211.43819 49.359646 -74.161804 4294967295
211.44415 48.451801 -74.994339 4294967295
211.44916 35.226124 -75.942299 4294967295
211.44919 35.675804 -75.588936 4294967295
211.45425 48.90707 -74.849319 4294967295
211.47119 36.133293 -75.68985 4294967295
211.47752 50.272903 -74.26638 4294967295
211.48494 37.038155 -75.265984 4294967295
211.50546 36.594818 -76.045532 4294967295
211.5099 37.496597 -75.428734 4294967295
211.54366 51.188 -74.927864 4294967295
211.55626 37.961563 -76.034653 4294967295
211.55675 39.313904 -74.980164 4294967295
211.55695 38.412228 -75.694237 4294967295
211.56183 52.099262 -74.594795 4294967295
211.562 38.864456 -75.444725 4294967295
211.56242 53.466228 -73.539139 4294967295
211.58556 39.773224 -75.22319 4294967295
211.6064 40.230186 -75.300415 4294967295
211.6368 41.141075 -75.220985 4294967295
211.65454 40.69426 -75.944572 4294967295
211.66454 41.599651 -75.44165 4294967295
211.68251 42.055733 -75.459358 4294967295
211.70305 42.964432 -75.175156 4294967295
211.70403 42.512608 -75.550995 4294967295
211.71483 43.419258 -75.063713 4294967295
211.77701 45.24221 -74.932716 4294967295
211.77975 44.337379 -75.702736 4294967295
211.79387 45.698242 -74.927834 4294967295
211.81076 46.154282 -74.922562 4294967295
211.82156 33.830872 -75.284767 4294967295
211.8315 46.610928 -74.997833 4294967295
211.83379 33.386528 -75.895851 4294967295
211.8493 47.520718 -74.655457 4294967295
211.88292 35.652008 -75.136536 4294967295
211.88596 35.203339 -75.556999 4294967295
211.8894 47.979954 -75.134796 4294967295
211.89211 34.756149 -76.042221 4294967295
211.90253 48.435452 -75.051216 4294967295
211.91238 36.562336 -75.036819 4294967295
211.92334 49.346062 -74.771278 4294967295
211.925 49.800652 -74.447731 4294967295
211.92795 36.117641 -75.719261 4294967295
211.93915 48.893749 -75.45858 4294967295
211.95103 50.257732 -74.634056 4294967295
211.95123 51.622871 -73.563576 4294967295
211.96982 51.168957 -74.310501 4294967295
211.97136 50.714199 -74.701012 4294967295
211.97594 37.033676 -76.007263 4294967295
211.98183 37.485691 -75.77253 4294967295
211.99864 37.941319 -75.766541 4294967295
211.99918 52.081306 -74.208229 4294967295
212.0107 53.44902 -73.373085 4294967295
212.01093 38.395573 -75.665848 4294967295
212.01212 39.297546 -74.974968 4294967295
212.03505 52.994102 -74.241699 4294967295
212.03955 38.854755 -75.906319 4294967295
212.07257 40.216778 -75.523605 4294967295
212.07385 39.766136 -75.90863 4294967295
212.09781 41.126114 -75.335541 4294967295
212.13812 42.039371 -75.463104 4294967295
212.16418 43.853935 -74.573654 4294967295
212.17386 42.951401 -75.494865 4294967295
212.19974 44.313812 -74.960518 4294967295
212.20102 43.409401 -75.705399 4294967295
212.20528 44.767639 -74.717346 4294967295
212.2384 45.226719 -75.053734 4294967295
212.24281 45.680496 -74.786385 4294967295
212.24831 33.354309 -75.040573 4294967295
212.24919 46.134815 -74.560692 4294967295
212.25879 46.589825 -74.402328 4294967295
212.27696 47.046246 -74.424927 4294967295
212.29333 34.270393 -75.26712 4294967295
212.30328 33.825058 -75.835831 4294967295
212.30923 47.50465 -74.742874 4294967295
212.32689 35.181961 -75.253426 4294967295
212.33745 34.736393 -75.835091 4294967295
212.34781 47.963665 -75.194611 4294967295
212.34975 48.871773 -74.514847 4294967295
212.36021 35.643658 -75.59436 4294967295
212.36534 48.41967 -75.203026 4294967295
212.38155 49.329601 -74.823868 4294967295
212.38774 36.55291 -75.453209 4294967295
212.39351 36.10508 -75.934914 4294967295
212.39557 49.785385 -74.758492 4294967295
212.40488 37.008759 -75.454056 4294967295
212.4054 50.240826 -74.604279 4294967295
212.41086 50.696026 -74.358795 4294967295
212.41551 51.151352 -74.095833 4294967295
212.42955 37.917381 -75.25267 4294967295
212.43427 38.369461 -74.991409 4294967295
212.43469 51.607883 -74.138596 4294967295
212.43762 37.46965 -75.783249 4294967295
212.45322 38.826027 -75.030144 4294967295
212.46251 52.520287 -74.002838 4294967295
212.46468 52.976063 -73.686981 4294967295
212.46628 52.065117 -74.443832 4294967295
212.48727 39.286964 -75.387444 4294967295
212.49611 40.191677 -74.851852 4294967295
212.49797 53.433174 -74.028 4294967295
212.52409 41.10218 -74.719498 4294967295
212.55627 41.562084 -75.037445 4294967295
212.55676 42.014034 -74.686386 4294967295
212.59631 42.475426 -75.160133 4294967295
212.6198 42.932812 -75.294785 4294967295
212.62404 43.838303 -74.660461 4294967295
212.65897 44.750713 -74.674744 4294967295
212.67265 45.206215 -74.60228 4294967295
212.70093 45.664356 -74.838371 4294967295
212.73996 33.352779 -75.805138 4294967295
212.75346 47.032749 -74.863159 4294967295
212.7583 46.580219 -75.329102 4294967295
212.76753 34.710831 -75.301773 4294967295
212.77698 47.489735 -74.998672 4294967295
212.77919 33.817154 -76.274017 4294967295
212.79327 35.619511 -75.122124 4294967295
212.81523 35.177979 -75.950546 4294967295
212.81927 48.856689 -74.806816 4294967295
212.82372 36.080143 -75.404785 4294967295
212.83565 49.312695 -74.790802 4294967295
212.85764 36.991695 -75.398415 4294967295
212.85918 49.769444 -74.926926 4294967295
212.867 36.544968 -75.96006 4294967295
212.87457 50.679905 -74.526482 4294967295
212.88467 50.226269 -75.105087 4294967295
212.8848 37.450817 -75.6119 4294967295
212.88924 37.902508 -75.342682 4294967295
212.91489 51.137897 -75.019295 4294967295
212.91965 52.048115 -74.39267 4294967295
212.92197 38.363224 -75.674706 4294967295
212.92381 53.415176 -73.386734 4294967295
212.93288 52.959686 -73.944931 4294967295
212.93987 52.504532 -74.458649 4294967295
212.94135 38.819641 -75.723221 4294967295
212.9433 39.270866 -75.400597 4294967295
212.96402 39.727734 -75.477463 4294967295
212.96712 40.17963 -75.179283 4294967295
212.98994 40.637093 -75.300995 4294967295
213.01559 41.095196 -75.482704 4294967295
213.03725 42.003712 -75.215073 4294967295
213.05043 41.555489 -75.860428 4294967295
213.05774 42.460411 -75.286804 4294967295
213.07866 43.369225 -75.0028 4294967295
213.08426 44.275372 -74.392014 4294967295
213.08708 43.823372 -74.817657 4294967295
213.09587 42.921093 -75.734924 4294967295
213.13705 44.738567 -75.153709 4294967295
213.16254 33.323547 -75.108658 4294967295
213.16568 45.649422 -75.033699 4294967295
213.16789 46.556187 -74.349724 4294967295
213.17113 45.197662 -75.515549 4294967295
213.18782 46.106251 -75.141106 4294967295
213.20627 47.015697 -74.803581 4294967295
213.21524 34.242569 -75.50338 4294967295
213.22021 34.693726 -75.244049 4294967295
213.22192 47.471546 -74.772049 4294967295
213.22583 33.797802 -76.094986 4294967295
213.22977 48.38031 -74.207352 4294967295
213.25507 48.837597 -74.382584 4294967295
213.258 47.930222 -75.177635 4294967295
213.26253 49.292747 -74.175446 4294967295
213.28889 36.517269 -75.248795 4294967295
213.30385 50.206047 -74.326729 4294967295
213.304 37.422684 -74.839394 4294967295
213.30887 50.661251 -74.067291 4294967295
213.32454 49.753704 -75.136322 4294967295
213.33565 36.983189 -75.883064 4294967295
213.34525 51.119118 -74.479965 4294967295
213.35986 37.891205 -75.669312 4294967295
213.36032 51.575165 -74.435844 4294967295
213.39116 53.398651 -73.627342 4294967295
213.39165 52.032257 -74.740616 4294967295
213.39767 39.254295 -75.379669 4294967295
213.40344 52.943439 -74.258766 4294967295
213.41595 40.161457 -75.03772 4294967295
213.41989 39.71159 -75.488792 4294967295
213.47603 41.080181 -75.5923 4294967295
213.49303 41.987392 -75.222359 4294967295
213.51195 42.443703 -75.261337 4294967295
213.55057 44.261032 -74.619743 4294967295
213.55287 43.809071 -75.037323 4294967295
213.59265 44.722069 -75.156471 4294967295
213.6162 45.631958 -74.926842 4294967295
213.63452 33.314289 -75.464737 4294967295
213.63747 46.088676 -75.016411 4294967295
213.6629 46.999229 -74.826118 4294967295
213.66957 34.226135 -75.482819 4294967295
213.67819 47.454998 -74.78714 4294967295
213.68474 33.783321 -76.178215 4294967295
213.71793 35.14296 -75.787613 4294967295
213.7195 48.368023 -74.939774 4294967295
213.72256 36.043606 -75.14917 4294967295
213.73651 48.824005 -74.93708 4294967295
213.75867 49.734726 -74.676407 4294967295
213.76553 49.281345 -75.194321 4294967295
213.78571 36.965279 -75.773674 4294967295
213.78836 50.192039 -74.948196 4294967295
213.79886 37.419598 -75.688477 4294967295
213.80237 37.87085 -75.394547 4294967295
213.81178 52.013187 -73.973213 4294967295
213.8192 38.326565 -75.389053 4294967295
213.8318 38.78096 -75.291275 4294967295
213.83345 51.55957 -74.812897 4294967295
213.8427 53.381557 -73.530075 4294967295
213.84767 52.470581 -74.379303 4294967295
213.8519 39.237686 -75.356041 4294967295
213.85396 39.689102 -75.030708 4294967295
213.88075 40.147781 -75.240059 4294967295
213.89348 40.602425 -75.145096 4294967295
213.91412 41.05925 -75.22123 4294967295
213.93748 41.516735 -75.356766 4294967295
213.95271 41.972061 -75.315697 4294967295
213.96268 42.878056 -74.789558 4294967295
213.96379 42.426441 -75.185295 4294967295
214.00063 44.243362 -74.498932 4294967295
214.0181 43.34269 -75.620483 4294967295
214.02838 45.154411 -74.357765 4294967295
214.04495 44.704933 -75.089455 4294967295
214.07715 46.522587 -74.301285 4294967295
214.07764 46.069427 -74.684067 4294967295
214.07935 45.616783 -75.092751 4294967295
214.08141 33.294815 -75.282982 4294967295
214.09608 33.749645 -75.230293 4294967295
214.11995 34.208153 -75.376831 4294967295
214.13766 46.985615 -75.244652 4294967295
214.14062 47.439373 -74.936913 4294967295
214.14349 47.893353 -74.626976 4294967295
214.15491 34.670841 -75.764755 4294967295
214.15926 48.349266 -74.597153 4294967295
214.1608 35.571587 -75.148636 4294967295
214.16156 48.803555 -74.274628 4294967295
214.17302 35.12685 -75.786751 4294967295
214.18671 49.715057 -74.076157 4294967295
214.20143 49.262394 -74.769958 4294967295
214.2057 36.037533 -75.753983 4294967295
214.21103 36.938808 -75.124794 4294967295
214.217 36.491104 -75.626999 4294967295
214.22566 50.628101 -74.178802 4294967295
214.24767 37.851357 -75.177223 4294967295
214.24916 51.539883 -73.944145 4294967295
214.25011 51.995224 -73.590958 4294967295
214.25174 37.402645 -75.638847 4294967295
214.25426 50.176281 -75.175095 4294967295
214.26155 51.085892 -74.588219 4294967295
214.27534 38.761028 -75.034706 4294967295
214.28632 38.31411 -75.646774 4294967295
214.29474 39.217636 -75.08445 4294967295
214.3118 53.36512 -73.815445 4294967295
214.31738 52.454468 -74.685356 4294967295
214.32941 52.910309 -74.573898 4294967295
214.33168 39.679371 -75.516983 4294967295
214.34293 40.584438 -75.015755 4294967295
214.35681 40.13739 -75.69236 4294967295
214.36748 41.042351 -75.177567 4294967295
214.38197 41.497532 -75.120613 4294967295
214.41479 42.408951 -75.08992 4294967295
214.42776 41.960655 -75.747581 4294967295
214.43356 42.865234 -75.126457 4294967295
214.46051 44.227753 -74.592117 4294967295
214.47549 43.778675 -75.295242 4294967295
214.49045 44.686417 -74.872971 4294967295
214.49371 45.139725 -74.569252 4294967295
214.51787 45.597118 -74.723732 4294967295
214.53276 33.277157 -75.196541 4294967295
214.55397 46.509506 -74.764542 4294967295
214.55579 33.735397 -75.326454 4294967295
214.55579 34.184338 -74.951584 4294967295
214.55611 46.05687 -75.186455 4294967295
214.58772 34.646065 -75.276581 4294967295
214.58943 47.421734 -74.791298 4294967295
214.60925 48.331844 -74.474876 4294967295
214.61374 47.878757 -74.948959 4294967295
214.61847 48.786999 -74.301697 4294967295
214.63841 35.56382 -75.637871 4294967295
214.64774 36.016624 -75.467117 4294967295
214.66464 49.246559 -74.939545 4294967295
214.68721 49.703094 -75.059067 4294967295
214.69357 51.067162 -74.069695 4294967295
214.69487 50.158073 -74.851295 4294967295
214.69887 36.933971 -75.838554 4294967295
214.71617 37.389614 -75.843201 4294967295
214.7261 37.842804 -75.685028 4294967295
214.73172 51.980003 -74.155861 4294967295
214.73601 38.296116 -75.526871 4294967295
214.76315 39.205349 -75.371391 4294967295
214.78021 52.438004 -74.846146 4294967295
214.78279 52.893314 -74.525314 4294967295
214.79346 39.665035 -75.662041 4294967295
214.80182 53.34951 -74.56736 4294967295
214.80627 40.119442 -75.567429 4294967295
214.81378 41.474957 -74.602097 4294967295
214.85243 41.936508 -75.076813 4294967295
214.8571 42.38932 -74.802788 4294967295
214.91837 44.211731 -74.643143 4294967295
214.92476 43.308945 -75.53978 4294967295
214.96024 44.672813 -75.190094 4294967295
214.9756 45.580967 -74.772934 4294967295
215.00409 46.491997 -74.645821 4294967295
215.00778 33.26944 -75.632988 4294967295
215.01666 46.947315 -74.545708 4294967295
215.01915 34.171497 -75.127937 4294967295
215.03424 33.728939 -75.83992 4294967295
215.03848 47.857716 -74.270576 4294967295
215.04088 47.40448 -74.702637 4294967295
215.05087 34.633102 -75.451111 4294967295
215.06607 35.088074 -75.408936 4294967295
215.07991 48.771008 -74.429588 4294967295
215.0806 35.992256 -74.973419 4294967295
215.08318 48.317612 -74.880714 4294967295
215.11491 49.683361 -74.446449 4294967295
215.12888 49.230865 -75.134811 4294967295
215.1436 36.464699 -75.989395 4294967295
215.14815 50.595524 -74.42395 4294967295
215.1483 51.050262 -74.047379 4294967295
215.15485 37.367809 -75.480789 4294967295
215.15564 50.141838 -74.969315 4294967295
215.16116 37.819881 -75.241203 4294967295
215.17769 38.725842 -74.848846 4294967295
215.17941 51.962627 -73.977829 4294967295
215.18655 38.278385 -75.425041 4294967295
215.19672 51.508854 -74.741844 4294967295
215.23378 52.42104 -74.804535 4294967295
215.23569 39.194435 -75.756516 4294967295
215.2648 40.104126 -75.643204 4294967295
215.27678 40.558308 -75.529404 4294967295
215.2805 41.91309 -74.470886 4294967295
215.28865 41.012543 -75.412674 4294967295
215.28894 41.463799 -75.039017 4294967295
215.33372 43.281807 -74.512192 4294967295
215.33417 42.378281 -75.283951 4294967295
215.34277 42.832012 -75.094498 4294967295
215.35596 43.739025 -74.626228 4294967295
215.36354 44.193016 -74.413544 4294967295
215.38898 44.650848 -74.598953 4294967295
215.41501 45.561394 -74.415855 4294967295
215.42482 45.110577 -75.016251 4294967295
215.44035 46.472107 -74.217476 4294967295
215.44315 33.245068 -75.19368 4294967295
215.45047 46.020805 -74.825195 4294967295
215.47639 34.156246 -75.171913 4294967295
215.47891 33.708618 -75.609879 4294967295
215.48105 47.839149 -73.978622 4294967295
215.49899 34.614239 -75.294998 4294967295
215.51797 48.298138 -74.421097 4294967295
215.54532 48.755547 -74.649292 4294967295
215.54892 35.082787 -76.027298 4294967295
215.55103 35.532516 -75.691887 4294967295
215.5518 49.210316 -74.411545 4294967295
215.56458 49.665966 -74.314499 4294967295
215.56874 50.120811 -74.024445 4294967295
215.59245 36.89579 -75.471489 4294967295
215.59647 37.346928 -75.178734 4294967295
215.62219 51.034966 -74.454079 4294967295
215.62315 38.256035 -75.009918 4294967295
215.62479 50.580677 -74.895683 4294967295
215.63564 37.810184 -75.672066 4294967295
215.64615 51.491577 -74.607101 4294967295
215.65439 51.947041 -74.408478 4294967295
215.66319 39.169579 -75.140579 4294967295
215.66353 52.402706 -74.229652 4294967295
215.66936 40.072926 -74.512047 4294967295
215.67212 52.858486 -74.038116 4294967295
215.67436 39.623589 -75.007591 4294967295
215.75641 41.450687 -75.311935 4294967295
215.75763 41.000027 -75.722771 4294967295
215.76588 41.904449 -75.141045 4294967295
215.77632 43.262329 -74.222809 4294967295
215.79858 42.815708 -75.106941 4294967295
215.83286 43.727371 -75.108025 4294967295
215.84604 44.634647 -74.634605 4294967295
215.8515 44.183533 -75.142487 4294967295
215.89186 45.548878 -74.895454 4294967295
215.91609 33.685085 -75.207947 4294967295
215.92229 46.913185 -74.424835 4294967295
215.92665 47.367302 -74.137459 4294967295
215.92738 33.241493 -75.846298 4294967295
215.92744 34.138493 -75.078865 4294967295
215.95602 47.825294 -74.412849 4294967295
215.95952 48.279518 -74.105797 4294967295
215.98077 35.956036 -74.737679 4294967295
215.98601 34.610981 -76.011307 4294967295
215.99022 35.51033 -75.336052 4294967295
215.99481 35.063168 -75.825134 4294967295
216.00888 49.647964 -74.060684 4294967295
216.02596 36.422314 -75.370514 4294967295
216.02599 49.195824 -74.832466 4294967295
216.03453 36.874947 -75.177979 4294967295
216.04167 37.327232 -74.953308 4294967295
216.05132 37.780548 -74.784729 4294967295
216.06192 50.562195 -74.484207 4294967295
216.06665 50.108353 -74.977798 4294967295
216.06801 51.017342 -74.235588 4294967295
216.0696 51.472336 -73.884651 4294967295
216.0954 52.384457 -73.693466 4294967295
216.10121 51.929607 -74.212112 4294967295
216.10472 39.148991 -74.831535 4294967295
216.11105 52.840771 -73.659973 4294967295
216.14606 39.61232 -75.378433 4294967295
216.14902 40.063805 -75.058769 4294967295
216.15457 53.298233 -74.256844 4294967295
216.17233 40.52142 -75.198982 4294967295
216.18195 40.97509 -75.029549 4294967295
216.21541 41.435364 -75.399078 4294967295
216.22171 42.339664 -74.7677 4294967295
216.22546 41.889206 -75.239799 4294967295
216.26134 44.157112 -74.113953 4294967295
216.28255 43.257824 -75.370087 4294967295
216.29584 44.616951 -74.507675 4294967295
216.32256 45.074924 -74.72538 4294967295
216.33116 45.98214 -74.143761 4294967295
216.34142 45.531216 -74.765236 4294967295
216.36752 46.894859 -74.191917 4294967295
216.3831 33.674076 -75.476883 4294967295
216.38432 33.226372 -75.892769 4294967295
216.39601 47.352802 -74.450089 4294967295
216.40839 47.80817 -74.342262 4294967295
216.41934 35.034996 -75.134583 4294967295
216.42061 34.586693 -75.551926 4294967295
216.42485 48.718075 -73.937515 4294967295
216.42726 35.487194 -74.925903 4294967295
216.43605 48.265743 -74.582214 4294967295
216.44643 35.943825 -74.972481 4294967295
216.49896 36.862133 -75.388962 4294967295
216.4998 50.998497 -73.694366 4294967295
216.50121 50.543877 -74.116096 4294967295
216.50229 49.635452 -74.919952 4294967295
216.50916 37.765198 -74.842392 4294967295
216.51163 50.090534 -74.743439 4294967295
216.52184 51.455235 -73.806091 4294967295
216.54529 38.227482 -75.275513 4294967295
216.56725 51.913471 -74.450546 4294967295
216.57246 39.136669 -75.114624 4294967295
216.57594 38.687622 -75.583679 4294967295
216.5892 53.280464 -73.779556 4294967295
216.59029 39.59267 -75.130882 4294967295
216.59216 52.369991 -74.628265 4294967295
216.59554 52.825306 -74.314964 4294967295
216.60847 40.499535 -74.765121 4294967295
216.60918 40.950813 -74.3908 4294967295
216.62494 40.053719 -75.530739 4294967295
216.69618 42.328156 -75.205177 4294967295
216.70737 43.686169 -74.287231 4294967295
216.70953 42.782974 -75.11937 4294967295
216.7413 43.242249 -75.454437 4294967295
216.76204 44.602711 -74.754448 4294967295
216.79825 45.062515 -75.191353 4294967295
216.79985 45.967987 -74.444916 4294967295
216.82513 33.204243 -75.57164 4294967295
216.82727 33.653404 -75.228477 4294967295
216.82928 46.879269 -74.334396 4294967295
216.83893 46.427902 -74.947701 4294967295
216.84453 47.335064 -74.291481 4294967295
216.86465 47.791622 -74.360184 4294967295
216.86894 34.567894 -75.399376 4294967295
216.87553 34.122181 -75.942047 4294967295
216.88284 48.247849 -74.384872 4294967295
216.89391 35.475563 -75.18763 4294967295
216.89626 48.70343 -74.299545 4294967295
216.91318 49.159515 -74.295135 4294967295
216.93951 49.616669 -74.5065 4294967295
216.94327 35.943676 -75.927605 4294967295
216.94901 37.293724 -74.8815 4294967295
216.95059 36.844711 -75.310356 4294967295
216.96219 36.399788 -75.968796 4294967295
216.97807 51.438446 -73.819107 4294967295
216.97974 38.204239 -74.801048 4294967295
216.9957 37.75988 -75.560715 4294967295
217.0058 52.350639 -73.668121 4294967295
217.01262 38.665344 -75.163765 4294967295
217.03419 51.897415 -74.715279 4294967295
217.04092 39.124672 -75.420731 4294967295
217.05289 39.578709 -75.302505 4294967295
217.05852 40.030903 -75.038437 4294967295
217.06183 53.264256 -74.169319 4294967295
217.06978 40.935925 -74.509583 4294967295
217.07936 40.487801 -75.124504 4294967295
217.0966 53.720989 -74.576141 4294967295
217.10057 41.395718 -74.824982 4294967295
217.12415 41.853317 -74.973877 4294967295
217.1387 43.211906 -74.125694 4294967295
217.14836 42.310986 -75.137817 4294967295
217.16588 43.670395 -74.357605 4294967295
217.19481 44.581371 -74.234604 4294967295
217.20523 45.036106 -74.079956 4294967295
217.21983 44.13467 -75.207367 4294967295
217.23801 45.495346 -74.441696 4294967295
217.25484 45.951324 -74.435211 4294967295
217.26566 46.406231 -74.289246 4294967295
217.28311 34.086163 -74.851425 4294967295
217.28777 33.639717 -75.354027 4294967295
217.30734 46.86647 -74.857582 4294967295
217.31314 47.773911 -74.199738 4294967295
217.31976 47.321583 -74.748772 4294967295
217.32651 34.552887 -75.458664 4294967295
217.33986 48.685158 -74.025536 4294967295
217.34734 48.232456 -74.594727 4294967295
217.35313 35.461098 -75.283585 4294967295
217.35593 35.013489 -75.743652 4294967295
217.39084 35.924744 -75.759651 4294967295
217.39128 36.373932 -75.374664 4294967295
217.40051 49.146748 -75.033241 4294967295
217.4007 49.600597 -74.641418 4294967295
217.40666 36.828934 -75.33493 4294967295
217.40807 50.055511 -74.415375 4294967295
217.41359 37.280918 -75.098976 4294967295
217.41714 37.731884 -74.784401 4294967295
217.44257 50.967617 -74.421478 4294967295
217.44562 50.513535 -74.889084 4294967295
217.44576 51.422558 -74.098495 4294967295
217.44621 38.191856 -75.061913 4294967295
217.47778 38.652443 -75.396896 4294967295
217.48085 51.879978 -74.515121 4294967295
217.48477 39.104786 -75.162285 4294967295
217.49396 39.558014 -74.978653 4294967295
217.50037 52.791222 -74.173424 4294967295
217.50508 53.246826 -73.885025 4294967295
217.50964 40.464077 -74.548424 4294967295
217.52832 40.920502 -74.58461 4294967295
217.54004 40.022701 -75.651428 4294967295
217.54242 53.703751 -74.354706 4294967295
217.55754 41.831039 -74.468338 4294967295
