# .PCD v0.7 - Point Cloud Data file format
VERSION 0.7
FIELDS x y z rgb
SIZE 4 4 4 4
TYPE F F F U
COUNT 1 1 1 1
WIDTH 1163
HEIGHT 1
VIEWPOINT 0 0 0 1 0 0 0
POINTS 1163
DATA ascii
300.08362 88.21418 6.9340382 4294967295
300.08417 75.600807 6.7000675 4294967295
300.10831 89.170555 6.4873447 4294967295
300.11743 76.094543 7.2764816 4294967295
300.13251 76.576859 7.1561108 4294967295
300.13873 77.053215 6.6996708 4294967295
300.14066 89.669571 7.0284958 4294967295
300.1579 77.538025 6.7367382 4294967295
300.17212 90.167984 7.5335541 4294967295
300.18179 78.026131 6.9541683 4294967295
300.20139 78.511368 7.0068855 4294967295
300.2374 79.008507 7.6850548 4294967295
300.24011 79.481628 7.0964222 4294967295
300.27454 79.978127 7.7136135 4294967295
300.28156 80.454071 7.2876015 4294967295
300.31271 80.948578 7.780611 4294967295
300.31314 81.419022 7.1064892 4294967295
300.328 82.369843 6.2880993 4294967295
300.33392 81.905396 7.203558 4294967295
300.37454 82.877609 7.3633194 4294967295
300.37888 83.350174 6.8375225 4294967295
300.41577 83.850571 7.5452538 4294967295
300.43912 84.807838 7.0517254 4294967295
300.45413 85.28923 6.9313545 4294967295
300.4931 86.727066 6.3422203 4294967295
300.4946 86.261513 7.084959 4294967295
300.53696 87.702431 6.6249275 4294967295
300.53732 87.236206 7.3231964 4294967295
300.54736 75.098778 6.7648373 4294967295
300.55481 88.186203 6.6117363 4294967295
300.5766 88.673904 6.7460079 4294967295
300.58203 75.59304 7.3863621 4294967295
300.61334 89.177063 7.4443817 4294967295
300.61761 77.033752 6.6717815 4294967295
300.62836 89.65818 7.3243809 4294967295
300.63 90.125191 6.7028599 4294967295
300.66876 77.539902 7.9091778 4294967295
300.67938 78.019295 7.6235962 4294967295
300.70267 78.978897 7.130661 4294967295
300.70929 78.511971 8.0640182 4294967295
300.74603 80.423294 6.7103996 4294967295
300.74728 79.953583 7.439743 4294967295
300.75693 80.90184 6.438982 4294967295
300.82748 82.366859 7.0356045 4294967295
300.82855 81.897972 7.7565727 4294967295
300.83206 82.839874 6.5267868 4294967295
300.86914 83.339775 7.2315941 4294967295
300.90417 83.838463 7.8596516 4294967295
300.91336 84.315224 7.5236778 4294967295
300.91998 84.789459 7.0914917 4294967295
300.94913 85.75145 6.823267 4294967295
300.96118 85.294357 7.9491844 4294967295
300.96188 86.230553 6.6192436 4294967295
300.98715 86.721298 6.8829994 4294967295
301.00595 87.206039 6.9044285 4294967295
301.02097 87.687202 6.7872601 4294967295
301.03836 88.170609 6.7585392 4294967295
301.05231 75.094788 7.7045879 4294967295
301.06061 88.658737 6.9074783 4294967295
301.06848 75.578049 7.629055 4294967295
301.07169 76.053261 7.0729008 4294967295
301.08539 76.53466 6.9055824 4294967295
301.09912 89.163406 7.6608276 4294967295
301.10965 89.640068 7.3767223 4294967295
301.11139 90.107437 6.7672539 4294967295
301.12259 77.503555 6.9364872 4294967295
301.12701 77.033951 7.7736683 4294967295
301.15125 77.994812 7.3238297 4294967295
301.17615 78.483757 7.5720787 4294967295
301.19928 78.971664 7.7549 4294967295
301.20889 79.921127 6.7644501 4294967295
301.22107 79.458717 7.8861046 4294967295
301.26089 80.430382 8.0124893 4294967295
301.28973 81.39373 7.7312031 4294967295
301.30322 81.874557 7.5594425 4294967295
301.36136 82.861099 8.3593864 4294967295
301.37061 83.807701 7.3578434 4294967295
301.40234 84.30368 7.8572998 4294967295
301.40811 84.77742 7.4004517 4294967295
301.43124 85.266121 7.5801983 4294967295
301.44095 85.742973 7.2689743 4294967295
301.44644 86.215721 6.8027649 4294967295
301.45886 86.694504 6.589983 4294967295
301.49091 87.191566 7.0980682 4294967295
301.51208 88.145416 6.5415344 4294967295
301.53397 75.076874 7.7675381 4294967295
301.53989 75.554031 7.3160934 4294967295
301.55225 89.117241 6.6798763 4294967295
301.55246 88.651184 7.3536816 4294967295
301.57581 76.049149 7.9656372 4294967295
301.60675 89.637863 8.0060272 4294967295
301.60733 76.542007 8.4530449 4294967295
301.61404 90.576988 6.9431324 4294967295
301.66168 78.468521 7.7780666 4294967295
301.69302 79.433937 7.5932312 4294967295
301.70654 79.914978 7.4213467 4294967295
301.72839 80.401985 7.5526791 4294967295
301.76074 81.367737 7.4061661 4294967295
301.77167 80.905121 8.4658966 4294967295
301.77866 81.851913 7.3977737 4294967295
301.80811 82.815033 7.1443157 4294967295
301.84775 83.31675 7.9224949 4294967295
301.88016 84.751411 7.1177883 4294967295
301.88391 83.8162 8.5738907 4294967295
301.8985 84.297951 8.4421711 4294967295
301.93567 85.268089 8.4682713 4294967295
301.96744 86.701569 7.6410217 4294967295
301.9924 87.192253 7.8849659 4294967295
302.01761 87.683372 8.1377792 4294967295
302.02094 88.620712 6.9433765 4294967295
302.02557 88.158264 7.7682648 4294967295
302.02744 75.065666 8.2552128 4294967295
302.0408 76.021172 7.4231224 4294967295
302.04761 75.551483 8.3256798 4294967295
302.06769 89.132828 7.9735146 4294967295
302.07129 76.986145 7.2090836 4294967295
302.0802 89.611755 7.767992 4294967295
302.09424 76.527107 8.6938248 4294967295
302.11484 90.112793 8.3603668 4294967295
302.11652 77.487709 8.1833305 4294967295
302.13605 90.600586 8.4689045 4294967295
302.14178 77.976952 8.4373856 4294967295
302.16425 78.936905 7.9347744 4294967295
302.19644 79.431145 8.4367466 4294967295
302.19815 80.375572 7.1911469 4294967295
302.23196 80.871338 7.7528725 4294967295
302.26114 81.363991 8.1449337 4294967295
302.28247 82.321503 7.6036358 4294967295
302.32095 83.292007 7.6785278 4294967295
302.3551 83.789444 8.2478924 4294967295
302.384 84.283012 8.6313267 4294967295
302.3895 84.757088 8.1769009 4294967295
302.39014 85.226639 7.548008 4294967295
302.39502 85.699455 7.0736179 4294967295
302.45523 87.157211 7.2744331 4294967295
302.46265 87.631546 6.8907356 4294967295
302.49435 75.039322 7.7848873 4294967295
302.50391 88.604424 7.0630932 4294967295
302.52542 88.157448 8.4771061 4294967295
302.52695 76.005989 7.6494465 4294967295
302.52933 75.533455 8.38237 4294967295
302.53751 89.103493 7.6116295 4294967295
302.55334 76.495354 7.9415932 4294967295
302.58209 77.459564 7.6697502 4294967295
302.58716 89.618652 8.7295418 4294967295
302.59024 77.937492 7.3126469 4294967295
302.59424 76.993866 8.7471943 4294967295
302.59784 90.096016 8.4609261 4294967295
302.59845 90.56311 7.8365898 4294967295
302.65149 78.45005 8.8384743 4294967295
302.6546 79.397003 7.6587448 4294967295
302.66003 78.928436 8.4954224 4294967295
302.6951 79.896957 8.4475918 4294967295
302.71841 80.856895 7.9837723 4294967295
302.72241 81.330948 7.481144 4294967295
302.76489 82.304298 7.6971283 4294967295
302.78079 82.786919 7.6148109 4294967295
302.7966 83.269432 7.5316277 4294967295
302.83963 83.773788 8.4075871 4294967295
302.84775 84.250191 8.0496235 4294967295
302.87064 85.207878 7.5729923 4294967295
302.87592 85.681168 7.1180573 4294967295
302.88025 84.746643 8.5533352 4294967295
302.9603 86.692062 8.8071308 4294967295
302.99124 88.592178 7.3351135 4294967295
302.9913 87.656807 8.6151352 4294967295
302.99905 75.982552 7.3793125 4294967295
303.0303 89.096321 8.0672722 4294967295
303.05591 89.58799 8.3252869 4294967295
303.06375 77.441673 7.7336769 4294967295
303.07928 90.544426 7.8688622 4294967295
303.0816 76.979179 8.996624 4294967295
303.0896 77.930939 8.0009441 4294967295
303.09015 90.088348 8.8882637 4294967295
303.15683 78.920364 9.0785351 4294967295
303.16397 79.397827 8.6909809 4294967295
303.18481 80.828041 7.5109425 4294967295
303.19006 79.888023 8.9656391 4294967295
303.21045 81.317772 7.7697105 4294967295
303.26044 82.29689 8.2432423 4294967295
303.28705 82.787949 8.5361366 4294967295
303.29169 83.2621 8.0638046 4294967295
303.31677 83.752098 8.3027306 4294967295
303.32288 84.22699 7.8822765 4294967295
303.36588 85.201408 8.1103497 4294967295
303.37531 84.739532 9.0720062 4294967295
303.41281 86.179604 8.4760609 4294967295
303.42883 86.662407 8.4003887 4294967295
303.45911 88.094208 7.5546703 4294967295
303.47379 87.63942 8.6954937 4294967295
303.49484 75.972824 7.9361477 4294967295
303.49768 75.50016 8.6661758 4294967295
303.51743 76.459908 8.0893116 4294967295
303.52524 88.622894 9.2154808 4294967295
303.5278 89.093201 8.6732864 4294967295
303.52899 90.028839 7.4550667 4294967295
303.53571 89.568184 8.3162956 4294967295
303.53995 76.947021 8.2381668 4294967295
303.55759 77.431236 8.2172108 4294967295
303.55984 77.905838 7.6662369 4294967295
303.58737 90.552368 8.8434277 4294967295
303.60641 78.881226 8.0176697 4294967295
303.63849 79.847275 7.8674297 4294967295
303.64731 79.380821 8.8006668 4294967295
303.65717 80.332069 7.8840599 4294967295
303.69669 80.83152 8.6176414 4294967295
303.71878 81.319046 8.7512112 4294967295
303.73337 82.27243 8.0014591 4294967295
303.73792 81.804543 8.7845993 4294967295
303.78986 82.785873 9.3166924 4294967295
303.81558 83.747536 8.949194 4294967295
303.81561 84.217918 8.3239136 4294967295
303.85504 85.189629 8.4267941 4294967295
303.85608 84.720528 9.0870743 4294967295
303.87952 85.679527 8.6410789 4294967295
303.9057 86.640221 8.2908421 4294967295
303.91931 87.120834 8.1337147 4294967295
303.9426 88.078125 7.6840286 4294967295
303.97046 88.571327 8.0146446 4294967295
303.98267 89.050293 7.8097019 4294967295
303.99359 75.489929 9.2053432 4294967295
304.00757 75.972473 9.0601597 4294967295
304.01678 90.016998 7.7320461 4294967295
304.02811 76.458717 9.1398869 4294967295
304.03021 89.56221 8.810936 4294967295
304.03223 76.935287 8.6581459 4294967295
304.04764 77.891815 7.9423714 4294967295
304.05997 90.525421 8.5831871 4294967295
304.10419 78.400398 9.2481709 4294967295
304.10809 78.876183 8.7613773 4294967295
304.10925 79.349747 8.1795712 4294967295
304.13837 80.313835 7.9295139 4294967295
304.16824 80.806419 8.3275509 4294967295
304.19382 81.767807 7.9586868 4294967295
304.20734 81.305809 9.0371361 4294967295
304.25714 83.227844 8.2552853 4294967295
304.26669 82.763969 9.1968174 4294967295
304.28119 84.187279 7.8354015 4294967295
304.29724 83.729294 8.996294 4294967295
304.32794 84.694473 8.8020554 4294967295
304.34558 85.178833 8.7841759 4294967295
304.3808 85.677589 9.3583221 4294967295
304.39792 86.161659 9.3203545 4294967295
304.41721 86.64756 9.3565731 4294967295
304.43854 87.135239 9.4611893 4294967295
304.44012 75.452591 8.0658779 4294967295
304.44431 87.609383 9.0398426 4294967295
304.45627 88.08873 8.8289776 4294967295
304.47525 75.94651 8.6369705 4294967295
304.48959 76.903038 7.8926983 4294967295
304.49179 88.589111 9.4132252 4294967295
304.51001 89.542336 8.799366 4294967295
304.53033 77.874496 8.0381069 4294967295
304.53506 77.403679 8.8096085 4294967295
304.56281 90.527435 9.3491039 4294967295
304.58008 78.378586 9.0993252 4294967295
304.59671 79.335526 8.4331875 4294967295
304.65009 79.843353 9.6141968 4294967295
304.66754 80.327934 9.5886765 4294967295
304.68356 81.283806 8.9026966 4294967295
304.6987 82.23806 8.1904678 4294967295
304.74725 82.744911 9.2063313 4294967295
304.77353 83.707016 8.8653107 4294967295
304.80313 84.200661 9.2477131 4294967295
304.8317 84.693703 9.591795 4294967295
304.86197 85.658836 9.3852215 4294967295
304.88507 86.147858 9.5478897 4294967295
304.89828 86.628769 9.3822441 4294967295
304.90842 87.576088 8.5054855 4294967295
304.91119 75.42897 7.7753582 4294967295
304.92096 87.117523 9.5297585 4294967295
304.92719 88.06118 8.5218716 4294967295
304.94904 89.017426 8.0380077 4294967295
304.96805 76.409149 8.4544334 4294967295
304.97195 88.569435 9.4072208 4294967295
304.9884 89.521194 8.741333 4294967295
305.01389 76.90966 9.3735981 4294967295
305.01578 90.014404 9.0456047 4294967295
305.03751 78.345551 8.3433437 4294967295
305.04456 77.876129 9.1816826 4294967295
305.04593 77.402756 9.8337879 4294967295
305.05624 90.520142 9.785656 4294967295
305.07263 78.840706 8.9048481 4294967295
305.08279 79.793167 8.0324917 4294967295
305.09872 79.330521 9.1660004 4294967295
305.12576 80.294075 8.8546581 4294967295
305.14917 80.782326 9.0253468 4294967295
305.16299 81.264145 8.8804016 4294967295
305.17404 82.215591 8.040823 4294967295
305.20163 81.763245 9.5563984 4294967295
305.23428 83.673203 8.2270203 4294967295
305.24454 82.738007 9.7693443 4294967295
305.28677 84.183884 9.3579216 4294967295
305.2901 85.127708 8.2656956 4294967295
305.29559 84.66156 9.0479469 4294967295
305.32333 85.624268 8.7603931 4294967295
305.35831 86.122658 9.3132687 4294967295
305.35886 86.593033 8.731905 4294967295
305.41675 87.580734 9.4382076 4294967295
305.41858 75.424721 8.6859035 4294967295
305.42371 88.056015 9.0679646 4294967295
305.43338 75.907562 8.5744724 4294967295
305.45688 89.022797 8.9591217 4294967295
305.46548 89.498955 8.6432323 4294967295
305.46649 88.562378 9.8753414 4294967295
305.51505 90.012245 9.6722088 4294967295
305.51541 77.851532 8.8746796 4294967295
305.51923 77.379578 9.5994072 4294967295
305.52573 90.490341 9.4239788 4294967295
305.5282 78.333046 8.6985378 4294967295
305.54462 78.816605 8.6389999 4294967295
305.57669 79.309982 9.0919437 4294967295
305.60489 80.274315 8.8244648 4294967295
305.61179 79.805641 9.644104 4294967295
305.63779 80.768806 9.3031654 4294967295
305.67374 81.265778 9.8828144 4294967295
305.68643 81.747093 9.7014961 4294967295
305.68976 82.221718 9.2166119 4294967295
305.70154 83.173523 8.4115105 4294967295
305.72183 82.716492 9.6672173 4294967295
305.75662 84.156723 9.019249 4294967295
305.76483 83.691505 9.8818951 4294967295
305.79761 85.12989 9.1671314 4294967295
305.80533 84.664886 10.012278 4294967295
305.81659 85.615379 9.1925106 4294967295
305.83099 86.097198 9.068388 4294967295
305.8439 86.577682 8.8949642 4294967295
305.86047 87.061104 8.8415871 4294967295
305.91269 75.413177 9.1456432 4294967295
305.91309 88.044365 9.3667393 4294967295
305.93704 75.901299 9.344574 4294967295
305.93915 88.536102 9.6217384 4294967295
305.94827 76.382393 9.1181393 4294967295
305.95609 89.957245 8.3974514 4294967295
305.9614 89.493599 9.161375 4294967295
305.98657 77.353111 9.1779022 4294967295
305.99692 90.462471 9.1305428 4294967295
306.01715 77.845177 9.5777397 4294967295
306.02875 78.326248 9.3638744 4294967295
306.03284 78.802567 8.9062119 4294967295
306.05826 79.291794 9.1398983 4294967295
306.06586 79.76989 8.7956314 4294967295
306.07663 80.249786 8.5552711 4294967295
306.13632 81.234619 9.3065052 4294967295
306.14194 80.765396 10.076622 4294967295
306.17166 81.731216 9.8595467 4294967295
306.19092 82.217041 9.8923264 4294967295
306.20648 82.700294 9.8066521 4294967295
306.22583 83.657967 9.2553024 4294967295
306.22876 83.188309 9.9376621 4294967295
306.25888 84.625168 9.1458321 4294967295
306.2851 85.116173 9.4036751 4294967295
306.31424 85.609634 9.7548237 4294967295
306.31937 86.554619 8.7493973 4294967295
306.33905 86.099915 9.9660797 4294967295
306.36221 87.059395 9.539465 4294967295
306.36575 87.532211 9.0676289 4294967295
306.37811 88.012123 8.8805122 4294967295
306.39279 75.394234 9.1450348 4294967295
306.39288 75.869492 8.564703 4294967295
306.42749 88.992752 9.2937756 4294967295
306.43848 89.471329 9.0622902 4294967295
306.44275 89.943741 8.6155968 4294967295
306.46072 90.428192 8.6090565 4294967295
306.46445 76.382904 10.274349 4294967295
306.47226 76.862389 9.9402962 4294967295
306.4953 77.350243 10.094612 4294967295
306.4986 77.826828 9.6170845 4294967295
306.54861 79.752518 8.8853569 4294967295
306.54962 78.80558 10.082382 4294967295
306.56323 80.234955 8.7705879 4294967295
306.57834 79.297173 10.416168 4294967295
306.62589 80.748497 10.188839 4294967295
306.64853 81.709618 9.7479115 4294967295
306.69925 83.161964 9.6214199 4294967295
306.69971 82.69001 10.217152 4294967295
306.71548 83.645554 9.5584164 4294967295
306.71933 84.119987 9.1017151 4294967295
306.7421 84.608185 9.2460499 4294967295
306.75473 85.088806 9.0682945 4294967295
306.78595 85.583595 9.4808445 4294967295
306.81247 86.075035 9.7441216 4294967295
306.84747 87.043983 9.6982498 4294967295
306.84857 87.515015 9.1556416 4294967295
306.8894 88.018585 9.8709259 4294967295
306.89435 75.861816 9.2500515 4294967295
306.90878 88.974213 9.3303967 4294967295
306.93982 89.470215 9.7361679 4294967295
306.95401 77.319099 9.4075584 4294967295
306.96313 76.849121 10.273279 4294967295
306.98245 78.284248 9.1547184 4294967295
306.98788 90.450653 10.103226 4294967295
307.0705 79.75927 10.208138 4294967295
307.08823 80.717674 9.6171703 4294967295
307.12579 81.215294 10.226965 4294967295
307.17737 82.195938 10.701286 4294967295
307.19388 82.680161 10.647284 4294967295
307.19958 83.629021 9.6810856 4294967295
307.20001 83.157089 10.267483 4294967295
307.21826 84.114342 9.6941452 4294967295
307.2793 86.04525 9.3225727 4294967295
307.28204 85.576324 9.9805908 4294967295
307.3335 87.029121 9.8786163 4294967295
307.34073 86.56398 10.676538 4294967295
307.35675 87.988472 9.4655247 4294967295
307.37564 87.533516 10.627583 4294967295
307.40195 75.857018 10.11161 4294967295
307.40265 88.496384 10.33098 4294967295
307.41821 76.341125 10.049597 4294967295
307.42136 76.81813 9.5774479 4294967295
307.43414 89.462669 10.175646 4294967295
307.44055 90.406647 9.2359562 4294967295
307.45312 89.94854 10.199425 4294967295
307.47388 77.321922 10.648687 4294967295
307.47925 77.800049 10.246189 4294967295
307.50607 78.290184 10.514545 4294967295
307.53055 79.727715 9.5733204 4294967295
307.57437 80.228554 10.370398 4294967295
307.58368 80.708145 10.092161 4294967295
307.60083 81.192619 10.059237 4294967295
307.63251 82.159683 9.9103012 4294967295
307.67874 83.136597 10.213657 4294967295
307.6799 83.609779 9.6838207 4294967295
307.68607 82.668777 11.008165 4294967295
307.71103 84.103989 10.08408 4294967295
307.74133 85.541115 9.3275223 4294967295
307.75217 85.077744 10.229277 4294967295
307.7558 84.608444 10.907536 4294967295
307.82724 86.549103 10.859541 4294967295
307.83231 87.024216 10.452604 4294967295
307.8396 87.500755 10.112978 4294967295
307.85074 87.980194 9.8942833 4294967295
307.86417 88.931168 9.1828537 4294967295
307.86823 75.354958 10.23925 4294967295
307.89075 88.483139 10.567343 4294967295
307.89853 89.429581 9.6809921 4294967295
307.90009 76.322929 10.096964 4294967295
307.90628 75.850197 10.851694 4294967295
307.90735 77.277344 9.1966362 4294967295
307.92859 76.813515 10.414768 4294967295
307.95901 89.950745 10.985455 4294967295
307.95984 90.421127 10.448099 4294967295
307.96277 77.782738 10.344109 4294967295
307.97318 78.263519 10.101856 4294967295
307.98083 78.742554 9.7767582 4294967295
308.0069 79.232178 10.018129 4294967295
308.04932 79.731819 10.762852 4294967295
308.07599 81.170097 9.8991318 4294967295
308.10727 81.663635 10.30162 4294967295
308.13437 82.154678 10.57332 4294967295
308.13867 83.10334 9.5863323 4294967295
308.14032 82.63176 10.196571 4294967295
308.17166 83.598503 10.038261 4294967295
308.23215 84.585976 10.77508 4294967295
308.24158 85.064934 10.504843 4294967295
308.25015 85.543053 10.208595 4294967295
308.27542 86.033546 10.425308 4294967295
308.28281 86.510498 10.092693 4294967295
308.32224 87.0121 10.741497 4294967295
308.32831 87.487885 10.36931 4294967295
308.33066 87.960434 9.8840752 4294967295
308.34808 75.335739 10.222523 4294967295
308.35596 88.921341 9.542944 4294967295
308.35916 75.817322 10.004665 4294967295
308.38083 76.304176 10.111418 4294967295
308.39011 88.478905 11.143478 4294967295
308.40454 76.79213 10.277103 4294967295
308.40549 77.268051 9.7505474 4294967295
308.40683 89.903374 9.9832764 4294967295
308.41568 90.380409 9.6968899 4294967295
308.42349 89.447388 11.048658 4294967295
308.44928 77.767036 10.53068 4294967295
308.46121 78.248779 10.338097 4294967295
308.47595 78.731964 10.230467 4294967295
308.5119 79.701988 10.215651 4294967295
308.56699 81.631187 9.6739025 4294967295
308.58344 81.168022 10.727127 4294967295
308.61569 82.135994 10.59963 4294967295
308.62616 83.089027 9.8097305 4294967295
308.6936 84.553085 10.197304 4294967295
308.71237 84.09375 11.318583 4294967295
308.74573 85.062668 11.223879 4294967295
308.75018 85.538116 10.806433 4294967295
308.77802 86.502335 10.54431 4294967295
308.80301 86.992813 10.748827 4294967295
308.81046 87.469757 10.421747 4294967295
308.83127 87.957039 10.500023 4294967295
308.83517 75.320084 10.429056 4294967295
308.8447 88.908852 9.8046818 4294967295
308.84903 75.803154 10.297495 4294967295
308.87057 76.289978 10.39661 4294967295
308.87299 89.402161 10.10918 4294967295
308.89691 89.892014 10.280293 4294967295
308.91324 77.263649 10.583376 4294967295
308.95245 77.760254 11.214613 4294967295
308.95844 78.239029 10.846582 4294967295
308.96158 78.715866 10.390526 4294967295
308.98462 79.678413 9.9878368 4294967295
309.04437 80.662674 10.687366 4294967295
309.07874 81.631989 10.624712 4294967295
309.08386 81.161194 11.326242 4294967295
309.11084 82.126167 11.03945 4294967295
309.13632 82.616425 11.258892 4294967295
309.15054 83.572388 10.590647 4294967295
309.17542 84.06221 10.788393 4294967295
309.19678 84.549759 10.88196 4294967295
309.20627 85.028923 10.620331 4294967295
309.23108 85.518951 10.816105 4294967295
309.25992 86.484024 10.589108 4294967295
309.28424 87.445221 10.22551 4294967295
309.29724 86.983734 11.158693 4294967295
309.32834 87.950531 10.997784 4294967295
309.35056 75.317856 11.475126 4294967295
309.35092 88.910263 10.583633 4294967295
309.35843 88.445343 11.351364 4294967295
309.35858 75.79847 11.16996 4294967295
309.37073 76.280884 10.987602 4294967295
309.37534 89.400581 10.767818 4294967295
309.37634 89.871681 10.253447 4294967295
309.38196 77.238503 10.235352 4294967295
309.39008 76.766861 11.02063 4294967295
309.41675 90.375381 10.913897 4294967295
309.43671 78.218704 10.779314 4294967295
309.48538 78.720993 11.686136 4294967295
309.50174 79.205612 11.629906 4294967295
309.51569 79.688751 11.500561 4294967295
309.52744 80.645103 10.766811 4294967295
309.52875 81.120026 10.263264 4294967295
309.53891 80.177338 11.650103 4294967295
309.57062 82.093712 10.423157 4294967295
309.62659 82.60334 11.54328 4294967295
309.66058 84.046074 10.927763 4294967295
309.66522 83.575989 11.605034 4294967295
309.66998 84.525337 10.665386 4294967295
309.68134 85.005814 10.463295 4294967295
309.72696 86.454735 10.194361 4294967295
309.76443 87.425705 10.223808 4294967295
309.77908 86.965225 11.196608 4294967295
309.80496 87.928001 10.882065 4294967295
309.80524 75.286644 10.707651 4294967295
309.83582 75.777863 11.070889 4294967295
309.85483 89.380234 10.73951 4294967295
309.85571 76.264076 11.118105 4294967295
309.8681 76.746559 10.945967 4294967295
309.87796 77.7033 10.164095 4294967295
309.89413 90.353195 10.82259 4294967295
309.90332 77.24073 11.447418 4294967295
309.90451 78.192833 10.4081 4294967295
309.9223 78.677719 10.393297 4294967295
309.94873 79.642326 10.099823 4294967295
309.98724 79.189133 11.769562 4294967295
309.98746 80.139305 10.701023 4294967295
310.02713 80.637344 11.331448 4294967295
310.02832 81.586609 10.294964 4294967295
310.03809 81.118454 11.117506 4294967295
310.08456 83.042992 10.341421 4294967295
310.08484 82.569695 10.884197 4294967295
310.10016 82.105408 11.867773 4294967295
310.12503 84.015984 10.459518 4294967295
310.15106 83.560059 11.755045 4294967295
310.15479 84.509033 10.796 4294967295
310.19324 85.008354 11.386108 4294967295
310.20374 85.488464 11.160822 4294967295
310.24326 86.461594 11.24921 4294967295
310.25211 87.411835 10.441944 4294967295
310.26379 86.948792 11.316643 4294967295
310.30969 87.926987 11.590963 4294967295
310.32498 88.410324 11.504276 4294967295
310.33865 76.246284 11.19029 4294967295
310.34714 88.898979 11.618195 4294967295
310.35284 77.20578 10.540203 4294967295
310.36484 76.735664 11.420126 4294967295
310.37372 90.33287 10.797358 4294967295
310.37534 89.392509 11.907942 4294967295
310.40729 78.185753 11.064108 4294967295
310.41406 77.713402 11.792856 4294967295
310.41983 78.668037 10.897268 4294967295
310.44275 79.631042 10.503529 4294967295
310.45456 79.162506 11.376915 4294967295
310.4751 80.124367 10.913761 4294967295
310.50916 81.093582 10.84247 4294967295
310.52005 80.625404 11.689837 4294967295
310.55035 82.067131 10.979445 4294967295
310.56058 81.599129 11.805847 4294967295
310.58548 82.563171 11.469326 4294967295
310.59927 83.51944 10.811716 4294967295
310.64862 84.498756 11.184822 4294967295
310.64996 84.026306 11.751173 4294967295
310.66611 84.983665 11.162003 4294967295
310.68369 85.468643 11.14349 4294967295
310.70392 85.95549 11.201067 4294967295
310.73611 86.450981 11.604019 4294967295
310.74463 86.929489 11.322994 4294967295
310.76755 75.249466 10.752977 4294967295
310.79462 87.910637 11.71262 4294967295
310.81296 88.396362 11.715322 4294967295
310.82089 89.345245 10.891748 4294967295
310.82404 75.752739 11.856359 4294967295
310.8269 76.231003 11.412178 4294967295
310.83319 88.883568 11.772896 4294967295
310.84366 76.715775 11.369997 4294967295
310.84613 90.306847 10.56805 4294967295
310.85037 77.671425 10.511978 4294967295
310.86179 77.20121 11.366165 4294967295
310.88953 78.643196 10.589521 4294967295
310.892 78.1689 11.186232 4294967295
310.96179 80.583549 10.569265 4294967295
310.96414 80.110107 11.161415 4294967295
310.99518 81.077728 11.00602 4294967295
311.03622 81.576843 11.660913 4294967295
311.04034 82.527832 10.731867 4294967295
311.06293 82.067627 11.902958 4294967295
311.06317 83.015976 10.862814 4294967295
311.11865 83.525352 11.930304 4294967295
311.14389 84.96244 11.08461 4294967295
311.15106 84.494049 11.812649 4294967295
311.16956 85.452988 11.29842 4294967295
311.19397 85.94278 11.474743 4294967295
311.19492 86.415993 10.979769 4294967295
311.27054 88.359383 11.055689 4294967295
311.2749 88.834114 10.658869 4294967295
311.28296 75.246475 11.755447 4294967295
311.2941 76.205635 11.031683 4294967295
311.30392 75.733345 11.831892 4294967295
311.3284 89.817978 11.144934 4294967295
311.34048 90.298477 10.969088 4294967295
311.36642 77.670624 11.533056 4294967295
311.43323 79.133759 11.876095 4294967295
311.45642 79.622131 12.015556 4294967295
311.46045 80.099861 11.611437 4294967295
311.49057 81.067284 11.431005 4294967295
311.49234 81.542961 10.962765 4294967295
311.54205 82.521767 11.338737 4294967295
311.60812 84.459053 11.142624 4294967295
311.61734 83.991508 11.920883 4294967295
311.63953 85.426376 10.999063 4294967295
311.64487 84.956879 11.667324 4294967295
311.67715 85.92514 11.547691 4294967295
311.69238 86.408577 11.462835 4294967295
311.70004 86.886528 11.163538 4294967295
311.74475 88.335258 10.880991 4294967295
311.74692 87.392677 11.972849 4294967295
311.75226 87.868858 11.606964 4294967295
311.7886 75.716217 11.945541 4294967295
311.80319 89.793999 10.985409 4294967295
311.85754 78.13311 11.316181 4294967295
311.88715 79.100304 11.123287 4294967295
311.93869 80.079399 11.546751 4294967295
311.96716 81.045799 11.320684 4294967295
311.97867 81.527275 11.131748 4294967295
312.00937 82.020119 11.482216 4294967295
312.10712 84.925308 11.153383 4294967295
312.1348 85.417061 11.417896 4294967295
312.17288 85.916092 11.971972 4294967295
312.19894 86.880112 11.679804 4294967295
312.20816 87.359207 11.427483 4294967295
312.2352 87.851089 11.673618 4294967295
312.26669 75.696045 11.872976 4294967295
312.26678 88.818558 11.536467 4294967295
312.27405 89.295738 11.229755 4294967295
312.31775 90.272202 11.43161 4294967295
312.38272 79.089226 11.546459 4294967295
312.40442 79.576584 11.641659 4294967295
312.48224 81.521568 11.777279 4294967295
312.50815 82.486343 11.482136 4294967295
312.54529 82.983444 12.007868 4294967295
312.552 83.935852 11.180204 4294967295
312.64105 85.888214 11.626482 4294967295
312.6825 86.862732 11.763229 4294967295
312.71002 87.354874 12.019247 4294967295
312.72452 87.837883 11.91614 4294967295
312.73602 88.318611 11.729778 4294967295
312.76965 89.287613 11.650953 4294967295
312.8045 77.135048 11.940228 4294967295
312.83789 78.104759 11.854488 4294967295
312.98679 82.466003 11.433096 4294967295
313.01108 82.955109 11.599091 4294967295
313.06952 84.41394 11.699333 4294967295
313.07367 84.890366 11.31403 4294967295
313.13873 86.353569 11.596558 4294967295
313.25565 89.272133 11.801224 4294967295
313.25934 76.626923 11.736296 4294967295
313.26389 89.750183 11.527546 4294967295
313.37146 79.541481 11.807034 4294967295
313.48956 82.459923 12.041197 4294967295
313.7139 75.641525 12.022024 4294967295
313.78479 77.582985 11.964506 4294967295
314.21997 89.235382 11.889277 4294967295
314.51981 84.361435 11.938768 4294967295
314.55762 85.333397 11.97267 4294967295
276.05484 90.883636 -1.6841373 4294967295
276.06409 103.91055 -1.8361301 4294967295
276.07733 91.384163 -1.0469341 4294967295
276.09412 91.86058 -1.2427521 4294967295
276.10046 104.8754 -1.8110733 4294967295
276.11661 92.361626 -0.6109581 4294967295
276.11887 105.3593 -1.762167 4294967295
276.12708 92.810608 -1.7119522 4294967295
276.14316 93.28373 -1.9990959 4294967295
276.16797 93.795326 -1.0420589 4294967295
276.19101 107.28526 -1.8059578 4294967295
276.20126 94.746498 -1.4574242 4294967295
276.22174 95.239487 -1.1181774 4294967295
276.23776 95.71199 -1.4141731 4294967295
276.26022 96.214447 -0.79725462 4294967295
276.27939 96.701584 -0.6525898 4294967295
276.28799 97.138519 -1.9948635 4294967295
276.31064 97.642212 -1.3564339 4294967295
276.32568 98.10939 -1.7870274 4294967295
276.34952 98.619507 -0.98118401 4294967295
276.38281 99.569153 -1.3953114 4294967295
276.40436 100.06882 -0.90881348 4294967295
276.41913 100.53405 -1.3743134 4294967295
276.47507 101.98866 -1.1529636 4294967295
276.48886 102.44793 -1.7529373 4294967295
276.51428 102.96878 -0.74255937 4294967295
276.53058 103.44138 -0.99283028 4294967295
276.54056 90.89257 -0.694767 4294967295
276.56699 104.40676 -0.96936989 4294967295
276.57507 91.850197 -0.93190378 4294967295
276.58078 104.86534 -1.5596313 4294967295
276.59192 92.32724 -1.10536 4294967295
276.59937 105.35013 -1.4910545 4294967295
276.60474 92.787628 -1.8238583 4294967295
276.62268 105.86102 -0.7846489 4294967295
276.6373 106.32375 -1.2594929 4294967295
276.65097 93.793678 -0.46310619 4294967295
276.65643 106.81145 -1.1253967 4294967295
276.66959 94.278122 -0.39870259 4294967295
276.67938 107.32127 -0.4677963 4294967295
276.68024 94.728333 -1.4098854 4294967295
276.69193 107.77163 -1.2238712 4294967295
276.70099 95.221886 -1.0527992 4294967295
276.71271 95.675903 -1.9157314 4294967295
276.73502 96.176422 -1.3504143 4294967295
276.75781 96.679588 -0.71884352 4294967295
276.77356 97.151337 -1.0313263 4294967295
276.79279 97.638596 -0.882967 4294967295
276.82449 98.581886 -1.4889984 4294967295
276.84955 99.096451 -0.56892008 4294967295
276.8837 100.05138 -0.84023672 4294967295
276.90045 100.52695 -1.0232754 4294967295
276.91794 101.00599 -1.1087151 4294967295
276.93073 101.46214 -1.8058224 4294967295
276.95084 101.954 -1.5409336 4294967295
276.96768 102.42944 -1.7132778 4294967295
276.98804 102.9228 -1.4160595 4294967295
277.01236 90.84642 -1.6212921 4294967295
277.02881 103.91022 -0.82198912 4294967295
277.03043 91.328316 -1.622776 4294967295
277.04269 104.37068 -1.3718338 4294967295
277.05801 91.846748 -0.38587001 4294967295
277.06204 104.85937 -1.2066364 4294967295
277.08521 105.36778 -0.55662352 4294967295
277.08896 92.790634 -1.07761 4294967295
277.0936 105.7988 -1.8142586 4294967295
277.11325 93.297272 -0.279192 4294967295
277.12061 106.32819 -0.66198921 4294967295
277.1282 93.767136 -0.68499368 4294967295
277.13263 106.77768 -1.4512863 4294967295
277.14493 94.243759 -0.86558533 4294967295
277.16714 94.74279 -0.3378582 4294967295
277.16721 107.73292 -1.6592903 4294967295
277.18661 95.23082 -0.1642933 4294967295
277.23166 96.638466 -1.3574715 4294967295
277.25815 97.156502 -0.29290959 4294967295
277.29547 98.12619 -0.1548786 4294967295
277.31003 98.593033 -0.60296822 4294967295
277.31985 99.038383 -1.648613 4294967295
277.38571 100.53696 -0.2038517 4294967295
277.40219 101.01176 -0.41209981 4294967295
277.41568 101.47252 -0.99221039 4294967295
277.43408 101.95601 -0.95767778 4294967295
277.44666 102.41206 -1.6441231 4294967295
277.47153 102.92637 -0.80280679 4294967295
277.50113 90.863617 -0.3431873 4294967295
277.50513 103.87806 -1.1294441 4294967295
277.51859 91.343719 -0.42273709 4294967295
277.51898 104.33933 -1.655592 4294967295
277.53552 91.821686 -0.57211113 4294967295
277.55051 92.29261 -0.95334429 4294967295
277.56335 105.34402 -0.64574999 4294967295
277.56378 92.756691 -1.5514297 4294967295
277.57602 105.79869 -1.3229713 4294967295
277.58594 93.253853 -1.0552711 4294967295
277.59186 106.26933 -1.6003056 4294967295
277.60434 93.737198 -1.0163136 4294967295
277.61401 106.77182 -1.1061401 4294967295
277.62073 94.212662 -1.2287521 4294967295
277.63138 107.25023 -1.1951523 4294967295
277.63992 94.698975 -1.0955009 4294967295
277.65555 107.76371 -0.45500559 4294967295
277.6756 95.660904 -1.1663265 4294967295
277.6983 96.161377 -0.6096859 4294967295
277.71182 96.625168 -1.1642532 4294967295
277.73648 97.134148 -0.36863139 4294967295
277.75327 97.610939 -0.53263468 4294967295
277.76987 98.086998 -0.71446419 4294967295
277.78705 98.5653 -0.82769781 4294967295
277.81223 99.077591 0.022756601 4294967295
277.81995 99.515259 -1.2335186 4294967295
277.84799 100.04056 -0.037006401 4294967295
277.85452 100.47237 -1.426054 4294967295
277.87195 100.95131 -1.5086746 4294967295
277.89929 101.47454 -0.40239909 4294967295
277.9111 101.92853 -1.1559925 4294967295
277.94727 102.89247 -1.162529 4294967295
277.96814 103.38724 -0.83675963 4294967295
277.97717 90.834419 -0.68017012 4294967295
277.98557 103.86629 -0.91765982 4294967295
277.99826 91.326958 -0.32672691 4294967295
278.00925 104.37453 -0.26046181 4294967295
278.01315 91.797981 -0.71276468 4294967295
278.02408 104.8413 -0.65226167 4294967295
278.04327 105.32887 -0.5219593 4294967295
278.04752 92.755821 -0.93284613 4294967295
278.05511 105.78113 -1.2590828 4294967295
278.06168 93.223808 -1.3952351 4294967295
278.07254 106.25997 -1.3371563 4294967295
278.08337 93.718933 -0.97159392 4294967295
278.09793 106.77724 -0.48990059 4294967295
278.11218 107.24083 -0.93714708 4294967295
278.1207 94.68734 -0.84252548 4294967295
278.13205 107.73156 -0.7355423 4294967295
278.14288 95.184692 -0.37179559 4294967295
278.16367 95.677223 -0.060642201 4294967295
278.18268 96.163147 0.043111801 4294967295
278.19815 96.635376 -0.2660923 4294967295
278.21896 97.12838 0.047271699 4294967295
278.22928 97.580032 -0.85733223 4294967295
278.24542 98.054337 -1.0855141 4294967295
278.27048 98.564377 -0.28604701 4294967295
278.2886 99.046791 -0.2860527 4294967295
278.30078 99.504837 -0.96850401 4294967295
278.32266 100.00247 -0.53969377 4294967295
278.34656 100.50907 0.1256447 4294967295
278.35526 100.95184 -0.95328331 4294967295
278.37512 101.44149 -0.75241089 4294967295
278.39828 101.94539 -0.17767531 4294967295
278.43582 102.91602 -0.029430401 4294967295
278.46136 103.83339 -1.2442112 4294967295
278.46558 90.846176 0.41033551 4294967295
278.47836 91.311302 -0.1927204 4294967295
278.48566 104.3431 -0.54592317 4294967295
278.49783 104.7986 -1.2161999 4294967295
278.50153 91.810516 0.37700081 4294967295
278.5134 92.272034 -0.3314209 4294967295
278.52362 105.3157 -0.34899521 4294967295
278.53082 92.752083 -0.40826991 4294967295
278.54465 105.81131 -0.0249348 4294967295
278.55194 93.244682 -0.073499702 4294967295
278.55814 106.27225 -0.54866219 4294967295
278.56879 93.722801 -0.21366499 4294967295
278.57401 106.74417 -0.79910088 4294967295
278.58786 94.20845 -0.1110153 4294967295
278.58936 107.21342 -1.1081772 4294967295
278.60599 94.690948 -0.1096706 4294967295
278.61829 107.74676 0.1015358 4294967295
278.62402 95.173141 -0.1184101 4294967295
278.6459 95.669083 0.2956638 4294967295
278.65732 96.127159 -0.44927219 4294967295
278.68027 96.62748 0.090324402 4294967295
278.70151 97.121643 0.43406871 4294967295
278.71701 97.594246 0.13936231 4294967295
278.72684 98.045212 -0.77560622 4294967295
278.75439 98.563812 0.2665939 4294967295
278.77921 99.484085 -0.99238402 4294967295
278.79742 99.966652 -0.98034477 4294967295
278.82059 100.46905 -0.42439461 4294967295
278.84125 100.96146 -0.1514664 4294967295
278.85504 101.42646 -0.61977392 4294967295
278.87286 101.90746 -0.65347099 4294967295
278.88992 102.38538 -0.76720238 4294967295
278.91473 102.89571 -0.0356941 4294967295
278.93121 103.37112 -0.2182713 4294967295
278.96133 91.304634 0.25026891 4294967295
278.96747 104.33607 -0.2157097 4294967295
278.97882 104.78912 -0.95018959 4294967295
278.99332 92.255882 -0.21610069 4294967295
279.00174 105.29227 -0.42989731 4294967295
279.00357 92.712738 -1.0612774 4294967295
279.02478 93.205002 -0.72808838 4294967295
279.0416 106.27292 -0.042148601 4294967295
279.0603 106.75789 0.017107001 4294967295
279.06351 94.17778 -0.4613018 4294967295
279.07794 107.23837 -0.031347301 4294967295
279.08719 94.679131 0.1379509 4294967295
279.10095 107.74291 0.48944089 4294967295
279.10519 95.161133 0.1210976 4294967295
279.12061 95.634331 -0.1657562 4294967295
279.14221 96.128899 0.2029667 4294967295
279.15323 96.586151 -0.55589491 4294967295
279.17661 97.087357 0.0054893 4294967295
279.19046 97.554375 -0.44796181 4294967295
279.20694 98.030602 -0.62440491 4294967295
279.2334 98.543777 0.2615642 4294967295
279.27075 99.512978 0.37466431 4294967295
279.28497 99.980865 -0.034402799 4294967295
279.31897 100.93716 -0.2687664 4294967295
279.35306 101.89342 -0.49489021 4294967295
279.36765 102.36163 -0.86522681 4294967295
279.392 102.86868 -0.2170372 4294967295
279.42456 90.809372 0.48980901 4294967295
279.42456 103.81866 -0.59562111 4294967295
279.43445 91.267174 -0.36647031 4294967295
279.45004 91.741684 -0.63194078 4294967295
279.45209 104.3395 0.3789978 4294967295
279.46954 92.228355 -0.48218921 4294967295
279.48489 105.29037 0.022668799 4294967295
279.49887 105.75542 -0.40569881 4294967295
279.4996 92.748016 0.75547791 4294967295
279.51685 93.227745 0.65624619 4294967295
279.52322 93.672897 -0.55574042 4294967295
279.54147 106.74722 0.24751849 4294967295
279.54916 94.180473 0.25157741 4294967295
279.56445 107.25076 0.74705511 4294967295
279.56763 94.664223 0.28845599 4294967295
279.57501 107.70068 -0.0293865 4294967295
279.58859 95.156143 0.5791111 4294967295
279.6015 95.621391 0.0433846 4294967295
279.65112 97.052414 -0.44379231 4294967295
279.66516 97.52037 -0.86381721 4294967295
279.69016 98.026749 -0.1613827 4294967295
279.72723 98.994659 -0.073118202 4294967295
279.74323 99.469223 -0.293951 4294967295
279.7597 99.945694 -0.4567585 4294967295
279.78461 100.45289 0.2264996 4294967295
279.79749 100.91611 -0.29841039 4294967295
279.82492 101.43324 0.63580132 4294967295
279.82959 101.86493 -0.72052962 4294967295
279.8605 102.39607 0.56742102 4294967295
279.875 102.86481 0.2044449 4294967295
279.89893 103.36997 0.78712082 4294967295
279.90054 90.78093 0.17848399 4294967295
279.91321 91.247612 -0.3668575 4294967295
279.91452 103.84251 0.52595901 4294967295
279.9357 91.742821 0.071857497 4294967295
279.94659 104.79125 0.1102238 4294967295
279.95828 105.24783 -0.5324707 4294967295
279.97086 92.704536 -0.034891099 4294967295
279.9877 105.77595 0.59317589 4294967295
279.9924 93.197243 0.30115509 4294967295
280.00586 106.25876 0.59550291 4294967295
280.01056 93.679932 0.30545041 4294967295
280.02222 106.73425 0.4221268 4294967295
280.03799 94.617287 -0.56894678 4294967295
280.04178 107.22271 0.56118011 4294967295
280.06113 95.115486 -0.071945198 4294967295
280.06366 107.7211 0.93249887 4294967295
280.08856 95.627785 0.84632111 4294967295
280.10129 96.092964 0.31204411 4294967295
280.10977 96.543968 -0.63538361 4294967295
280.13742 97.057686 0.29997829 4294967295
280.1702 98.011024 -0.041501999 4294967295
280.19574 98.518723 0.68272972 4294967295
280.21045 98.989754 0.3515816 4294967295
280.23193 99.483932 0.6768074 4294967295
280.24234 99.939606 -0.073142998 4294967295
280.27716 100.89925 -0.2140694 4294967295
280.29813 101.39182 0.059999499 4294967295
280.31122 101.85603 -0.42545891 4294967295
280.33557 102.36131 0.1801109 4294967295
280.37311 90.74398 -0.43045241 4294967295
280.38562 103.79248 -0.2381058 4294967295
280.39871 91.247086 0.28840449 4294967295
280.40906 104.29498 0.2710667 4294967295
280.41626 91.728027 0.23453709 4294967295
280.43103 92.200882 -0.089981101 4294967295
280.4487 105.27322 0.5965271 4294967295
280.45209 92.691772 0.19185071 4294967295
280.46576 93.16124 -0.23423959 4294967295
280.4679 105.76001 0.6974678 4294967295
280.4838 93.64325 -0.2446976 4294967295
280.48502 106.23874 0.60044098 4294967295
280.50098 106.71289 0.3952122 4294967295
280.50977 94.149078 0.50502008 4294967295
280.51013 107.15964 -0.46097371 4294967295
280.53165 107.65553 -0.1389484 4294967295
280.54709 95.117516 0.6047287 4294967295
280.56046 95.585609 0.1569939 4294967295
280.59976 96.560165 0.44484329 4294967295
280.61551 97.035065 0.21660811 4294967295
280.62775 97.49868 -0.33785629 4294967295
280.66412 98.463631 -0.32779309 4294967295
280.69043 98.973183 0.44553569 4294967295
280.72311 99.926193 0.1074848 4294967295
280.74146 100.40946 0.1294861 4294967295
280.75699 100.88299 -0.1135044 4294967295
280.78452 101.39821 0.76913643 4294967295
280.79047 101.83796 -0.37408829 4294967295
280.81998 102.36069 0.69103807 4294967295
280.83038 102.81581 -0.027586 4294967295
280.86981 90.772385 1.2451382 4294967295
280.87595 91.223038 0.133213 4294967295
280.8905 104.28402 0.50261879 4294967295
280.89148 91.698479 -0.1053638 4294967295
280.91058 104.77384 0.68275261 4294967295
280.91064 92.183632 -0.0114174 4294967295
280.92639 105.24782 0.46681589 4294967295
280.93704 92.689163 0.75567061 4294967295
280.94827 105.74463 0.81553841 4294967295
280.96155 106.20909 0.37075809 4294967295
280.9805 106.69466 0.44330221 4294967295
280.98257 94.111588 -0.0634747 4294967295
281.00223 107.19124 0.77677339 4294967295
281.01941 107.6703 0.68983078 4294967295
281.02878 95.10569 0.85068703 4294967295
281.06122 96.059662 0.50117868 4294967295
281.09616 97.020874 0.38286021 4294967295
281.11664 97.51049 0.59043312 4294967295
281.15543 98.483757 0.82012749 4294967295
281.19 99.443954 0.67266083 4294967295
281.20303 99.90992 0.20880321 4294967295
281.22464 100.40393 0.52544397 4294967295
281.24136 100.88169 0.39373589 4294967295
281.25912 101.36302 0.36089131 4294967295
281.29254 102.31843 0.105463 4294967295
281.31274 102.80808 0.2935982 4294967295
281.32678 103.27644 -0.0717621 4294967295
281.341 90.732147 0.52132797 4294967295
281.35681 91.208862 0.31889531 4294967295
281.37894 104.2975 1.352726 4294967295
281.38385 91.71476 1.1154118 4294967295
281.39465 104.77168 1.133585 4294967295
281.39816 105.20181 -0.1745968 4294967295
281.3996 92.191147 0.89896578 4294967295
281.41165 92.657486 0.35601041 4294967295
281.42923 105.73133 0.98501199 4294967295
281.44278 106.19717 0.57243729 4294967295
281.44839 93.623856 0.39891049 4294967295
281.46829 94.11132 0.55619049 4294967295
281.48434 107.18218 1.0441341 4294967295
281.4924 94.610718 1.086092 4294967295
281.49417 107.63377 0.30507091 4294967295
281.51089 95.094589 1.1195316 4294967295
281.52936 95.578369 1.1490383 4294967295
281.54419 96.051575 0.85609818 4294967295
281.55945 96.525719 0.59845161 4294967295
281.58081 97.01796 0.88473129 4294967295
281.60226 97.510735 1.1797447 4294967295
281.629 98.447098 0.33794591 4294967295
281.65591 98.956947 1.1140461 4294967295
281.66373 99.407394 0.20499229 4294967295
281.68121 99.88784 0.1490269 4294967295
281.69907 100.36941 0.1250343 4294967295
281.74683 101.37164 1.1304798 4294967295
281.7666 101.85983 1.2730045 4294967295
281.78189 102.33327 1.024456 4294967295
281.78925 102.78009 0.086502098 4294967295
281.81885 90.709969 0.42798421 4294967295
281.83209 103.76727 0.65771288 4294967295
281.84058 91.201622 0.7436676 4294967295
281.85144 104.25417 0.76567459 4294967295
281.86459 91.699081 1.2482624 4294967295
281.87436 104.7533 1.178009 4294967295
281.88623 105.21438 0.63776213 4294967295
281.88843 92.632423 0.1742325 4294967295
281.90598 93.113419 0.1276131 4294967295
281.90866 105.71206 1.0075455 4294967295
281.91656 106.15878 0.1297264 4294967295
281.9252 93.598801 0.2240219 4294967295
281.94513 106.67823 1.0225315 4294967295
281.95123 94.102432 0.90078932 4294967295
281.9725 107.61153 0.25833321 4294967295
281.97275 94.594406 1.1931076 4294967295
281.99396 95.085526 1.4516125 4294967295
282.00113 95.538086 0.5165596 4294967295
282.01785 96.016632 0.39406201 4294967295
282.07214 97.46389 0.38628769 4294967295
282.10022 97.975571 1.2331409 4294967295
282.11023 98.434448 0.54504007 4294967295
282.13403 98.933945 1.0257683 4294967295
282.15738 99.432228 1.4617386 4294967295
282.19641 100.83335 0.164978 4294967295
282.22968 101.36326 1.4431305 4294967295
282.24887 101.8494 1.528965 4294967295
282.26593 102.32906 1.4420052 4294967295
282.27625 102.78669 0.78194618 4294967295
282.2984 103.28241 1.1191578 4294967295
282.30533 90.708778 1.0703411 4294967295
282.32025 103.77744 1.4318905 4294967295
282.32605 104.21958 0.3991985 4294967295
282.33081 91.20929 1.6841698 4294967295
282.34036 91.671242 0.96664047 4294967295
282.34662 104.71005 0.59866911 4294967295
282.35583 92.147316 0.74341011 4294967295
282.36221 105.18435 0.3925381 4294967295
282.37875 92.64196 1.142252 4294967295
282.38602 93.09716 0.2380314 4294967295
282.39972 106.15347 0.49213979 4294967295
282.40402 93.579338 0.22966 4294967295
282.43036 94.082924 0.90633577 4294967295
282.45032 94.570518 1.0610447 4294967295
282.45914 107.61884 0.91123199 4294967295
282.45981 95.030312 0.3448734 4294967295
282.47943 95.516701 0.4658871 4294967295
282.52643 96.511314 1.3554382 4294967295
282.5376 96.974823 0.77960402 4294967295
282.5564 97.459373 0.83604431 4294967295
282.57742 97.95018 1.0721741 4294967295
282.59482 98.43074 1.0095654 4294967295
282.61926 98.931801 1.530407 4294967295
282.63052 99.394653 0.96563911 4294967295
282.65405 99.893257 1.407526 4294967295
282.6687 100.36578 1.1223049 4294967295
282.68613 100.84648 1.0658436 4294967295
282.69916 101.31366 0.64620209 4294967295
282.7569 102.77185 0.91822428 4294967295
282.77289 103.24778 0.74320412 4294967295
282.78973 90.701691 1.5064907 4294967295
282.8024 91.171692 1.0603828 4294967295
282.81116 104.21956 0.90810972 4294967295
282.82034 91.6539 1.0426636 4294967295
282.83777 104.72957 1.5931473 4294967295
282.84225 105.16798 0.4866161 4294967295
282.86435 92.638199 1.6692982 4294967295
282.87225 105.68964 1.4492283 4294967295
282.87616 93.105568 1.1575146 4294967295
282.88333 93.561035 0.27330211 4294967295
282.8898 106.17052 1.3997784 4294967295
282.90424 106.64103 1.1010342 4294967295
282.9061 94.055138 0.64706987 4294967295
282.92279 107.12526 1.1358299 4294967295
282.93604 107.59131 0.73931122 4294967295
282.93686 94.569923 1.6640968 4294967295
282.95386 95.049896 1.5711021 4294967295
282.96912 95.525368 1.341095 4294967295
282.98257 95.995865 0.96509361 4294967295
282.99197 96.455276 0.26439101 4294967295
283.02704 96.983215 1.6185436 4294967295
283.04074 97.454102 1.2636967 4294967295
283.04962 97.911499 0.52499008 4294967295
283.07755 98.421135 1.30439 4294967295
283.10828 99.371147 0.86467171 4294967295
283.12741 99.856651 0.94387048 4294967295
283.14639 100.34183 1.0123653 4294967295
283.17722 101.29121 0.5801487 4294967295
283.20782 101.81084 1.5685139 4294967295
283.21909 102.27315 1.0245094 4294967295
283.2363 102.75309 0.95217711 4294967295
283.25278 103.23074 0.82155043 4294967295
283.28391 103.75339 1.8454571 4294967295
283.29144 104.2035 1.0108166 4294967295
283.31549 104.70457 1.4714222 4294967295
283.3288 105.17233 1.095665 4294967295
283.3298 92.145752 2.0100536 4294967295
283.34732 92.62738 1.9617023 4294967295
283.35168 105.67016 1.4666042 4294967295
283.35776 93.091995 1.3564167 4294967295
283.36539 93.549538 0.53735352 4294967295
283.3663 106.14174 1.1909637 4294967295
283.40091 94.512634 0.4768219 4294967295
283.41174 107.13734 1.9092293 4294967295
283.42407 107.6013 1.456356 4294967295
283.43726 95.040657 1.8985596 4294967295
283.44504 95.497513 1.0910587 4294967295
283.45941 95.970657 0.79954338 4294967295
283.4913 96.488777 1.8686428 4294967295
283.49661 96.938309 0.87172699 4294967295
283.53458 97.908081 1.0025787 4294967295
283.55386 98.393784 1.0892868 4294967295
283.58121 98.901634 1.804388 4294967295
283.58801 99.353485 0.92752463 4294967295
