# .PCD v0.7 - Point Cloud Data file format
VERSION 0.7
FIELDS x y z rgb
SIZE 4 4 4 4
TYPE F F F U
COUNT 1 1 1 1
WIDTH 1121
HEIGHT 1
VIEWPOINT 0 0 0 1 0 0 0
POINTS 1121
DATA ascii
142.11214 -41.994446 -67.918938 4294967295
142.1507 -49.966122 -66.693039 4294967295
142.15662 -50.408653 -66.910034 4294967295
142.18561 -48.14592 -66.371742 4294967295
142.19861 -41.479332 -68.563324 4294967295
142.22617 -39.216656 -68.01329 4294967295
142.24141 -48.547562 -67.054291 4294967295
142.25044 -55.663414 -65.224899 4294967295
142.2606 -49.426556 -67.556648 4294967295
142.26614 -38.289337 -68.063194 4294967295
142.4059 -52.395191 -65.542709 4294967295
142.48668 -43.870331 -67.72702 4294967295
142.54584 -52.721771 -67.014374 4294967295
142.64487 -39.712841 -67.74865 4294967295
142.75934 -54.742588 -65.307808 4294967295
142.79207 -45.35474 -66.723434 4294967295
142.86417 -43.952366 -66.911903 4294967295
142.87367 -52.852959 -65.729698 4294967295
142.89076 -53.732635 -66.21582 4294967295
142.89525 -45.719135 -67.853264 4294967295
142.91133 -43.46666 -67.191811 4294967295
142.92465 -52.361408 -66.045448 4294967295
142.94702 -51.894718 -66.09269 4294967295
143.00888 -50.051662 -66.022263 4294967295
143.02155 -41.587063 -67.575798 4294967295
143.0712 -38.857422 -67.065903 4294967295
143.07349 -41.994678 -68.22583 4294967295
143.07759 -39.301376 -67.288605 4294967295
143.08755 -49.537609 -66.598618 4294967295
143.09337 -40.634808 -67.924919 4294967295
143.12607 -41.057678 -68.39463 4294967295
143.15732 -39.68911 -68.200211 4294967295
143.1604 -48.581417 -66.957474 4294967295
143.17091 -49.020042 -67.219414 4294967295
143.18942 -54.786152 -64.976112 4294967295
143.21735 -55.208637 -65.402748 4294967295
143.228 -46.734776 -66.941566 4294967295
143.23259 -55.642113 -65.709892 4294967295
143.24092 -47.171844 -67.225983 4294967295
143.26881 -45.357784 -66.836288 4294967295
143.42882 -42.541256 -67.363953 4294967295
143.4606 -43.412079 -67.989609 4294967295
143.54224 -50.453472 -66.830605 4294967295
143.6096 -47.26387 -66.321274 4294967295
143.65363 -46.779625 -66.573265 4294967295
143.70836 -53.856384 -65.154739 4294967295
143.74529 -55.611767 -66.159981 4294967295
143.74556 -54.717812 -65.834488 4294967295
143.75113 -46.25169 -67.330482 4294967295
143.85263 -43.930538 -67.471123 4294967295
143.85321 -51.045303 -65.540108 4294967295
143.86282 -44.817795 -67.894722 4294967295
143.87595 -52.8148 -66.411873 4294967295
143.87708 -51.472206 -65.930328 4294967295
143.91133 -42.091713 -67.371048 4294967295
143.92577 -41.183846 -67.179909 4294967295
143.93651 -52.31496 -66.820923 4294967295
143.94272 -42.514977 -67.831696 4294967295
143.96695 -39.806454 -67.077774 4294967295
143.96777 -49.156979 -65.967995 4294967295
144.00487 -48.230251 -65.990822 4294967295
144.02718 -40.656582 -67.975372 4294967295
144.03999 -47.305176 -65.995079 4294967295
144.04041 -50.437252 -67.148361 4294967295
144.0567 -49.529079 -66.974442 4294967295
144.06349 -38.835358 -67.663498 4294967295
144.13133 -46.333797 -66.532135 4294967295
144.13481 -55.244884 -65.280533 4294967295
144.14378 -46.771286 -66.814384 4294967295
144.14594 -38.324207 -68.280075 4294967295
144.1777 -55.65329 -65.852112 4294967295
144.2088 -54.284756 -65.653412 4294967295
144.21866 -45.366512 -67.03154 4294967295
144.23439 -54.708878 -66.06102 4294967295
144.26588 -52.445675 -65.536575 4294967295
144.27655 -53.777664 -66.13195 4294967295
144.28281 -44.866501 -67.475563 4294967295
144.5233 -55.773407 -64.715477 4294967295
144.57184 -48.156982 -66.96151 4294967295
144.60513 -46.338989 -66.618767 4294967295
144.60683 -39.235931 -68.579193 4294967295
144.6274 -45.872852 -66.665649 4294967295
144.63629 -47.208225 -67.244987 4294967295
144.75813 -42.63089 -66.755409 4294967295
144.76363 -45.313293 -67.797501 4294967295
144.85919 -50.557388 -66.098091 4294967295
144.86104 -51.897079 -66.611748 4294967295
144.8611 -40.308029 -66.910759 4294967295
144.92107 -38.915977 -66.987038 4294967295
144.9312 -49.600895 -66.454338 4294967295
144.95639 -39.337238 -67.489136 4294967295
145.00822 -48.640697 -66.858566 4294967295
145.02057 -55.756802 -65.020691 4294967295
145.03951 -38.376678 -67.951515 4294967295
145.04013 -47.719082 -66.832336 4294967295
145.04669 -49.055092 -67.391304 4294967295
145.06673 -54.374092 -64.964218 4294967295
145.09119 -46.333908 -66.823601 4294967295
145.11928 -45.863045 -66.926346 4294967295
145.12657 -53.873489 -65.370644 4294967295
145.13361 -44.507938 -66.566467 4294967295
145.1561 -43.593628 -66.449982 4294967295
145.16698 -54.730988 -66.088875 4294967295
145.18108 -52.930897 -65.560143 4294967295
145.1946 -53.365932 -65.855423 4294967295
145.21333 -44.890491 -67.493942 4294967295
145.21849 -43.09523 -66.880814 4294967295
145.25847 -42.61512 -67.097496 4294967295
145.2795 -52.396996 -66.336067 4294967295
145.3335 -41.659309 -67.483749 4294967295
145.37904 -48.285538 -65.795074 4294967295
145.38446 -50.517513 -66.677269 4294967295
145.42606 -40.242363 -67.872299 4294967295
145.45219 -47.776031 -66.329887 4294967295
145.45711 -39.322002 -67.838058 4294967295
145.52296 -46.37392 -66.509781 4294967295
145.58551 -55.231754 -65.811829 4294967295
145.74768 -50.618195 -65.703484 4294967295
145.85838 -39.832169 -67.401001 4294967295
145.89801 -38.904831 -67.448982 4294967295
145.93027 -37.983234 -67.426025 4294967295
145.95436 -38.413006 -67.824188 4294967295
145.98116 -54.86026 -64.977654 4294967295
145.98276 -46.838165 -66.630455 4294967295
146.01445 -47.705929 -67.268906 4294967295
146.04822 -46.335854 -67.093864 4294967295
146.06786 -44.977093 -66.782295 4294967295
146.07851 -44.520603 -66.718163 4294967295
146.10329 -45.395245 -67.290527 4294967295
146.10655 -43.154091 -66.487358 4294967295
146.11107 -54.295967 -66.062706 4294967295
146.11359 -44.044086 -66.889191 4294967295
146.12604 -52.94236 -65.705437 4294967295
146.15543 -43.562202 -67.125214 4294967295
146.17105 -53.795399 -66.473785 4294967295
146.18787 -42.192421 -66.93718 4294967295
146.21461 -50.628948 -65.723427 4294967295
146.2173 -52.414337 -66.418396 4294967295
146.22357 -51.068218 -65.977196 4294967295
146.25354 -40.347702 -66.902199 4294967295
146.25838 -41.240074 -67.282761 4294967295
146.28122 -49.67659 -66.031494 4294967295
146.2968 -50.110161 -66.349411 4294967295
146.32201 -48.746872 -66.090538 4294967295
146.42223 -47.766666 -66.723557 4294967295
146.57166 -42.718502 -66.325249 4294967295
146.62547 -51.136086 -65.368721 4294967295
146.688 -41.728642 -67.115578 4294967295
146.88852 -46.883224 -66.405579 4294967295
146.88885 -38.434128 -67.886482 4294967295
146.90395 -47.764523 -66.891396 4294967295
146.94458 -45.941116 -66.613205 4294967295
146.95662 -54.843624 -65.417435 4294967295
146.99599 -53.914524 -65.462875 4294967295
147.00259 -44.102497 -66.503754 4294967295
147.02344 -52.996208 -65.39241 4294967295
147.0309 -44.526718 -66.946434 4294967295
147.03548 -43.627708 -66.65451 4294967295
147.10811 -52.473492 -66.046753 4294967295
147.13763 -41.753365 -66.973526 4294967295
147.13957 -51.551991 -66.015404 4294967295
147.20302 -40.805122 -67.272141 4294967295
147.21387 -39.452347 -66.872459 4294967295
147.29657 -48.285881 -66.362396 4294967295
147.31419 -38.029114 -67.34285 4294967295
147.34982 -47.345879 -66.543289 4294967295
147.35153 -48.685356 -67.065804 4294967295
147.37619 -55.790619 -65.314064 4294967295
147.46906 -45.456028 -67.029373 4294967295
147.4998 -54.784134 -66.180931 4294967295
147.52562 -53.867954 -66.094788 4294967295
147.54422 -43.603989 -67.086716 4294967295
147.55389 -42.700832 -66.843376 4294967295
147.63156 -39.950493 -66.586929 4294967295
147.64905 -50.184242 -65.945847 4294967295
147.66064 -39.479225 -66.701607 4294967295
147.66643 -49.722004 -65.946213 4294967295
147.77364 -49.181374 -66.823761 4294967295
147.85826 -46.873779 -66.804329 4294967295
147.87846 -37.964096 -68.320557 4294967295
147.88545 -45.509079 -66.562073 4294967295
147.92099 -54.836399 -65.756943 4294967295
147.92653 -53.491917 -65.301933 4294967295
147.93565 -45.913849 -67.222267 4294967295
147.959 -53.908836 -65.789513 4294967295
147.95917 -54.355038 -65.960823 4294967295
147.98248 -44.533039 -67.172096 4294967295
147.98788 -43.186256 -66.716499 4294967295
147.98988 -43.632149 -66.905655 4294967295
148.02679 -52.061287 -65.774208 4294967295
148.0515 -42.686363 -67.169548 4294967295
148.05392 -52.483372 -66.2099 4294967295
148.05609 -41.787361 -66.87529 4294967295
148.05827 -50.69276 -65.573013 4294967295
148.06953 -51.576309 -66.022919 4294967295
148.11682 -40.394817 -66.961067 4294967295
148.14093 -51.065952 -66.55278 4294967295
148.1657 -39.907845 -67.270027 4294967295
148.18646 -50.132458 -66.659332 4294967295
148.18974 -48.34222 -66.011871 4294967295
148.19016 -49.682556 -66.525803 4294967295
148.25256 -48.734432 -66.797844 4294967295
148.25764 -47.836327 -66.507706 4294967295
148.5667 -39.971359 -66.650002 4294967295
148.66971 -50.128197 -66.845802 4294967295
148.78096 -46.457161 -66.576675 4294967295
148.82599 -44.629944 -66.33744 4294967295
148.88554 -53.489788 -65.592155 4294967295
148.89899 -45.462486 -67.39817 4294967295
148.90115 -43.224674 -66.56588 4294967295
148.93239 -52.554161 -65.712212 4294967295
148.93925 -51.654789 -65.437599 4294967295
148.94716 -52.987076 -66.028984 4294967295
148.96193 -42.726795 -66.994415 4294967295
148.96635 -43.617699 -67.379593 4294967295
148.98915 -40.91396 -66.579239 4294967295
149.02081 -41.78344 -67.233543 4294967295
149.03575 -51.121338 -66.219154 4294967295
149.0387 -48.884823 -65.3918 4294967295
149.05602 -49.316555 -65.734337 4294967295
149.05798 -40.4104 -67.087738 4294967295
149.07893 -49.743057 -66.132149 4294967295
149.08621 -39.492107 -67.024437 4294967295
149.10794 -47.929935 -65.733604 4294967295
149.1403 -38.105209 -67.045456 4294967295
149.14999 -48.340153 -66.320618 4294967295
149.19843 -46.957264 -66.285263 4294967295
149.2029 -47.40033 -66.500824 4294967295
149.26735 -45.556778 -66.45282 4294967295
149.28964 -54.896927 -65.507858 4294967295
149.30066 -44.634033 -66.439461 4294967295
149.3559 -44.140171 -66.814568 4294967295
149.3719 -54.374344 -66.150925 4294967295
149.48607 -50.700058 -65.907776 4294967295
149.54369 -39.06255 -66.787231 4294967295
149.57632 -49.279686 -66.287521 4294967295
149.86026 -42.329987 -66.525703 4294967295
149.89001 -51.660328 -65.650703 4294967295
149.89339 -42.749779 -67.027435 4294967295
149.89415 -41.854393 -66.690475 4294967295
149.90933 -50.749741 -65.497833 4294967295
149.93208 -49.835854 -65.378983 4294967295
149.95265 -41.3587 -67.099983 4294967295
149.95384 -51.155975 -66.113571 4294967295
149.97298 -40.894566 -67.129883 4294967295
149.9778 -50.241547 -66.00676 4294967295
150.00378 -48.431507 -65.574997 4294967295
150.01024 -48.872665 -65.811966 4294967295
150.03004 -39.505451 -67.180916 4294967295
150.04233 -49.290791 -66.304245 4294967295
150.07562 -38.125626 -67.117363 4294967295
150.08379 -47.914177 -66.199249 4294967295
150.162 -38.504356 -68.149513 4294967295
150.1624 -46.505058 -66.464783 4294967295
150.18314 -44.251503 -65.807358 4294967295
150.20512 -54.934532 -65.370995 4294967295
150.21565 -45.565262 -66.650223 4294967295
150.22054 -46.007896 -66.871635 4294967295
150.27049 -45.07132 -67.024261 4294967295
150.30348 -54.396404 -66.179512 4294967295
150.30875 -43.697849 -66.88768 4294967295
150.3223 -52.594967 -65.675056 4294967295
150.33914 -42.330624 -66.67247 4294967295
150.34335 -53.021641 -66.058594 4294967295
150.5602 -46.128525 -65.626831 4294967295
150.68077 -43.788754 -65.966019 4294967295
150.72485 -53.11097 -65.228256 4294967295
150.74213 -44.630695 -66.927521 4294967295
150.81653 -52.13382 -65.799698 4294967295
150.82957 -40.979294 -66.415421 4294967295
150.87621 -40.493324 -66.709152 4294967295
150.92708 -50.694221 -66.387184 4294967295
150.9287 -48.907188 -65.707703 4294967295
150.9519 -39.53635 -67.12088 4294967295
150.99969 -49.290024 -66.594391 4294967295
151.00543 -39.940029 -67.831314 4294967295
151.01183 -47.046474 -65.846008 4294967295
151.02316 -38.583584 -67.488258 4294967295
151.10608 -38.06945 -68.146797 4294967295
151.11044 -47.406239 -67.010635 4294967295
151.1147 -45.616047 -66.357292 4294967295
151.13646 -53.619118 -64.869278 4294967295
151.18419 -54.466248 -65.698647 4294967295
151.19012 -54.906334 -65.932846 4294967295
151.1965 -43.757793 -66.482956 4294967295
151.19678 -45.098248 -67.008087 4294967295
151.21207 -44.191494 -66.813766 4294967295
151.21588 -42.846992 -66.329353 4294967295
151.2355 -51.741955 -65.16803 4294967295
151.27411 -52.598614 -65.905746 4294967295
151.28329 -41.000919 -66.310272 4294967295
151.30865 -40.532368 -66.39122 4294967295
151.33328 -42.300972 -67.336235 4294967295
151.33931 -50.307846 -65.689537 4294967295
151.35966 -41.831879 -67.427383 4294967295
151.36423 -39.143784 -66.427307 4294967295
151.371 -51.171272 -66.357994 4294967295
151.44345 -47.981594 -65.865646 4294967295
151.58028 -46.074268 -66.546623 4294967295
151.59645 -44.719757 -66.185173 4294967295
151.60962 -46.495071 -67.017342 4294967295
151.63637 -44.238396 -66.4133 4294967295
151.73528 -53.059784 -66.049492 4294967295
151.78397 -49.891979 -65.314651 4294967295
151.86667 -40.467575 -67.340141 4294967295
151.897 -48.003857 -65.756836 4294967295
151.91293 -48.88245 -66.268761 4294967295
151.95221 -47.508072 -66.140167 4294967295
151.95538 -38.158356 -67.361908 4294967295
151.97057 -39.040646 -67.865547 4294967295
151.98317 -55.506386 -64.734673 4294967295
151.98438 -38.582188 -67.830307 4294967295
152.00012 -45.232075 -65.747719 4294967295
152.01907 -46.55574 -66.466629 4294967295
152.05388 -54.101273 -64.924057 4294967295
152.05782 -43.84087 -65.805573 4294967295
152.06781 -44.279373 -66.082451 4294967295
152.07162 -45.616467 -66.647858 4294967295
152.12648 -54.478088 -65.836266 4294967295
152.12695 -53.586269 -65.489487 4294967295
152.17296 -41.50658 -66.09436 4294967295
152.1909 -53.080284 -65.962311 4294967295
152.21065 -51.724232 -65.635109 4294967295
152.22009 -52.607182 -66.082642 4294967295
152.24297 -51.248272 -65.787163 4294967295
152.24887 -49.457699 -65.142723 4294967295
152.25079 -50.348755 -65.514542 4294967295
152.27161 -40.52943 -66.743637 4294967295
152.31215 -49.846416 -65.961594 4294967295
152.31485 -50.735977 -66.341187 4294967295
152.40532 -38.182606 -67.22216 4294967295
152.4066 -39.076199 -67.586655 4294967295
152.53256 -46.078323 -66.793343 4294967295
152.58815 -52.263893 -64.926773 4294967295
152.60283 -44.230793 -66.803558 4294967295
152.62454 -43.765366 -66.848038 4294967295
152.71045 -42.798229 -67.370216 4294967295
152.74928 -40.530884 -66.884026 4294967295
152.86586 -46.206688 -65.460167 4294967295
152.90878 -47.508022 -66.429062 4294967295
152.92152 -47.050301 -66.382507 4294967295
152.95934 -45.67738 -66.237732 4294967295
152.98183 -46.550266 -66.821312 4294967295
152.9942 -44.753464 -66.239929 4294967295
153.01675 -52.756294 -64.736465 4294967295
153.02885 -54.527832 -65.569748 4294967295
153.05344 -54.949543 -65.99836 4294967295
153.09344 -43.773788 -66.900085 4294967295
153.10693 -52.225384 -65.481865 4294967295
153.11746 -44.199425 -67.32235 4294967295
153.1349 -53.090286 -66.122597 4294967295
153.14021 -42.393406 -66.847084 4294967295
153.14999 -51.73917 -65.745041 4294967295
153.17445 -41.917385 -67.020058 4294967295
153.17821 -51.266987 -65.856384 4294967295
153.23593 -50.767494 -66.269928 4294967295
153.26274 -40.055252 -67.214905 4294967295
153.26428 -48.957542 -65.850555 4294967295
153.26717 -49.84697 -66.235039 4294967295
153.29413 -38.240353 -66.827156 4294967295
153.32401 -39.557251 -67.664536 4294967295
153.36919 -46.184753 -65.859924 4294967295
153.37927 -55.095676 -64.578964 4294967295
153.48862 -53.653484 -65.167328 4294967295
153.58109 -50.8908 -65.048454 4294967295
153.62595 -41.493862 -66.716667 4294967295
153.65884 -50.372417 -65.669647 4294967295
153.66519 -40.119526 -66.586365 4294967295
153.91046 -54.152393 -64.90773 4294967295
153.91585 -44.78466 -66.174385 4294967295
153.92622 -45.221977 -66.459694 4294967295
153.9671 -43.846466 -66.345306 4294967295
154.00195 -53.618919 -65.672165 4294967295
154.00381 -44.260841 -66.901939 4294967295
154.01129 -51.381489 -64.874184 4294967295
154.0159 -42.910633 -66.491302 4294967295
154.05681 -52.230122 -65.701706 4294967295
154.10344 -41.048237 -66.679367 4294967295
154.10869 -51.735493 -66.058151 4294967295
154.12752 -50.380814 -65.715805 4294967295
154.13068 -41.471844 -67.13887 4294967295
154.1355 -39.232651 -66.295586 4294967295
154.15973 -49.904961 -65.869598 4294967295
154.18755 -39.636318 -67.011238 4294967295
154.1911 -40.080276 -67.226524 4294967295
154.20752 -48.968971 -66.005386 4294967295
154.23822 -38.699966 -67.176804 4294967295
154.2579 -47.138523 -65.809669 4294967295
154.27463 -46.230671 -65.624283 4294967295
154.29933 -46.654846 -66.058647 4294967295
154.31844 -38.186523 -67.826195 4294967295
154.32027 -55.108868 -64.701126 4294967295
154.35114 -54.187805 -64.661491 4294967295
154.45407 -43.839043 -66.584198 4294967295
154.56041 -41.960464 -66.967621 4294967295
154.61391 -49.480862 -65.587532 4294967295
154.6214 -50.365475 -66.024467 4294967295
154.62952 -48.128105 -65.209923 4294967295
154.64648 -38.759117 -66.603653 4294967295
154.92244 -43.401386 -66.451805 4294967295
154.92868 -52.754498 -65.295822 4294967295
154.94534 -51.84737 -65.108597 4294967295
154.95338 -42.927788 -66.593567 4294967295
154.97133 -43.804749 -67.139793 4294967295
154.98523 -41.560177 -66.384468 4294967295
155.00424 -41.990475 -66.76207 4294967295
155.00873 -42.43309 -66.9888 4294967295
155.01573 -50.88924 -65.48027 4294967295
155.02121 -40.635567 -66.398453 4294967295
155.08597 -50.377449 -66.030785 4294967295
155.09235 -48.142094 -65.194939 4294967295
155.10287 -41.012451 -67.427567 4294967295
155.11386 -49.905708 -66.140816 4294967295
155.12633 -40.099289 -67.311584 4294967295
155.12851 -39.650723 -67.154144 4294967295
155.13422 -48.54953 -65.811584 4294967295
155.19482 -38.254471 -67.30381 4294967295
155.20482 -47.592743 -66.185928 4294967295
155.29422 -46.173527 -66.576073 4294967295
155.31818 -44.813641 -66.28405 4294967295
155.35709 -54.582512 -65.645966 4294967295
155.43028 -53.621105 -66.048294 4294967295
155.51892 -51.755363 -66.250366 4294967295
155.56464 -39.240059 -66.687454 4294967295
155.69875 -47.13195 -66.319313 4294967295
155.7951 -45.260712 -66.603096 4294967295
155.84546 -53.681042 -65.537865 4294967295
155.86447 -44.306522 -66.966759 4294967295
155.9232 -41.576981 -66.493675 4294967295
155.94736 -51.356491 -65.697762 4294967295
155.95422 -52.240311 -66.133415 4294967295
155.96214 -51.787594 -66.034561 4294967295
155.96423 -41.987736 -67.105003 4294967295
155.98463 -50.430141 -65.725243 4294967295
155.99324 -41.069767 -67.04628 4294967295
155.99397 -49.975784 -65.641212 4294967295
156.03546 -38.353027 -66.39946 4294967295
156.04222 -40.5811 -67.378326 4294967295
156.0425 -48.593128 -65.604988 4294967295
156.04999 -39.234673 -66.915092 4294967295
156.05119 -49.030731 -65.878204 4294967295
156.14444 -46.715378 -65.94751 4294967295
156.15984 -47.59277 -66.473511 4294967295
156.21544 -45.758678 -66.329666 4294967295
156.25455 -53.747322 -64.959419 4294967295
156.26138 -54.185738 -65.213799 4294967295
156.27692 -43.472549 -66.06546 4294967295
156.28751 -44.80159 -66.723381 4294967295
156.29353 -52.373322 -64.822258 4294967295
156.30231 -54.59024 -65.826996 4294967295
156.32709 -44.320107 -66.957443 4294967295
156.42139 -50.468597 -65.438515 4294967295
156.44447 -40.646828 -66.735306 4294967295
156.48871 -39.268814 -66.654083 4294967295
156.49727 -47.722607 -65.141945 4294967295
156.53152 -38.785637 -66.922554 4294967295
156.55464 -48.560692 -66.112526 4294967295
156.61826 -55.639641 -64.630211 4294967295
156.65498 -44.90126 -65.708832 4294967295
156.82918 -42.067989 -66.450928 4294967295
156.84521 -43.392193 -67.169189 4294967295
156.9286 -49.103474 -65.34536 4294967295
156.95012 -50.864357 -66.306488 4294967295
156.96515 -49.514408 -65.915665 4294967295
156.96536 -38.823895 -66.609375 4294967295
156.97957 -39.258469 -66.942909 4294967295
156.98184 -48.162033 -65.541992 4294967295
157.01115 -39.677856 -67.460052 4294967295
157.01526 -47.685062 -65.712471 4294967295
157.03986 -46.770584 -65.605835 4294967295
157.06345 -47.194534 -66.039337 4294967295
157.08032 -55.654232 -64.606331 4294967295
157.09868 -46.270473 -66.045532 4294967295
157.12634 -54.718315 -64.726723 4294967295
157.12915 -55.160404 -64.940506 4294967295
157.14001 -44.894844 -65.932945 4294967295
157.16022 -54.23967 -64.902077 4294967295
157.17885 -45.305439 -66.528168 4294967295
157.19913 -45.732574 -66.926544 4294967295
157.20494 -53.750404 -65.192841 4294967295
157.22217 -43.928486 -66.436859 4294967295
157.24197 -42.572216 -66.09565 4294967295
157.25217 -51.478237 -64.773918 4294967295
157.2619 -52.804382 -65.429619 4294967295
157.27205 -51.013561 -64.800789 4294967295
157.29982 -42.966934 -66.892982 4294967295
157.35019 -41.137768 -66.692589 4294967295
157.35335 -41.581249 -66.910004 4294967295
157.37996 -40.218948 -66.641273 4294967295
157.39293 -40.654091 -66.962662 4294967295
157.42427 -39.287575 -66.744148 4294967295
157.46011 -38.810261 -66.940773 4294967295
157.46901 -48.598297 -65.97332 4294967295
157.53464 -45.862961 -65.56559 4294967295
157.70453 -44.370125 -66.821045 4294967295
157.78349 -50.980309 -65.305084 4294967295
157.79588 -42.058708 -66.872246 4294967295
157.8055 -40.711533 -66.420967 4294967295
157.93155 -49.502392 -66.330521 4294967295
157.93439 -38.367378 -66.872498 4294967295
157.95549 -46.807331 -65.47596 4294967295
158.00185 -55.685993 -64.531464 4294967295
158.03477 -45.396397 -65.767822 4294967295
158.03859 -45.83868 -65.993782 4294967295
158.05527 -44.931683 -65.801514 4294967295
158.07089 -46.254356 -66.524124 4294967295
158.07446 -54.278496 -64.751839 4294967295
158.07979 -54.717907 -64.994469 4294967295
158.1218 -52.896511 -64.701736 4294967295
158.14156 -43.069145 -65.983322 4294967295
158.15567 -53.752598 -65.43557 4294967295
158.17847 -52.395557 -65.122902 4294967295
158.20348 -43.459244 -66.8312 4294967295
158.2076 -42.563747 -66.504807 4294967295
158.23779 -51.892273 -65.572876 4294967295
158.24486 -40.745743 -66.162094 4294967295
158.27194 -50.969013 -65.567413 4294967295
158.27557 -51.410419 -65.791916 4294967295
158.28427 -39.818237 -66.213181 4294967295
158.28436 -42.049217 -67.140945 4294967295
158.31088 -41.133774 -67.054482 4294967295
158.31302 -49.593842 -65.450424 4294967295
158.34286 -48.674568 -65.398849 4294967295
158.42044 -47.264664 -65.673347 4294967295
158.43695 -48.139816 -66.222084 4294967295
158.438 -47.69355 -66.047676 4294967295
158.53104 -53.853634 -64.484253 4294967295
158.58733 -53.352512 -64.90287 4294967295
158.62761 -51.977673 -64.776886 4294967295
158.67981 -41.676678 -66.226463 4294967295
158.81824 -39.76968 -66.970154 4294967295
158.84261 -40.194355 -67.418556 4294967295
158.84917 -37.957188 -66.558243 4294967295
158.94563 -55.250385 -64.510361 4294967295
158.95114 -46.323463 -66.021332 4294967295
158.96414 -47.201832 -66.534698 4294967295
158.96416 -54.342205 -64.335831 4294967295
158.99905 -45.387779 -66.164352 4294967295
159.00754 -53.408836 -64.429733 4294967295
159.03156 -44.466488 -66.141373 4294967295
159.03877 -53.822243 -64.954185 4294967295
159.04379 -54.70615 -65.382683 4294967295
159.05316 -52.918324 -64.73526 4294967295
159.07809 -42.194321 -65.709 4294967295
159.09396 -52.432838 -64.988609 4294967295
159.09467 -43.517239 -66.448708 4294967295
159.10242 -51.534542 -64.705215 4294967295
159.1212 -51.960968 -65.09552 4294967295
159.17441 -40.769554 -66.187836 4294967295
159.20897 -50.094894 -65.294998 4294967295
159.21829 -38.945171 -65.913589 4294967295
159.22653 -41.169285 -66.937759 4294967295
159.24939 -50.500393 -65.919189 4294967295
159.27104 -39.791828 -66.857605 4294967295
159.27736 -49.583469 -65.846947 4294967295
159.28346 -38.441998 -66.430481 4294967295
159.29326 -48.678024 -65.644196 4294967295
159.33136 -47.751091 -65.681656 4294967295
159.3334 -47.303806 -65.516121 4294967295
159.44807 -55.667835 -65.113144 4294967295
159.55013 -42.645748 -65.986946 4294967295
159.6033 -50.17543 -64.540154 4294967295
159.61356 -41.69648 -66.299286 4294967295
159.62234 -43.025784 -66.957413 4294967295
159.70482 -49.631241 -65.454475 4294967295
159.74002 -40.245712 -67.107628 4294967295
159.79181 -38.862106 -67.106293 4294967295
159.80215 -48.646999 -66.135254 4294967295
159.93382 -55.213505 -65.162544 4294967295
159.96606 -53.847691 -64.947495 4294967295
159.98241 -54.275398 -65.31424 4294967295
160.00499 -44.89426 -66.834641 4294967295
160.01074 -52.468906 -64.867584 4294967295
160.02446 -42.648773 -66.104599 4294967295
160.02634 -43.983883 -66.690147 4294967295
160.04182 -43.524189 -66.670204 4294967295
160.05876 -51.086613 -64.824158 4294967295
160.11685 -41.227585 -66.544922 4294967295
160.11986 -42.11631 -66.954582 4294967295
160.12759 -40.772026 -66.473282 4294967295
160.14122 -41.651375 -66.998734 4294967295
160.15297 -39.857281 -66.372574 4294967295
160.1707 -49.641727 -65.477722 4294967295
160.18884 -48.288887 -65.108429 4294967295
160.24406 -37.992252 -66.610603 4294967295
160.24669 -48.677967 -65.928757 4294967295
160.27975 -47.311081 -65.722466 4294967295
160.28604 -38.847809 -67.445488 4294967295
160.28923 -47.747063 -66.015015 4294967295
160.29964 -45.956158 -65.372147 4294967295
160.36838 -54.81181 -64.653114 4294967295
160.37103 -46.778881 -66.529663 4294967295
160.3786 -53.912464 -64.38562 4294967295
160.39606 -45.419895 -66.235901 4294967295
160.50302 -51.118725 -64.608597 4294967295
160.52722 -40.842224 -65.776726 4294967295
160.59882 -50.134109 -65.278015 4294967295
160.68274 -49.162148 -65.817627 4294967295
160.74757 -47.319679 -65.768967 4294967295
160.77124 -55.775921 -64.362854 4294967295
160.7812 -46.397243 -65.757782 4294967295
160.87534 -53.002495 -64.363228 4294967295
160.8893 -43.177437 -65.613396 4294967295
160.92751 -41.804699 -65.462074 4294967295
160.98799 -42.640846 -66.506752 4294967295
160.99356 -52.438168 -65.472183 4294967295
161.03522 -49.283802 -64.596191 4294967295
161.04381 -51.054497 -65.453209 4294967295
161.05252 -41.245174 -66.645172 4294967295
161.05347 -39.906704 -66.084892 4294967295
161.05508 -39.012791 -65.721909 4294967295
161.06737 -50.141907 -65.330948 4294967295
161.07253 -40.781384 -66.674736 4294967295
161.09084 -48.784222 -65.017349 4294967295
161.10031 -49.664635 -65.502846 4294967295
161.142 -38.489685 -66.487167 4294967295
161.18326 -48.249081 -65.843948 4294967295
161.19772 -54.938755 -63.566002 4294967295
161.25575 -45.063576 -65.306763 4294967295
161.26344 -44.61076 -65.200676 4294967295
161.27022 -46.385551 -66.038589 4294967295
161.2728 -53.972183 -64.011261 4294967295
161.2794 -45.931717 -65.949066 4294967295
161.32938 -54.35815 -64.826965 4294967295
161.34544 -43.64283 -65.722427 4294967295
161.36668 -52.542599 -64.473312 4294967295
161.41432 -41.796383 -65.717934 4294967295
161.42465 -44.014133 -66.786499 4294967295
161.44293 -43.106724 -66.606453 4294967295
161.5257 -39.019531 -65.800163 4294967295
161.60278 -46.969452 -64.783302 4294967295
161.6259 -39.376095 -67.097549 4294967295
161.65895 -47.805038 -65.787796 4294967295
161.74188 -54.423805 -64.258209 4294967295
161.93506 -50.226555 -64.670158 4294967295
161.96545 -39.946011 -65.921379 4294967295
161.968 -51.082558 -65.419945 4294967295
161.97493 -50.631207 -65.304733 4294967295
161.98495 -41.265419 -66.713226 4294967295
161.9877 -39.47998 -65.976013 4294967295
162.02005 -48.362896 -64.843773 4294967295
162.02785 -40.335316 -66.805084 4294967295
162.06158 -38.52187 -66.411407 4294967295
162.07013 -47.868835 -65.207413 4294967295
162.10782 -46.942162 -65.241119 4294967295
162.13892 -45.57663 -65.008865 4294967295
162.1468 -38.00029 -67.165062 4294967295
162.19664 -55.333881 -64.541199 4294967295
162.21898 -44.164291 -65.320923 4294967295
162.24466 -54.395771 -64.689636 4294967295
162.24638 -54.83786 -64.90181 4294967295
162.24971 -44.580479 -65.855377 4294967295
162.26178 -45.01408 -66.181915 4294967295
162.26219 -52.156158 -63.919613 4294967295
162.28058 -51.692753 -63.931175 4294967295
162.28207 -53.024654 -64.527328 4294967295
162.28392 -52.57843 -64.354813 4294967295
162.28452 -43.211708 -65.664612 4294967295
162.28957 -53.905071 -64.996834 4294967295
162.33531 -42.718822 -66.037018 4294967295
162.33989 -43.605003 -66.47316 4294967295
162.39992 -39.539143 -65.406464 4294967295
162.43039 -49.762909 -64.827972 4294967295
162.55334 -48.751389 -65.812241 4294967295
162.73921 -42.787315 -65.373291 4294967295
162.78546 -41.407253 -65.30941 4294967295
162.81459 -51.633812 -64.713615 4294967295
162.84222 -50.716908 -64.634903 4294967295
162.96388 -38.56955 -66.142693 4294967295
163.03519 -48.30127 -65.825325 4294967295
163.05154 -46.951359 -65.42662 4294967295
163.08086 -47.811665 -66.143127 4294967295
163.10341 -55.380733 -64.306503 4294967295
163.11655 -46.443153 -65.960991 4294967295
163.11975 -45.550461 -65.608765 4294967295
163.13091 -54.46397 -64.22596 4294967295
163.16116 -43.730267 -65.29583 4294967295
163.1736 -44.163696 -65.629562 4294967295
163.18735 -42.369057 -65.006378 4294967295
163.18825 -53.071892 -64.285583 4294967295
163.23476 -52.579525 -64.613503 4294967295
163.24414 -42.761215 -65.838356 4294967295
163.25755 -41.412258 -65.405571 4294967295
163.27336 -50.762665 -64.268066 4294967295
163.29301 -43.160248 -66.581154 4294967295
163.31824 -51.161247 -64.967339 4294967295
163.34787 -39.546124 -65.641739 4294967295
163.34836 -40.882645 -66.230743 4294967295
163.38766 -49.757965 -65.163483 4294967295
163.45073 -48.805885 -65.483131 4294967295
163.45901 -38.99939 -66.696381 4294967295
163.48918 -47.878723 -65.525963 4294967295
163.49826 -38.518353 -66.943001 4294967295
163.57797 -53.605991 -63.645054 4294967295
163.63544 -54.877022 -64.879517 4294967295
163.65343 -44.605621 -66.010361 4294967295
163.69408 -51.708263 -64.17218 4294967295
163.70222 -52.144043 -64.459961 4294967295
163.76749 -41.827168 -66.125214 4294967295
163.77559 -49.847191 -64.309441 4294967295
163.83858 -48.894466 -64.629341 4294967295
163.91646 -46.593052 -64.53006 4294967295
163.96996 -47.874035 -65.722656 4294967295
163.97357 -54.579041 -63.262085 4294967295
164.00597 -47.393921 -65.933899 4294967295
164.0094 -45.612114 -65.189445 4294967295
164.02101 -46.934654 -65.908333 4294967295
164.07004 -54.920261 -64.551239 4294967295
164.07573 -43.767815 -65.155624 4294967295
164.0786 -44.210182 -65.384148 4294967295
164.08385 -53.574436 -64.118393 4294967295
164.09258 -45.086391 -65.934387 4294967295
164.10014 -42.853928 -65.039665 4294967295
164.11749 -52.651138 -64.10659 4294967295
164.17378 -50.815804 -63.958267 4294967295
164.1981 -51.235081 -64.430893 4294967295
164.21889 -40.960449 -65.599762 4294967295
164.21954 -51.656975 -64.870544 4294967295
164.2222 -41.847996 -66.029785 4294967295
164.22749 -52.092564 -65.157249 4294967295
164.23605 -42.279995 -66.382904 4294967295
164.28149 -38.674149 -65.32769 4294967295
164.29495 -49.803204 -64.939674 4294967295
164.30659 -40.433495 -66.397751 4294967295
164.32855 -48.880527 -64.92775 4294967295
164.33083 -39.074894 -66.083572 4294967295
164.39955 -38.121082 -66.470642 4294967295
164.43872 -55.034355 -63.470268 4294967295
164.58556 -44.625553 -66.076477 4294967295
164.58911 -44.177437 -65.919991 4294967295
164.6541 -40.554111 -65.082909 4294967295
164.74049 -50.722248 -65.129791 4294967295
164.74605 -39.131939 -65.538261 4294967295
164.7569 -48.484329 -64.329063 4294967295
164.83414 -47.072929 -64.616753 4294967295
164.87186 -46.590683 -64.84967 4294967295
164.96692 -53.646667 -63.608509 4294967295
165.02097 -43.775749 -65.365158 4294967295
165.03897 -53.126419 -64.234039 4294967295
165.04608 -44.64082 -66.047371 4294967295
165.0816 -52.637672 -64.523315 4294967295
165.08575 -41.933323 -65.313446 4294967295
165.08893 -43.265335 -65.943565 4294967295
165.09167 -42.817833 -65.777206 4294967295
165.12196 -42.343941 -65.92543 4294967295
165.13799 -52.13467 -64.970192 4294967295
165.15434 -40.532661 -65.503525 4294967295
165.17606 -51.2075 -65.009254 4294967295
165.1824 -40.061001 -65.626556 4294967295
165.18761 -50.307758 -64.744682 4294967295
165.20441 -49.84639 -64.738716 4294967295
165.2186 -39.136421 -65.644203 4294967295
165.23161 -48.930195 -64.65329 4294967295
165.24493 -38.666546 -65.747513 4294967295
165.24905 -47.57914 -64.257408 4294967295
165.30576 -38.165215 -66.245605 4294967295
165.31903 -46.175011 -64.463326 4294967295
165.41284 -55.009365 -63.998436 4294967295
165.42039 -53.226368 -63.288551 4294967295
165.44026 -45.610252 -65.654625 4294967295
165.45425 -44.707378 -65.418167 4294967295
165.46158 -42.920467 -64.70697 4294967295
165.56467 -51.742153 -64.348465 4294967295
165.6275 -41.426514 -66.015343 4294967295
165.68307 -39.593655 -65.858101 4294967295
165.69843 -49.82748 -65.089401 4294967295
165.79411 -47.953682 -65.393288 4294967295
165.80557 -46.609406 -64.926804 4294967295
165.82802 -44.808323 -64.386688 4294967295
165.8338 -55.068188 -63.50481 4294967295
165.89526 -54.114681 -63.813461 4294967295
165.94363 -51.844002 -63.370689 4294967295
165.97917 -42.881069 -65.330254 4294967295
165.99158 -52.237225 -64.12455 4294967295
166.0094 -43.296528 -65.878395 4294967295
166.05902 -40.579185 -65.252243 4294967295
166.06834 -41.460606 -65.759491 4294967295
166.08522 -39.663731 -65.154762 4294967295
166.0963 -50.351944 -64.533241 4294967295
166.11162 -49.892097 -64.50988 4294967295
166.14032 -48.9743 -64.441124 4294967295
166.15862 -39.149727 -65.802216 4294967295
166.18773 -48.481518 -64.788727 4294967295
166.21492 -47.121059 -64.501976 4294967295
166.2348 -38.633629 -66.482292 4294967295
166.25647 -47.523216 -65.1828 4294967295
166.27885 -46.612167 -65.041145 4294967295
166.29105 -45.266472 -64.580612 4294967295
166.3118 -45.690399 -65.021179 4294967295
166.3714 -53.670273 -63.755417 4294967295
166.37952 -44.734161 -65.404083 4294967295
166.39217 -54.091259 -64.197121 4294967295
166.41312 -42.03223 -64.5895 4294967295
166.46254 -41.094307 -64.760498 4294967295
166.49547 -51.319698 -64.188721 4294967295
166.51724 -49.520832 -63.636509 4294967295
166.57002 -40.546814 -65.805847 4294967295
166.70596 -46.661514 -64.620331 4294967295
166.71475 -38.630684 -66.68129 4294967295
166.8428 -43.41304 -64.801071 4294967295
166.84621 -42.964813 -64.638954 4294967295
166.86719 -53.204678 -63.926079 4294967295
167.00891 -41.027756 -65.726349 4294967295
167.01172 -40.135052 -65.355721 4294967295
167.02544 -49.48716 -64.153954 4294967295
167.04538 -40.547997 -65.94957 4294967295
167.0722 -38.296822 -65.253372 4294967295
167.09497 -48.97089 -64.762794 4294967295
167.12265 -48.498379 -64.88353 4294967295
167.15765 -46.68618 -64.483078 4294967295
167.1666 -47.121284 -64.789688 4294967295
167.21878 -46.179939 -64.994423 4294967295
167.24187 -44.823601 -64.65715 4294967295
167.25468 -54.630001 -63.643223 4294967295
167.26215 -45.247734 -65.096298 4294967295
167.35184 -52.307613 -63.765553 4294967295
167.36075 -52.741474 -64.072662 4294967295
167.36739 -43.809944 -65.718895 4294967295
167.38716 -42.012295 -65.140251 4294967295
167.44757 -50.431015 -64.074249 4294967295
167.45004 -49.984589 -63.900185 4294967295
167.48523 -41.472481 -66.084778 4294967295
167.54341 -39.192802 -65.752861 4294967295
167.55411 -49.431553 -64.916466 4294967295
167.65938 -45.327023 -64.321854 4294967295
167.70892 -55.538818 -63.939041 4294967295
167.75163 -43.01165 -64.387833 4294967295
167.87471 -51.812962 -64.257378 4294967295
167.96234 -41.027039 -66.049484 4294967295
167.99036 -40.110794 -65.971832 4294967295
167.99089 -38.33017 -65.163338 4294967295
167.99382 -47.693398 -63.822807 4294967295
168.00053 -39.656281 -65.887833 4294967295
168.02948 -46.768112 -63.834373 4294967295
168.06825 -48.060127 -64.903763 4294967295
168.10493 -55.626633 -63.141106 4294967295
168.12489 -44.893265 -64.141617 4294967295
168.1357 -47.102875 -65.290253 4294967295
168.13734 -45.325115 -64.492805 4294967295
168.1723 -54.665668 -63.526886 4294967295
168.1745 -45.73156 -65.13517 4294967295
168.19463 -53.311447 -63.176167 4294967295
168.22543 -54.163963 -63.949432 4294967295
168.24364 -44.329437 -65.337738 4294967295
168.25807 -53.685093 -64.129959 4294967295
168.26486 -42.975235 -64.974976 4294967295
168.27895 -51.002178 -63.14732 4294967295
168.32553 -52.282326 -64.312691 4294967295
168.33585 -50.497543 -63.615273 4294967295
168.33757 -42.458912 -65.628914 4294967295
168.33994 -41.567574 -65.247902 4294967295
168.36067 -51.801155 -64.52317 4294967295
168.37602 -49.567364 -63.679916 4294967295
168.39101 -40.183678 -65.237434 4294967295
168.39709 -49.988728 -64.134109 4294967295
168.41669 -39.714069 -65.336151 4294967295
168.46889 -48.58194 -64.368454 4294967295
168.53497 -55.67691 -62.740093 4294967295
168.55225 -38.250359 -66.324478 4294967295
168.68047 -52.856445 -63.231209 4294967295
168.75659 -41.626087 -64.697266 4294967295
168.86971 -48.660542 -63.62468 4294967295
168.87311 -49.100769 -63.871078 4294967295
169.00517 -47.187153 -64.617111 4294967295
169.00571 -55.238659 -62.613602 4294967295
169.01073 -47.625034 -64.889084 4294967295
169.02364 -46.280285 -64.424271 4294967295
169.03146 -55.652618 -63.127243 4294967295
169.05461 -54.740826 -62.98967 4294967295
169.07211 -53.835094 -62.784531 4294967295
169.08382 -45.774399 -64.93425 4294967295
169.10805 -43.973198 -64.397858 4294967295
169.16878 -52.39875 -63.316566 4294967295
169.17271 -43.019428 -64.755295 4294967295
169.17438 -42.573288 -64.568657 4294967295
169.21082 -43.425484 -65.415367 4294967295
169.21506 -51.904919 -63.661594 4294967295
169.24876 -41.165855 -64.83564 4294967295
169.25775 -40.267399 -64.529831 4294967295
169.2728 -51.39888 -64.143707 4294967295
169.28488 -50.055851 -63.667076 4294967295
169.29642 -42.007698 -65.816376 4294967295
169.3096 -49.585808 -63.755348 4294967295
169.31737 -40.654026 -65.447021 4294967295
169.31894 -41.541229 -65.878586 4294967295
169.32378 -50.457401 -64.338257 4294967295
169.33403 -39.748489 -65.232758 4294967295
169.35188 -49.09716 -64.053131 4294967295
169.40836 -48.593716 -64.520523 4294967295
169.45445 -48.101585 -64.863968 4294967295
169.48979 -45.84613 -64.251099 4294967295
169.54466 -53.394718 -62.680069 4294967295
169.58131 -52.467571 -62.703209 4294967295
169.67366 -42.550137 -64.999832 4294967295
169.67715 -51.475834 -63.436028 4294967295
169.77153 -48.712864 -63.319756 4294967295
169.84227 -47.750294 -63.752586 4294967295
169.85173 -38.374245 -65.266098 4294967295
170.01964 -53.394878 -62.81266 4294967295
170.02522 -43.564171 -64.07608 4294967295
170.02725 -45.338322 -64.933571 4294967295
170.02794 -54.714077 -63.538578 4294967295
170.06059 -52.463089 -62.888039 4294967295
170.09271 -51.984402 -63.065918 4294967295
170.09526 -42.604687 -64.50148 4294967295
170.14398 -42.999779 -65.295662 4294967295
170.14766 -50.594231 -63.100864 4294967295
170.15089 -40.771008 -64.336761 4294967295
170.15199 -42.103447 -64.975578 4294967295
170.17616 -41.63504 -65.057762 4294967295
170.22818 -39.805588 -64.85006 4294967295
170.24094 -38.903454 -64.586594 4294967295
170.27539 -48.682495 -63.804504 4294967295
170.29288 -38.408318 -65.003586 4294967295
170.32585 -47.741669 -63.994812 4294967295
170.35574 -47.266441 -64.146156 4294967295
170.36378 -45.926514 -63.61554 4294967295
170.40234 -55.712982 -62.880615 4294967295
170.43738 -54.345009 -62.675079 4294967295
170.45459 -44.056026 -63.874878 4294967295
170.48145 -52.966537 -62.578285 4294967295
170.63831 -51.46349 -63.846313 4294967295
170.65111 -40.747307 -64.783798 4294967295
170.65132 -39.857845 -64.367027 4294967295
170.66267 -50.993721 -63.931797 4294967295
170.6805 -49.201443 -63.307648 4294967295
170.81755 -46.837135 -63.917797 4294967295
170.82439 -38.355015 -65.832726 4294967295
170.85703 -45.908138 -63.976124 4294967295
170.87311 -55.274792 -62.754967 4294967295
170.97697 -44.451996 -64.800819 4294967295
171.01788 -43.966084 -65.087082 4294967295
171.04715 -51.5364 -63.183353 4294967295
171.05019 -41.713066 -64.42762 4294967295
171.07759 -42.129658 -64.970795 4294967295
171.09184 -41.226921 -64.723259 4294967295
171.12338 -49.236511 -63.055752 4294967295
171.12709 -40.747398 -64.940842 4294967295
171.13336 -48.782181 -62.965881 4294967295
171.13821 -38.95797 -64.233658 4294967295
171.16422 -50.52142 -64.185135 4294967295
171.21387 -47.364815 -63.312553 4294967295
171.23143 -38.422192 -65.156731 4294967295
171.23485 -39.307785 -65.619308 4294967295
171.24904 -46.883686 -63.529667 4294967295
171.28645 -45.956558 -63.563152 4294967295
171.34193 -55.281357 -62.81636 4294967295
171.35313 -54.826042 -62.74123 4294967295
171.3549 -46.327972 -64.608276 4294967295
171.39113 -44.515568 -64.204987 4294967295
171.41443 -53.428345 -62.854229 4294967295
171.41646 -43.601444 -64.091385 4294967295
171.43336 -52.964184 -62.873726 4294967295
171.46941 -51.594944 -62.67815 4294967295
171.55264 -40.35334 -64.272942 4294967295
171.55569 -41.683178 -64.944603 4294967295
171.57791 -50.588619 -63.580128 4294967295
171.64561 -38.03804 -64.350258 4294967295
171.68489 -48.25631 -63.8283 4294967295
171.70917 -47.786835 -63.913418 4294967295
171.80237 -45.913841 -64.205315 4294967295
171.81927 -44.564953 -63.775696 4294967295
171.82155 -54.833023 -62.798603 4294967295
171.85716 -53.464622 -62.597069 4294967295
172.01381 -42.588585 -65.310524 4294967295
172.0183 -41.252377 -64.728577 4294967295
172.02632 -41.688263 -65.03933 4294967295
172.04066 -50.601898 -63.572029 4294967295
172.04939 -40.332672 -64.685104 4294967295
172.05632 -39.881413 -64.557358 4294967295
172.09807 -38.506363 -64.431931 4294967295
172.10622 -39.38736 -64.957382 4294967295
172.11111 -49.638412 -64.011642 4294967295
172.1265 -48.735699 -63.774422 4294967295
172.12653 -47.849194 -63.348686 4294967295
172.14914 -38.0116 -64.846329 4294967295
172.1684 -46.917194 -63.437099 4294967295
172.24493 -45.061157 -63.525509 4294967295
172.25282 -45.496574 -63.835678 4294967295
172.25301 -55.767212 -62.828835 4294967295
172.30678 -54.378227 -62.850269 4294967295
172.32417 -53.915848 -62.850883 4294967295
172.33887 -43.631359 -64.041611 4294967295
172.34563 -44.511631 -64.551735 4294967295
172.39877 -52.503315 -63.129036 4294967295
172.44116 -42.194111 -64.661583 4294967295
172.45422 -51.555557 -63.385155 4294967295
172.53154 -50.583786 -63.911377 4294967295
172.56873 -48.771393 -63.514488 4294967295
172.61876 -38.018066 -64.929367 4294967295
172.67615 -47.768204 -64.413246 4294967295
172.72223 -46.389381 -64.340546 4294967295
172.72389 -55.329025 -62.703915 4294967295
172.85358 -51.640438 -62.591145 4294967295
172.90314 -43.095192 -65.07856 4294967295
172.97411 -49.291031 -63.010349 4294967295
173.03708 -39.408207 -65.021683 4294967295
173.04268 -49.65781 -64.076111 4294967295
173.04318 -38.513618 -64.667786 4294967295
173.0549 -47.872898 -63.36731 4294967295
173.05904 -48.754326 -63.849106 4294967295
173.06616 -48.303612 -63.722443 4294967295
173.08786 -38.02494 -65.007309 4294967295
173.10384 -46.933258 -63.544514 4294967295
173.14177 -45.118557 -63.15406 4294967295
173.17749 -55.353165 -62.578987 4294967295
173.1825 -45.518673 -63.875534 4294967295
173.18686 -54.900097 -62.479721 4294967295
173.19751 -43.72813 -63.2001 4294967295
173.28848 -43.188984 -64.115822 4294967295
173.31589 -52.981853 -63.222061 4294967295
173.32329 -42.708958 -64.333466 4294967295
173.35832 -41.341202 -64.12252 4294967295
173.36639 -40.44463 -63.791626 4294967295
173.40948 -51.105892 -63.524113 4294967295
173.42885 -50.641582 -63.54945 4294967295
173.43826 -49.74577 -63.234608 4294967295
173.47293 -39.448326 -64.686775 4294967295
173.49699 -39.868004 -65.202187 4294967295
173.60114 -47.794571 -64.401283 4294967295
173.66696 -55.335052 -62.901905 4294967295
173.70761 -53.519451 -62.542236 4294967295
173.70953 -54.843208 -63.217255 4294967295
173.73444 -42.332176 -63.46859 4294967295
173.80673 -43.143856 -64.805634 4294967295
173.84494 -50.264877 -62.741261 4294967295
173.87189 -52.003677 -63.947075 4294967295
174.02553 -47.84977 -63.918095 4294967295
174.02702 -48.290733 -64.154144 4294967295
174.0323 -46.5135 -63.350868 4294967295
174.03351 -38.474899 -65.477097 4294967295
174.11163 -45.097939 -63.693748 4294967295
174.13017 -45.964069 -64.361565 4294967295
174.14793 -44.615688 -63.931984 4294967295
174.15144 -44.168579 -63.758419 4294967295
174.16208 -45.486652 -64.54451 4294967295
174.17221 -53.972771 -62.77285 4294967295
174.18469 -43.246265 -63.740639 4294967295
174.1853 -53.073315 -62.50135 4294967295
174.2253 -43.646706 -64.468262 4294967295
174.24579 -42.738342 -64.290436 4294967295
174.27454 -41.821091 -64.21627 4294967295
174.28206 -52.077057 -63.28212 4294967295
174.30177 -51.612293 -63.311722 4294967295
174.3038 -51.167736 -63.1189 4294967295
174.3084 -40.454529 -63.988377 4294967295
174.38428 -49.749218 -63.477253 4294967295
174.40617 -48.839489 -63.316597 4294967295
174.40891 -50.163658 -64.005646 4294967295
174.4187 -38.565914 -64.504318 4294967295
174.43723 -47.919422 -63.27079 4294967295
174.44273 -38.985626 -65.024643 4294967295
174.57515 -55.382084 -62.665211 4294967295
174.65546 -42.807487 -63.618183 4294967295
174.69255 -41.437202 -63.429756 4294967295
174.70096 -52.140968 -62.72065 4294967295
174.82118 -48.906414 -62.705547 4294967295
174.84334 -40.836704 -65.116142 4294967295
174.85062 -50.200455 -63.736427 4294967295
174.98192 -38.03355 -65.555374 4294967295
175.04405 -44.230438 -63.332024 4294967295
175.04449 -46.444675 -64.436348 4294967295
175.10286 -43.723938 -63.858116 4294967295
175.104 -42.835876 -63.433006 4294967295
175.15366 -41.896126 -63.62315 4294967295
175.16293 -52.155186 -62.701694 4294967295
175.18651 -42.304974 -64.260094 4294967295
175.18915 -52.566536 -63.255226 4294967295
175.21104 -40.948589 -63.911591 4294967295
175.21638 -51.651077 -63.160572 4294967295
175.2175 -50.765526 -62.73373 4294967295
175.25844 -49.833874 -62.813526 4294967295
175.27658 -39.549221 -64.083954 4294967295
175.27716 -40.436115 -64.531487 4294967295
175.2943 -50.235195 -63.489967 4294967295
175.31357 -48.443756 -62.852745 4294967295
175.3317 -39.936081 -65.004349 4294967295
175.37474 -47.932442 -63.410667 4294967295
175.40096 -38.090565 -65.004478 4294967295
175.40843 -46.566753 -63.177391 4294967295
175.48439 -45.154392 -63.482536 4294967295
175.49799 -45.582432 -63.876492 4294967295
175.526 -43.779743 -63.349884 4294967295
175.54834 -54.026897 -62.591499 4294967295
175.5519 -44.194958 -63.900978 4294967295
175.57381 -54.438068 -63.137741 4294967295
175.65434 -40.538368 -63.439423 4294967295
175.81439 -38.153717 -64.376907 4294967295
175.82838 -39.02689 -64.997925 4294967295
175.82999 -48.838623 -63.752823 4294967295
175.95731 -55.429047 -62.560123 4294967295
176.04884 -53.55357 -62.844467 4294967295
176.05862 -42.38797 -63.573753 4294967295
176.06105 -44.157501 -64.493141 4294967295
176.07518 -43.25655 -64.230125 4294967295
176.08463 -42.803371 -64.129257 4294967295
176.08479 -41.916679 -63.687172 4294967295
176.12257 -52.141579 -63.122971 4294967295
176.1369 -50.799179 -62.639069 4294967295
176.16756 -51.647148 -63.477844 4294967295
176.17258 -50.315742 -62.874561 4294967295
176.18024 -40.485538 -64.244621 4294967295
176.24632 -39.08601 -64.42601 4294967295
176.27069 -38.617199 -64.516403 4294967295
176.27118 -49.31815 -63.695667 4294967295
176.28392 -39.490501 -65.130859 4294967295
176.28653 -49.742336 -64.115494 4294967295
176.28683 -47.973789 -63.228714 4294967295
176.29584 -48.405869 -63.567146 4294967295
176.31303 -48.82832 -64.010834 4294967295
176.37364 -45.663601 -63.230293 4294967295
176.39424 -46.52586 -63.941162 4294967295
176.4276 -44.718414 -63.478336 4294967295
176.45312 -54.51963 -62.530823 4294967295
176.47237 -43.783585 -63.608578 4294967295
176.50282 -54.018517 -62.947731 4294967295
176.60594 -40.981041 -63.990013 4294967295
176.63458 -39.620255 -63.689224 4294967295
176.66615 -49.409111 -62.817863 4294967295
176.7287 -39.965126 -65.126518 4294967295
176.78311 -38.135323 -64.935265 4294967295
