# .PCD v0.7 - Point Cloud Data file format
VERSION 0.7
FIELDS x y z rgb
SIZE 4 4 4 4
TYPE F F F U
COUNT 1 1 1 1
WIDTH 1121
HEIGHT 1
VIEWPOINT 0 0 0 1 0 0 0
POINTS 1121
DATA ascii
288.04239 -8.8484201 -29.95978 4294967295
288.05762 -21.117678 -29.478807 4294967295
288.06973 -8.4082918 -29.391029 4294967295
288.07312 -20.639147 -29.60869 4294967295
288.08167 -20.135361 -30.144112 4294967295
288.08524 -7.9310999 -29.520536 4294967295
288.10489 -7.466888 -29.402603 4294967295
288.10886 -19.700123 -29.583706 4294967295
288.12036 -6.9897766 -29.532604 4294967295
288.12338 -19.218464 -29.767517 4294967295
288.12897 -6.492218 -30.06332 4294967295
288.13736 -18.734989 -29.983089 4294967295
288.15604 -6.0501499 -29.511688 4294967295
288.15891 -5.5360055 -30.378849 4294967295
288.16202 -18.289766 -29.574732 4294967295
288.17612 -17.806797 -29.783646 4294967295
288.18988 -5.1048779 -29.602783 4294967295
288.19037 -4.5847802 -30.603889 4294967295
288.19815 -17.35203 -29.527086 4294967295
288.2128 -4.1284699 -30.327765 4294967295
288.2179 -16.888924 -29.406441 4294967295
288.23792 -16.426685 -29.269787 4294967295
288.24347 -3.6956301 -29.567585 4294967295
288.25391 -15.9505 -29.367298 4294967295
288.25992 -3.2218533 -29.638618 4294967295
288.27499 -14.961341 -30.197323 4294967295
288.28296 -2.2469826 -30.355839 4294967295
288.29807 -14.509336 -29.885355 4294967295
288.31155 -1.8072243 -29.716801 4294967295
288.32458 -14.068771 -29.370499 4294967295
288.3425 -13.599257 -29.355236 4294967295
288.35172 -13.10099 -29.846457 4294967295
288.36816 -12.626846 -29.916512 4294967295
288.39221 -12.177294 -29.548038 4294967295
288.41479 -11.722783 -29.263527 4294967295
288.42099 -11.21577 -29.926611 4294967295
288.46573 -9.7794771 -30.403925 4294967295
288.50122 -9.3646297 -29.375576 4294967295
288.50381 -21.59256 -29.629816 4294967295
288.52487 -21.134716 -29.433823 4294967295
288.52621 -8.9166803 -28.954166 4294967295
288.53641 -20.642124 -29.78717 4294967295
288.54276 -8.4426937 -29.019173 4294967295
288.54855 -20.151947 -30.106415 4294967295
288.5643 -19.675011 -30.216608 4294967295
288.58984 -7.0134935 -29.360201 4294967295
288.5925 -19.242483 -29.60989 4294967295
288.60046 -6.5223422 -29.764996 4294967295
288.61365 -6.0389977 -30.022539 4294967295
288.62973 -5.5643687 -30.111557 4294967295
288.62988 -18.309137 -29.491947 4294967295
288.66107 -17.885651 -28.719877 4294967295
288.66229 -17.358358 -29.660374 4294967295
288.66422 -5.1423316 -29.152515 4294967295
288.67545 -4.6535697 -29.52025 4294967295
288.68732 -16.91312 -29.242638 4294967295
288.69693 -16.41538 -29.701992 4294967295
288.71756 -15.955208 -29.531721 4294967295
288.71796 -3.733067 -29.108328 4294967295
288.73987 -15.500338 -29.268747 4294967295
288.75455 -2.795372 -29.040003 4294967295
288.75476 -2.2773666 -30.033886 4294967295
288.77634 -1.8177547 -29.811916 4294967295
288.78232 -14.582921 -28.864922 4294967295
288.79123 -14.083776 -29.361712 4294967295
288.80945 -13.615196 -29.330561 4294967295
288.81097 -1.3928308 -28.84808 4294967295
288.81735 -13.113212 -29.887423 4294967295
288.83713 -12.649889 -29.766029 4294967295
288.85437 -12.178308 -29.790409 4294967295
288.86911 -11.698874 -29.956495 4294967295
288.88889 -11.23529 -29.837812 4294967295
288.91101 -10.778909 -29.585915 4294967295
288.93732 -9.8110075 -30.091816 4294967295
288.94366 -10.354653 -28.740105 4294967295
288.95129 -9.3296671 -30.301731 4294967295
288.95929 -22.10149 -29.247728 4294967295
288.97952 -21.640102 -29.106503 4294967295
288.99295 -8.9315395 -28.951874 4294967295
288.99451 -21.160213 -29.255615 4294967295
289.0065 -8.448761 -29.18346 4294967295
289.0166 -20.705452 -29.007521 4294967295
289.05087 -19.228798 -30.062077 4294967295
289.06 -7.0388222 -29.156752 4294967295
289.06989 -6.5459127 -29.594561 4294967295
289.07996 -18.798111 -29.420977 4294967295
289.0889 -6.0793958 -29.520565 4294967295
289.10077 -18.338612 -29.243683 4294967295
289.11603 -5.6358676 -28.990427 4294967295
289.11649 -5.117209 -29.950869 4294967295
289.12558 -17.892403 -28.845131 4294967295
289.13788 -4.6573234 -29.744524 4294967295
289.13937 -17.408722 -29.062817 4294967295
289.15582 -16.93409 -29.132631 4294967295
289.16617 -3.6976695 -30.136782 4294967295
289.16635 -4.216857 -29.141499 4294967295
289.21408 -15.539989 -28.839483 4294967295
289.22421 -15.044935 -29.259583 4294967295
289.2323 -14.543618 -29.793444 4294967295
289.24319 -1.8340931 -29.784298 4294967295
289.25916 -14.102755 -29.284084 4294967295
289.2832 -1.4224062 -28.539469 4294967295
289.29071 -13.150108 -29.493399 4294967295
289.30957 -12.683624 -29.425814 4294967295
289.34598 -11.746099 -29.369669 4294967295
289.37527 -10.787051 -29.704567 4294967295
289.37781 -11.319057 -28.585257 4294967295
289.414 -10.380163 -28.540936 4294967295
289.42599 -9.3698158 -29.827206 4294967295
289.43018 -9.9050903 -28.622324 4294967295
289.43921 -22.163052 -28.508902 4294967295
289.44473 -21.649555 -29.180571 4294967295
289.45917 -8.945056 -28.974585 4294967295
289.46912 -21.202564 -28.811434 4294967295
289.47314 -20.684673 -29.562893 4294967295
289.47665 -8.4740572 -28.984066 4294967295
289.4928 -7.9991255 -29.068533 4294967295
289.49683 -20.235165 -29.231798 4294967295
289.51389 -7.0175767 -29.854177 4294967295
289.51413 -7.5391426 -28.867353 4294967295
289.52225 -19.791336 -28.80504 4294967295
289.54108 -18.794613 -29.710535 4294967295
289.54129 -19.325377 -28.731039 4294967295
289.55237 -6.6060643 -28.711235 4294967295
289.55743 -18.319941 -29.78404 4294967295
289.56705 -6.1271467 -28.874376 4294967295
289.57846 -17.860874 -29.601074 4294967295
289.58154 -5.6478114 -29.048475 4294967295
289.59775 -5.1733317 -29.128384 4294967295
289.62244 -16.948843 -29.126421 4294967295
289.62457 -4.7277269 -28.629002 4294967295
289.62915 -4.2216158 -29.347788 4294967295
289.64014 -3.7334461 -29.711374 4294967295
289.6535 -16.521969 -28.394426 4294967295
289.66431 -16.028961 -28.771816 4294967295
289.67111 -3.2985063 -28.985321 4294967295
289.67288 -15.529202 -29.269133 4294967295
289.69278 -2.8385448 -28.766661 4294967295
289.70026 -15.089706 -28.740049 4294967295
289.71582 -2.3817997 -28.477077 4294967295
289.72012 -1.876605 -29.204613 4294967295
289.72351 -14.110714 -29.397686 4294967295
289.74255 -13.644646 -29.323441 4294967295
289.76617 -13.192568 -29.001707 4294967295
289.76813 -12.674057 -29.853762 4294967295
289.83087 -11.816266 -28.370436 4294967295
289.8353 -11.306028 -29.086063 4294967295
289.86005 -10.856525 -28.704365 4294967295
289.87384 -10.374554 -28.913443 4294967295
289.87952 -9.8690767 -29.560606 4294967295
289.89319 -22.132843 -29.200224 4294967295
289.91797 -9.45891 -28.440876 4294967295
289.92209 -21.701195 -28.5933 4294967295
289.92349 -21.175034 -29.469402 4294967295
289.93231 -8.4576054 -29.574156 4294967295
289.93292 -8.9803762 -28.58814 4294967295
289.95142 -7.9913774 -29.49757 4294967295
289.96429 -20.78326 -28.22402 4294967295
289.97144 -20.276901 -28.79266 4294967295
289.9845 -7.5642414 -28.669537 4294967295
289.98578 -19.795292 -28.970594 4294967295
289.99661 -19.302071 -29.338762 4294967295
289.99966 -7.0868835 -28.800182 4294967295
290.01068 -6.5978236 -29.16082 4294967295
290.02005 -18.850761 -29.029455 4294967295
290.03055 -18.356718 -29.416094 4294967295
290.03381 -6.1423869 -28.866917 4294967295
290.06522 -5.190587 -29.081287 4294967295
290.08606 -4.7286391 -28.910511 4294967295
290.08856 -16.962034 -29.146193 4294967295
290.08954 -17.492731 -28.145853 4294967295
290.09769 -4.2422323 -29.232498 4294967295
290.11227 -16.510799 -28.824324 4294967295
290.12027 -3.7846265 -28.971712 4294967295
290.12869 -3.29004 -29.467798 4294967295
290.13303 -16.049992 -28.660185 4294967295
290.16013 -2.8552604 -28.731001 4294967295
290.16058 -15.610321 -28.133913 4294967295
290.16299 -2.3468971 -29.52136 4294967295
290.17551 -1.8635139 -29.797783 4294967295
290.1759 -15.132164 -28.260252 4294967295
290.18326 -14.629553 -28.810291 4294967295
290.20361 -14.167246 -28.667461 4294967295
290.21777 -1.4550533 -28.485989 4294967295
290.22314 -13.178264 -29.509699 4294967295
290.22992 -13.723014 -28.206821 4294967295
290.25922 -12.763219 -28.530792 4294967295
290.27856 -12.297529 -28.442629 4294967295
290.31696 -10.842889 -29.220226 4294967295
290.31827 -11.368899 -28.212624 4294967295
290.33218 -10.365494 -29.349396 4294967295
290.35306 -22.655388 -28.6112 4294967295
290.3569 -9.915329 -28.976669 4294967295
290.37842 -22.210979 -28.203613 4294967295
290.38489 -9.4739943 -28.434021 4294967295
290.40628 -9.013835 -28.236645 4294967295
290.40659 -21.245325 -28.584852 4294967295
290.42853 -20.788845 -28.361115 4294967295
290.4361 -7.537724 -29.4622 4294967295
290.44061 -8.0695906 -28.288982 4294967295
290.45181 -19.807835 -28.998241 4294967295
290.45248 -20.33905 -28.027901 4294967295
290.47195 -7.1170864 -28.502625 4294967295
290.48575 -19.390453 -28.140825 4294967295
290.49481 -18.89172 -28.595823 4294967295
290.51437 -5.6768012 -29.063496 4294967295
290.54025 -17.982861 -28.063623 4294967295
290.54245 -5.2338409 -28.515932 4294967295
290.55212 -4.7422972 -28.935818 4294967295
290.55569 -17.504879 -28.182821 4294967295
290.57382 -4.2822905 -28.723787 4294967295
290.58728 -3.8008685 -28.945425 4294967295
290.59387 -16.572105 -28.036419 4294967295
290.61282 -15.579903 -28.897655 4294967295
290.61646 -2.8442626 -29.270256 4294967295
290.6282 -2.3591185 -29.579571 4294967295
290.63614 -15.126644 -28.602741 4294967295
290.65314 -1.9068222 -29.201677 4294967295
290.65884 -14.671287 -28.34021 4294967295
290.67325 -14.190722 -28.511742 4294967295
290.67477 -1.4462566 -28.99309 4294967295
290.69351 -13.727888 -28.375683 4294967295
290.69861 -13.219935 -29.031895 4294967295
290.71848 -12.755924 -28.918482 4294967295
290.76743 -11.854301 -28.212038 4294967295
290.80307 -10.913723 -28.195789 4294967295
290.80823 -10.407525 -28.846706 4294967295
290.81293 -22.64695 -28.960625 4294967295
290.82513 -22.158161 -29.246685 4294967295
290.83243 -9.955246 -28.510044 4294967295
290.83914 -9.4541788 -29.077225 4294967295
290.85114 -21.715475 -28.813839 4294967295
290.86005 -8.9926434 -28.910864 4294967295
290.87256 -21.257236 -28.620995 4294967295
290.888 -20.779556 -28.734047 4294967295
290.89038 -8.0381718 -29.168724 4294967295
290.8949 -8.5692749 -28.020575 4294967295
290.90948 -20.321243 -28.539474 4294967295
290.91342 -7.5822163 -28.892279 4294967295
290.92728 -7.1015491 -29.089424 4294967295
290.93973 -6.6171904 -29.36132 4294967295
290.94049 -19.893564 -27.850361 4294967295
290.94485 -19.38015 -28.538124 4294967295
290.96204 -18.907887 -28.565464 4294967295
290.97314 -6.1883545 -28.547747 4294967295
290.97714 -5.6821756 -29.25124 4294967295
290.98029 -18.439194 -28.534683 4294967295
291.00156 -5.229156 -28.906204 4294967295
291.00433 -17.988527 -28.206509 4294967295
291.01852 -4.7569323 -28.941305 4294967295
291.02429 -17.52483 -28.090256 4294967295
291.03345 -4.2794418 -29.083897 4294967295
291.04822 -16.548328 -28.677788 4294967295
291.05362 -3.8153911 -28.954361 4294967295
291.06702 -16.0812 -28.620281 4294967295
291.07864 -3.3631763 -28.579279 4294967295
291.11606 -15.180943 -27.92033 4294967295
291.11697 -2.4292717 -28.426842 4294967295
291.12778 -14.692438 -28.225239 4294967295
291.14822 -13.70728 -28.989849 4294967295
291.15289 -14.243636 -27.84473 4294967295
291.19135 -13.310769 -27.689079 4294967295
291.19952 -12.812446 -28.174767 4294967295
291.22202 -12.355442 -27.929829 4294967295
291.23444 -11.349119 -29.100441 4294967295
291.25824 -10.895967 -28.78643 4294967295
291.2774 -10.429513 -28.712421 4294967295
291.28824 -22.690174 -28.510338 4294967295
291.29309 -9.953517 -28.813644 4294967295
291.30371 -22.212341 -28.623394 4294967295
291.30966 -9.4800272 -28.869678 4294967295
291.31555 -21.722874 -28.920063 4294967295
291.3295 -9.0154123 -28.760082 4294967295
291.3414 -8.5293922 -29.053291 4294967295
291.35809 -21.332508 -27.658268 4294967295
291.36926 -20.84082 -27.987942 4294967295
291.37057 -8.0896769 -28.469349 4294967295
291.38983 -20.379162 -27.842384 4294967295
291.41083 -19.918705 -27.675766 4294967295
291.42599 -6.6839943 -28.349171 4294967295
291.4263 -19.440928 -27.786846 4294967295
291.42889 -18.922974 -28.552719 4294967295
291.44864 -18.458895 -28.446686 4294967295
291.45111 -6.2323923 -27.975296 4294967295
291.46658 -5.7559381 -28.086746 4294967295
291.47144 -18.004009 -28.187828 4294967295
291.4946 -4.7959113 -28.458157 4294967295
291.50165 -17.571392 -27.55669 4294967295
291.50519 -4.3075976 -28.816139 4294967295
291.50739 -17.064404 -28.157787 4294967295
291.52856 -16.604065 -27.983654 4294967295
291.54303 -3.3727732 -28.689919 4294967295
291.5513 -16.148378 -27.728489 4294967295
291.56 -15.650805 -28.182671 4294967295
291.58664 -2.4515247 -28.275791 4294967295
291.59085 -1.948741 -28.951859 4294967295
291.59317 -15.225603 -27.403259 4294967295
291.60916 -1.4797907 -28.920456 4294967295
291.62048 -14.260166 -27.80978 4294967295
291.64401 -13.806122 -27.516071 4294967295
291.65497 -13.316003 -27.853134 4294967295
291.69186 -12.378515 -27.778633 4294967295
291.70035 -11.362486 -29.123062 4294967295
291.70428 -11.892954 -28.042671 4294967295
291.72415 -10.908987 -28.816177 4294967295
291.74374 -10.443584 -28.723442 4294967295
291.78003 -22.257822 -28.135761 4294967295
291.78961 -9.5307665 -28.198711 4294967295
291.80734 -9.0601978 -28.196377 4294967295
291.81042 -21.827499 -27.503361 4294967295
291.81906 -21.327938 -27.954235 4294967295
291.8291 -8.0832138 -28.873573 4294967295
291.83624 -20.855705 -27.977398 4294967295
291.85782 -20.397007 -27.784904 4294967295
291.87787 -19.408237 -28.545887 4294967295
291.90033 -18.952267 -28.308937 4294967295
291.90054 -6.7188802 -27.958954 4294967295
291.9024 -6.208046 -28.744404 4294967295
291.92441 -18.501019 -27.991814 4294967295
291.93414 -5.7727704 -28.048241 4294967295
291.93457 -18.007572 -28.365349 4294967295
291.95114 -4.7860179 -28.95623 4294967295
291.95227 -17.536905 -28.366329 4294967295
291.95276 -5.3042731 -28.00317 4294967295
291.97278 -17.074718 -28.225815 4294967295
291.97629 -4.3338618 -28.586906 4294967295
291.99207 -16.608833 -28.145401 4294967295
291.99808 -3.8732829 -28.383469 4294967295
292.01556 -15.632944 -28.732357 4294967295
292.02136 -16.171997 -27.573219 4294967295
292.0235 -2.9083462 -28.874096 4294967295
292.0506 -2.4601145 -28.410194 4294967295
292.05542 -15.226417 -27.637268 4294967295
292.07104 -14.228553 -28.610447 4294967295
292.09439 -1.5384121 -27.995186 4294967295
292.10889 -13.29436 -28.490002 4294967295
292.11121 -13.821376 -27.503654 4294967295
292.12674 -12.824381 -28.479664 4294967295
292.14456 -12.354065 -28.475101 4294967295
292.16891 -11.901752 -28.147148 4294967295
292.19275 -11.447737 -27.845299 4294967295
292.20435 -10.960606 -28.142471 4294967295
292.21762 -10.478021 -28.360703 4294967295
292.21994 -23.240692 -27.71497 4294967295
292.2623 -22.320959 -27.373329 4294967295
292.2644 -9.5668602 -27.800846 4294967295
292.2753 -9.0782843 -28.133495 4294967295
292.28271 -21.858448 -27.240807 4294967295
292.28922 -8.597826 -28.31773 4294967295
292.29343 -20.840427 -28.445076 4294967295
292.29993 -21.386024 -27.262737 4294967295
292.30884 -8.1321974 -28.222416 4294967295
292.31219 -7.625104 -28.920582 4294967295
292.33078 -19.905373 -28.347786 4294967295
292.33316 -20.437309 -27.36927 4294967295
292.36121 -19.473289 -27.725704 4294967295
292.37506 -6.2382574 -28.443115 4294967295
292.37827 -19.000515 -27.757111 4294967295
292.39075 -5.7628193 -28.538933 4294967295
292.4158 -18.065165 -27.653419 4294967295
292.42621 -4.8219447 -28.534382 4294967295
292.44464 -17.627031 -27.110893 4294967295
292.44958 -17.118778 -27.730892 4294967295
292.45206 -16.603891 -28.470226 4294967295
292.48401 -3.4214816 -28.30434 4294967295
292.48737 -16.183907 -27.615982 4294967295
292.50684 -15.718092 -27.529652 4294967295
292.50946 -2.4572973 -28.782677 4294967295
292.51022 -2.9707732 -27.891399 4294967295
292.51181 -15.21119 -28.145702 4294967295
292.55261 -2.045248 -27.552734 4294967295
292.55862 -1.547718 -28.117519 4294967295
292.56189 -13.790934 -28.289318 4294967295
292.59647 -13.366781 -27.471901 4294967295
292.61166 -12.370253 -28.446598 4294967295
292.61526 -12.898706 -27.421284 4294967295
292.62814 -11.896431 -28.5051 4294967295
292.67239 -10.978816 -28.07774 4294967295
292.70627 -22.78968 -27.627068 4294967295
292.71729 -10.062186 -27.619835 4294967295
292.72943 -9.576952 -27.886971 4294967295
292.73361 -22.348684 -27.162487 4294967295
292.73804 -9.0829086 -28.323086 4294967295
292.7489 -21.345261 -28.128853 4294967295
292.74997 -21.873474 -27.227764 4294967295
292.76251 -8.6295214 -27.9977 4294967295
292.78424 -20.92807 -27.281349 4294967295
292.79303 -7.6759205 -28.23011 4294967295
292.79443 -20.434511 -27.641121 4294967295
292.79465 -8.1952572 -27.303818 4294967295
292.81534 -19.97316 -27.488888 4294967295
292.82193 -7.233139 -27.691898 4294967295
292.83972 -19.522118 -27.167919 4294967295
292.84497 -6.775404 -27.436588 4294967295
292.84995 -19.02911 -27.524982 4294967295
292.85522 -5.772778 -28.636051 4294967295
292.85913 -6.2957945 -27.606182 4294967295
292.8931 -5.3505621 -27.674911 4294967295
292.90091 -4.8562751 -28.144768 4294967295
292.90213 -17.61384 -27.567608 4294967295
292.90677 -17.105616 -28.190212 4294967295
292.92319 -16.631367 -28.250813 4294967295
292.93738 -4.429769 -27.251369 4294967295
292.939 -16.15556 -28.338505 4294967295
292.94797 -3.4303293 -28.430386 4294967295
292.95084 -3.9488673 -27.452614 4294967295
292.95441 -15.678539 -28.448006 4294967295
292.98404 -15.241172 -27.880211 4294967295
292.98495 -3.0040464 -27.513096 4294967295
293.01331 -2.0463028 -27.847351 4294967295
293.02139 -14.824657 -26.945263 4294967295
293.02301 -14.309546 -27.708401 4294967295
293.03033 -1.574029 -27.878639 4294967295
293.073 -13.407129 -27.018429 4294967295
293.08514 -12.403309 -28.117199 4294967295
293.08789 -12.928494 -27.151821 4294967295
293.11569 -11.449344 -28.345551 4294967295
293.11606 -11.967445 -27.49226 4294967295
293.1412 -10.999067 -27.975811 4294967295
293.15521 -23.274134 -27.635109 4294967295
293.15918 -10.529105 -27.961777 4294967295
293.17682 -10.058229 -27.964489 4294967295
293.18237 -22.832138 -27.189228 4294967295
293.18655 -22.320156 -27.826771 4294967295
293.19296 -9.5835638 -28.037651 4294967295
293.21115 -21.870396 -27.498028 4294967295
293.21945 -9.1349792 -27.623196 4294967295
293.2207 -8.6231718 -28.396065 4294967295
293.24329 -21.442657 -26.818371 4294967295
293.25223 -8.1868334 -27.745132 4294967295
293.26093 -20.971224 -26.822929 4294967295
293.2702 -7.7167764 -27.730606 4294967295
293.2706 -19.953495 -28.033096 4294967295
293.27557 -20.491135 -26.965439 4294967295
293.30014 -7.2756968 -27.15641 4294967295
293.30057 -19.518585 -27.455666 4294967295
293.31046 -19.025135 -27.822102 4294967295
293.3121 -6.7907162 -27.427498 4294967295
293.31314 -6.2799773 -28.207508 4294967295
293.33289 -5.8142214 -28.111195 4294967295
293.33636 -18.578026 -27.435226 4294967295
293.36899 -5.3869863 -27.246456 4294967295
293.37051 -17.632656 -27.493862 4294967295
293.37427 -17.122627 -28.146423 4294967295
293.37839 -4.8965411 -27.636276 4294967295
293.3988 -3.9204788 -28.336109 4294967295
293.40033 -4.4355817 -27.436138 4294967295
293.40768 -16.695793 -27.411465 4294967295
293.43097 -2.9720726 -28.485882 4294967295
293.43341 -3.4883699 -27.545635 4294967295
293.43463 -16.250553 -26.977661 4294967295
293.4501 -15.77323 -27.083588 4294967295
293.46671 -15.299234 -27.133968 4294967295
293.47339 -2.5568237 -27.331825 4294967295
293.48489 -14.31095 -27.935818 4294967295
293.48666 -2.0760965 -27.5369 4294967295
293.4985 -13.829304 -28.12661 4294967295
293.51184 -1.6215467 -27.189941 4294967295
293.53659 -12.89518 -27.999752 4294967295
293.53897 -13.419016 -27.065369 4294967295
293.56696 -12.457482 -27.41161 4294967295
293.5849 -11.987268 -27.398804 4294967295
293.58862 -11.48048 -28.046928 4294967295
293.62106 -10.531699 -28.183163 4294967295
293.62454 -11.056179 -27.202595 4294967295
293.62955 -23.31106 -27.284588 4294967295
293.64716 -22.84 -27.28632 4294967295
293.66022 -10.114908 -27.189053 4294967295
293.66974 -22.38349 -27.061771 4294967295
293.67166 -9.6283455 -27.47826 4294967295
293.67575 -21.877914 -27.602398 4294967295
293.68225 -9.1398802 -27.807373 4294967295
293.69455 -21.410368 -27.550781 4294967295
293.70847 -8.6899519 -27.414089 4294967295
293.71719 -20.95401 -27.321186 4294967295
293.72021 -8.2046576 -27.68729 4294967295
293.73074 -20.470974 -27.514088 4294967295
293.75427 -7.2598896 -27.747646 4294967295
293.77478 -19.553984 -27.114876 4294967295
293.77563 -19.035215 -27.890518 4294967295
293.78088 -6.8102016 -27.33712 4294967295
293.78928 -6.3174267 -27.764774 4294967295
293.81866 -18.635946 -26.722683 4294967295
293.81964 -18.11795 -27.493034 4294967295
293.83667 -5.4036236 -27.211987 4294967295
293.84402 -17.665573 -27.186939 4294967295
293.84943 -4.9212399 -27.440224 4294967295
293.86481 -4.445024 -27.547386 4294967295
293.87036 -17.218397 -26.789944 4294967295
293.88104 -3.9708247 -27.615131 4294967295
293.89365 -16.762463 -26.534843 4294967295
293.89435 -3.4902182 -27.815533 4294967295
293.90341 -16.269768 -26.896992 4294967295
293.90646 -3.0071149 -28.070869 4294967295
293.91254 -15.775539 -27.290054 4294967295
293.91937 -15.275502 -27.787807 4294967295
293.94653 -2.0760136 -27.85532 4294967295
293.94708 -14.831406 -27.328487 4294967295
293.94919 -14.319225 -28.0439 4294967295
293.96289 -1.6024027 -27.915806 4294967295
293.98013 -13.883312 -27.437252 4294967295
294.0209 -12.955454 -27.190662 4294967295
294.05594 -12.012579 -27.206799 4294967295
294.07645 -11.548736 -27.077721 4294967295
294.08575 -11.056646 -27.460922 4294967295
294.09985 -23.33543 -27.127312 4294967295
294.11053 -10.088704 -27.944393 4294967295
294.11395 -10.61184 -26.982876 4294967295
294.12155 -22.876266 -26.944393 4294967295
294.1228 -9.6048069 -28.189766 4294967295
294.12668 -22.368423 -27.516453 4294967295
294.14493 -9.1449327 -27.988865 4294967295
294.14566 -21.901344 -27.457581 4294967295
294.16119 -8.6709099 -28.051933 4294967295
294.17514 -21.464401 -26.923584 4294967295
294.18329 -20.966085 -27.355217 4294967295
294.19434 -20.476248 -27.657017 4294967295
294.2001 -8.2507925 -27.091156 4294967295
294.22226 -20.034281 -27.194962 4294967295
294.2269 -7.2885494 -27.48053 4294967295
294.25134 -6.8334675 -27.173328 4294967295
294.25833 -19.094313 -27.163063 4294967295
294.26553 -6.3543572 -27.332352 4294967295
294.27609 -18.623522 -27.159988 4294967295
294.28384 -18.125174 -27.610218 4294967295
294.29593 -5.91254 -26.757488 4294967295
294.29932 -5.408824 -27.405151 4294967295
294.30807 -17.672216 -27.314831 4294967295
294.31161 -4.9257503 -27.648918 4294967295
294.31778 -17.179657 -27.675388 4294967295
294.32941 -16.692627 -27.947987 4294967295
294.35071 -3.99226 -27.48325 4294967295
294.37671 -16.30101 -26.613316 4294967295
294.38931 -15.816285 -26.8433 4294967295
294.39139 -15.304083 -27.546307 4294967295
294.39911 -3.0788212 -26.897064 4294967295
294.40985 -2.5927954 -27.208332 4294967295
294.41721 -2.0996513 -27.674431 4294967295
294.42914 -14.368558 -27.440002 4294967295
294.4566 -13.922823 -27.001232 4294967295
294.46616 -13.431008 -27.366344 4294967295
294.48212 -12.955674 -27.444691 4294967295
294.54199 -11.559958 -27.139572 4294967295
294.56116 -23.856083 -26.584087 4294967295
294.57791 -22.859829 -27.417091 4294967295
294.58548 -10.637691 -26.77829 4294967295
294.59781 -10.153426 -27.02071 4294967295
294.60519 -9.6577253 -27.479324 4294967295
294.61942 -22.457291 -26.354839 4294967295
294.62579 -9.1937246 -27.350842 4294967295
294.6272 -21.957756 -26.79697 4294967295
294.64481 -8.7260447 -27.289875 4294967295
294.65234 -8.2312527 -27.743431 4294967295
294.67145 -21.040447 -26.402771 4294967295
294.68396 -7.7928648 -27.123707 4294967295
294.69125 -20.575039 -26.309761 4294967295
294.7019 -20.084208 -26.623035 4294967295
294.70358 -19.568729 -27.338139 4294967295
294.70505 -7.3297691 -26.97121 4294967295
294.70551 -6.81915 -27.740234 4294967295
294.71994 -19.094254 -27.396412 4294967295
294.73184 -18.607647 -27.653629 4294967295
294.74167 -6.3903594 -26.918243 4294967295
294.7475 -5.8924775 -27.447311 4294967295
294.76541 -18.179775 -26.948135 4294967295
294.78424 -5.464282 -26.598476 4294967295
294.7851 -17.714035 -26.860432 4294967295
294.78635 -17.199127 -27.590687 4294967295
294.79724 -4.9825544 -26.809357 4294967295
294.81375 -4.5087924 -26.862698 4294967295
294.81479 -16.756798 -27.113342 4294967295
294.81781 -4.00808 -27.465679 4294967295
294.84134 -3.5497451 -27.208599 4294967295
294.84476 -16.318027 -26.569721 4294967295
294.85672 -15.831879 -26.823978 4294967295
294.8681 -2.5895338 -27.589855 4294967295
294.87268 -3.1079831 -26.604275 4294967295
294.88281 -15.382576 -26.45134 4294967295
294.88281 -2.1124525 -27.721539 4294967295
294.89072 -14.886162 -26.884716 4294967295
294.90695 -14.411336 -26.949883 4294967295
294.91519 -1.6723146 -27.072128 4294967295
294.95197 -13.493354 -26.526493 4294967295
294.98297 -12.540084 -26.719902 4294967295
294.98489 -12.030169 -27.415668 4294967295
294.99753 -11.546878 -27.640358 4294967295
295.02307 -23.855406 -26.80991 4294967295
295.03125 -11.114932 -26.933762 4294967295
295.04422 -23.394291 -26.65691 4294967295
295.0481 -10.641809 -26.971828 4294967295
295.06992 -9.6676464 -27.568432 4294967295
295.07523 -10.193241 -26.557182 4294967295
295.08917 -9.2005672 -27.498711 4294967295
295.10645 -21.485701 -27.035732 4294967295
295.10971 -22.015678 -26.112896 4294967295
295.11047 -8.7382221 -27.33857 4294967295
295.13803 -21.053284 -26.424946 4294967295
295.14145 -7.7861943 -27.534687 4294967295
295.14987 -20.046391 -27.458176 4294967295
295.15082 -20.568504 -26.640907 4294967295
295.17075 -7.3417625 -27.025803 4294967295
295.18701 -6.8674364 -27.090229 4294967295
295.19537 -19.651083 -26.239922 4294967295
295.20959 -6.4074054 -26.875645 4294967295
295.22443 -18.691422 -26.518711 4294967295
295.22763 -5.9371915 -26.858528 4294967295
295.23865 -18.210939 -26.671597 4294967295
295.24042 -17.697721 -27.368252 4294967295
295.2431 -5.4610481 -26.959293 4294967295
295.25421 -17.216675 -27.538017 4294967295
295.26404 -4.9971457 -26.816154 4294967295
295.29431 -4.043982 -27.039371 4294967295
295.30661 -16.319096 -26.795292 4294967295
295.3327 -15.86953 -26.429905 4294967295
295.33401 -2.6029568 -27.623165 4294967295
295.33615 -3.1154966 -26.759499 4294967295
295.34219 -15.377382 -26.787777 4294967295
295.37497 -2.1802921 -26.611431 4294967295
295.37527 -14.945156 -26.118721 4294967295
295.38315 -13.933957 -27.314194 4294967295
295.3923 -1.7083883 -26.626831 4294967295
295.40735 -13.479044 -27.033684 4294967295
295.43607 -13.035106 -26.55508 4294967295
295.43918 -12.528432 -27.187557 4294967295
295.4588 -12.06219 -27.10342 4294967295
295.49435 -11.12062 -27.097019 4294967295
295.49994 -23.897705 -26.379356 4294967295
295.50931 -23.403103 -26.738483 4294967295
295.50952 -10.643654 -27.206905 4294967295
295.51532 -22.899227 -27.245323 4294967295
295.53461 -10.190111 -26.88612 4294967295
295.54709 -9.7068377 -27.113411 4294967295
295.55051 -22.47703 -26.488518 4294967295
295.57227 -9.2531309 -26.790524 4294967295
295.5813 -21.521896 -26.689583 4294967295
295.58673 -8.7746048 -26.930843 4294967295
295.60486 -21.066771 -26.436661 4294967295
295.61148 -7.8085489 -27.390106 4294967295
295.61646 -20.57913 -26.698582 4294967295
295.61752 -8.3333406 -26.365269 4294967295
295.6481 -20.145439 -26.098976 4294967295
295.6514 -19.635689 -26.718792 4294967295
295.65945 -6.8947973 -26.846958 4294967295
295.67368 -18.658909 -27.284031 4294967295
295.68149 -19.19743 -26.185963 4294967295
295.6897 -6.4513488 -26.306274 4294967295
295.69159 -5.945518 -26.988022 4294967295
295.69659 -18.201792 -27.05809 4294967295
295.71201 -17.724876 -27.156525 4294967295
295.72415 -5.5066071 -26.349884 4294967295
295.73749 -17.273998 -26.822784 4294967295
295.78012 -4.0989208 -26.225842 4294967295
295.79529 -3.6222186 -26.33659 4294967295
295.79541 -16.38916 -25.85667 4294967295
295.79654 -15.360436 -27.324825 4294967295
295.80319 -15.892524 -26.284908 4294967295
295.81778 -2.1461287 -27.646008 4294967295
295.82437 -14.914686 -26.892773 4294967295
295.83109 -2.6804533 -26.32058 4294967295
295.85263 -14.46973 -26.441135 4294967295
295.85358 -1.7118959 -26.871872 4294967295
295.86472 -13.984816 -26.680386 4294967295
295.8783 -13.503633 -26.857422 4294967295
295.90338 -12.536963 -27.295521 4294967295
295.90576 -13.056177 -26.440399 4294967295
295.92023 -12.063992 -27.333221 4294967295
295.95834 -11.641348 -26.462582 4294967295
295.96567 -23.38792 -27.188576 4294967295
295.96869 -23.916573 -26.306801 4294967295
295.97141 -10.647095 -27.412571 4294967295
295.97873 -11.176371 -26.349613 4294967295
295.99561 -22.95076 -26.667671 4294967295
296.0246 -22.510498 -26.188534 4294967295
296.03812 -22.027925 -26.365208 4294967295
296.04218 -9.2747602 -26.661442 4294967295
296.04626 -21.530918 -26.771172 4294967295
296.07251 -8.3212194 -26.876423 4294967295
296.09082 -20.613182 -26.383205 4294967295
296.10596 -19.617447 -27.243542 4294967295
296.11133 -20.149467 -26.263332 4294967295
296.12439 -19.148575 -27.211018 4294967295
296.15515 -6.462533 -26.378468 4294967295
296.19617 -17.783733 -26.420555 4294967295
296.21301 -4.5505867 -26.924248 4294967295
296.2269 -17.345551 -25.871071 4294967295
296.23138 -16.840876 -26.428814 4294967295
296.23569 -4.0898857 -26.714317 4294967295
296.25208 -15.861949 -27.049641 4294967295
296.25711 -16.389654 -26.092098 4294967295
296.26819 -3.1417828 -26.836536 4294967295
296.30106 -15.468139 -25.731121 4294967295
296.30515 -2.7096806 -26.024792 4294967295
296.32205 -15.004653 -25.593994 4294967295
296.3284 -14.505525 -26.072639 4294967295
296.3298 -1.7455301 -26.478653 4294967295
296.34366 -13.514658 -26.919422 4294967295
296.3555 -14.056828 -25.677898 4294967295
296.36005 -13.040594 -26.973763 4294967295
296.37479 -12.562651 -27.097954 4294967295
296.39755 -12.103636 -26.884319 4294967295
296.41556 -24.395142 -26.409077 4294967295
296.4343 -11.676855 -26.085846 4294967295
296.43851 -23.938396 -26.18903 4294967295
296.43915 -11.175878 -26.625229 4294967295
296.44205 -23.42852 -26.782043 4294967295
296.44376 -10.674759 -27.174843 4294967295
296.45392 -22.94162 -27.027225 4294967295
296.48004 -22.4935 -26.672878 4294967295
296.48422 -10.255571 -26.221008 4294967295
296.49835 -9.7761993 -26.371681 4294967295
296.51077 -22.057213 -26.129162 4294967295
296.52011 -9.3140841 -26.201664 4294967295
296.52209 -21.568985 -26.395782 4294967295
296.53705 -21.090525 -26.51123 4294967295
296.54303 -8.8543539 -25.983971 4294967295
296.5506 -20.60854 -26.684097 4294967295
296.55911 -7.8694134 -26.791695 4294967295
296.58337 -20.176624 -26.056969 4294967295
296.58963 -19.675697 -26.534527 4294967295
296.59305 -7.4334841 -26.114941 4294967295
296.60718 -6.9544888 -26.264267 4294967295
296.60843 -6.4482617 -26.948662 4294967295
296.63901 -18.253059 -26.686947 4294967295
296.66287 -5.5461135 -26.157333 4294967295
296.66705 -17.292538 -26.993248 4294967295
296.67911 -17.838232 -25.756844 4294967295
296.6828 -5.0794511 -26.064564 4294967295
296.68903 -4.5844784 -26.541855 4294967295
296.71674 -4.1336875 -26.127773 4294967295
296.72742 -15.897406 -26.692997 4294967295
296.74298 -3.1726594 -26.508598 4294967295
296.7569 -2.6941175 -26.662357 4294967295
296.77002 -15.486832 -25.659283 4294967295
296.77682 -14.989058 -26.11195 4294967295
296.77731 -2.2283401 -26.550617 4294967295
296.79877 -1.7645502 -26.395016 4294967295
296.81497 -14.052873 -26.000568 4294967295
296.83475 -13.586445 -25.91457 4294967295
296.85529 -13.121708 -25.797405 4294967295
296.87375 -12.652082 -25.765743 4294967295
296.87527 -24.389565 -26.707397 4294967295
296.88156 -12.157866 -26.174187 4294967295
296.89447 -23.922615 -26.64518 4294967295
296.90924 -11.709322 -25.764271 4294967295
296.92819 -23.494595 -25.984505 4294967295
296.92838 -11.241126 -25.705505 4294967295
296.93118 -10.736112 -26.320072 4294967295
296.94708 -22.508121 -26.665764 4294967295
296.95312 -23.042458 -25.688419 4294967295
296.95828 -10.285885 -25.933197 4294967295
296.99478 -21.080954 -26.887806 4294967295
297.01205 -8.8731918 -25.90733 4294967295
297.0271 -20.647636 -26.28849 4294967295
297.0379 -7.9099135 -26.300247 4294967295
297.04547 -7.4171233 -26.715954 4294967295
297.0542 -20.200558 -25.902092 4294967295
297.06036 -19.699802 -26.376343 4294967295
297.06601 -19.198174 -26.87056 4294967295
297.07083 -6.4540286 -27.126492 4294967295
297.08185 -6.9855213 -25.94997 4294967295
297.08783 -18.737602 -26.700779 4294967295
297.11713 -18.295406 -26.22702 4294967295
297.11816 -6.0446138 -25.914616 4294967295
297.1413 -5.5844498 -25.692104 4294967295
297.14569 -17.851091 -25.781975 4294967295
297.14758 -5.0896182 -26.160053 4294967295
297.1619 -16.861336 -26.568943 4294967295
297.17493 -4.1308727 -26.489517 4294967295
297.19379 -15.910757 -26.711632 4294967295
297.22079 -3.2093267 -26.061005 4294967295
297.22995 -15.48385 -25.957561 4294967295
297.25003 -1.7493677 -27.035709 4294967295
297.2587 -14.525497 -26.229626 4294967295
297.26974 -14.038718 -26.500832 4294967295
297.30087 -13.598753 -25.954128 4294967295
297.32764 -13.148188 -25.587196 4294967295
297.33511 -12.653315 -26.003784 4294967295
297.33972 -12.152331 -26.535461 4294967295
297.3508 -24.426952 -26.353916 4294967295
297.36951 -23.958538 -26.312153 4294967295
297.37454 -11.719716 -25.8409 4294967295
297.39175 -23.499386 -26.127819 4294967295
297.39542 -10.744821 -26.429382 4294967295
297.41547 -23.043888 -25.884956 4294967295
297.42389 -10.297346 -25.993084 4294967295
297.42847 -9.7973776 -26.52512 4294967295
297.4469 -22.608379 -25.328495 4294967295
297.45505 -8.8361969 -26.882568 4294967295
297.4581 -22.119946 -25.592312 4294967295
297.46164 -9.3596287 -25.901291 4294967295
297.4794 -21.140911 -26.164303 4294967295
297.48566 -20.640572 -26.627739 4294967295
297.48718 -21.677711 -25.133072 4294967295
297.53046 -7.4700623 -25.98164 4294967295
297.53119 -20.239779 -25.502621 4294967295
297.54449 -19.241772 -26.39547 4294967295
297.55533 -7.0135899 -25.693439 4294967295
297.55591 -19.785791 -25.220566 4294967295
297.56195 -6.0118141 -26.854488 4294967295
297.56595 -18.779972 -26.243053 4294967295
297.56735 -6.5304871 -25.921638 4294967295
297.5918 -5.5655046 -26.364594 4294967295
297.59485 -18.336172 -25.79306 4294967295
297.60413 -17.844286 -26.132286 4294967295
297.63458 -16.889885 -26.33215 4294967295
297.63892 -4.6465802 -25.892078 4294967295
297.68503 -3.7247319 -25.464531 4294967295
297.69336 -3.2349882 -25.840946 4294967295
297.69699 -16.011488 -25.247456 4294967295
297.70169 -2.7455568 -26.217003 4294967295
297.7099 -15.528603 -25.440422 4294967295
297.71136 -15.019152 -26.093117 4294967295
297.71338 -2.2628241 -26.45863 4294967295
297.73795 -14.568449 -25.737263 4294967295
297.74734 -14.077887 -26.071556 4294967295
297.77393 -13.626917 -25.715332 4294967295
297.80521 -13.186294 -25.171692 4294967295
297.81274 -12.69173 -25.580044 4294967295
297.82437 -11.696117 -26.530933 4294967295
297.84167 -24.504213 -25.39587 4294967295
297.84558 -23.996597 -25.946812 4294967295
297.8696 -10.775419 -26.138115 4294967295
297.87231 -23.548805 -25.586258 4294967295
297.88019 -23.051956 -25.978733 4294967295
297.89392 -10.318466 -25.87492 4294967295
297.90582 -22.084427 -26.36924 4294967295
297.91574 -22.626461 -25.267849 4294967295
297.95737 -8.9262476 -25.464237 4294967295
297.95746 -21.699337 -25.016602 4294967295
297.96744 -8.4387074 -25.768715 4294967295
297.97662 -21.231337 -24.959057 4294967295
297.99136 -20.752184 -25.078102 4294967295
298.00131 -20.261301 -25.386532 4294967295
298.00134 -19.746067 -26.091255 4294967295
298.01001 -7.0029106 -26.188904 4294967295
298.01294 -7.5166903 -25.369122 4294967295
298.02792 -6.5321431 -26.180035 4294967295
298.03735 -6.0441556 -26.510506 4294967295
298.05032 -18.836647 -25.552032 4294967295
298.05222 -5.5674438 -26.622021 4294967295
298.07019 -18.370354 -25.467503 4294967295
298.08752 -5.1313257 -25.922886 4294967295
298.09201 -17.908815 -25.303242 4294967295
298.09814 -4.6460223 -26.204933 4294967295
298.10114 -4.14609 -26.788624 4294967295
298.10602 -17.428444 -25.45013 4294967295
298.10669 -16.916609 -26.1259 4294967295
298.13101 -3.6986747 -26.305725 4294967295
298.1348 -16.469812 -25.714329 4294967295
298.16177 -16.020027 -25.347984 4294967295
298.18478 -15.560856 -25.137032 4294967295
298.19421 -2.3041353 -25.907249 4294967295
298.19955 -1.8097343 -26.395569 4294967295
298.20325 -15.090948 -25.10783 4294967295
298.21796 -14.61236 -25.228588 4294967295
298.23111 -14.130485 -25.408253 4294967295
298.24353 -13.646963 -25.619217 4294967295
298.24417 -13.137516 -26.291164 4294967295
298.26498 -12.67329 -26.16782 4294967295
298.29196 -12.22243 -25.803322 4294967295
298.31134 -24.524714 -25.298752 4294967295
298.32086 -11.775579 -25.361565 4294967295
298.33295 -11.291816 -25.583988 4294967295
298.3345 -24.067276 -25.083969 4294967295
298.33728 -23.5574 -25.671165 4294967295
298.34167 -23.052013 -26.196247 4294967295
298.35779 -10.835658 -25.30452 4294967295
298.36176 -22.586945 -26.101494 4294967295
298.36368 -10.338904 -25.769321 4294967295
298.39908 -22.165071 -25.330811 4294967295
298.40689 -9.4125252 -25.463734 4294967295
298.40863 -21.673119 -25.652321 4294967295
298.42026 -21.186661 -25.890774 4294967295
298.422 -8.4275904 -26.260139 4294967295
298.42545 -8.9427967 -25.43071 4294967295
298.44498 -7.9672079 -26.053986 4294967295
298.46506 -20.782137 -24.828285 4294967295
298.4657 -7.5021057 -25.93557 4294967295
298.46826 -20.274799 -25.39909 4294967295
298.47507 -19.776913 -25.824486 4294967295
298.49115 -7.0463963 -25.633179 4294967295
298.50476 -18.820555 -26.048531 4294967295
298.50626 -6.0632801 -26.426872 4294967295
298.51331 -6.5838852 -25.459187 4294967295
298.53436 -18.377552 -25.585056 4294967295
298.56467 -17.93601 -25.091522 4294967295
298.56781 -5.1720243 -25.407318 4294967295
298.56921 -4.6689811 -26.043404 4294967295
298.57654 -17.450661 -25.320118 4294967295
298.60886 -17.013147 -24.751038 4294967295
298.61334 -15.998573 -25.957226 4294967295
298.61575 -16.516376 -25.172985 4294967295
298.61719 -3.7503953 -25.553226 4294967295
298.65717 -2.8159714 -25.377014 4294967295
298.66751 -2.3308401 -25.662659 4294967295
298.66882 -15.101496 -25.176075 4294967295
298.67618 -14.606617 -25.579411 4294967295
298.69049 -1.8690653 -25.459091 4294967295
298.7063 -14.162821 -25.098202 4294967295
298.72815 -13.18977 -25.625629 4294967295
298.73257 -13.710234 -24.764744 4294967295
298.75488 -12.738029 -25.276024 4294967295
298.76376 -12.247353 -25.618858 4294967295
298.77332 -11.758399 -25.935558 4294967295
298.78857 -24.047798 -25.596367 4294967295
298.79395 -24.578205 -24.70155 4294967295
298.80344 -11.313718 -25.452499 4294967295
298.82111 -10.842066 -25.456078 4294967295
298.82953 -23.118933 -25.381821 4294967295
298.8298 -23.635815 -24.685162 4294967295
298.83566 -22.61846 -25.832249 4294967295
298.83685 -10.366432 -25.532974 4294967295
298.86768 -9.4140701 -25.710678 4294967295
298.88483 -21.709808 -25.299133 4294967295
298.89618 -21.222769 -25.544746 4294967295
298.90921 -7.9765358 -26.158627 4294967295
298.92471 -7.5010271 -26.241814 4294967295
298.92963 -20.789522 -24.937809 4294967295
298.95612 -7.0569954 -25.715622 4294967295
298.96249 -19.840042 -25.037758 4294967295
298.97122 -19.347073 -25.384182 4294967295
299.00073 -6.1322799 -25.361095 4294967295
299.00165 -5.6281357 -26.008911 4294967295
299.01126 -18.928316 -24.524368 4294967295
299.01282 -5.1443176 -26.260307 4294967295
299.04147 -17.972569 -24.725128 4294967295
299.04395 -17.465534 -25.312347 4294967295
299.04404 -4.6989784 -25.73991 4294967295
299.06015 -4.2246146 -25.801159 4294967295
299.07352 -17.021259 -24.856743 4294967295
299.0834 -16.531712 -25.157936 4294967295
299.09891 -3.7926712 -24.994617 4294967295
299.10153 -16.061106 -25.141918 4294967295
299.11411 -2.8121223 -25.770111 4294967295
299.11526 -3.3185868 -25.045029 4294967295
299.13101 -2.3392992 -25.801167 4294967295
299.13913 -15.12277 -25.059605 4294967295
299.14368 -14.621986 -25.564751 4294967295
299.1684 -14.165993 -25.296467 4294967295
299.17188 -1.4063683 -25.593655 4294967295
299.18399 -13.689858 -25.377682 4294967295
299.19824 -13.210871 -25.510529 4294967295
299.23218 -12.774405 -24.888939 4294967295
299.24738 -25.07354 -24.557938 4294967295
299.24863 -12.299961 -24.938847 4294967295
299.25375 -11.801589 -25.420822 4294967295
299.26733 -24.091122 -25.150856 4294967295
299.2959 -10.872716 -25.164127 4294967295
299.30853 -23.678108 -24.253418 4294967295
299.32104 -10.416524 -24.88118 4294967295
299.32468 -23.202269 -24.314423 4294967295
299.35202 -21.724043 -25.298759 4294967295
299.35815 -8.9690847 -25.491947 4294967295
299.37729 -21.270748 -25.011364 4294967295
299.39468 -20.798357 -25.024185 4294967295
299.42612 -7.584075 -24.928646 4294967295
299.4274 -7.080225 -25.553082 4294967295
299.43451 -19.865559 -24.857197 4294967295
299.43884 -19.362621 -25.364216 4294967295
299.46268 -6.6429586 -24.886135 4294967295
299.46811 -5.6423144 -26.023357 4294967295
299.47339 -18.930262 -24.726566 4294967295
299.48434 -6.1788836 -24.736652 4294967295
299.49475 -18.466988 -24.588295 4294967295
299.49792 -5.1938925 -25.56739 4294967295
299.51349 -17.997581 -24.54948 4294967295
299.52661 -17.003496 -25.395412 4294967295
299.53073 -4.7509637 -24.993607 4294967295
299.53381 -4.2519779 -25.549526 4294967295
299.56039 -16.568102 -24.788204 4294967295
299.56366 -3.2989964 -25.759277 4294967295
299.58026 -16.101236 -24.706623 4294967295
299.59018 -15.612192 -25.002522 4294967295
299.60562 -15.135561 -25.089165 4294967295
299.62091 -14.658712 -25.180492 4294967295
299.62579 -2.404418 -24.750973 4294967295
299.62738 -1.4010687 -26.028553 4294967295
299.63257 -1.9131765 -25.163937 4294967295
299.65677 -14.226515 -24.495647 4294967295
299.70895 -12.809014 -24.533367 4294967295
299.72171 -11.818112 -25.386936 4294967295
299.72672 -25.117458 -24.108429 4294967295
299.74384 -24.644001 -24.131718 4294967295
299.74567 -24.132826 -24.730331 4294967295
299.75552 -11.379955 -24.782562 4294967295
299.78009 -10.922289 -24.526352 4294967295
299.78027 -10.414756 -25.184704 4294967295
299.78128 -23.704987 -24.058147 4294967295
299.78964 -23.210264 -24.409653 4294967295
299.80429 -22.73093 -24.526489 4294967295
299.81311 -9.9738665 -24.616566 4294967295
299.82291 -22.261393 -24.491741 4294967295
299.82974 -9.499896 -24.657982 4294967295
299.83469 -21.261639 -25.38036 4294967295
299.83591 -9.0051308 -25.091545 4294967295
299.84235 -8.5112219 -25.515247 4294967295
299.84933 -21.81041 -24.165264 4294967295
299.86935 -20.830154 -24.74527 4294967295
299.88824 -19.848284 -25.365574 4294967295
299.89133 -20.368483 -24.585175 4294967295
299.89456 -7.6011209 -24.886112 4294967295
299.89999 -6.6003389 -26.009327 4294967295
299.92667 -19.424732 -24.589737 4294967295
299.92816 -6.1490808 -25.61657 4294967295
299.95172 -5.688704 -25.398796 4294967295
299.96802 -18.494736 -24.368763 4294967295
299.96878 -17.984531 -25.002747 4294967295
299.9805 -17.49938 -25.228413 4294967295
299.98819 -5.2522526 -24.699165 4294967295
300 -4.7695551 -24.920383 4294967295
300.00217 -4.2693043 -25.501713 4294967295
300.00876 -17.05143 -24.834641 4294967295
300.04083 -16.100798 -24.959373 4294967295
300.05386 -3.3559856 -24.893158 4294967295
300.06564 -2.873683 -25.114868 4294967295
300.07452 -15.153836 -25.024326 4294967295
300.07581 -15.666812 -24.317627 4294967295
300.08075 -14.657478 -25.453232 4294967295
300.09097 -2.4156885 -24.830437 4294967295
300.11395 -1.953208 -24.63633 4294967295
300.12933 -1.4773455 -24.724083 4294967295
300.13199 -14.25775 -24.205116 4294967295
300.13739 -13.250646 -25.32309 4294967295
300.13876 -13.762608 -24.612942 4294967295
300.1683 -12.806808 -24.832447 4294967295
300.18875 -12.340746 -24.732498 4294967295
300.19604 -25.1359 -24.042686 4294967295
300.20483 -11.865745 -24.792274 4294967295
300.2084 -24.135777 -24.900406 4294967295
300.21106 -11.370584 -25.21896 4294967295
300.21707 -24.672058 -23.920296 4294967295
300.23306 -23.68103 -24.642315 4294967295
300.23724 -10.916208 -24.90604 4294967295
300.26813 -23.25094 -24.000668 4294967295
300.27151 -9.9706392 -24.949669 4294967295
300.28912 -9.4988775 -24.952633 4294967295
300.28918 -22.786999 -23.876556 4294967295
300.29083 -22.276737 -24.473961 4294967295
300.30988 -9.0332966 -24.8395 4294967295
300.31177 -21.812572 -24.354778 4294967295
300.32492 -8.0504427 -25.595119 4294967295
300.33401 -20.838232 -24.843479 4294967295
300.34991 -7.5930581 -25.326569 4294967295
300.3526 -20.368725 -24.809711 4294967295
300.37653 -7.1385994 -24.997261 4294967295
300.388 -19.425299 -24.812553 4294967295
300.39182 -19.946354 -24.016708 4294967295
300.39868 -6.1705656 -25.486801 4294967295
300.41864 -18.982977 -24.334831 4294967295
300.42072 -5.707139 -25.328922 4294967295
300.4303 -18.497572 -24.557922 4294967295
300.43341 -5.2264237 -25.514042 4294967295
300.43964 -18.006987 -24.869377 4294967295
300.45749 -4.7666626 -25.280003 4294967295
300.48102 -17.587856 -23.99725 4294967295
300.49698 -3.3279433 -25.781372 4294967295
300.50131 -16.610836 -24.555218 4294967295
300.51544 -3.8641891 -24.451794 4294967295
300.522 -2.8696203 -25.512081 4294967295
300.53467 -15.662783 -24.63361 4294967295
300.54239 -15.169664 -25.00164 4294967295
300.56555 -2.4434719 -24.563835 4294967295
300.57874 -1.9638071 -24.731079 4294967295
300.58206 -1.4673338 -25.259441 4294967295
300.60687 -13.77878 -24.584816 4294967295
300.60895 -13.27454 -25.158802 4294967295
300.63644 -12.823245 -24.799896 4294967295
300.6701 -25.165836 -23.804012 4294967295
300.67917 -24.672909 -24.121159 4294967295
300.68521 -11.906919 -24.314411 4294967295
300.69742 -11.423961 -24.516544 4294967295
300.69754 -24.202557 -24.097866 4294967295
300.70975 -10.941499 -24.712395 4294967295
300.73547 -22.750952 -24.655861 4294967295
300.73901 -9.9859266 -24.939186 4294967295
300.74194 -23.279911 -23.772346 4294967295
300.74548 -10.505593 -24.054115 4294967295
300.75372 -22.280531 -24.636513 4294967295
300.76025 -9.015274 -25.456478 4294967295
300.78006 -9.5599518 -24.087643 4294967295
300.80164 -21.36594 -24.182064 4294967295
300.80374 -21.883953 -23.457191 4294967295
300.8085 -8.6026783 -24.342411 4294967295
300.81711 -8.1134434 -24.675072 4294967295
300.82089 -20.385387 -24.771736 4294967295
300.82132 -20.8986 -24.110332 4294967295
300.84326 -19.924234 -24.603245 4294967295
300.85281 -7.1704588 -24.667675 4294967295
300.86737 -6.6928992 -24.782429 4294967295
300.87714 -6.2065883 -25.070961 4294967295
300.90256 -5.2453113 -25.434929 4294967295
300.91495 -4.7643108 -25.628433 4294967295
300.91501 -5.7720327 -24.337868 4294967295
300.91776 -18.045418 -24.472237 4294967295
300.93362 -17.569572 -24.54052 4294967295
300.97256 -3.8610234 -24.823612 4294967295
300.9744 -17.147924 -23.703239 4294967295
300.9888 -16.158836 -24.465965 4294967295
300.99063 -2.8875132 -25.452564 4294967295
301.00522 -3.415658 -24.282047 4294967295
301.01355 -15.701935 -24.212791 4294967295
301.02148 -15.209404 -24.568146 4294967295
301.02405 -1.9412928 -25.525536 4294967295
301.02835 -2.4506273 -24.729576 4294967295
301.0466 -14.753204 -24.300064 4294967295
301.07864 -13.294461 -25.064514 4294967295
301.0798 -13.804867 -24.3829 4294967295
301.11285 -12.856494 -24.468693 4294967295
301.12186 -12.367128 -24.783989 4294967295
301.13351 -11.883354 -25.003017 4294967295
301.17865 -10.959416 -24.653465 4294967295
301.19708 -23.264992 -24.22073 4294967295
301.19724 -10.489437 -24.622406 4294967295
301.2085 -10.005182 -24.855362 4294967295
301.22479 -22.816349 -23.861416 4294967295
301.25745 -9.5937519 -23.732128 4294967295
301.25766 -22.379341 -23.316105 4294967295
301.25833 -21.868 -23.931187 4294967295
301.26135 -21.36265 -24.459126 4294967295
301.27676 -9.1247225 -23.6758 4294967295
301.28348 -20.900883 -24.300861 4294967295
