# .PCD v0.7 - Point Cloud Data file format
VERSION 0.7
FIELDS x y z rgb
SIZE 4 4 4 4
TYPE F F F U
COUNT 1 1 1 1
WIDTH 1120
HEIGHT 1
VIEWPOINT 0 0 0 1 0 0 0
POINTS 1120
DATA ascii
286.96051 -12.012229 -56.63797 4294967295
286.97675 -11.548884 -56.700378 4294967295
287.02863 -10.688098 -55.649826 4294967295
287.03217 -10.181699 -56.481743 4294967295
287.03818 -9.6841545 -57.164948 4294967295
287.06723 -9.2634983 -56.453911 4294967295
287.09799 -8.3314505 -56.68177 4294967295
287.11026 -7.8556137 -56.981148 4294967295
287.13388 -7.4161396 -56.601616 4294967295
287.21158 -18.076698 -55.461857 4294967295
287.21185 -17.553322 -56.483765 4294967295
287.24393 -16.62468 -56.630634 4294967295
287.26349 -3.7119455 -57.113579 4294967295
287.29596 -15.768017 -55.586304 4294967295
287.32361 -14.302187 -57.029842 4294967295
287.39481 -12.470921 -56.903778 4294967295
287.4628 -10.628649 -56.967411 4294967295
287.61194 -19.455402 -55.712738 4294967295
287.63632 -6.034441 -56.922562 4294967295
287.67514 -5.6401844 -55.656284 4294967295
287.69821 -4.685545 -56.330528 4294967295
287.70923 -4.207139 -56.696899 4294967295
287.71848 -16.704782 -55.547379 4294967295
287.72192 -16.195526 -56.356598 4294967295
287.74261 -15.747619 -56.158134 4294967295
287.74976 -3.3049355 -56.348495 4294967295
287.76514 -14.785921 -56.860981 4294967295
287.77609 -2.3616381 -56.828724 4294967295
287.7865 -14.340262 -56.623859 4294967295
287.82394 -13.430592 -56.454704 4294967295
287.87238 -12.557472 -55.645351 4294967295
287.89209 -11.58816 -56.509354 4294967295
287.9332 -10.689722 -56.130775 4294967295
287.95987 -9.7447863 -56.584068 4294967295
288.0015 -8.333602 -57.173515 4294967295
288.02768 -7.9014831 -56.661858 4294967295
288.04123 -7.4304366 -56.873978 4294967295
288.04315 -19.900547 -56.165066 4294967295
288.0675 -19.466492 -55.756931 4294967295
288.07825 -6.518537 -56.732147 4294967295
288.1062 -18.561146 -55.520164 4294967295
288.10815 -18.046116 -56.402054 4294967295
288.11429 -5.6035886 -56.644978 4294967295
288.13672 -17.626482 -55.751755 4294967295
288.16299 -17.197939 -55.238338 4294967295
288.16461 -4.2198615 -56.732872 4294967295
288.24109 -2.4015036 -56.31292 4294967295
288.24158 -14.869775 -55.687828 4294967295
288.25458 -13.877285 -56.918991 4294967295
288.29105 -12.964386 -56.809166 4294967295
288.31 -12.510297 -56.712025 4294967295
288.37759 -10.6667 -56.796967 4294967295
288.42719 -9.2806892 -56.924011 4294967295
288.50241 -7.4606352 -56.577179 4294967295
288.52933 -7.0296402 -56.032867 4294967295
288.55432 -6.5923576 -55.600239 4294967295
288.55713 -6.0897884 -56.414776 4294967295
288.71082 -14.409378 -55.931358 4294967295
288.72552 -13.424784 -57.039085 4294967295
288.75815 -13.014768 -56.183868 4294967295
288.76056 -12.50733 -57.010017 4294967295
288.79282 -11.580899 -57.138176 4294967295
288.7959 -12.105141 -56.005947 4294967295
288.82315 -11.162377 -56.410767 4294967295
288.84708 -10.723195 -56.042381 4294967295
288.90796 -9.3707399 -55.542377 4294967295
288.91644 -8.8840027 -56.030792 4294967295
288.92303 -8.3920441 -56.623131 4294967295
288.96088 -7.4823875 -56.439056 4294967295
288.97891 -19.490288 -55.819592 4294967295
288.99838 -18.518147 -56.651802 4294967295
289.00439 -6.079236 -56.89497 4294967295
289.0047 -6.5895452 -55.929077 4294967295
289.02185 -5.6201582 -56.88438 4294967295
289.05276 -5.1988506 -56.137512 4294967295
289.05389 -17.670048 -55.498951 4294967295
289.0668 -17.195013 -55.741257 4294967295
289.08105 -4.2616539 -56.48114 4294967295
289.0849 -16.737652 -55.697289 4294967295
289.10083 -16.27314 -55.770561 4294967295
289.11511 -3.3408384 -56.506008 4294967295
289.1279 -15.328493 -56.180817 4294967295
289.15463 -14.899387 -55.663551 4294967295
289.17099 -14.436208 -55.715996 4294967295
289.29395 -11.22191 -55.607502 4294967295
289.30115 -10.731127 -56.155418 4294967295
289.40857 -19.932177 -56.320992 4294967295
289.4216 -7.001255 -57.115059 4294967295
289.44592 -19.5411 -55.237164 4294967295
289.60193 -2.426218 -56.703781 4294967295
289.72058 -11.658845 -56.266014 4294967295
289.72815 -11.169914 -56.78194 4294967295
289.74722 -10.715608 -56.687134 4294967295
289.78403 -10.313807 -55.646656 4294967295
289.79333 -9.3200073 -56.990025 4294967295
289.79614 -9.8385477 -55.921722 4294967295
289.81625 -8.8767824 -56.690193 4294967295
289.85632 -8.4824238 -55.482246 4294967295
289.86633 -8.0016346 -55.867165 4294967295
289.87784 -19.990982 -55.616547 4294967295
289.88681 -7.5506372 -55.698471 4294967295
289.8931 -19.524109 -55.724045 4294967295
289.89453 -19.011335 -56.561012 4294967295
289.89514 -7.0655675 -56.171543 4294967295
289.901 -6.574151 -56.77256 4294967295
289.94736 -5.6869988 -56.151703 4294967295
289.95163 -17.649435 -56.283577 4294967295
289.98047 -17.227093 -55.674278 4294967295
289.99911 -16.771416 -55.602966 4294967295
290.00006 -3.804285 -57.013256 4294967295
290.00638 -4.3264413 -55.77454 4294967295
290.00677 -16.280651 -56.108829 4294967295
290.02475 -3.3640332 -56.625755 4294967295
290.03986 -15.356316 -56.185654 4294967295
290.06036 -2.447526 -56.567013 4294967295
290.0835 -14.464748 -55.710457 4294967295
290.09528 -13.987886 -55.997128 4294967295
290.11938 -13.548894 -55.638672 4294967295
290.12711 -13.059685 -56.141685 4294967295
290.15472 -12.630974 -55.600731 4294967295
290.15588 -12.122734 -56.443241 4294967295
290.18695 -11.703937 -55.722382 4294967295
290.19418 -10.704087 -57.147095 4294967295
290.27432 -9.4065142 -55.673733 4294967295
290.33426 -7.0337381 -57.045723 4294967295
290.38132 -18.610052 -55.850883 4294967295
290.51199 -2.4515162 -56.783775 4294967295
290.52963 -14.961192 -55.335125 4294967295
290.56393 -13.528169 -56.235916 4294967295
290.74377 -8.9497843 -55.876179 4294967295
290.75488 -8.4727726 -56.191917 4294967295
290.79208 -7.560286 -56.057938 4294967295
290.80261 -19.543055 -55.862858 4294967295
290.81012 -6.5966187 -56.894073 4294967295
290.83615 -6.1602287 -56.450016 4294967295
290.8475 -18.655998 -55.339699 4294967295
290.85623 -18.168953 -55.772079 4294967295
290.86115 -5.720789 -56.058167 4294967295
290.87039 -17.699106 -55.931801 4294967295
290.89417 -17.259506 -55.601879 4294967295
290.90225 -16.770895 -56.069721 4294967295
290.90836 -4.3292484 -56.294098 4294967295
290.93445 -3.3885245 -56.71907 4294967295
290.93762 -16.366562 -55.155579 4294967295
290.94879 -2.9215355 -56.868431 4294967295
290.96408 -15.421694 -55.563934 4294967295
290.9798 -2.4959154 -56.176113 4294967295
290.99777 -14.499007 -55.607899 4294967295
291.01114 -14.027441 -55.804443 4294967295
291.03668 -13.081219 -56.258484 4294967295
291.03806 -13.595731 -55.320709 4294967295
291.0578 -12.632549 -56.065758 4294967295
291.08829 -11.701184 -56.2714 4294967295
291.13467 -10.30673 -56.543682 4294967295
291.20642 -8.982007 -55.548004 4294967295
291.26523 -19.577749 -55.534794 4294967295
291.29785 -5.68574 -57.015068 4294967295
291.35794 -4.3280993 -56.604103 4294967295
291.36713 -3.8483558 -57.004581 4294967295
291.4122 -15.411953 -55.960876 4294967295
291.72244 -19.081814 -56.324505 4294967295
291.73758 -6.6670446 -56.102936 4294967295
291.76624 -18.190453 -55.874226 4294967295
291.77167 -6.2498813 -55.285431 4294967295
291.78152 -17.724556 -55.971642 4294967295
291.8139 -4.8456831 -55.7523 4294967295
291.83224 -4.3882804 -55.701927 4294967295
291.84079 -15.85634 -56.44986 4294967295
291.85559 -3.4411955 -56.24675 4294967295
291.86786 -15.425213 -55.974083 4294967295
291.88486 -2.5091887 -56.501434 4294967295
291.89874 -14.494987 -56.15229 4294967295
291.95361 -13.124237 -56.004738 4294967295
291.95923 -12.631914 -56.568687 4294967295
292.00409 -11.741044 -56.070126 4294967295
292.0062 -12.254418 -55.134113 4294967295
292.00662 -11.241155 -56.78014 4294967295
292.03018 -10.798529 -56.478767 4294967295
292.06171 -9.871316 -56.62212 4294967295
292.08899 -8.9330616 -56.972008 4294967295
292.10535 -8.4711628 -57.017323 4294967295
292.10794 -9.4880657 -55.231632 4294967295
292.16391 -7.6138673 -55.862938 4294967295
292.1936 -7.1855402 -55.266968 4294967295
292.19382 -6.1795197 -56.911274 4294967295
292.21378 -18.69091 -55.448959 4294967295
292.28625 -4.3980331 -55.796532 4294967295
292.30707 -16.410763 -55.120464 4294967295
292.35858 -15.029225 -55.138809 4294967295
292.52567 -10.412484 -55.413437 4294967295
292.54376 -9.4497147 -56.190731 4294967295
292.56775 -8.5032015 -56.690281 4294967295
292.64178 -19.644398 -55.14082 4294967295
292.7041 -4.822587 -56.774128 4294967295
292.7236 -17.330416 -55.358078 4294967295
292.72699 -16.830521 -56.009903 4294967295
292.74762 -16.380249 -55.85334 4294967295
292.75684 -4.4473066 -55.110283 4294967295
292.77026 -15.935538 -55.602798 4294967295
292.77719 -2.9938836 -56.585182 4294967295
292.78235 -15.460994 -55.846184 4294967295
292.78732 -2.5179996 -56.917236 4294967295
292.81479 -14.535479 -55.944351 4294967295
292.83768 -14.091123 -55.681625 4294967295
292.85623 -13.127829 -56.430622 4294967295
292.87494 -12.672194 -56.361526 4294967295
292.93176 -11.306467 -56.127357 4294967295
292.9794 -9.9164715 -56.322205 4294967295
292.98187 -10.427219 -55.405205 4294967295
292.98871 -9.436429 -56.693195 4294967295
293.0022 -8.967371 -56.868095 4294967295
293.0462 -8.5749655 -55.629852 4294967295
293.07727 -7.1442976 -56.589832 4294967295
293.08667 -7.6696424 -55.357269 4294967295
293.10477 -6.7095709 -56.117588 4294967295
293.11282 -19.191214 -55.251194 4294967295
293.12927 -18.728643 -55.291214 4294967295
293.15836 -17.792923 -55.543602 4294967295
293.15939 -5.3369555 -55.988876 4294967295
293.19623 -4.4226594 -55.884293 4294967295
293.23703 -3.5173225 -55.596565 4294967295
293.25604 -2.5623465 -56.31131 4294967295
293.25748 -15.528159 -54.960838 4294967295
293.36459 -12.270485 -55.597637 4294967295
293.49908 -9.0846386 -54.980743 4294967295
293.51495 -8.1184616 -55.833366 4294967295
293.54364 -19.132748 -56.397537 4294967295
293.56412 -18.682301 -56.251694 4294967295
293.57877 -6.7675667 -55.289413 4294967295
293.64279 -4.915617 -55.519615 4294967295
293.74689 -14.11239 -55.799946 4294967295
293.7594 -13.640076 -56.013664 4294967295
293.78201 -12.689548 -56.55172 4294967295
293.83557 -11.315456 -56.471886 4294967295
293.88513 -10.433925 -55.797218 4294967295
293.9166 -10.009177 -55.163311 4294967295
293.92508 -9.527401 -55.558235 4294967295
293.93146 -9.0409441 -56.044548 4294967295
293.93704 -8.5528688 -56.567699 4294967295
293.96973 -7.6293435 -56.651329 4294967295
294.01331 -19.695047 -54.998947 4294967295
294.03293 -6.7776613 -55.371964 4294967295
294.03928 -6.2922268 -55.85902 4294967295
294.04825 -18.267757 -55.751743 4294967295
294.06424 -5.3506413 -56.286209 4294967295
294.07611 -17.83712 -55.280785 4294967295
294.08517 -17.35461 -55.64616 4294967295
294.10098 -4.4363303 -56.188023 4294967295
294.11841 -16.431227 -55.706264 4294967295
294.12762 -15.949801 -56.063511 4294967295
294.14911 -15.501371 -55.875767 4294967295
294.15564 -3.0635462 -56.06163 4294967295
294.18188 -15.082472 -55.19022 4294967295
294.18802 -2.6366463 -55.39312 4294967295
294.27664 -12.299593 -55.584896 4294967295
294.31616 -11.392148 -55.366604 4294967295
294.37128 -9.0171289 -56.743446 4294967295
294.46277 -19.69051 -55.288834 4294967295
294.52249 -5.8699298 -55.414722 4294967295
294.53931 -5.4089727 -55.434067 4294967295
294.55533 -16.900814 -55.775551 4294967295
294.57251 -4.4860168 -55.494293 4294967295
294.63336 -2.6286011 -55.854488 4294967295
294.68726 -13.710165 -55.298153 4294967295
294.75842 -10.871111 -56.708076 4294967295
294.77029 -11.402018 -55.443874 4294967295
294.78241 -10.427881 -56.417587 4294967295
294.83267 -9.0455818 -56.484463 4294967295
294.83835 -9.5597315 -55.490803 4294967295
294.88641 -8.6714802 -54.908329 4294967295
294.89615 -19.642574 -56.261276 4294967295
294.91315 -7.2336764 -55.9907 4294967295
294.92743 -19.221149 -55.657104 4294967295
294.93884 -18.745449 -55.910156 4294967295
294.96729 -5.8596911 -55.891266 4294967295
294.98138 -5.3928728 -56.028503 4294967295
294.99194 -17.875542 -55.111202 4294967295
295.00488 -17.404007 -55.297852 4294967295
295.00757 -4.4552364 -56.388214 4294967295
295.03058 -16.460873 -55.679504 4294967295
295.05133 -3.5558586 -55.992519 4294967295
295.0578 -15.522381 -55.993656 4294967295
295.07776 -2.6193972 -56.339046 4294967295
295.08832 -14.592657 -56.168217 4294967295
295.12195 -14.174339 -55.466606 4294967295
295.13797 -13.208524 -56.258759 4294967295
295.17953 -11.80486 -56.696106 4294967295
295.22983 -10.423056 -56.759663 4294967295
295.2327 -10.930598 -55.902206 4294967295
295.31369 -8.6196461 -56.129368 4294967295
295.3934 -6.8048162 -55.678577 4294967295
295.43521 -17.351349 -56.379124 4294967295
295.44363 -5.9196239 -55.014656 4294967295
295.46976 -4.9811134 -55.374016 4294967295
295.49741 -4.5433831 -54.936043 4294967295
295.50098 -16.008467 -55.788971 4294967295
295.54266 -15.610617 -54.758366 4294967295
295.56509 -2.6999464 -54.997265 4294967295
295.73181 -10.046177 -55.527733 4294967295
295.75604 -8.6040182 -56.682251 4294967295
295.76779 -9.1297283 -55.467972 4294967295
295.8078 -7.7236772 -55.96225 4294967295
295.81934 -19.702736 -55.75111 4294967295
295.85175 -7.32307 -54.84874 4294967295
295.86963 -6.3664608 -55.544582 4294967295
295.87311 -18.328573 -55.669907 4294967295
295.88531 -5.4063158 -56.329998 4294967295
295.90689 -17.407013 -55.702545 4294967295
295.91702 -16.929033 -55.999966 4294967295
295.91772 -4.9789476 -55.700291 4294967295
295.94101 -16.486427 -55.719921 4294967295
295.94598 -4.0461221 -55.963581 4294967295
295.94696 -4.5443554 -55.203545 4294967295
295.96039 -3.5805707 -56.080982 4294967295
295.9729 -15.560227 -55.831284 4294967295
296.00296 -3.1729293 -55.031422 4294967295
296.00531 -15.138115 -55.201199 4294967295
296.00687 -2.6855917 -55.586563 4294967295
296.00806 -14.642338 -55.805283 4294967295
296.00854 -14.141615 -56.501289 4294967295
296.05005 -13.740923 -55.497009 4294967295
296.12299 -11.410243 -56.053158 4294967295
296.16025 -10.497167 -55.942253 4294967295
296.2894 -7.7952757 -54.891891 4294967295
296.29483 -19.768623 -54.932915 4294967295
296.31842 -6.3660049 -55.829498 4294967295
296.32269 -18.32695 -55.918983 4294967295
296.41019 -16.031479 -55.872269 4294967295
296.48465 -14.707222 -54.948639 4294967295
296.5296 -12.810137 -55.934589 4294967295
296.55939 -12.379749 -55.424355 4294967295
296.62238 -10.526455 -55.673 4294967295
296.65714 -9.1093931 -56.364708 4294967295
296.68463 -9.6687908 -54.548901 4294967295
296.70593 -8.7191477 -55.0882 4294967295
296.75665 -19.293264 -55.39502 4294967295
296.76129 -7.346724 -54.946255 4294967295
296.77182 -6.3758979 -55.916553 4294967295
296.78687 -18.362713 -55.568996 4294967295
296.80359 -5.9465127 -55.333256 4294967295
296.81305 -17.422409 -55.90575 4294967295
296.82712 -5.0040345 -55.777061 4294967295
296.83447 -5.5149446 -54.783478 4294967295
296.83752 -4.5302343 -56.054657 4294967295
296.83932 -16.984861 -55.545074 4294967295
296.85104 -16.009811 -56.462326 4294967295
296.86148 -16.537128 -55.347065 4294967295
296.87424 -3.6154284 -55.966187 4294967295
296.89905 -15.624656 -55.226425 4294967295
296.90262 -3.1779037 -55.519905 4294967295
296.90811 -14.64398 -56.252346 4294967295
296.92953 -2.2432985 -55.826694 4294967295
296.95947 -13.764545 -55.576233 4294967295
297.00943 -12.380925 -55.651138 4294967295
297.06409 -11.506967 -54.846508 4294967295
297.07477 -10.533545 -55.801575 4294967295
297.1188 -9.6350889 -55.421566 4294967295
297.15945 -8.7285175 -55.180042 4294967295
297.18903 -8.2949886 -54.689873 4294967295
297.2009 -19.27837 -55.850273 4294967295
297.22552 -7.378787 -54.613842 4294967295
297.34024 -15.604009 -55.803661 4294967295
297.3627 -15.156651 -55.597626 4294967295
297.39008 -2.2675705 -55.628883 4294967295
297.40591 -14.757813 -54.571037 4294967295
297.4433 -12.844736 -55.825943 4294967295
297.45987 -12.383492 -55.853542 4294967295
297.55365 -10.599123 -54.882393 4294967295
297.63348 -7.7889085 -55.818275 4294967295
297.76819 -4.5985684 -55.280617 4294967295
297.77982 -16.581682 -55.075466 4294967295
297.77988 -16.081121 -55.746937 4294967295
297.78677 -3.6477489 -55.902149 4294967295
297.82904 -15.69635 -54.501083 4294967295
297.83069 -2.7464085 -55.537895 4294967295
297.8385 -15.217921 -54.807182 4294967295
297.84933 -14.742899 -55.059795 4294967295
297.86584 -2.320653 -54.841057 4294967295
297.8757 -14.303802 -54.706249 4294967295
297.89853 -13.357052 -55.163788 4294967295
297.94949 -12.473881 -54.5257 4294967295
297.95334 -11.983957 -55.048195 4294967295
297.96478 -11.013649 -55.945053 4294967295
297.974 -11.531441 -54.916954 4294967295
298.01257 -10.620063 -54.763035 4294967295
298.03311 -9.6700497 -55.306095 4294967295
298.03406 -10.16911 -54.598881 4294967295
298.06909 -8.2574987 -55.919155 4294967295
298.08859 -8.7943106 -54.49659 4294967295
298.0976 -19.7733 -55.731407 4294967295
298.10974 -7.350873 -55.682182 4294967295
298.15347 -18.905819 -54.906826 4294967295
298.15747 -17.912691 -56.085819 4294967295
298.16068 -6.46452 -55.050869 4294967295
298.16162 -18.423895 -55.258411 4294967295
298.17902 -17.46335 -55.920925 4294967295
298.18872 -5.5316372 -55.303104 4294967295
298.19208 -6.0329208 -54.505318 4294967295
298.19922 -4.5649662 -56.228436 4294967295
298.21979 -16.558828 -55.680607 4294967295
298.22382 -17.068779 -54.860474 4294967295
298.30243 -14.251977 -55.824646 4294967295
298.30939 -2.8047743 -54.648865 4294967295
298.33282 -13.323546 -55.982761 4294967295
298.49344 -9.1982594 -55.786774 4294967295
298.55417 -7.8375731 -55.446396 4294967295
298.58841 -6.423286 -56.114689 4294967295
298.59122 -7.4178104 -54.693302 4294967295
298.68765 -17.10153 -54.554394 4294967295
298.71542 -15.666412 -55.466251 4294967295
298.76926 -2.3347654 -55.151325 4294967295
298.78226 -14.819519 -54.24369 4294967295
298.79233 -13.844617 -55.173656 4294967295
298.85812 -11.998172 -55.297142 4294967295
298.87955 -11.050649 -55.793537 4294967295
298.89182 -11.57338 -54.679077 4294967295
298.92053 -10.64095 -54.90004 4294967295
298.94794 -9.7061815 -55.169556 4294967295
298.95609 -8.7325706 -56.162262 4294967295
299.04605 -6.9361 -55.377319 4294967295
299.05072 -7.43959 -54.554569 4294967295
299.05469 -19.410294 -54.642448 4294967295
299.05685 -18.414366 -55.856426 4294967295
299.07294 -6.4951024 -55.018692 4294967295
299.08109 -5.5242872 -56.007317 4294967295
299.10919 -18.036404 -54.54237 4294967295
299.11887 -5.1040444 -55.239769 4294967295
299.12695 -17.577309 -54.526466 4294967295
299.14331 -3.6734447 -56.261551 4294967295
299.1506 -16.133247 -55.580578 4294967295
299.16666 -15.670795 -55.626919 4294967295
299.19485 -2.2946243 -56.272388 4294967295
299.19757 -2.7907801 -55.526535 4294967295
299.27655 -12.926365 -55.393597 4294967295
299.35806 -11.113243 -54.933868 4294967295
299.40094 -9.2203712 -55.905895 4294967295
299.44379 -8.3178539 -55.598518 4294967295
299.50467 -19.410612 -54.856968 4294967295
299.51596 -18.43689 -55.718731 4294967295
299.5451 -17.505547 -55.915562 4294967295
299.58707 -4.6500273 -55.411278 4294967295
299.58908 -5.1461821 -54.70015 4294967295
299.5907 -17.11009 -54.870991 4294967295
299.5994 -16.63076 -55.189468 4294967295
299.64337 -14.736719 -56.112617 4294967295
299.77173 -12.031854 -55.204605 4294967295
299.81442 -11.624803 -54.273678 4294967295
299.82394 -10.653311 -55.189308 4294967295
299.82489 -10.160218 -55.789165 4294967295
299.85675 -9.7300663 -55.255363 4294967295
299.87234 -8.7729063 -55.947411 4294967295
299.89395 -8.3218699 -55.790264 4294967295
299.91714 -7.8739309 -55.573093 4294967295
299.93948 -7.4240685 -55.388824 4294967295
299.94724 -19.394331 -55.333542 4294967295
299.94843 -19.896885 -54.660923 4294967295
299.96271 -6.4830413 -55.800484 4294967295
299.98361 -18.478985 -55.267834 4294967295
300.0032 -5.5750365 -55.584778 4294967295
300.01291 -5.1013536 -55.858646 4294967295
300.01843 -18.058884 -54.629604 4294967295
300.04181 -4.1718645 -56.064831 4294967295
300.04913 -16.632069 -55.39761 4294967295
300.05515 -4.6878467 -54.952862 4294967295
300.0563 -17.146276 -54.509178 4294967295
300.10349 -2.8111124 -55.706532 4294967295
300.1106 -15.771383 -54.421902 4294967295
300.12952 -14.320682 -55.615757 4294967295
300.13092 -14.820583 -54.937603 4294967295
300.14285 -2.3907433 -54.903667 4294967295
300.14368 -13.854536 -55.727184 4294967295
300.16571 -13.404919 -55.556103 4294967295
300.18854 -12.461304 -55.979599 4294967295
300.25519 -11.608123 -54.819126 4294967295
300.35028 -9.3256311 -54.505791 4294967295
300.38293 -7.4155984 -55.818958 4294967295
300.42294 -6.5067978 -55.622593 4294967295
300.45374 -6.072432 -55.136971 4294967295
300.55145 -2.8128204 -55.967934 4294967295
300.63931 -13.953098 -54.286961 4294967295
300.64938 -13.478043 -54.54335 4294967295
300.70294 -12.101357 -54.484535 4294967295
300.77756 -10.272001 -54.290016 4294967295
300.79318 -9.3149567 -54.96241 4294967295
300.82495 -7.897244 -55.674606 4294967295
300.83554 -8.4101839 -54.685677 4294967295
300.86783 -7.4859624 -54.766407 4294967295
300.87137 -18.953465 -55.475601 4294967295
300.88153 -19.474781 -54.501297 4294967295
300.88181 -18.478689 -55.717819 4294967295
300.89062 -7.0363512 -54.570908 4294967295
300.91205 -6.5839705 -54.425453 4294967295
300.92609 -5.626359 -55.151463 4294967295
300.94012 -17.611675 -54.874786 4294967295
300.97287 -4.7287855 -54.718933 4294967295
300.97943 -16.205166 -55.319031 4294967295
300.98883 -16.722429 -54.374924 4294967295
301.00171 -15.756122 -55.14201 4294967295
301.00662 -3.3171825 -55.35791 4294967295
301.0527 -14.375074 -55.171955 4294967295
301.06009 -2.4304256 -54.690441 4294967295
301.09262 -13.962172 -54.373055 4294967295
301.09467 -13.47086 -54.909515 4294967295
301.12805 -13.043793 -54.342968 4294967295
301.13708 -12.567052 -54.633011 4294967295
301.13818 -11.580309 -55.811443 4294967295
301.14191 -12.081976 -55.072834 4294967295
301.17471 -11.15896 -55.133846 4294967295
301.18817 -10.691723 -55.267338 4294967295
301.28183 -7.9146652 -55.617638 4294967295
301.33163 -6.532228 -55.688259 4294967295
301.39862 -18.129402 -54.168133 4294967295
301.43835 -4.2703214 -54.977737 4294967295
301.48337 -3.8589001 -54.011185 4294967295
301.49606 -2.4115839 -55.374516 4294967295
301.51724 -14.90359 -54.251701 4294967295
301.64514 -11.202514 -54.613472 4294967295
301.78607 -7.0363207 -55.117752 4294967295
301.79877 -19.51544 -54.297768 4294967295
301.79913 -6.0781951 -55.859848 4294967295
301.80109 -19.022961 -54.812946 4294967295
301.82855 -6.6220989 -54.249409 4294967295
301.83353 -18.595768 -54.290974 4294967295
301.84857 -5.6759839 -54.751373 4294967295
301.85257 -17.146297 -55.420074 4294967295
301.8584 -4.7129307 -55.601578 4294967295
301.85959 -17.657549 -54.584129 4294967295
301.86548 -5.2154775 -54.76321 4294967295
301.90533 -16.761147 -54.199493 4294967295
301.91455 -3.3415995 -55.453266 4294967295
301.92303 -2.8671379 -55.754173 4294967295
301.94003 -15.345562 -54.789738 4294967295
301.96039 -2.4413462 -55.065079 4294967295
301.97586 -14.923613 -54.15189 4294967295
301.99979 -13.981902 -54.518394 4294967295
302.0148 -13.517466 -54.59507 4294967295
302.02292 -13.039296 -54.910046 4294967295
302.05048 -12.106038 -55.148701 4294967295
302.05057 -12.599851 -54.555977 4294967295
302.07587 -11.661998 -54.872429 4294967295
302.10092 -11.217171 -54.606022 4294967295
302.11118 -10.743816 -54.845921 4294967295
302.17007 -9.3774281 -54.606255 4294967295
302.19403 -8.4380989 -54.966721 4294967295
302.22162 -7.9971128 -54.615864 4294967295
302.23969 -7.5385499 -54.59034 4294967295
302.25641 -6.5868545 -55.196983 4294967295
302.29263 -18.120445 -54.760754 4294967295
302.3089 -5.6989422 -54.587364 4294967295
302.37814 -16.810627 -53.618023 4294967295
302.40329 -3.4126444 -54.31749 4294967295
302.42197 -14.423748 -55.063881 4294967295
302.61526 -9.3726063 -54.955719 4294967295
302.66983 -8.4894829 -54.281227 4294967295
302.78796 -4.7747307 -54.957649 4294967295
302.78897 -17.227652 -54.550369 4294967295
302.7984 -5.2822208 -54.027359 4294967295
302.80353 -16.762175 -54.641476 4294967295
302.81177 -4.3260341 -54.738327 4294967295
302.83466 -3.3868699 -55.129009 4294967295
302.84692 -15.365675 -54.923313 4294967295
302.85873 -2.4502602 -55.48011 4294967295
302.86758 -2.9529419 -54.606533 4294967295
302.88049 -14.444192 -54.95647 4294967295
302.9624 -12.136819 -55.106869 4294967295
302.99301 -11.702383 -54.661789 4294967295
303.03275 -10.300374 -55.06469 4294967295
303.06256 -9.3722506 -55.223473 4294967295
303.07986 -9.8955269 -54.070606 4294967295
303.08856 -8.4376698 -55.506168 4294967295
303.17398 -6.6278944 -54.964916 4294967295
303.19342 -7.1520624 -53.746334 4294967295
303.22427 -17.200569 -55.218842 4294967295
303.28128 -4.3640952 -54.272758 4294967295
303.32724 -15.429083 -54.099182 4294967295
303.34766 -14.481338 -54.566345 4294967295
303.42709 -11.676711 -55.364529 4294967295
303.43802 -12.189313 -54.436741 4294967295
303.53522 -9.4179888 -54.650146 4294967295
303.5679 -8.4949493 -54.711781 4294967295
303.64185 -6.6638541 -54.55481 4294967295
303.80188 -14.493137 -54.60527 4294967295
303.81027 -15.002808 -53.767818 4294967295
303.81219 -2.5484743 -54.071465 4294967295
303.81946 -13.541133 -55.159 4294967295
303.87823 -12.667261 -54.370117 4294967295
303.90848 -11.247875 -55.071693 4294967295
303.97076 -10.869993 -53.611069 4294967295
303.99786 -8.4647341 -55.536499 4294967295
304.00449 -8.9664183 -54.761318 4294967295
304.01163 -9.4697132 -53.967773 4294967295
304.05576 -8.0759497 -54.21867 4294967295
304.06232 -7.1079335 -55.126514 4294967295
304.06503 -6.623601 -55.596786 4294967295
304.08029 -7.6283498 -53.985874 4294967295
304.09048 -18.128441 -55.52821 4294967295
304.11588 -17.685158 -55.26643 4294967295
304.12048 -6.2284284 -54.362793 4294967295
304.16757 -17.293938 -54.154083 4294967295
304.1861 -4.3828645 -54.476833 4294967295
304.19757 -16.364954 -54.30204 4294967295
304.22589 -3.4714828 -54.307411 4294967295
304.23062 -3.9670148 -53.598446 4294967295
304.24448 -2.5262794 -54.823044 4294967295
304.29309 -14.082382 -54.009674 4294967295
304.32129 -12.658423 -54.770084 4294967295
304.39426 -11.317389 -54.091404 4294967295
304.42734 -10.394667 -54.139114 4294967295
304.59808 -5.3026786 -54.759178 4294967295
304.62677 -4.3736806 -54.945972 4294967295
304.67319 -16.417927 -53.660046 4294967295
304.71103 -15.503786 -53.556458 4294967295
304.74899 -14.589731 -53.448559 4294967295
304.76279 -13.138784 -54.658962 4294967295
304.80038 -12.716072 -54.014904 4294967295
304.84619 -11.816312 -53.657185 4294967295
304.84705 -11.326695 -54.179028 4294967295
304.86932 -10.38511 -54.567699 4294967295
304.87909 -9.9121246 -54.805931 4294967295
304.90475 -9.4669704 -54.540184 4294967295
304.95401 -9.0621586 -53.529781 4294967295
304.97064 -8.1112671 -54.09663 4294967295
305.00381 -6.7002196 -54.687153 4294967295
305.0564 -6.298512 -53.573048 4294967295
305.06064 -17.287167 -54.719162 4294967295
305.06628 -5.3380847 -54.351978 4294967295
305.0845 -4.3922334 -54.86655 4294967295
305.11646 -16.901501 -53.506336 4294967295
305.11697 -3.9565554 -54.387489 4294967295
305.13168 -16.437363 -53.571079 4294967295
305.13937 -15.958898 -53.874062 4294967295
305.14673 -3.516161 -53.995731 4294967295
305.1521 -15.490326 -54.015873 4294967295
305.17252 -2.5825043 -54.272301 4294967295
305.18213 -3.0842333 -53.426395 4294967295
305.19098 -15.070629 -53.338497 4294967295
305.20929 -13.136981 -54.934193 4294967295
305.21161 -14.616552 -53.233421 4294967295
305.31747 -11.36739 -53.710014 4294967295
305.33905 -10.424413 -54.117939 4294967295
305.42697 -7.6382513 -54.610683 4294967295
305.4274 -8.6169348 -53.517986 4294967295
305.47394 -5.7634397 -55.299397 4294967295
305.48682 -5.2968273 -55.4375 4294967295
305.50677 -17.283712 -55.002411 4294967295
305.57297 -15.439816 -55.093163 4294967295
305.60229 -2.5580931 -55.068394 4294967295
305.63409 -14.569494 -54.267513 4294967295
305.69958 -13.214336 -53.844269 4294967295
305.81946 -9.0135536 -54.948582 4294967295
305.86334 -7.6216135 -55.192753 4294967295
305.86801 -8.6061726 -53.982479 4294967295
305.92249 -7.2303901 -53.901821 4294967295
305.9733 -17.319359 -54.649956 4294967295
305.97351 -5.3615046 -54.460442 4294967295
306.0155 -4.4534273 -54.23143 4294967295
306.04068 -16.461147 -53.641258 4294967295
306.05502 -3.5411162 -54.080227 4294967295
306.05728 -15.507769 -54.194004 4294967295
306.08969 -2.6213722 -54.075787 4294967295
306.09976 -14.602308 -53.95116 4294967295
306.12842 -13.671657 -54.13343 4294967295
306.13638 -14.177182 -53.357716 4294967295
306.17178 -12.767361 -53.862968 4294967295
306.19406 -11.825922 -54.238865 4294967295
306.19571 -11.339001 -54.717735 4294967295
306.26602 -10.480442 -53.624439 4294967295
306.32388 -9.1100006 -53.441662 4294967295
306.42468 -5.8565674 -54.059616 4294967295
306.47092 -17.412695 -53.359646 4294967295
306.47455 -4.9603834 -53.593811 4294967295
306.47839 -3.5072813 -55.051888 4294967295
306.48285 -15.958893 -54.572113 4294967295
306.55212 -15.102036 -53.520699 4294967295
306.59766 -13.710393 -53.712223 4294967295
306.68228 -11.896661 -53.244659 4294967295
306.68777 -10.437929 -54.64447 4294967295
306.79523 -8.6615467 -53.489944 4294967295
306.81042 -7.7100191 -54.074772 4294967295
306.841 -6.2968311 -54.714241 4294967295
306.8595 -6.8130679 -53.638542 4294967295
306.87598 -5.3780603 -54.702389 4294967295
306.8902 -17.359484 -54.451878 4294967295
306.92651 -4.4830003 -54.22163 4294967295
306.93045 -16.450344 -54.28067 4294967295
306.96832 -3.5740809 -54.003826 4294967295
306.97797 -15.553914 -53.893135 4294967295
306.98865 -14.591574 -54.608852 4294967295
307.00085 -3.1367078 -53.546883 4294967295
307.01245 -15.124686 -53.376835 4294967295
307.03925 -13.210309 -54.645721 4294967295
307.05637 -13.730152 -53.615978 4294967295
307.07816 -12.29833 -54.516209 4294967295
307.13367 -10.436791 -54.921234 4294967295
307.14316 -11.430225 -53.606213 4294967295
307.1532 -10.958011 -53.822304 4294967295
307.1835 -10.030903 -53.950069 4294967295
307.18524 -9.0576315 -54.928383 4294967295
307.18555 -9.5459995 -54.404324 4294967295
307.22345 -8.1442986 -54.819714 4294967295
307.24216 -8.6619415 -53.748035 4294967295
307.28217 -7.7505579 -53.584728 4294967295
307.32117 -6.8371649 -53.454842 4294967295
307.49628 -2.2386942 -53.390064 4294967295
307.50464 -14.221924 -53.317451 4294967295
307.57162 -10.910981 -54.914833 4294967295
307.63498 -10.52717 -53.554729 4294967295
307.66498 -9.5995665 -53.689415 4294967295
307.79498 -6.3930025 -53.425434 4294967295
307.80084 -4.9436073 -54.776161 4294967295
307.81897 -4.4852304 -54.751476 4294967295
307.86804 -17.017941 -52.976364 4294967295
307.88272 -15.571547 -54.067863 4294967295
307.89157 -3.1364326 -54.142773 4294967295
307.89224 -3.6225758 -53.615982 4294967295
307.91583 -2.6866083 -53.937897 4294967295
307.92557 -14.176368 -54.332062 4294967295
307.93262 -14.678356 -53.619114 4294967295
307.93802 -15.178141 -52.952419 4294967295
307.98309 -12.806725 -54.164051 4294967295
308.00558 -13.334051 -53.001373 4294967295
308.02209 -12.38313 -53.531029 4294967295
308.04056 -11.436375 -54.001469 4294967295
308.07126 -10.510253 -54.114689 4294967295
308.09344 -9.5707264 -54.475113 4294967295
308.1434 -9.1629982 -53.521877 4294967295
308.17279 -7.7477417 -54.177094 4294967295
308.17517 -8.7257166 -53.100639 4294967295
308.18414 -6.7925835 -54.851551 4294967295
308.21484 -7.3260965 -53.456238 4294967295
308.2153 -6.3540673 -54.448196 4294967295
308.2468 -5.4300308 -54.536877 4294967295
308.26462 -4.9711084 -54.52158 4294967295
308.30753 -16.512585 -53.948208 4294967295
308.31686 -4.0774932 -54.008324 4294967295
308.45581 -12.361442 -54.157505 4294967295
308.50369 -10.487968 -54.770679 4294967295
308.61078 -7.7356958 -54.672218 4294967295
308.69168 -5.4294887 -54.828983 4294967295
308.71271 -6.4320526 -53.23156 4294967295
308.72354 -16.947906 -54.578804 4294967295
308.82556 -2.7146511 -53.962162 4294967295
308.83313 -15.178616 -53.417004 4294967295
308.83533 -15.672167 -52.859657 4294967295
308.83655 -14.694916 -53.815567 4294967295
308.83759 -3.2161431 -53.122128 4294967295
308.86719 -14.257492 -53.433022 4294967295
308.89218 -13.321438 -53.706379 4294967295
308.95856 -11.477036 -53.785694 4294967295
309.01373 -10.102456 -53.690323 4294967295
309.0452 -9.6646376 -53.287056 4294967295
309.06451 -7.7482729 -54.706039 4294967295
309.13449 -7.3681412 -53.207222 4294967295
309.16342 -6.4393325 -53.369068 4294967295
309.16974 -17.436422 -54.336662 4294967295
309.19257 -5.0261049 -54.012871 4294967295
309.215 -4.0890064 -54.358135 4294967295
309.22791 -16.557774 -53.665924 4294967295
309.23123 -3.1438198 -54.877712 4294967295
309.23325 -16.077299 -54.005291 4294967295
309.27643 -15.172163 -53.761395 4294967295
309.33322 -13.31216 -54.109886 4294967295
309.39661 -11.951332 -53.783333 4294967295
309.44067 -11.046445 -53.516609 4294967295
309.54236 -8.2831936 -53.572964 4294967295
309.6062 -6.4353285 -53.722347 4294967295
309.60928 -17.913284 -54.284988 4294967295
309.65652 -5.5381498 -53.280693 4294967295
309.68332 -17.061728 -53.176128 4294967295
309.71301 -16.133068 -53.314545 4294967295
309.85629 -11.485354 -54.142075 4294967295
309.85953 -12.465467 -53.085175 4294967295
309.87933 -10.547894 -54.463326 4294967295
309.91162 -9.6251068 -54.526844 4294967295
309.91229 -11.086298 -53.060612 4294967295
309.95319 -8.230814 -54.813427 4294967295
309.95609 -8.7208309 -54.250618 4294967295
310.01071 -7.8312321 -53.691624 4294967295
310.0126 -6.8634386 -54.601345 4294967295
310.03653 -7.3838472 -53.454876 4294967295
310.05511 -5.9557476 -54.379761 4294967295
310.05597 -5.4725628 -54.836105 4294967295
310.06381 -6.4532108 -53.6567 4294967295
310.11276 -4.5848451 -54.219131 4294967295
310.11621 -17.03739 -53.802349 4294967295
310.1489 -3.6675868 -54.174206 4294967295
310.16821 -16.63616 -52.838043 4294967295
310.19006 -15.205648 -53.671806 4294967295
310.1904 -3.241148 -53.501606 4294967295
310.23935 -14.309725 -53.265148 4294967295
310.28848 -13.413056 -52.860355 4294967295
310.4024 -10.180319 -53.058838 4294967295
310.42172 -9.7232103 -53.002945 4294967295
310.53897 -5.5270262 -54.059742 4294967295
310.55014 -17.993839 -53.435669 4294967295
310.55283 -4.5786319 -54.627872 4294967295
310.58331 -17.560757 -52.998779 4294967295
310.59338 -16.110844 -54.14658 4294967295
310.62549 -4.1956377 -53.106422 4294967295
310.6712 -2.3235941 -53.750416 4294967295
310.70947 -12.885002 -54.280537 4294967295
310.73978 -11.959057 -54.396267 4294967295
310.8364 -10.64846 -53.171947 4294967295
310.84036 -9.6822529 -54.007965 4294967295
310.88559 -9.2641087 -53.24548 4294967295
310.89676 -7.8245473 -54.35527 4294967295
310.91202 -8.331955 -53.468163 4294967295
310.93811 -6.9149442 -54.171177 4294967295
310.93854 -7.4003191 -53.687653 4294967295
310.96899 -6.4746375 -53.799797 4294967295
310.99838 -17.507055 -54.096878 4294967295
311.01477 -5.5706582 -53.493809 4294967295
311.04443 -17.095329 -53.313007 4294967295
311.05048 -4.6521993 -53.464062 4294967295
311.0582 -16.629444 -53.409241 4294967295
311.07465 -3.7180648 -53.746964 4294967295
311.09448 -15.712181 -53.363827 4294967295
311.09506 -3.2624445 -53.660847 4294967295
311.09967 -14.744913 -54.160645 4294967295
311.13821 -2.353919 -53.428875 4294967295
311.14127 -14.32407 -53.500904 4294967295
311.15305 -13.368208 -54.119186 4294967295
311.1976 -12.951166 -53.379974 4294967295
311.1976 -12.464293 -53.848457 4294967295
311.21637 -11.520443 -54.276112 4294967295
311.28549 -10.167382 -53.808346 4294967295
311.38611 -7.4038668 -53.892349 4294967295
311.4317 -18.462149 -53.748943 4294967295
311.45554 -6.5334721 -52.951027 4294967295
311.46991 -5.1012812 -53.9613 4294967295
311.47003 -18.037535 -53.180977 4294967295
311.53134 -15.696594 -53.857014 4294967295
311.53983 -3.2632313 -53.939201 4294967295
311.57312 -2.3418903 -53.975212 4294967295
311.67233 -12.508789 -53.320118 4294967295
311.8446 -7.4232354 -53.798828 4294967295
311.86185 -7.932395 -52.876366 4294967295
311.87268 -18.941259 -53.663685 4294967295
311.88086 -17.977934 -54.366673 4294967295
311.88589 -6.5130196 -53.618427 4294967295
311.88928 -18.48037 -53.680225 4294967295
311.91373 -5.1005373 -54.259426 4294967295
311.91449 -4.6185861 -54.698818 4294967295
311.93655 -5.6153193 -53.189632 4294967295
311.93802 -17.583908 -53.303356 4294967295
311.95621 -16.6374 -53.738949 4294967295
311.97791 -16.184685 -53.621346 4294967295
311.98718 -3.7503548 -53.683918 4294967295
311.98785 -15.225796 -54.276814 4294967295
312.00003 -15.732483 -53.493622 4294967295
312.00287 -3.2883892 -53.725994 4294967295
312.04068 -14.335217 -53.790504 4294967295
312.04877 -2.3833904 -53.424541 4294967295
312.06717 -13.889739 -53.545807 4294967295
312.08545 -13.431409 -53.518658 4294967295
312.11371 -12.501925 -53.686962 4294967295
312.13315 -11.074048 -54.546894 4294967295
312.15143 -10.616022 -54.520241 4294967295
312.18695 -9.698391 -54.49432 4294967295
312.24118 -9.2923698 -53.515289 4294967295
312.31256 -18.930073 -54.062908 4294967295
312.32083 -7.4674082 -53.238251 4294967295
312.38025 -17.089136 -54.099178 4294967295
312.46533 -3.312645 -53.531155 4294967295
312.56754 -12.514294 -53.718681 4294967295
312.62711 -11.631833 -53.06218 4294967295
312.66708 -10.234297 -53.374493 4294967295
312.73315 -19.863735 -54.056038 4294967295
312.76312 -6.4969015 -54.478542 4294967295
312.81183 -19.505672 -52.449265 4294967295
312.81299 -17.55497 -54.225456 4294967295
312.85785 -5.6588497 -52.907501 4294967295
312.86456 -4.2190537 -54.086102 4294967295
312.86743 -16.180244 -54.158306 4294967295
312.86768 -4.7058401 -53.552277 4294967295
312.87955 -16.686604 -53.390842 4294967295
312.90536 -15.753029 -53.619259 4294967295
312.91473 -2.8379335 -54.128544 4294967295
312.93036 -14.818602 -53.86792 4294967295
312.94244 -13.864882 -54.452618 4294967295
312.95453 -14.369369 -53.689835 4294967295
312.95859 -2.4120989 -53.435883 4294967295
312.99695 -12.490311 -54.383617 4294967295
313.02179 -13.013182 -53.287762 4294967295
313.05453 -11.605149 -53.784595 4294967295
313.0567 -12.093703 -53.279736 4294967295
313.10587 -10.709913 -53.349449 4294967295
313.11264 -9.2661572 -54.518719 4294967295
313.17279 -8.3830118 -53.85392 4294967295
313.17761 -8.8737984 -53.282303 4294967295
313.20081 -7.9381266 -53.576256 4294967295
313.21118 -19.427748 -53.901184 4294967295
313.21249 -7.4705882 -53.720886 4294967295
313.24707 -18.998316 -53.419502 4294967295
313.26089 -6.5697179 -53.363235 4294967295
313.28036 -18.076517 -53.452076 4294967295
313.28558 -17.597391 -53.764053 4294967295
313.32785 -17.177204 -53.118477 4294967295
313.37994 -3.3476343 -53.413937 4294967295
313.3988 -2.4079866 -53.819443 4294967295
313.44934 -12.986327 -53.997395 4294967295
313.5368 -11.659273 -53.080177 4294967295
313.56616 -9.762785 -54.103867 4294967295
313.65182 -7.9470663 -53.678078 4294967295
313.70251 -18.525385 -53.851109 4294967295
313.86215 -14.394276 -53.74567 4294967295
313.87488 -14.899512 -52.979374 4294967295
313.87921 -13.44877 -54.192677 4294967295
313.9025 -13.969025 -53.156837 4294967295
313.91318 -12.528803 -54.206993 4294967295
313.96851 -11.155124 -54.117744 4294967295
313.97052 -11.642595 -53.625683 4294967295
313.98767 -10.698252 -54.068871 4294967295
314.07059 -8.3953609 -54.157589 4294967295
314.09119 -7.457325 -54.512405 4294967295
314.10574 -7.9601264 -53.702667 4294967295
314.13855 -18.996609 -53.888912 4294967295
314.13937 -19.485352 -53.429405 4294967295
314.1665 -6.110034 -53.914932 4294967295
314.17453 -18.56662 -53.413975 4294967295
314.18472 -6.6168823 -53.014359 4294967295
314.1976 -5.6684055 -53.565037 4294967295
314.21054 -17.64917 -53.377438 4294967295
314.23291 -4.2678237 -53.983902 4294967295
314.24673 -16.245512 -53.774723 4294967295
314.25385 -16.742889 -53.156738 4294967295
314.27219 -3.354475 -53.863686 4294967295
314.28976 -2.4140558 -54.293671 4294967295
314.3241 -14.904762 -53.128345 4294967295
314.32724 -2.9418316 -52.908424 4294967295
314.38028 -13.531134 -53.020702 4294967295
314.41953 -12.617947 -52.901836 4294967295
314.47498 -10.274244 -53.684444 4294967295
314.58823 -7.5285883 -53.442638 4294967295
314.60822 -18.547119 -53.948696 4294967295
314.64508 -5.6732855 -53.751175 4294967295
314.70175 -4.300189 -53.630455 4294967295
314.73837 -15.343562 -53.717724 4294967295
314.77798 -2.469841 -53.451363 4294967295
314.86752 -11.652966 -53.944679 4294967295
314.87344 -12.630401 -52.931946 4294967295
314.88541 -11.1942 -53.929253 4294967295
314.89713 -10.726824 -54.067852 4294967295
314.94849 -9.3474789 -54.078709 4294967295
314.9899 -8.9205818 -53.477352 4294967295
315.02478 -8.0013847 -53.469452 4294967295
315.03491 -19.003807 -54.216469 4294967295
315.05475 -6.5933537 -54.014984 4294967295
315.0592 -19.528851 -53.180859 4294967295
315.05978 -18.556145 -54.026993 4294967295
315.06668 -7.5741863 -52.856003 4294967295
315.07309 -5.653399 -54.416874 4294967295
315.09943 -18.131157 -53.470184 4294967295
315.12262 -5.2350264 -53.61507 4294967295
315.12457 -17.683472 -53.274284 4294967295
315.15509 -16.757572 -53.375378 4294967295
315.16183 -3.840055 -53.92844 4294967295
315.172 -17.269556 -52.525154 4294967295
315.17831 -4.341949 -53.090981 4294967295
315.20386 -3.4109287 -53.314262 4294967295
315.21143 -15.384775 -53.263531 4294967295
315.22064 -14.427884 -53.89291 4294967295
315.23856 -2.4913464 -53.310677 4294967295
315.25781 -13.028033 -54.255302 4294967295
315.27472 -13.536796 -53.409286 4294967295
315.35446 -11.712476 -53.145496 4294967295
315.46161 -7.9919338 -53.914207 4294967295
315.52472 -6.6275816 -53.637329 4294967295
315.57761 -17.208662 -53.745605 4294967295
315.58371 -16.732183 -54.021366 4294967295
315.62881 -15.343635 -54.186634 4294967295
315.63104 -3.8725052 -53.571148 4294967295
315.64163 -2.9239321 -54.160538 4294967295
315.65747 -2.4626389 -54.196697 4294967295
315.68484 -14.455841 -53.658176 4294967295
315.86182 -9.8644667 -53.556053 4294967295
315.90369 -9.4376926 -52.953911 4294967295
315.90384 -7.9900036 -54.218536 4294967295
315.92462 -8.4996958 -53.288303 4294967295
315.95636 -7.5763884 -53.35619 4294967295
315.96298 -19.060894 -53.750607 4294967295
315.97473 -6.1543956 -54.173714 4294967295
315.98648 -6.6510324 -53.465302 4294967295
315.98993 -18.615963 -53.515427 4294967295
316.00278 -19.608812 -52.356419 4294967295
316.07745 -16.804401 -53.066696 4294967295
316.07767 -15.83419 -53.903645 4294967295
316.09256 -15.371151 -53.961411 4294967295
316.09335 -16.342442 -53.10051 4294967295
316.10663 -3.9124327 -53.064598 4294967295
316.10797 -4.3953304 -52.609722 4294967295
316.10834 -3.4336529 -53.443798 4294967295
316.12286 -2.4902058 -53.931744 4294967295
316.13089 -14.942017 -53.449364 4294967295
316.14133 -13.988097 -54.035835 4294967295
316.14255 -14.474155 -53.58662 4294967295
316.16956 -13.060132 -54.189644 4294967295
316.2001 -12.619246 -53.866341 4294967295
316.24084 -11.708548 -53.716591 4294967295
316.26123 -10.287174 -54.479958 4294967295
316.29242 -11.295788 -52.883705 4294967295
316.34464 -9.9163322 -52.874931 4294967295
316.42697 -19.575172 -53.106987 4294967295
316.48251 -18.201067 -53.018337 4294967295
316.48779 -18.695137 -52.472191 4294967295
316.6366 -14.544357 -52.6366 4294967295
316.78024 -9.4224129 -53.755875 4294967295
316.84137 -7.0922766 -54.361881 4294967295
316.87198 -19.574087 -53.343311 4294967295
316.8909 -6.6734953 -53.587597 4294967295
316.89615 -6.1988025 -53.875847 4294967295
316.8988 -18.157526 -53.942924 4294967295
316.92276 -19.164881 -52.54023 4294967295
316.92657 -18.68454 -52.86417 4294967295
316.95438 -16.784399 -53.853535 4294967295
316.96655 -17.287279 -53.147991 4294967295
316.96979 -3.8856044 -54.18124 4294967295
316.98492 -16.344143 -53.535015 4294967295
317.00128 -2.4834967 -54.665897 4294967295
317.01553 -2.9799213 -53.912846 4294967295
317.01727 -3.4620657 -53.458805 4294967295
317.04837 -15.466091 -52.844517 4294967295
317.04968 -14.015339 -54.052639 4294967295
317.05301 -14.503914 -53.560184 4294967295
317.07233 -15.015609 -52.685131 4294967295
317.07297 -13.080844 -54.32066 4294967295
317.09412 -13.593714 -53.402893 4294967295
317.12149 -12.18116 -53.986702 4294967295
317.15112 -11.255527 -54.103973 4294967295
317.17776 -11.774398 -53.056828 4294967295
317.21338 -10.856052 -53.031757 4294967295
317.23016 -10.395472 -53.044224 4294967295
317.24979 -8.974122 -53.811115 4294967295
317.25098 -9.4578152 -53.37088 4294967295
317.26993 -8.0365849 -54.153576 4294967295
317.29071 -8.5449562 -53.247906 4294967295
317.30157 -7.5953526 -53.811478 4294967295
317.3324 -6.6715131 -53.900604 4294967295
317.42886 -4.8663702 -53.251209 4294967295
317.45261 -4.4142785 -53.098618 4294967295
317.49704 -3.9867125 -52.4543 4294967295
317.5022 -15.963179 -52.461201 4294967295
317.54395 -2.6005955 -52.572437 4294967295
317.65503 -9.8883867 -54.15873 4294967295
317.76898 -19.09808 -54.042603 4294967295
317.784 -7.6447206 -53.15461 4294967295
317.836 -4.8238864 -54.370792 4294967295
317.90485 -16.387352 -53.284611 4294967295
317.92361 -15.445648 -53.655746 4294967295
317.92661 -3.9712515 -53.053215 4294967295
317.95938 -14.528125 -53.627335 4294967295
317.97266 -3.5450115 -52.377388 4294967295
317.99979 -2.616188 -52.552692 4294967295
318.00702 -13.626824 -53.320023 4294967295
318.03674 -12.700819 -53.433849 4294967295
318.03745 -12.218952 -53.821899 4294967295
318.05466 -11.759292 -53.824112 4294967295
318.10892 -11.348617 -52.95713 4294967295
318.11377 -10.390192 -53.653107 4294967295
318.15366 -9.4778271 -53.528275 4294967295
318.18835 -8.5587177 -53.524685 4294967295
318.21765 -7.6328678 -53.64753 4294967295
318.22891 -7.1658497 -53.787655 4294967295
318.23013 -6.6866555 -54.161877 4294967295
318.23895 -18.650078 -54.08194 4294967295
318.27414 -19.186554 -52.858459 4294967295
318.28799 -19.692532 -52.131096 4294967295
318.30435 -6.2964134 -52.83424 4294967295
318.30508 -4.8560176 -54.024567 4294967295
318.31952 -17.797581 -53.008957 4294967295
318.33206 -4.4079528 -53.799114 4294967295
318.3331 -16.848095 -53.497536 4294967295
318.40457 -2.5736351 -53.719952 4294967295
318.4071 -3.5357561 -52.856567 4294967295
318.42841 -13.595856 -54.09338 4294967295
318.54001 -10.368025 -54.308311 4294967295
318.60062 -9.4824963 -53.704037 4294967295
318.63449 -8.0814915 -54.119999 4294967295
318.79236 -15.901315 -54.186466 4294967295
318.79968 -4.9178195 -53.096146 4294967295
318.82498 -15.463231 -53.831467 4294967295
318.82645 -16.916779 -52.601768 4294967295
318.84073 -3.0466452 -53.74337 4294967295
318.85757 -14.541557 -53.876904 4294967295
318.91144 -12.683522 -54.226688 4294967295
318.92953 -14.156053 -52.617176 4294967295
318.97061 -11.796993 -53.660545 4294967295
319.01855 -11.377203 -52.955238 4294967295
319.04053 -10.441457 -53.244411 4294967295
319.07205 -8.5559349 -54.107002 4294967295
319.09616 -9.0670261 -53.157478 4294967295
319.11115 -7.6427026 -54.003021 4294967295
319.11261 -8.1251783 -53.573582 4294967295
319.14108 -19.152863 -53.834179 4294967295
319.15463 -19.657085 -53.128357 4294967295
319.16788 -6.7505631 -53.494171 4294967295
319.18372 -18.729769 -53.253315 4294967295
319.18713 -5.8131795 -53.844719 4294967295
319.18958 -5.3362546 -54.184269 4294967295
319.20679 -17.794081 -53.516941 4294967295
319.21472 -6.3262186 -52.817268 4294967295
319.24994 -3.4889231 -54.382927 4294967295
319.25165 -16.405693 -53.675236 4294967295
319.26904 -15.463102 -54.06802 4294967295
319.30136 -3.0682058 -53.602306 4294967295
319.32898 -2.620224 -53.365467 4294967295
319.34232 -14.596679 -53.18277 4294967295
319.39047 -13.21266 -53.266357 4294967295
319.39847 -13.705961 -52.69043 4294967295
319.47513 -9.9491539 -54.093037 4294967295
319.5708 -9.1061668 -52.702 4294967295
319.64792 -17.78931 -53.819557 4294967295
319.65872 -19.257347 -52.396614 4294967295
319.68149 -4.4356828 -54.112499 4294967295
319.72397 -4.9641476 -52.75679 4294967295
319.90707 -11.37909 -53.426559 4294967295
319.92944 -10.444594 -53.701073 4294967295
319.93698 -11.899297 -52.359756 4294967295
320.00784 -9.5798464 -52.711929 4294967295
320.0174 -8.6295424 -53.276382 4294967295
