# .PCD v0.7 - Point Cloud Data file format
VERSION 0.7
FIELDS x y z rgb
SIZE 4 4 4 4
TYPE F F F U
COUNT 1 1 1 1
WIDTH 1147
HEIGHT 1
VIEWPOINT 0 0 0 1 0 0 0
POINTS 1147
DATA ascii
197.70622 108.4585 -52.450111 4294967295
197.8058 115.58292 -49.683792 4294967295
197.83177 117.97171 -48.633949 4294967295
197.84651 114.10426 -51.269615 4294967295
197.85564 116.9854 -49.637566 4294967295
197.85753 117.46603 -49.371349 4294967295
197.90378 119.83839 -48.66629 4294967295
197.92499 118.85291 -49.625252 4294967295
198.05278 105.1775 -52.503662 4294967295
198.17029 109.87807 -51.526134 4294967295
198.2113 109.36657 -52.525162 4294967295
198.21591 110.32171 -52.006981 4294967295
198.22627 112.2336 -50.988319 4294967295
198.23914 111.74275 -51.507233 4294967295
198.24446 111.25838 -51.897427 4294967295
198.26257 113.16484 -51.010418 4294967295
198.26506 116.0515 -49.254208 4294967295
198.28987 114.10367 -50.878769 4294967295
198.29973 115.53931 -50.14854 4294967295
198.32419 117.92878 -49.066322 4294967295
198.32999 116.47649 -50.066925 4294967295
198.35324 117.4201 -49.86512 4294967295
198.36105 118.86093 -49.097565 4294967295
198.3627 120.79328 -47.921757 4294967295
198.36636 122.24271 -47.079903 4294967295
198.37257 119.81667 -48.693714 4294967295
198.38004 121.74503 -47.616737 4294967295
198.39224 120.28172 -48.730438 4294967295
198.4137 119.29537 -49.700294 4294967295
198.42873 121.21446 -48.754971 4294967295
198.4841 105.18274 -51.914345 4294967295
198.48582 122.61121 -48.832458 4294967295
198.50652 106.1235 -51.69899 4294967295
198.5349 106.58127 -51.886288 4294967295
198.56435 107.51701 -51.791237 4294967295
198.60172 107.96766 -52.133011 4294967295
198.62709 110.82574 -50.765343 4294967295
198.69746 114.1338 -49.867203 4294967295
198.77602 115.51078 -50.316223 4294967295
198.83659 119.79935 -48.639626 4294967295
198.87102 121.70211 -48.021755 4294967295
198.87308 122.18446 -47.753937 4294967295
198.88254 118.79041 -50.039146 4294967295
199.18393 113.61546 -50.514908 4294967295
199.20242 114.08092 -50.53199 4294967295
199.22093 115.02793 -50.245495 4294967295
199.24454 116.93539 -49.439068 4294967295
199.25101 116.44723 -49.85564 4294967295
199.2796 118.35172 -49.13488 4294967295
199.28685 122.21667 -46.817963 4294967295
199.29091 117.37591 -49.940704 4294967295
199.30148 121.23316 -47.684547 4294967295
199.30855 119.29113 -49.028606 4294967295
199.33145 120.23645 -48.817268 4294967295
199.34946 122.64001 -47.60318 4294967295
199.39975 106.59229 -50.722992 4294967295
199.4525 105.11681 -52.553024 4294967295
199.4566 107.02863 -51.408051 4294967295
199.46774 106.06243 -52.210144 4294967295
199.5202 107.93837 -51.90667 4294967295
199.54977 107.43662 -52.725464 4294967295
199.55829 108.38805 -52.265186 4294967295
199.58482 110.7656 -51.204407 4294967295
199.63577 111.20409 -51.788071 4294967295
199.65424 112.63011 -51.194656 4294967295
199.68727 117.42002 -48.711327 4294967295
199.7028 113.06969 -51.737679 4294967295
199.7077 114.0273 -51.212357 4294967295
199.73563 119.79231 -48.022739 4294967295
199.74234 115.44114 -50.900227 4294967295
199.76401 120.24918 -48.212975 4294967295
199.84822 122.58858 -48.152214 4294967295
199.97032 108.89022 -51.018646 4294967295
200.0146 109.81486 -51.181564 4294967295
200.03423 112.20197 -49.989567 4294967295
200.06757 110.252 -51.804661 4294967295
200.06927 111.69162 -50.913094 4294967295
200.09024 114.56197 -49.434818 4294967295
200.1512 115.95448 -49.582848 4294967295
200.15567 113.06091 -51.509354 4294967295
200.17258 116.41762 -49.650826 4294967295
200.19449 117.36288 -49.419945 4294967295
200.19858 119.29228 -48.25589 4294967295
200.19943 118.8078 -48.580376 4294967295
200.20117 120.74226 -47.373123 4294967295
200.2289 116.84875 -50.334938 4294967295
200.24246 121.18655 -47.792313 4294967295
200.2431 120.21748 -48.422718 4294967295
200.25334 121.66045 -47.674667 4294967295
200.3013 122.09766 -48.212101 4294967295
200.33084 106.55408 -50.698982 4294967295
200.3571 107.01351 -50.853729 4294967295
200.37375 105.08497 -52.380775 4294967295
200.42004 108.40356 -51.038502 4294967295
200.45682 109.81441 -50.761002 4294967295
200.51895 109.28421 -52.168087 4294967295
200.55589 111.65455 -51.275513 4294967295
200.57098 112.60343 -50.923683 4294967295
200.58847 111.1469 -52.161263 4294967295
200.59135 113.54829 -50.664845 4294967295
200.59348 114.02796 -50.392342 4294967295
200.62451 113.03844 -51.561943 4294967295
200.65375 114.45646 -51.150318 4294967295
200.66452 115.41019 -50.721115 4294967295
200.66753 115.88946 -50.464104 4294967295
200.69476 118.27747 -49.394348 4294967295
200.73131 120.17673 -48.798203 4294967295
200.74207 119.19912 -49.612179 4294967295
200.77818 121.09893 -49.008476 4294967295
200.84602 106.0178 -51.88044 4294967295
200.94995 110.25294 -50.929985 4294967295
201.18994 122.58811 -47.079491 4294967295
201.19847 105.12559 -50.481167 4294967295
201.20119 121.6067 -47.909618 4294967295
201.23454 121.08899 -48.821388 4294967295
201.25629 122.03614 -48.583046 4294967295
201.26117 106.51635 -50.663879 4294967295
201.26439 106.99361 -50.408443 4294967295
201.28027 106.02223 -51.318428 4294967295
201.3248 107.42612 -51.176373 4294967295
201.33838 108.37514 -50.793015 4294967295
201.36406 109.3149 -50.626419 4294967295
201.44553 110.20865 -51.459785 4294967295
201.45241 109.72278 -51.896591 4294967295
201.46368 111.1545 -51.158199 4294967295
201.47684 110.66291 -51.707779 4294967295
201.48166 112.101 -50.853081 4294967295
201.49455 113.05242 -50.456306 4294967295
201.53017 114.94837 -49.83802 4294967295
201.55081 113.4845 -51.15284 4294967295
201.55475 115.89086 -49.650806 4294967295
201.56194 114.4378 -50.723602 4294967295
201.57249 116.84004 -49.339828 4294967295
201.57489 116.35498 -49.698044 4294967295
201.6118 117.28625 -49.731972 4294967295
201.61548 120.18497 -47.904198 4294967295
201.63655 119.19616 -48.915733 4294967295
201.89377 109.24296 -51.774185 4294967295
201.89928 109.71857 -51.557907 4294967295
201.93036 112.57754 -50.223511 4294967295
202.03595 115.37478 -50.23402 4294967295
202.03835 117.78734 -48.69091 4294967295
202.10785 118.6878 -49.316078 4294967295
202.19926 106.95235 -50.45364 4294967295
202.20355 122.95176 -48.189545 4294967295
202.20641 106.46688 -50.901112 4294967295
202.23386 108.3654 -50.128967 4294967295
202.2511 107.87118 -50.759525 4294967295
202.28613 109.28374 -50.443031 4294967295
202.30396 108.78867 -51.084332 4294967295
202.32782 109.7298 -50.88221 4294967295
202.32805 110.69129 -50.250187 4294967295
202.34921 110.19252 -50.953484 4294967295
202.35539 111.14915 -50.429375 4294967295
202.41205 111.58156 -51.141705 4294967295
202.42212 113.49866 -50.050995 4294967295
202.43059 112.04653 -51.161362 4294967295
202.46713 116.35294 -48.956142 4294967295
202.48587 114.88738 -50.256187 4294967295
202.4982 115.84099 -49.842537 4294967295
202.51941 114.37481 -51.186516 4294967295
202.53668 117.25365 -49.586098 4294967295
202.5385 119.18671 -48.339279 4294967295
202.54314 116.76447 -50.023796 4294967295
202.56027 105.57485 -49.49308 4294967295
202.56139 118.19667 -49.397636 4294967295
202.56247 120.13181 -48.136425 4294967295
202.57727 121.57159 -47.444969 4294967295
202.58235 117.69315 -50.100456 4294967295
202.5901 122.52934 -47.037415 4294967295
202.60034 106.0238 -49.905167 4294967295
202.64651 121.01646 -49.032581 4294967295
202.67245 107.8876 -49.943623 4294967295
202.85854 112.54149 -50.146027 4294967295
202.91335 116.35217 -48.579971 4294967295
202.9303 115.37007 -49.535355 4294967295
202.94861 117.76962 -48.261383 4294967295
203.03241 119.13984 -48.836067 4294967295
203.05453 121.05588 -47.952461 4294967295
203.17677 109.27905 -49.677109 4294967295
203.22195 108.2802 -51.154877 4294967295
203.22594 109.71875 -50.260971 4294967295
203.24216 110.18607 -50.237045 4294967295
203.29541 111.58408 -50.251205 4294967295
203.30536 111.09407 -50.757679 4294967295
203.31253 112.05064 -50.244255 4294967295
203.33775 113.95641 -49.416271 4294967295
203.36191 112.9702 -50.509758 4294967295
203.3743 113.44095 -50.41552 4294967295
203.39201 115.35443 -49.448498 4294967295
203.42351 115.80781 -49.707165 4294967295
203.43945 116.75893 -49.354149 4294967295
203.4415 114.82578 -50.687744 4294967295
203.45137 116.26441 -49.898945 4294967295
203.463 117.70329 -49.141014 4294967295
203.47392 118.17638 -49.019199 4294967295
203.48445 120.10337 -47.914597 4294967295
203.504 119.11473 -48.927288 4294967295
203.52701 121.51521 -47.727966 4294967295
203.52859 105.98796 -49.82608 4294967295
203.54295 122.95557 -47.046585 4294967295
203.5657 122.44582 -47.795349 4294967295
203.6044 107.84869 -49.933399 4294967295
203.63498 108.78505 -49.851128 4294967295
203.83545 112.46175 -50.975826 4294967295
203.88049 117.24712 -48.553513 4294967295
203.88182 113.38319 -51.188232 4294967295
203.91429 118.1821 -48.529953 4294967295
204.11365 108.27397 -50.411556 4294967295
204.22418 111.0658 -50.515572 4294967295
204.23683 110.57343 -51.080318 4294967295
204.24503 112.01063 -50.25042 4294967295
204.28461 111.49379 -51.319847 4294967295
204.30234 115.33569 -49.026939 4294967295
204.31253 113.39538 -50.53231 4294967295
204.31393 116.29156 -48.587101 4294967295
204.33197 114.34201 -50.240669 4294967295
204.37903 116.71223 -49.480606 4294967295
204.38594 118.15704 -48.622761 4294967295
204.39018 115.73513 -50.347733 4294967295
204.40311 119.10872 -48.286308 4294967295
204.40776 117.16773 -49.691681 4294967295
204.43091 120.53516 -47.819717 4294967295
204.46788 106.42368 -49.6259 4294967295
204.47662 122.42973 -47.359249 4294967295
204.50783 121.91093 -48.278019 4294967295
204.5173 121.41566 -48.78685 4294967295
204.54042 122.8475 -48.231392 4294967295
204.54239 108.28554 -49.710392 4294967295
204.55907 107.79071 -50.354393 4294967295
204.59163 109.68747 -49.648872 4294967295
204.61255 110.63265 -49.383095 4294967295
204.6373 109.16707 -50.839333 4294967295
204.65338 110.11537 -50.48296 4294967295
204.76855 112.42055 -51.006233 4294967295
204.85394 116.20035 -49.974751 4294967295
204.87006 118.11938 -48.95388 4294967295
204.87607 117.62935 -49.399368 4294967295
204.90285 121.96689 -46.915321 4294967295
204.94637 106.39406 -49.858437 4294967295
204.97179 107.33459 -49.677021 4294967295
205.08798 109.64152 -50.221313 4294967295
205.21829 112.41524 -50.703465 4294967295
205.25113 113.83157 -50.329384 4294967295
205.25989 114.78882 -49.829544 4294967295
205.28836 117.17899 -48.702778 4294967295
205.28931 117.6623 -48.386932 4294967295
205.30605 115.22756 -50.375908 4294967295
205.31006 116.67359 -49.451317 4294967295
205.31813 116.18212 -49.939312 4294967295
205.34052 121.49188 -46.685009 4294967295
205.35213 119.53732 -48.247757 4294967295
205.35381 118.0818 -49.283691 4294967295
205.37755 119.02641 -49.068207 4294967295
205.39429 122.40687 -47.042 4294967295
205.41499 120.44206 -48.779472 4294967295
205.43857 106.83359 -50.022873 4294967295
205.45084 107.30415 -49.923374 4294967295
205.48207 108.72118 -49.516556 4294967295
205.51199 109.17683 -49.753792 4294967295
205.54034 110.11533 -49.626324 4294967295
205.54289 108.18805 -51.014061 4294967295
205.60199 110.54239 -50.471596 4294967295
205.80846 120.49883 -47.372841 4294967295
205.8222 117.09155 -49.997162 4294967295
205.8231 121.94154 -46.641251 4294967295
205.83795 122.89882 -46.250305 4294967295
205.84251 120.94855 -47.691151 4294967295
205.85597 119.47852 -48.962646 4294967295
205.96262 108.20773 -50.130314 4294967295
206.07533 110.9976 -50.279533 4294967295
206.09973 110.49394 -51.087727 4294967295
206.12149 112.40174 -50.15744 4294967295
206.18018 116.21143 -48.583931 4294967295
206.18274 115.24125 -49.311287 4294967295
206.21918 117.62549 -48.32106 4294967295
206.22385 114.23526 -50.782852 4294967295
206.23425 116.64165 -49.291885 4294967295
206.28229 120.47132 -47.505066 4294967295
206.30502 118.02245 -49.645126 4294967295
206.30684 106.84781 -48.78846 4294967295
206.31544 120.92177 -47.808487 4294967295
206.3271 119.93837 -48.71521 4294967295
206.35115 107.77319 -48.96833 4294967295
206.3515 121.85481 -47.828033 4294967295
206.35371 122.33862 -47.530472 4294967295
206.43687 107.21902 -50.971008 4294967295
206.46259 108.63969 -50.452301 4294967295
206.47192 109.59449 -49.953495 4294967295
206.47484 108.148 -51.029633 4294967295
206.50871 110.0434 -50.328613 4294967295
206.56334 110.95759 -50.710575 4294967295
206.5656 111.43749 -50.414459 4294967295
206.61087 111.87775 -50.954788 4294967295
206.61487 112.83857 -50.351826 4294967295
206.61855 113.31776 -50.082706 4294967295
206.63225 115.23765 -48.985588 4294967295
206.63974 112.33292 -51.176048 4294967295
206.64496 114.25834 -49.915543 4294967295
206.69417 117.11221 -48.826981 4294967295
206.71779 116.12036 -49.970993 4294967295
206.72209 115.63257 -50.396164 4294967295
206.73418 119.01025 -48.239162 4294967295
206.84705 122.28914 -48.047836 4294967295
206.85735 108.20056 -49.406174 4294967295
206.86896 107.70908 -49.975098 4294967295
206.86897 122.75123 -48.133804 4294967295
206.94302 110.53421 -49.369789 4294967295
207.06351 113.31787 -49.672398 4294967295
207.07568 114.75633 -48.880508 4294967295
207.17302 119.50496 -47.348145 4294967295
207.2373 118.95149 -48.959534 4294967295
207.25154 121.85108 -47.167309 4294967295
207.25253 106.79745 -49.043816 4294967295
207.25417 120.87559 -47.910233 4294967295
207.25983 119.89802 -48.71312 4294967295
207.26964 121.34483 -47.869942 4294967295
207.28163 120.36008 -48.797379 4294967295
207.29617 107.24149 -49.558289 4294967295
207.30537 122.27805 -47.883492 4294967295
207.32539 107.69761 -49.789101 4294967295
207.35425 109.11739 -49.322727 4294967295
207.36087 108.62961 -49.798874 4294967295
207.42816 109.53296 -50.435715 4294967295
207.43475 110.00885 -50.220432 4294967295
207.48164 110.44794 -50.800861 4294967295
207.51663 111.37956 -50.801228 4294967295
207.5397 112.32249 -50.56628 4294967295
207.58022 115.66627 -48.94384 4294967295
207.59253 113.23709 -50.919205 4294967295
207.59763 116.61736 -48.595192 4294967295
207.5995 114.67941 -50.019325 4294967295
207.61472 117.0845 -48.586529 4294967295
207.62338 116.10682 -49.452209 4294967295
207.62872 119.01081 -47.474037 4294967295
207.63606 119.48888 -47.271324 4294967295
207.64365 117.53935 -48.812813 4294967295
207.64618 118.5068 -48.168156 4294967295
207.66371 120.43135 -47.124062 4294967295
207.74033 122.29322 -47.2523 4294967295
207.75667 106.74522 -49.79641 4294967295
207.80524 108.62911 -49.370575 4294967295
207.82773 108.1274 -50.165352 4294967295
207.87488 110.49491 -49.363014 4294967295
207.96901 111.37208 -50.539921 4294967295
207.98853 114.25195 -48.836555 4294967295
208.0141 115.1946 -48.648117 4294967295
208.02713 113.24719 -50.304108 4294967295
208.04051 112.75143 -50.919243 4294967295
208.14633 119.42184 -48.139748 4294967295
208.15614 117.4709 -49.736252 4294967295
208.22871 122.24861 -47.68327 4294967295
208.24861 107.18427 -49.968124 4294967295
208.26144 106.69192 -50.57473 4294967295
208.27258 108.1263 -49.747192 4294967295
208.28603 109.07825 -49.315102 4294967295
208.32843 109.52182 -49.814247 4294967295
208.36681 109.96873 -50.233032 4294967295
208.40657 111.37878 -49.977909 4294967295
208.46924 111.80171 -50.884842 4294967295
208.48201 112.7548 -50.438709 4294967295
208.49112 112.26326 -50.972527 4294967295
208.49295 114.67778 -49.251991 4294967295
208.51938 115.13513 -49.431648 4294967295
208.53876 116.08385 -49.11729 4294967295
208.57759 115.55988 -50.250759 4294967295
208.58702 118.45811 -48.325546 4294967295
208.58868 117.00115 -49.417362 4294967295
208.62013 119.39369 -48.286953 4294967295
208.62515 120.36036 -47.68108 4294967295
208.64909 106.25862 -49.357574 4294967295
208.65453 120.81422 -47.919968 4294967295
208.65755 105.7701 -49.880424 4294967295
208.67044 121.28295 -47.88736 4294967295
208.67584 121.76354 -47.64286 4294967295
208.69534 122.71539 -47.32814 4294967295
208.69896 107.65996 -49.303963 4294967295
208.78119 109.99663 -49.196861 4294967295
208.79573 108.05521 -50.903931 4294967295
208.86702 111.84698 -49.516739 4294967295
208.91219 113.25302 -49.368103 4294967295
208.98201 114.63447 -49.719128 4294967295
208.98244 116.08701 -48.662804 4294967295
209.01239 117.5108 -48.204437 4294967295
209.04771 120.38911 -46.784279 4294967295
209.065 119.88332 -47.492889 4294967295
209.07547 118.41414 -48.773834 4294967295
209.08209 105.78604 -49.043407 4294967295
209.1051 122.27309 -46.524517 4294967295
209.12206 119.33462 -49.008698 4294967295
209.20439 108.56887 -49.394577 4294967295
209.24019 109.98341 -49.054424 4294967295
209.24333 109.01546 -49.83049 4294967295
209.24731 109.49412 -49.555679 4294967295
209.34229 110.85233 -50.421051 4294967295
209.37827 111.30043 -50.79834 4294967295
209.38013 112.2643 -50.12278 4294967295
209.40939 113.20202 -50.005905 4294967295
209.42546 116.09119 -48.188602 4294967295
209.42786 114.15082 -49.668678 4294967295
209.44197 115.58916 -48.88406 4294967295
209.45662 117.02888 -48.108849 4294967295
209.50568 119.89199 -46.959782 4294967295
209.50699 117.46053 -48.781231 4294967295
209.52036 118.90302 -47.978912 4294967295
209.54666 120.33299 -47.440407 4294967295
209.55836 105.75755 -49.252991 4294967295
209.56587 122.25998 -46.395393 4294967295
209.58138 121.26749 -47.433571 4294967295
209.59779 107.16824 -48.984638 4294967295
209.60201 120.75738 -48.21611 4294967295
209.60472 105.23627 -50.559822 4294967295
209.62383 106.18181 -50.234913 4294967295
209.62926 122.67419 -47.336475 4294967295
209.63638 107.61565 -49.416664 4294967295
209.66656 108.5526 -49.317856 4294967295
209.6725 106.62012 -50.874226 4294967295
209.68633 108.05238 -50.081993 4294967295
209.82733 111.29639 -50.463707 4294967295
209.82802 112.74539 -49.398983 4294967295
209.85638 113.68466 -49.262184 4294967295
209.87233 115.12152 -48.509048 4294967295
209.91713 114.5909 -49.791809 4294967295
209.93527 118.4532 -47.277237 4294967295
209.93726 116.50825 -48.764336 4294967295
210.0294 119.80801 -48.135307 4294967295
210.04996 106.19705 -49.421417 4294967295
210.07127 121.22058 -47.914104 4294967295
210.24277 109.39444 -50.876251 4294967295
210.24963 110.83556 -49.932518 4294967295
210.30579 111.7468 -50.371048 4294967295
210.34299 112.1931 -50.779396 4294967295
210.34856 112.67075 -50.532288 4294967295
210.35657 113.14611 -50.336239 4294967295
210.35893 114.59566 -49.295891 4294967295
210.36617 114.10395 -49.80928 4294967295
210.39845 117.46459 -47.933437 4294967295
210.39944 116.00727 -49.046467 4294967295
210.41296 115.50821 -49.691296 4294967295
210.4435 118.87343 -47.776852 4294967295
210.48526 119.79962 -47.916843 4294967295
210.50529 120.75051 -47.603897 4294967295
210.50928 105.70153 -49.650215 4294967295
210.52469 121.70265 -47.277157 4294967295
210.52979 121.20943 -47.748894 4294967295
210.53113 106.16376 -49.740982 4294967295
210.54974 106.62885 -49.764568 4294967295
210.55255 107.10825 -49.458809 4294967295
210.62344 109.45506 -49.112381 4294967295
210.62816 107.52123 -50.669125 4294967295
210.63057 108.00089 -50.355316 4294967295
210.70715 109.85794 -50.493603 4294967295
210.75562 110.77639 -50.775055 4294967295
210.76678 113.18245 -49.181175 4294967295
210.76907 112.69614 -49.594917 4294967295
210.85394 115.5144 -49.173737 4294967295
210.98871 105.66969 -49.939266 4294967295
211.03523 122.60592 -47.463474 4294967295
211.07384 106.07496 -51.358543 4294967295
211.11148 107.48492 -51.048252 4294967295
211.21645 111.72731 -49.946259 4294967295
211.26807 112.64238 -50.296616 4294967295
211.27396 114.08854 -49.314327 4294967295
211.27586 113.11819 -50.091999 4294967295
211.29428 115.52168 -48.634747 4294967295
211.29974 115.03081 -49.119736 4294967295
211.32527 117.43082 -47.809204 4294967295
211.33482 114.50915 -50.229683 4294967295
211.3419 116.44102 -48.900818 4294967295
211.34464 116.92361 -48.588585 4294967295
211.37875 119.31709 -47.457268 4294967295
211.38008 118.82881 -47.856361 4294967295
211.40663 120.74681 -46.933449 4294967295
211.43692 105.18399 -49.942841 4294967295
211.45558 106.61279 -49.227074 4294967295
211.46735 122.62685 -46.73336 4294967295
211.48117 121.14709 -48.142105 4294967295
211.50476 106.0862 -50.637978 4294967295
211.52234 107.51575 -49.899727 4294967295
211.53059 108.47308 -49.333122 4294967295
211.53821 107.98328 -49.86491 4294967295
211.57303 106.98688 -51.343491 4294967295
211.58698 109.38487 -49.786606 4294967295
211.64668 111.25928 -49.568306 4294967295
211.64795 110.2914 -50.337952 4294967295
211.66118 112.21238 -49.132664 4294967295
211.69337 111.69595 -50.188545 4294967295
211.70659 110.71644 -51.211441 4294967295
211.72659 113.59779 -49.407299 4294967295
211.75233 112.60313 -50.697979 4294967295
211.87064 105.19286 -49.265434 4294967295
211.87428 118.29053 -48.824707 4294967295
211.89133 119.24399 -48.441109 4294967295
211.90952 120.68401 -47.707268 4294967295
211.93604 121.6279 -47.524757 4294967295
211.967 105.58782 -50.947624 4294967295
212.07889 108.37447 -51.097664 4294967295
212.09061 108.84554 -50.974514 4294967295
212.11282 109.78912 -50.702194 4294967295
212.16942 111.18188 -50.791512 4294967295
212.27669 117.85596 -47.83596 4294967295
212.28052 115.90787 -49.423569 4294967295
212.28265 115.4204 -49.844566 4294967295
212.29851 120.2672 -46.418175 4294967295
212.31895 118.78127 -47.991005 4294967295
212.32477 117.31561 -49.246063 4294967295
212.34264 118.26758 -48.87748 4294967295
212.35168 119.23039 -48.318424 4294967295
212.35333 120.6904 -47.221947 4294967295
212.36909 121.15953 -47.183949 4294967295
212.37883 105.13498 -50.178848 4294967295
212.39572 122.59231 -46.623436 4294967295
212.42374 105.57584 -50.7686 4294967295
212.43152 121.57265 -48.151794 4294967295
212.44054 107.48851 -49.624908 4294967295
212.44518 106.03782 -50.853882 4294967295
212.44769 106.51729 -50.531704 4294967295
212.46591 106.98228 -50.547958 4294967295
212.51933 108.37844 -50.568481 4294967295
212.52029 107.89513 -50.966293 4294967295
212.56436 110.26606 -50.031151 4294967295
212.58171 108.80048 -51.536621 4294967295
212.60857 109.73909 -51.36227 4294967295
212.62964 111.65063 -50.307766 4294967295
212.64925 113.08252 -49.598045 4294967295
212.67398 112.08864 -50.888481 4294967295
212.68063 113.53385 -49.898605 4294967295
212.6825 116.44432 -47.664978 4294967295
212.683 115.95759 -48.055332 4294967295
212.70511 114.4771 -49.670994 4294967295
212.72462 117.85674 -47.438103 4294967295
212.74408 114.9198 -50.136002 4294967295
212.79939 119.71894 -47.539276 4294967295
213.01715 111.22673 -48.995956 4294967295
213.03166 109.27801 -50.834431 4294967295
213.04985 112.64641 -48.564293 4294967295
213.08134 113.58311 -48.486832 4294967295
213.10655 114.04128 -48.655327 4294967295
213.11694 112.09179 -50.407776 4294967295
213.17444 116.88184 -47.842823 4294967295
213.26613 119.69821 -47.548622 4294967295
213.26616 118.23673 -48.699444 4294967295
213.28212 120.16692 -47.514664 4294967295
213.32724 122.55396 -46.58181 4294967295
213.32875 120.59876 -48.152695 4294967295
213.35663 122.02898 -47.611439 4294967295
213.38431 106.95438 -50.28735 4294967295
213.40144 106.45596 -51.04504 4294967295
213.45238 108.81923 -50.246429 4294967295
213.45828 109.29655 -49.992401 4294967295
213.48083 108.30849 -51.253494 4294967295
213.5011 112.15707 -48.626957 4294967295
213.50682 110.21455 -50.290051 4294967295
213.52628 111.64619 -49.564747 4294967295
213.53114 111.15705 -50.05619 4294967295
213.53253 112.60873 -48.933044 4294967295
213.54269 113.08286 -48.771763 4294967295
213.5441 110.66003 -50.724678 4294967295
213.56905 114.51058 -48.19577 4294967295
213.58365 114.00912 -48.90226 4294967295
213.64236 115.887 -48.653618 4294967295
213.66646 115.37429 -49.569897 4294967295
213.67302 116.33854 -48.943199 4294967295
213.69318 117.28819 -48.615501 4294967295
213.71733 118.2337 -48.376015 4294967295
213.75224 119.65429 -47.98661 4294967295
213.79565 122.0424 -47.009125 4294967295
213.82518 105.99325 -50.522278 4294967295
213.92606 108.30815 -50.820427 4294967295
214.06204 113.00523 -49.960091 4294967295
214.10934 116.35201 -48.290092 4294967295
214.11565 117.31835 -47.651031 4294967295
214.18045 121.14545 -45.969681 4294967295
214.18466 120.65139 -46.455025 4294967295
214.26343 122.02046 -47.038132 4294967295
214.27371 105.50714 -50.543621 4294967295
214.29048 105.97343 -50.527977 4294967295
214.33742 106.41081 -51.183945 4294967295
214.40126 107.31326 -51.828552 4294967295
214.41898 108.26063 -51.444599 4294967295
214.43585 109.20947 -51.041229 4294967295
214.43721 109.69136 -50.681473 4294967295
214.4435 112.1058 -48.868179 4294967295
214.49016 111.57158 -50.302422 4294967295
214.50415 113.4957 -49.050392 4294967295
214.50542 111.07147 -51.034267 4294967295
214.53638 112.97547 -50.163246 4294967295
214.54822 115.38988 -48.469337 4294967295
214.55408 113.92609 -49.776371 4294967295
214.56012 114.8904 -49.128471 4294967295
214.5827 115.83696 -48.84938 4294967295
214.58968 117.77636 -47.434334 4294967295
214.60237 116.78731 -48.505516 4294967295
214.60654 118.24397 -47.419418 4294967295
214.63261 117.23882 -48.79171 4294967295
214.67134 122.0739 -45.72113 4294967295
214.6983 119.10928 -48.694195 4294967295
214.70468 120.07704 -48.049973 4294967295
214.76595 106.42627 -50.369572 4294967295
214.79332 105.43578 -51.769783 4294967295
214.82805 107.33083 -50.980232 4294967295
214.82838 107.81329 -50.595169 4294967295
214.89545 110.16231 -50.137154 4294967295
214.96907 114.4482 -48.244846 4294967295
214.98663 115.88796 -47.453579 4294967295
215.06033 117.26349 -47.931892 4294967295
215.08723 118.20647 -47.747616 4294967295
215.14465 121.06647 -46.664417 4294967295
215.15114 119.10477 -48.402016 4294967295
215.21848 121.46252 -47.942917 4294967295
215.27676 107.32721 -50.615059 4294967295
215.29475 109.24288 -49.436237 4294967295
215.29655 106.82491 -51.461113 4294967295
215.29678 106.34249 -51.861473 4294967295
215.30582 108.26425 -50.481365 4294967295
215.33435 109.68591 -49.938274 4294967295
215.35394 110.63383 -49.588516 4294967295
215.3582 111.1139 -49.28788 4294967295
215.3941 110.10737 -50.899208 4294967295
215.41356 112.50893 -49.353516 4294967295
215.43575 111.99979 -50.256401 4294967295
215.44501 113.93076 -48.873238 4294967295
215.47005 115.8479 -47.847061 4294967295
215.50087 114.35349 -49.74826 4294967295
215.54475 116.73436 -48.753113 4294967295
215.54558 118.68373 -47.170517 4294967295
215.54826 117.70467 -48.033188 4294967295
215.55653 118.1824 -47.822018 4294967295
215.57307 117.18775 -49.000595 4294967295
215.58095 119.12872 -47.579067 4294967295
215.60298 120.07841 -47.281128 4294967295
215.60722 119.58466 -47.779129 4294967295
215.65721 122.9459 -46.112823 4294967295
215.66339 120.98006 -47.86235 4294967295
215.66403 121.46821 -47.475319 4294967295
215.69154 105.42635 -51.068092 4294967295
215.69196 105.90833 -50.677494 4294967295
215.78716 107.26192 -51.657661 4294967295
215.80075 110.14916 -49.56572 4294967295
215.80542 108.2092 -51.275253 4294967295
215.80716 107.72446 -51.715588 4294967295
215.84586 109.13401 -51.401382 4294967295
215.85489 110.57595 -50.406677 4294967295
215.884 111.51352 -50.272606 4294967295
215.92111 114.38499 -48.712925 4294967295
215.96313 116.28312 -48.068489 4294967295
216.01617 119.63555 -46.462368 4294967295
216.02597 120.11243 -46.283817 4294967295
216.06439 118.11122 -48.788094 4294967295
216.16087 106.36752 -50.368874 4294967295
216.20065 108.26097 -49.672104 4294967295
216.28224 108.66021 -51.154396 4294967295
216.28564 110.59299 -49.615646 4294967295
216.29086 110.10284 -50.141197 4294967295
216.29964 109.12558 -51.152802 4294967295
216.30435 111.05757 -49.643635 4294967295
216.31027 112.99313 -48.158554 4294967295
216.34647 111.49645 -50.214401 4294967295
216.37082 113.4108 -49.157219 4294967295
216.39885 114.351 -48.995274 4294967295
216.41078 116.28471 -47.645721 4294967295
216.4234 115.29551 -48.752789 4294967295
216.45045 117.21247 -47.753292 4294967295
216.46724 116.70462 -48.55138 4294967295
216.52852 118.58075 -48.347527 4294967295
216.53915 119.05576 -48.186928 4294967295
216.54315 120.51708 -47.055794 4294967295
216.55421 121.97205 -46.086357 4294967295
216.55894 120.00798 -47.832127 4294967295
216.56429 121.46899 -46.730698 4294967295
216.5748 122.92586 -45.747692 4294967295
216.62277 105.38539 -51.112473 4294967295
216.63672 107.30357 -49.809185 4294967295
216.66414 106.79241 -50.855194 4294967295
216.66913 108.23785 -49.74918 4294967295
216.70607 109.16742 -49.795258 4294967295
216.71904 109.63806 -49.689537 4294967295
216.80878 112.93608 -48.924904 4294967295
216.89481 115.75558 -48.480259 4294967295
216.94398 116.67108 -48.812721 4294967295
216.95322 119.58981 -46.560246 4294967295
216.95378 119.09993 -46.98571 4294967295
216.97786 117.60484 -48.786194 4294967295
217.05161 105.40128 -50.27264 4294967295
217.08371 122.35876 -47.155861 4294967295
217.16475 107.70253 -50.87867 4294967295
217.29021 112.41201 -49.716393 4294967295
217.30063 112.8859 -49.549675 4294967295
217.31009 114.33405 -48.532349 4294967295
217.31192 113.35898 -49.40239 4294967295
217.3145 113.84229 -49.049751 4294967295
217.32147 115.29482 -47.973026 4294967295
217.34821 116.23786 -47.776978 4294967295
217.3938 115.6954 -49.270378 4294967295
217.39413 118.13441 -47.204456 4294967295
217.41611 117.13054 -48.555584 4294967295
217.44138 118.56374 -47.909233 4294967295
217.45386 121.97587 -45.290596 4294967295
217.45583 119.03414 -47.836998 4294967295
217.45955 119.51837 -47.50943 4294967295
217.47032 120.97321 -46.516068 4294967295
217.47252 121.46053 -46.151329 4294967295
217.48485 120.46445 -47.277557 4294967295
217.51228 122.38866 -46.263176 4294967295
217.55202 105.34621 -51.11544 4294967295
217.61693 108.66413 -49.752525 4294967295
217.62093 106.24207 -51.921841 4294967295
217.62228 106.72356 -51.53949 4294967295
217.62595 107.20296 -51.212021 4294967295
217.63412 110.10014 -48.913742 4294967295
217.64563 108.14953 -50.849461 4294967295
217.66711 109.0947 -50.530067 4294967295
217.6824 111.50322 -48.813145 4294967295
217.73424 110.47488 -50.879791 4294967295
217.76192 111.89896 -50.290855 4294967295
217.79843 113.31422 -49.911079 4294967295
217.8111 117.19814 -46.868759 4294967295
217.81509 114.75414 -49.056408 4294967295
217.87721 116.62805 -48.868782 4294967295
217.94933 122.89935 -45.136593 4294967295
217.97723 105.36629 -50.175316 4294967295
217.98486 121.37908 -47.252846 4294967295
218.02338 106.28597 -50.443508 4294967295
218.06482 108.66288 -49.341633 4294967295
218.11833 111.03073 -48.525558 4294967295
218.13924 111.49312 -48.607216 4294967295
218.17636 112.42308 -48.658558 4294967295
218.21443 113.83878 -48.310787 4294967295
218.25063 115.74552 -47.495079 4294967295
218.26042 116.22171 -47.30867 4294967295
218.30363 117.63371 -47.082649 4294967295
218.31175 115.18333 -49.391037 4294967295
218.31853 117.12626 -47.865112 4294967295
218.3698 119.5061 -46.987556 4294967295
218.37521 118.03164 -48.388794 4294967295
218.37675 119.00757 -47.579445 4294967295
218.39853 120.44817 -46.834518 4294967295
218.42145 121.3983 -46.540646 4294967295
218.45096 122.33994 -46.405945 4294967295
218.45807 105.8138 -50.140465 4294967295
218.48329 105.30475 -51.17186 4294967295
218.51022 106.72697 -50.556351 4294967295
218.53798 107.18153 -50.804878 4294967295
218.54536 108.62646 -49.714314 4294967295
218.58649 108.09756 -51.133606 4294967295
218.59753 109.05416 -50.555008 4294967295
218.61671 110.48789 -49.748543 4294967295
218.64427 112.40028 -48.71949 4294967295
218.64989 111.42144 -49.705032 4294967295
218.65366 111.90308 -49.371788 4294967295
218.69096 113.3187 -49.00396 4294967295
218.73282 115.21736 -48.318775 4294967295
218.73358 114.24162 -49.188789 4294967295
218.73666 116.18881 -47.559624 4294967295
218.77563 116.62846 -48.082344 4294967295
218.82249 119.50346 -46.661488 4294967295
218.82381 120.48248 -45.836697 4294967295
219.02083 106.65879 -51.678513 4294967295
219.04041 107.1215 -51.730103 4294967295
219.12187 111.39348 -49.877254 4294967295
219.17418 112.79069 -49.873718 4294967295
219.17528 114.25021 -48.612816 4294967295
219.30307 120.93591 -45.719761 4294967295
219.31372 118.96014 -47.711594 4294967295
219.31493 121.41101 -45.57917 4294967295
219.34937 121.85506 -45.99678 4294967295
219.37465 122.3115 -46.187988 4294967295
219.38879 105.77345 -50.169178 4294967295
219.41663 105.26094 -51.284904 4294967295
219.43613 107.17555 -50.043495 4294967295
219.4527 106.18993 -51.312904 4294967295
219.47829 108.09884 -50.220894 4294967295
219.4888 106.63513 -51.772717 4294967295
219.48912 109.54226 -49.193699 4294967295
219.5032 109.04108 -49.973213 4294967295
219.53557 111.92017 -48.178482 4294967295
219.54733 110.44744 -49.767944 4294967295
219.57764 112.35731 -48.786713 4294967295
219.58142 112.83981 -48.44709 4294967295
219.59377 111.36544 -50.051712 4294967295
219.5979 113.30727 -48.42178 4294967295
219.63165 114.72919 -47.956345 4294967295
219.6489 114.22008 -48.818016 4294967295
219.65753 116.16222 -47.294811 4294967295
219.6696 115.17006 -48.463722 4294967295
219.67944 117.6021 -46.532547 4294967295
219.70197 118.06253 -46.656647 4294967295
219.73215 117.04454 -48.277893 4294967295
219.7431 118.49827 -47.244091 4294967295
219.75568 119.46175 -46.685013 4294967295
219.77037 119.93248 -46.614471 4294967295
219.79074 120.39558 -46.685028 4294967295
219.81325 122.32998 -45.497299 4294967295
219.85938 106.71622 -49.445267 4294967295
219.87679 107.18213 -49.443184 4294967295
219.89597 108.1312 -49.04987 4294967295
219.93103 109.5489 -48.615112 4294967295
219.99994 110.44185 -49.462395 4294967295
220.00037 108.98484 -50.780876 4294967295
220.04199 111.36512 -49.638828 4294967295
220.08167 113.75247 -48.443836 4294967295
220.09691 112.75931 -49.700687 4294967295
220.13708 117.10321 -46.760048 4294967295
220.15004 116.10796 -47.964088 4294967295
220.22397 120.91192 -45.417866 4294967295
220.30067 105.75297 -49.730003 4294967295
220.30429 122.27489 -46.115505 4294967295
220.32983 106.69061 -49.584263 4294967295
220.36623 106.16689 -50.937771 4294967295
220.37691 107.12386 -50.328384 4294967295
220.41246 108.05408 -50.342941 4294967295
220.4348 108.99927 -50.026146 4294967295
220.43552 109.4841 -49.603218 4294967295
220.47581 111.38223 -48.855797 4294967295
220.48441 112.83388 -47.746834 4294967295
220.48941 110.87953 -49.64003 4294967295
220.51122 112.31377 -48.865952 4294967295
220.52946 114.7312 -47.115086 4294967295
220.53677 113.74522 -48.185539 4294967295
220.57037 114.19134 -48.59269 4294967295
220.59641 115.13498 -48.365891 4294967295
220.60643 116.09972 -47.733154 4294967295
220.60902 117.07528 -46.911148 4294967295
220.6463 118.00585 -46.967522 4294967295
220.67839 119.92521 -46.002586 4294967295
220.71533 120.36542 -46.495449 4294967295
220.73483 121.32122 -46.10004 4294967295
220.75772 122.76532 -45.343452 4294967295
220.79634 122.21761 -46.772766 4294967295
220.80135 106.17906 -50.196835 4294967295
220.80769 105.2041 -51.243996 4294967295
220.87358 107.0687 -51.143608 4294967295
220.89752 109.46762 -49.532047 4294967295
220.95419 110.37347 -50.084236 4294967295
221.00513 113.23359 -48.707687 4294967295
221.04599 115.62426 -47.515778 4294967295
221.06416 116.57948 -47.084522 4294967295
221.07962 118.02958 -46.134216 4294967295
221.16241 119.3891 -46.908585 4294967295
221.18199 121.32799 -45.611149 4294967295
221.29781 105.15666 -51.908398 4294967295
221.31146 108.53481 -49.122517 4294967295
221.32584 107.06243 -50.837727 4294967295
221.34091 109.473 -48.980667 4294967295
221.36877 110.41335 -48.797131 4294967295
221.37216 108.95052 -50.233055 4294967295
221.38521 111.36783 -48.320004 4294967295
221.39604 109.89448 -49.948151 4294967295
221.4227 110.83552 -49.734898 4294967295
221.42293 111.80928 -48.840424 4294967295
221.42986 112.77618 -48.117149 4294967295
221.43909 113.25282 -47.904022 4294967295
221.48486 114.66051 -47.730263 4294967295
221.48796 115.14565 -47.358177 4294967295
221.51134 116.09415 -47.057007 4294967295
221.51155 114.1377 -48.87027 4294967295
221.55531 117.99641 -46.381302 4294967295
221.55948 116.52013 -47.84803 4294967295
221.56535 117.49223 -47.094429 4294967295
221.60678 118.90762 -46.806221 4294967295
221.63626 119.3577 -47.116333 4294967295
221.65511 121.29795 -45.7868 4294967295
221.66443 120.79248 -46.483421 4294967295
221.67879 120.28047 -47.309784 4294967295
221.69229 105.69717 -49.661755 4294967295
221.69614 122.71654 -45.485512 4294967295
221.70551 122.20998 -46.18446 4294967295
221.72388 105.17822 -50.93119 4294967295
221.73767 106.1319 -50.384094 4294967295
221.74179 107.58301 -49.131783 4294967295
221.76653 107.06947 -50.226349 4294967295
221.84155 109.4111 -49.906334 4294967295
221.91638 112.24179 -49.124336 4294967295
221.94943 113.17595 -49.074085 4294967295
221.99249 115.07464 -48.373035 4294967295
222.05858 118.90704 -46.438633 4294967295
222.07402 119.37686 -46.384586 4294967295
222.09161 120.82807 -45.46685 4294967295
222.11655 121.28461 -45.661049 4294967295
222.24197 106.55232 -50.970634 4294967295
222.31972 109.3752 -50.261971 4294967295
222.35986 112.73714 -48.101612 4294967295
222.36487 112.2426 -48.692997 4294967295
222.37074 111.26004 -49.766586 4294967295
222.37302 111.74461 -49.366814 4294967295
222.37851 113.20191 -48.131454 4294967295
222.40652 114.14346 -47.947044 4294967295
222.42537 116.07746 -46.59758 4294967295
222.45132 115.06309 -48.204956 4294967295
222.48241 116.98106 -47.177727 4294967295
222.49008 118.44365 -45.992142 4294967295
222.53197 119.36807 -46.172279 4294967295
222.53893 118.86653 -46.819672 4294967295
222.56941 120.29858 -46.235626 4294967295
222.59993 121.23917 -46.115417 4294967295
222.61072 122.70288 -45.006264 4294967295
222.63362 105.15981 -50.439568 4294967295
222.63887 122.16745 -46.217659 4294967295
222.66914 106.08973 -50.454861 4294967295
222.66998 105.60395 -50.938408 4294967295
222.68671 106.55491 -50.457428 4294967295
222.70042 107.51013 -49.895973 4294967295
222.72528 107.96699 -50.091034 4294967295
222.77385 109.85461 -49.526154 4294967295
222.79823 111.77461 -48.31691 4294967295
222.97707 117.9025 -47.01815 4294967295
223.07069 120.22687 -47.179474 4294967295
223.09856 121.17061 -46.987968 4294967295
223.11092 106.58152 -49.38636 4294967295
223.12296 107.05353 -49.240829 4294967295
223.14748 106.05413 -50.82988 4294967295
223.22539 110.33844 -48.706261 4294967295
223.27188 112.23239 -48.075935 4294967295
223.32339 113.14323 -48.519268 4294967295
223.32816 115.09544 -46.764023 4294967295
223.33994 114.58949 -47.551998 4294967295
223.36783 116.51339 -46.417187 4294967295
223.4014 115.97643 -47.792572 4294967295
223.40628 117.44233 -46.508549 4294967295
223.43127 116.91616 -47.654991 4294967295
223.44955 118.36418 -46.730782 4294967295
223.4514 117.87003 -47.252743 4294967295
223.49287 120.27055 -46.006889 4294967295
223.50032 119.76701 -46.682228 4294967295
223.50998 121.72507 -45.046471 4294967295
223.53883 120.69539 -46.775299 4294967295
223.54579 122.65874 -45.066414 4294967295
223.54901 105.13569 -50.083626 4294967295
223.5537 121.16605 -46.703514 4294967295
223.55388 122.15244 -45.760342 4294967295
223.57703 106.07445 -49.896873 4294967295
223.58182 107.04081 -49.082314 4294967295
223.63528 108.43694 -49.10923 4294967295
223.64813 107.93486 -49.929039 4294967295
223.69516 109.82503 -49.310188 4294967295
223.69658 109.33609 -49.821541 4294967295
223.70357 110.30211 -49.064232 4294967295
223.73933 111.23268 -49.085503 4294967295
223.75822 110.72091 -50.071297 4294967295
223.76138 112.66979 -48.260689 4294967295
223.7749 112.16348 -49.10154 4294967295
223.83412 114.04095 -48.810455 4294967295
223.83727 114.52627 -48.420296 4294967295
223.90981 118.35193 -46.581573 4294967295
223.93463 120.28638 -45.344948 4294967295
223.955 119.7631 -46.38063 4294967295
224.02226 121.63482 -46.302483 4294967295
224.11299 108.40142 -49.463802 4294967295
224.13867 110.31988 -48.252319 4294967295
224.27805 113.07055 -49.195839 4294967295
224.35376 117.87117 -46.464527 4294967295
224.36632 117.36116 -47.2938 4294967295
224.37383 118.33422 -46.535103 4294967295
224.40376 119.27534 -46.393837 4294967295
224.44249 120.20345 -46.495235 4294967295
224.47571 120.64642 -46.92907 4294967295
224.47603 121.13928 -46.453773 4294967295
224.54227 105.99248 -50.900063 4294967295
224.55006 107.92841 -49.186893 4294967295
224.55446 106.94978 -50.273186 4294967295
224.57257 108.3879 -49.325855 4294967295
224.58159 109.35178 -48.608707 4294967295
224.63597 110.25883 -49.145073 4294967295
224.64261 111.22714 -48.360538 4294967295
224.68121 112.64375 -47.975979 4294967295
224.69638 111.64552 -49.36573 4294967295
224.71141 113.58266 -47.842167 4294967295
224.72633 113.07272 -48.741928 4294967295
224.7402 114.03339 -48.155907 4294967295
224.75583 114.99258 -47.617844 4294967295
224.79279 115.43161 -48.15799 4294967295
224.80299 116.3992 -47.468372 4294967295
224.92224 121.14912 -45.908623 4294967295
224.96002 106.51438 -49.125008 4294967295
225.05333 109.32333 -48.800743 4294967295
225.07805 108.80437 -49.980297 4294967295
225.07973 110.26606 -48.561119 4294967295
225.16064 113.58456 -47.396133 4294967295
225.19925 114.51235 -47.495949 4294967295
225.27888 116.36384 -47.766655 4294967295
225.33859 118.7368 -46.982582 4294967295
225.34673 119.21754 -46.718128 4294967295
225.35773 119.69415 -46.534035 4294967295
225.37616 120.15944 -46.559967 4294967295
225.40323 121.10532 -46.334648 4294967295
225.40575 120.60747 -46.900757 4294967295
225.4093 105.54006 -49.677696 4294967295
225.40962 122.08428 -45.524895 4294967295
225.45918 105.96658 -50.590496 4294967295
225.47301 107.40957 -49.503014 4294967295
225.5076 107.85373 -49.986092 4294967295
225.50992 108.33817 -49.558311 4294967295
225.52551 109.78242 -48.516563 4294967295
225.52594 109.29348 -49.023376 4294967295
225.56514 110.21942 -49.142643 4294967295
225.57484 111.67378 -47.932335 4294967295
225.61177 111.13524 -49.473175 4294967295
225.6321 112.57571 -48.563072 4294967295
225.64159 113.05264 -48.336029 4294967295
225.64801 112.06461 -49.50951 4294967295
225.67691 113.98414 -48.345573 4294967295
225.72772 116.36759 -47.30262 4294967295
225.73871 117.33601 -46.618935 4294967295
225.74263 115.85429 -48.224354 4294967295
225.76556 118.77501 -45.886452 4294967295
225.77338 117.77704 -47.107273 4294967295
225.83096 121.14486 -45.251343 4294967295
225.83249 119.6598 -46.795341 4294967295
225.93498 105.93268 -50.927246 4294967295
226.00874 110.22733 -48.543602 4294967295
226.09587 113.53812 -47.530579 4294967295
226.11971 113.01431 -48.715736 4294967295
226.15257 114.93098 -47.650337 4294967295
226.18294 115.87023 -47.51725 4294967295
226.29066 120.63971 -45.573406 4294967295
226.33516 121.55872 -45.845352 4294967295
226.34418 122.53506 -45.092533 4294967295
226.35593 105.96581 -49.691238 4294967295
226.36469 106.44204 -49.439838 4294967295
226.37865 105.45152 -50.848553 4294967295
226.42087 107.83382 -49.547989 4294967295
226.42966 109.28745 -48.287174 4294967295
226.43571 108.30267 -49.472263 4294967295
226.43776 107.32489 -50.539658 4294967295
226.45772 110.22862 -48.087029 4294967295
226.47766 109.71306 -49.168983 4294967295
226.51106 111.13582 -48.617493 4294967295
226.53935 111.58685 -48.930428 4294967295
226.54033 112.56569 -47.945374 4294967295
226.56265 112.0445 -49.099258 4294967295
226.57452 113.49903 -47.922249 4294967295
226.62961 114.40231 -48.504951 4294967295
226.65518 116.33201 -47.214294 4294967295
226.66212 117.80083 -45.88607 4294967295
226.67847 118.26956 -45.8517 4294967295
226.71561 119.20017 -45.912262 4294967295
226.73236 119.6683 -45.889503 4294967295
226.79166 120.56335 -46.596992 4294967295
226.84193 122.46252 -46.018219 4294967295
226.93324 108.23983 -50.440651 4294967295
226.96135 110.15657 -49.220032 4294967295
226.96996 109.65611 -49.982361 4294967295
227.11774 115.82341 -47.650383 4294967295
227.16194 117.72809 -46.889664 4294967295
227.17108 119.69111 -45.092575 4294967295
227.1747 118.20199 -46.74958 4294967295
227.19084 120.15474 -45.158024 4294967295
227.34102 106.82978 -50.328785 4294967295
227.34593 107.79915 -49.443344 4294967295
227.3535 108.76648 -48.63364 4294967295
227.38005 108.24273 -49.93446 4294967295
227.38657 109.70065 -48.577248 4294967295
227.40001 109.19339 -49.491432 4294967295
227.41669 110.63899 -48.432991 4294967295
227.43787 111.09972 -48.542873 4294967295
227.47777 111.53413 -49.206738 4294967295
227.49146 112.00506 -49.094666 4294967295
227.49983 113.46584 -47.786514 4294967295
227.50154 114.44719 -46.797451 4294967295
227.54907 114.86909 -47.689011 4294967295
227.56934 115.33107 -47.771965 4294967295
227.57924 115.80872 -47.545135 4294967295
227.59033 116.28472 -47.354389 4294967295
227.59541 117.26367 -46.463326 4294967295
227.6205 116.73157 -47.731346 4294967295
227.63147 118.19536 -46.493557 4294967295
227.64926 119.1562 -45.978836 4294967295
227.65343 119.64455 -45.580227 4294967295
227.67293 120.10836 -45.638954 4294967295
227.68823 121.07491 -45.047646 4294967295
227.72227 120.52332 -46.589111 4294967295
227.75607 121.95448 -46.02803 4294967295
227.7634 122.43852 -45.722412 4294967295
227.82141 107.76476 -49.777298 4294967295
227.82262 108.25172 -49.291313 4294967295
227.83493 107.25893 -50.702545 4294967295
227.88754 109.14213 -50.187553 4294967295
227.92058 112.03571 -48.035599 4294967295
228.06796 117.23241 -46.677734 4294967295
228.16835 121.52752 -44.944611 4294967295
228.2027 105.90057 -49.385933 4294967295
228.23126 106.83982 -49.193336 4294967295
228.34077 110.11643 -48.805229 4294967295
228.34712 110.59783 -48.46727 4294967295
228.35394 109.60836 -49.732834 4294967295
228.38226 111.52928 -48.471436 4294967295
228.39378 111.0222 -49.35144 4294967295
228.40224 112.97452 -47.484726 4294967295
228.40578 111.98634 -48.655098 4294967295
228.42477 113.43325 -47.637924 4294967295
228.47208 114.34696 -48.012108 4294967295
228.48282 116.30336 -46.207062 4294967295
228.48878 115.30701 -47.455612 4294967295
228.51605 116.74533 -46.68647 4294967295
228.52658 117.22298 -46.472713 4294967295
228.57092 118.14116 -46.757198 4294967295
228.59631 119.0899 -46.462811 4294967295
228.63902 121.49924 -45.088242 4294967295
228.64835 120.49061 -46.446541 4294967295
228.6895 106.33974 -49.541889 4294967295
228.6982 105.84036 -50.341045 4294967295
228.70026 105.35018 -50.936966 4294967295
228.71294 106.7972 -49.724449 4294967295
228.76576 107.70367 -50.271423 4294967295
228.77448 108.18069 -50.003448 4294967295
228.77847 108.66439 -49.591324 4294967295
228.80786 109.60289 -49.420998 4294967295
228.81624 110.08113 -49.142738 4294967295
228.90569 114.37457 -47.053497 4294967295
228.93036 113.84434 -48.351418 4294967295
229.00291 117.18523 -46.811951 4294967295
229.00764 118.16749 -45.876232 4294967295
229.13013 105.37454 -49.895592 4294967295
185.40141 123.65526 -48.734444 4294967295
185.41389 124.12714 -48.660835 4294967295
185.896 123.61285 -49.116577 4294967295
186.32707 124.10603 -48.318672 4294967295
186.38341 123.5762 -49.399307 4294967295
186.40939 123.07256 -50.035706 4294967295
186.80093 123.59836 -48.657932 4294967295
187.31519 124.0211 -49.079868 4294967295
187.3517 123.02589 -50.13913 4294967295
187.67352 123.12913 -47.970444 4294967295
187.71843 124.05638 -48.116226 4294967295
188.17285 123.56499 -48.171284 4294967295
188.19261 123.06546 -48.729546 4294967295
188.26886 124.4474 -49.08316 4294967295
189.14578 123.9753 -48.457581 4294967295
189.19548 123.44928 -49.476677 4294967295
190.12045 124.38316 -48.780632 4294967295
190.14203 123.39857 -49.649506 4294967295
191.40701 123.9439 -47.229252 4294967295
191.49387 123.3826 -48.859825 4294967295
192.40689 123.84535 -48.229576 4294967295
192.92459 123.77922 -49.022728 4294967295
193.26038 123.88029 -46.913269 4294967295
193.37115 123.29476 -48.968025 4294967295
193.80455 123.78941 -48.136211 4294967295
194.22987 123.3246 -47.73254 4294967295
195.10028 123.82967 -46.370861 4294967295
195.1422 123.30574 -47.347855 4294967295
195.57912 123.31461 -46.834576 4294967295
196.54367 123.73126 -47.015453 4294967295
197.03529 123.20338 -47.710335 4294967295
197.09341 124.11592 -48.099014 4294967295
197.50264 123.18327 -47.705116 4294967295
198.44456 123.13584 -47.821243 4294967295
