# .PCD v0.7 - Point Cloud Data file format
VERSION 0.7
FIELDS x y z rgb
SIZE 4 4 4 4
TYPE F F F U
COUNT 1 1 1 1
WIDTH 1124
HEIGHT 1
VIEWPOINT 0 0 0 1 0 0 0
POINTS 1124
DATA ascii
261.97986 -8.8114872 -83.517166 4294967295
261.98633 3.6342354 -79.484497 4294967295
261.99677 -8.3610973 -83.516792 4294967295
262.0054 4.1054773 -79.918465 4294967295
262.01401 -7.9071808 -83.580772 4294967295
262.02954 -7.4725018 -83.292534 4294967295
262.04578 -7.0294704 -83.154495 4294967295
262.06168 -6.5908203 -82.932953 4294967295
262.09601 -5.6840668 -83.036453 4294967295
262.12482 -4.8389482 -81.961151 4294967295
262.14413 -4.3617859 -82.46637 4294967295
262.16013 -3.921205 -82.26693 4294967295
262.17853 -3.4544263 -82.578468 4294967295
262.19537 -3.004292 -82.565819 4294967295
262.21152 -2.5624113 -82.388481 4294967295
262.24207 -1.6960239 -81.673737 4294967295
262.26425 -13.254833 -84.767685 4294967295
262.27338 -0.82175827 -81.098007 4294967295
262.28217 -12.791576 -84.993408 4294967295
262.28922 -0.3818922 -80.859756 4294967295
262.29724 -12.365706 -84.586273 4294967295
262.30737 0.082296401 -81.125992 4294967295
262.31445 -11.911286 -84.662415 4294967295
262.32425 0.53252029 -81.102402 4294967295
262.3299 -11.480192 -84.337692 4294967295
262.34186 0.99092388 -81.252106 4294967295
262.34515 -11.05129 -83.970345 4294967295
262.35376 1.3898745 -80.130638 4294967295
262.37131 1.8475904 -80.259819 4294967295
262.38104 -10.124533 -84.433701 4294967295
262.38953 2.3121119 -80.539688 4294967295
262.39722 -9.6836052 -84.272446 4294967295
262.4057 2.7553015 -80.355347 4294967295
262.41318 -9.245533 -84.057999 4294967295
262.42288 3.2095385 -80.412689 4294967295
262.42734 -8.8301058 -83.433868 4294967295
262.43515 3.6133966 -79.34465 4294967295
262.44318 -8.3928814 -83.195114 4294967295
262.45361 4.0806026 -79.686653 4294967295
262.45825 -7.9652672 -82.777916 4294967295
262.46851 4.5115566 -79.209785 4294967295
262.47827 -7.4761558 -83.483093 4294967295
262.4942 -7.03825 -83.252197 4294967295
262.52396 -6.1872931 -82.314148 4294967295
262.5433 -5.7069716 -82.870598 4294967295
262.55811 -5.2819786 -82.382545 4294967295
262.57349 -4.8502946 -82.015457 4294967295
262.60834 -3.9365263 -82.245461 4294967295
262.62302 -3.5125265 -81.717979 4294967295
262.67303 -2.168808 -81.526123 4294967295
262.69095 -1.7065735 -81.75 4294967295
262.70859 -13.310502 -84.064453 4294967295
262.72076 -0.85177708 -80.776222 4294967295
262.72574 -12.856915 -84.122528 4294967295
262.73837 -0.3924017 -80.94017 4294967295
262.74277 -12.405125 -84.15078 4294967295
262.75372 0.040368099 -80.550972 4294967295
262.76108 -11.935557 -84.483719 4294967295
262.77057 0.49037269 -80.518303 4294967295
262.77682 -11.501614 -84.207123 4294967295
262.78528 0.91630268 -79.973877 4294967295
262.79318 -11.059339 -84.071411 4294967295
262.80353 1.3827085 -80.287277 4294967295
262.80865 -10.629128 -83.723099 4294967295
262.82132 1.8436174 -80.487083 4294967295
262.82349 -10.207596 -83.217323 4294967295
262.83929 2.3068638 -80.741287 4294967295
262.84155 -9.7415609 -83.492798 4294967295
262.85095 2.6988001 -79.433228 4294967295
262.86115 -9.2543087 -84.150352 4294967295
262.86914 3.1640272 -79.726738 4294967295
262.87479 -8.8488159 -83.348961 4294967295
262.88385 3.5910034 -79.170029 4294967295
262.89175 -8.3979206 -83.357307 4294967295
262.90726 -7.966506 -83.010956 4294967295
262.91888 4.5070171 -79.439224 4294967295
262.92511 -7.5032997 -83.242706 4294967295
262.94205 -7.0527363 -83.244415 4294967295
262.97559 -6.156024 -83.164932 4294967295
262.99149 -5.7191086 -82.908249 4294967295
263.00546 -5.3078637 -82.159302 4294967295
263.05536 -3.9671621 -81.925804 4294967295
263.07095 -3.5336299 -81.583389 4294967295
263.10413 -2.6408248 -81.39534 4294967295
263.12079 -2.1936235 -81.315125 4294967295
263.13727 -1.7486935 -81.187645 4294967295
263.17282 -0.82478052 -81.626328 4294967295
263.17288 -12.876742 -84.020706 4294967295
263.18674 -0.41240409 -80.823837 4294967295
263.1904 -12.417267 -84.179268 4294967295
263.20224 0.020586999 -80.438797 4294967295
263.22037 0.48701569 -80.751602 4294967295
263.2251 -11.503081 -84.420471 4294967295
263.23563 0.91720098 -80.300003 4294967295
263.24219 -11.05041 -84.467018 4294967295
263.25446 1.3917265 -80.790276 4294967295
263.25739 -10.626544 -84.010971 4294967295
263.27127 1.8414631 -80.753548 4294967295
263.27255 -10.203174 -83.539932 4294967295
263.28406 2.2416077 -79.636162 4294967295
263.30157 2.6994982 -79.768059 4294967295
263.30743 -9.2863483 -83.82782 4294967295
263.31927 3.1606321 -79.974014 4294967295
263.32281 -8.8593187 -83.411438 4294967295
263.33362 3.5803795 -79.258606 4294967295
263.34027 -8.401001 -83.554764 4294967295
263.35571 -7.9728813 -83.150185 4294967295
263.36646 4.470355 -78.938034 4294967295
263.37018 -7.5598631 -82.462982 4294967295
263.38812 -7.0931053 -82.758369 4294967295
263.40359 -6.664597 -82.346535 4294967295
263.42303 -6.1762042 -83.050911 4294967295
263.45483 -5.3055296 -82.4729 4294967295
263.47208 -4.8504701 -82.555428 4294967295
263.48618 -4.4412675 -81.75351 4294967295
263.53589 -3.1041493 -81.437469 4294967295
263.55188 -2.66714 -81.155708 4294967295
263.57083 -2.1867013 -81.740944 4294967295
263.58609 -1.7600842 -81.246826 4294967295
263.6026 -1.3147764 -81.125847 4294967295
263.60339 -13.342039 -83.997627 4294967295
263.61829 -0.88190079 -80.747665 4294967295
263.61923 -12.910629 -83.681458 4294967295
263.63391 -0.4491882 -80.359787 4294967295
263.63748 -12.437491 -84.070206 4294967295
263.65561 -11.965685 -84.441376 4294967295
263.66931 0.47456929 -80.793343 4294967295
263.66977 -11.563218 -83.623093 4294967295
263.68439 0.89941311 -80.229202 4294967295
263.68494 -11.14308 -83.100327 4294967295
263.70181 -10.693407 -83.086075 4294967295
263.70273 1.3708143 -80.652199 4294967295
263.71805 -10.254822 -82.87664 4294967295
263.71902 1.8127079 -80.44548 4294967295
263.73416 2.2385855 -79.88652 4294967295
263.73517 -9.8012009 -82.93055 4294967295
263.75555 -9.2914982 -83.984787 4294967295
263.76886 -8.9025631 -82.886078 4294967295
263.7818 3.5491123 -78.885872 4294967295
263.78708 -8.4297981 -83.287102 4294967295
263.80496 -7.9629068 -83.586922 4294967295
263.81754 -7.5862055 -82.237411 4294967295
263.81821 4.4866915 -79.642075 4294967295
263.83447 -7.1352286 -82.240219 4294967295
263.87112 -6.1871791 -83.109581 4294967295
263.9021 -5.3339849 -82.20076 4294967295
263.91837 -4.8945155 -81.982864 4294967295
263.93652 -4.4226065 -82.387817 4294967295
263.95105 -4.0117354 -81.611786 4294967295
263.98489 -3.110353 -81.596542 4294967295
264.01776 -2.2248502 -81.262436 4294967295
264.03296 -1.8021836 -80.685265 4294967295
264.04984 -1.3523102 -80.65332 4294967295
264.05225 -13.329465 -84.439453 4294967295
264.06656 -12.930069 -83.586128 4294967295
264.06912 -0.8628788 -81.43351 4294967295
264.08411 -12.467674 -83.791992 4294967295
264.09882 -0.028153401 -80.022827 4294967295
264.09903 -12.056035 -83.132362 4294967295
264.11682 0.43993661 -80.367966 4294967295
264.11835 -11.558773 -83.938393 4294967295
264.13361 -11.140736 -83.381699 4294967295
264.13388 0.89376259 -80.415985 4294967295
264.15048 1.3392811 -80.287003 4294967295
264.16663 -10.255571 -83.108139 4294967295
264.16809 1.8010836 -80.507233 4294967295
264.18216 -9.8323517 -82.625885 4294967295
264.18317 2.2227364 -79.857468 4294967295
264.19937 2.6625662 -79.595474 4294967295
264.202 -9.3255548 -83.626472 4294967295
264.21683 -8.9152336 -82.909622 4294967295
264.21802 3.1407995 -80.17926 4294967295
264.23218 3.5483971 -79.195656 4294967295
264.23419 -8.4563904 -83.059471 4294967295
264.24866 3.9926729 -79.021111 4294967295
264.26617 4.4533072 -79.215416 4294967295
264.26819 -7.5522408 -83.117661 4294967295
264.28351 -7.1321678 -82.556442 4294967295
264.30206 -6.6507668 -83.127731 4294967295
264.31741 -6.2305288 -82.561584 4294967295
264.33453 -5.776145 -82.631462 4294967295
264.36603 -4.9190793 -81.783783 4294967295
264.38449 -4.4391842 -82.34169 4294967295
264.43311 -3.1279945 -81.529739 4294967295
264.44873 -2.7018981 -81.032501 4294967295
264.48251 -1.801631 -80.985931 4294967295
264.49744 -13.389919 -83.656754 4294967295
264.49829 -1.3720903 -80.542618 4294967295
264.51706 -0.88723367 -81.228142 4294967295
264.53296 -12.451658 -84.298813 4294967295
264.54843 -12.033317 -83.757706 4294967295
264.54929 -0.0154457 -80.589035 4294967295
264.56625 0.43613911 -80.591606 4294967295
264.58328 0.88871002 -80.615311 4294967295
264.59949 -10.675298 -83.88739 4294967295
264.61462 1.7450333 -79.610527 4294967295
264.61475 -10.262384 -83.233154 4294967295
264.63098 2.1852398 -79.357483 4294967295
264.63232 -9.7972546 -83.493683 4294967295
264.64954 -9.3402443 -83.613327 4294967295
264.64981 2.6711025 -80.101959 4294967295
264.66479 -8.9270658 -82.948265 4294967295
264.66492 3.0889406 -79.353409 4294967295
264.68054 -8.5032291 -82.466248 4294967295
264.68274 3.5564337 -79.700783 4294967295
264.69931 -8.0109901 -83.222061 4294967295
264.71625 4.4522829 -79.524376 4294967295
264.79697 -5.3941202 -81.595757 4294967295
264.81448 -4.9299221 -81.847572 4294967295
264.84845 -4.0262852 -81.881577 4294967295
264.86453 -3.594491 -81.506783 4294967295
264.88184 -3.1351175 -81.670525 4294967295
264.91412 -2.2680387 -80.969849 4294967295
264.92978 -1.8452902 -80.39312 4294967295
264.94562 -13.38665 -83.942482 4294967295
264.96146 -12.964745 -83.466576 4294967295
264.97772 -12.531727 -83.173218 4294967295
264.97974 -0.51033688 -79.987602 4294967295
264.99734 -0.045195598 -80.268768 4294967295
265.01517 0.42546079 -80.670441 4294967295
265.03122 0.85689741 -80.246895 4294967295
265.0463 -10.706896 -83.578323 4294967295
265.04657 1.2738533 -79.506424 4294967295
265.08002 -9.8084698 -83.541946 4294967295
265.08167 2.2026987 -80.053032 4294967295
265.09631 -9.3742676 -83.255714 4294967295
265.09735 2.6263456 -79.438713 4294967295
265.11169 -8.9651623 -82.515572 4294967295
265.12875 -8.5106764 -82.584602 4294967295
265.13171 3.5392418 -79.642365 4294967295
265.14844 3.9854641 -79.516571 4294967295
265.16275 -7.6056805 -82.652893 4294967295
265.17786 -7.2031822 -81.765091 4294967295
265.19666 -6.7032228 -82.676086 4294967295
265.22952 -5.8279057 -82.187775 4294967295
265.26157 -4.9743204 -81.26889 4294967295
265.29541 -4.073349 -81.243073 4294967295
265.31146 -3.645647 -80.783638 4294967295
265.32861 -3.1890955 -80.886574 4294967295
265.34543 -2.7412505 -80.817772 4294967295
265.36298 -2.2745867 -81.125237 4294967295
265.37891 -1.8504186 -80.579071 4294967295
265.39209 -13.430532 -83.437828 4294967295
265.39655 -1.3812933 -80.939484 4294967295
265.40894 -12.981707 -83.413246 4294967295
265.41281 -0.94775867 -80.575249 4294967295
265.42532 -12.548189 -83.128357 4294967295
265.42999 -0.49051759 -80.695511 4294967295
265.44217 -12.100204 -83.087067 4294967295
265.44614 -0.060084298 -80.258789 4294967295
265.45975 -11.628481 -83.453766 4294967295
265.46237 0.37226009 -79.854874 4294967295
265.47656 -11.181297 -83.400192 4294967295
265.47968 0.83268362 -80.039749 4294967295
265.49365 -10.725906 -83.489128 4294967295
265.49619 1.2728252 -79.794052 4294967295
265.51328 1.7269382 -79.84552 4294967295
265.52676 -9.8476 -83.09613 4294967295
265.52902 2.1466837 -79.150345 4294967295
265.54254 -9.4340639 -82.439362 4294967295
265.54688 2.6217098 -79.65583 4294967295
265.56036 -8.9553127 -82.943039 4294967295
265.56302 3.0522766 -79.186447 4294967295
265.577 -8.5137615 -82.781845 4294967295
265.57993 3.5018139 -79.132263 4294967295
265.59473 -8.0375843 -83.248177 4294967295
265.61292 4.3808985 -78.566925 4294967295
265.62714 -7.1831789 -82.393867 4294967295
265.64468 -6.7113881 -82.785995 4294967295
265.65982 -6.3195581 -81.686859 4294967295
265.67773 -5.8369226 -82.284142 4294967295
265.69312 -5.4366035 -81.326286 4294967295
265.71109 -4.9522676 -81.962387 4294967295
265.72806 -4.5004444 -81.980934 4294967295
265.74451 -4.0657482 -81.667038 4294967295
265.76028 -3.6524067 -80.930191 4294967295
265.77811 -3.1727018 -81.491356 4294967295
265.81015 -2.3318968 -80.263214 4294967295
265.82721 -1.8768139 -80.335205 4294967295
265.83966 -13.44202 -83.476028 4294967295
265.84485 -1.4025517 -80.798584 4294967295
265.86108 -0.97523212 -80.306076 4294967295
265.87311 -12.556516 -83.221703 4294967295
265.87799 -0.52606767 -80.25766 4294967295
265.88974 -12.119455 -82.994537 4294967295
265.89468 -0.083146997 -80.078171 4294967295
265.90656 -11.671824 -82.946251 4294967295
265.92371 -11.212629 -83.097839 4294967295
265.94464 1.2397795 -79.396957 4294967295
265.95734 -10.31996 -82.955185 4294967295
265.96201 1.7046518 -79.677414 4294967295
265.99072 -9.4379988 -82.617935 4294967295
265.99561 2.5969973 -79.432686 4294967295
266.00696 -9.017396 -82.080444 4294967295
266.01172 3.0195227 -78.784042 4294967295
266.02509 -8.5162497 -82.989807 4294967295
266.0293 3.4930143 -79.261185 4294967295
266.04184 -8.07195 -82.87812 4294967295
266.04507 3.9031916 -78.321869 4294967295
266.05841 -7.6358614 -82.614471 4294967295
266.06183 4.3472624 -78.135376 4294967295
266.07495 -7.2032247 -82.283493 4294967295
266.12521 -5.8728752 -81.872643 4294967295
266.14191 -5.4333611 -81.656792 4294967295
266.15927 -4.9629889 -82.028404 4294967295
266.17615 -4.5143585 -81.986259 4294967295
266.19171 -4.1234736 -80.821594 4294967295
266.2092 -3.649436 -81.267059 4294967295
266.22589 -3.2103267 -81.030319 4294967295
266.24213 -2.7901001 -80.414566 4294967295
266.27634 -1.873847 -80.684334 4294967295
266.28589 -13.525888 -82.301605 4294967295
266.2934 -1.41712 -80.793915 4294967295
266.30289 -13.070355 -82.383423 4294967295
266.30963 -0.99856091 -80.122261 4294967295
266.32083 -12.565391 -83.305481 4294967295
266.32669 -0.54288483 -80.20739 4294967295
266.33643 -12.187441 -82.069138 4294967295
266.34378 -0.085912697 -80.320908 4294967295
266.35321 -11.745441 -81.918259 4294967295
266.3707 -11.263475 -82.457352 4294967295
266.37726 0.79694462 -79.894707 4294967295
266.38721 -10.835834 -82.056709 4294967295
266.39365 1.2208719 -79.302299 4294967295
266.40509 -10.331707 -82.993378 4294967295
266.41025 1.6561117 -78.943687 4294967295
266.42212 -9.8729191 -83.141296 4294967295
266.43829 -9.4661903 -82.364693 4294967295
266.44458 2.5768223 -79.309036 4294967295
266.4549 -9.0347404 -82.02018 4294967295
266.46118 3.0122681 -78.945625 4294967295
266.47232 -8.5560808 -82.523293 4294967295
266.48932 -8.1017227 -82.591583 4294967295
266.49466 3.8923597 -78.406891 4294967295
266.50583 -7.6744871 -82.164276 4294967295
266.51208 4.3655281 -78.882088 4294967295
266.52304 -7.208446 -82.446602 4294967295
266.53937 -6.7945881 -81.763374 4294967295
266.55649 -6.3306065 -82.008347 4294967295
266.57281 -5.9179087 -81.289978 4294967295
266.58975 -5.4682727 -81.262566 4294967295
266.60651 -5.0287094 -81.041908 4294967295
266.6239 -4.5480547 -81.610123 4294967295
266.64056 -4.115685 -81.249153 4294967295
266.65692 -3.7027793 -80.501671 4294967295
266.67432 -3.2224126 -81.073082 4294967295
266.6911 -2.783278 -80.833984 4294967295
266.70798 -2.3362179 -80.749817 4294967295
266.72498 -1.8826385 -80.796021 4294967295
266.74161 -1.4534578 -80.346214 4294967295
266.75092 -13.070593 -82.612282 4294967295
266.75861 -1.0002251 -80.38282 4294967295
266.77524 -0.57188511 -79.905258 4294967295
266.78473 -12.172527 -82.560539 4294967295
266.80945 0.35344601 -80.369164 4294967295
266.83536 -10.835505 -82.304832 4294967295
266.84293 1.2199821 -79.59256 4294967295
266.85208 -10.404903 -81.952698 4294967295
266.85959 1.6474886 -79.070267 4294967295
266.86938 -9.9198275 -82.558533 4294967295
266.87643 2.0924816 -78.919029 4294967295
266.88608 -9.4878931 -82.226913 4294967295
266.89343 2.5458107 -78.947891 4294967295
266.90338 -9.0025806 -82.847382 4294967295
266.91061 3.0143166 -79.312782 4294967295
266.92035 -8.5495768 -82.893433 4294967295
266.92722 3.4344578 -78.605476 4294967295
266.93719 -8.1029119 -82.824875 4294967295
266.95386 -7.6814666 -82.293594 4294967295
266.98776 -6.77841 -82.325531 4294967295
267.00473 -6.3190346 -82.488693 4294967295
267.02148 -5.8883758 -82.112961 4294967295
267.05499 -5.0289464 -81.308548 4294967295
267.07181 -4.5989866 -80.9021 4294967295
267.08881 -4.1377106 -81.097443 4294967295
267.13959 -2.798171 -80.821709 4294967295
267.15652 -2.344934 -80.861641 4294967295
267.17328 -1.9233217 -80.263771 4294967295
267.18158 -13.569372 -82.035263 4294967295
267.19016 -1.4828997 -80.039055 4294967295
267.19861 -13.1008 -82.335785 4294967295
267.20731 -1.000989 -80.661598 4294967295
267.21536 -12.68325 -81.774261 4294967295
267.22397 -0.59668642 -79.689972 4294967295
267.24103 -0.1298103 -80.00634 4294967295
267.24939 -11.743068 -82.436028 4294967295
267.258 0.32407001 -80.054993 4294967295
267.27496 0.77405453 -80.021935 4294967295
267.28329 -10.837923 -82.505066 4294967295
267.2919 1.2146187 -79.787125 4294967295
267.30005 -10.423974 -81.862442 4294967295
267.30881 1.6638451 -79.734779 4294967295
267.31711 -9.9407043 -82.435875 4294967295
267.32568 2.0885 -79.14798 4294967295
267.33405 -9.4803009 -82.610596 4294967295
267.35092 -9.062603 -82.022278 4294967295
267.35962 2.9881573 -79.056305 4294967295
267.3678 -8.621315 -81.851357 4294967295
267.39352 3.8725767 -78.618767 4294967295
267.40173 -7.6989136 -82.231377 4294967295
267.41043 4.2946539 -77.937485 4294967295
267.41867 -7.2324104 -82.523193 4294967295
267.43558 -6.7947364 -82.283836 4294967295
267.46936 -5.9628944 -80.974991 4294967295
267.48633 -5.4685287 -81.794907 4294967295
267.50327 -5.0358949 -81.446686 4294967295
267.52017 -4.6077046 -81.00766 4294967295
267.53714 -4.1657319 -80.829369 4294967295
267.55411 -3.712359 -80.871506 4294967295
267.57104 -3.2589626 -80.914627 4294967295
267.58798 -2.7976794 -81.115143 4294967295
267.60498 -2.3992362 -80.060654 4294967295
267.62955 -13.610261 -81.581421 4294967295
267.63885 -1.4789963 -80.410217 4294967295
267.66339 -12.693174 -81.840553 4294967295
267.67288 -0.61787611 -79.549377 4294967295
267.68036 -12.26145 -81.514679 4294967295
267.68979 -0.14404009 -80.010132 4294967295
267.6972 -11.768836 -82.231285 4294967295
267.70682 0.2825422 -79.48571 4294967295
267.71417 -11.329795 -82.030373 4294967295
267.72382 0.72728819 -79.337402 4294967295
267.73108 -10.868947 -82.206573 4294967295
267.74075 1.1801376 -79.359634 4294967295
267.74799 -10.409689 -82.35746 4294967295
267.75769 1.6417446 -79.570839 4294967295
267.76492 -9.9631634 -82.285446 4294967295
267.7919 2.4957304 -78.487732 4294967295
267.7988 -9.0699778 -82.140671 4294967295
267.80884 2.9526243 -78.592896 4294967295
267.8157 -8.6091022 -82.324486 4294967295
267.83255 -8.1364841 -82.724197 4294967295
267.84277 3.8609419 -78.68541 4294967295
267.84952 -7.7047434 -82.381615 4294967295
267.8598 4.3073902 -78.558105 4294967295
267.86646 -7.256671 -82.335037 4294967295
267.91757 -5.9644942 -81.211075 4294967295
267.95163 -5.0838766 -80.800278 4294967295
267.96863 -4.6435957 -80.589661 4294967295
268.00226 -3.6990752 -81.409592 4294967295
268.01941 -3.2742929 -80.893394 4294967295
268.03659 -2.8531265 -80.297318 4294967295
268.05362 -2.4078941 -80.173698 4294967295
268.07782 -13.655022 -81.063049 4294967295
268.09442 -13.158006 -81.836937 4294967295
268.10449 -1.053854 -80.16655 4294967295
268.11136 -12.707925 -81.82489 4294967295
268.12189 -0.64562798 -79.273239 4294967295
268.12836 -12.263952 -81.708519 4294967295
268.13843 -0.15180971 -80.148224 4294967295
268.14536 -11.820455 -81.582314 4294967295
268.15579 0.26168731 -79.350761 4294967295
268.16217 -11.355154 -81.831741 4294967295
268.17297 0.69356823 -78.929413 4294967295
268.17899 -10.892025 -82.046783 4294967295
268.18979 1.1587257 -79.211525 4294967295
268.19571 -10.421474 -82.395027 4294967295
268.2066 1.6257591 -79.538612 4294967295
268.21304 -10.011483 -81.678123 4294967295
268.22379 2.059474 -79.147858 4294967295
268.22958 -9.5212307 -82.379028 4294967295
268.24664 -9.0856762 -82.109802 4294967295
268.26331 -8.6082449 -82.592468 4294967295
268.2804 -8.1743708 -82.290543 4294967295
268.29227 3.8279314 -78.271606 4294967295
268.29752 -7.7379427 -82.031128 4294967295
268.30905 4.2920313 -78.541313 4294967295
268.31421 -7.2661629 -82.419312 4294967295
268.33133 -6.8339281 -82.079033 4294967295
268.34872 -6.4208946 -81.375046 4294967295
268.36584 -5.9822931 -81.142052 4294967295
268.38266 -5.5218477 -81.320099 4294967295
268.40012 -5.1070156 -80.628883 4294967295
268.41647 -4.6133318 -81.445908 4294967295
268.43396 -4.1997166 -80.721527 4294967295
268.45059 -3.7282414 -81.117569 4294967295
268.46799 -3.3064823 -80.540016 4294967295
268.48508 -2.8615708 -80.413193 4294967295
268.50211 -2.4153171 -80.31131 4294967295
268.51904 -1.9636784 -80.316345 4294967295
268.53653 -1.542366 -79.705009 4294967295
268.54248 -13.181114 -81.680214 4294967295
268.55307 -1.0662365 -80.207214 4294967295
268.55954 -12.737968 -81.54995 4294967295
268.57037 -0.6353817 -79.782166 4294967295
268.58713 -0.1722717 -80.022018 4294967295
268.59323 -11.823625 -81.766212 4294967295
268.60464 0.25130939 -79.435867 4294967295
268.61087 -11.419198 -80.963882 4294967295
268.62158 0.70241362 -79.422592 4294967295
268.63831 1.1689329 -79.738266 4294967295
268.66116 -10.033313 -81.538841 4294967295
268.67255 2.0566244 -79.401062 4294967295
268.69012 2.480298 -78.78653 4294967295
268.71118 -8.6376286 -82.31485 4294967295
268.7244 3.3709192 -78.489395 4294967295
268.72818 -8.1892967 -82.274048 4294967295
268.74609 -7.790524 -81.326088 4294967295
268.76291 -7.3344975 -81.419235 4294967295
268.77997 -6.8881264 -81.334671 4294967295
268.79642 -6.412468 -81.796227 4294967295
268.81366 -5.9784193 -81.481018 4294967295
268.83154 -5.5723424 -80.63063 4294967295
268.84769 -5.0813713 -81.389938 4294967295
268.88184 -4.192482 -81.137772 4294967295
268.89926 -3.7633667 -80.709129 4294967295
268.93326 -2.8644133 -80.640182 4294967295
268.95023 -2.4141526 -80.620636 4294967295
268.96744 -1.9735417 -80.406303 4294967295
268.98444 -1.5241394 -80.366974 4294967295
269.00171 -1.0846395 -80.124268 4294967295
269.00858 -12.800279 -80.727859 4294967295
269.0188 -0.63844299 -80.015999 4294967295
269.02448 -12.30098 -81.549141 4294967295
269.04211 -11.880885 -81.020569 4294967295
269.05347 0.2381849 -79.463242 4294967295
269.0592 -11.436987 -80.896439 4294967295
269.06992 0.70743179 -79.834602 4294967295
269.09195 -10.48632 -81.745865 4294967295
269.10553 1.5513744 -78.561478 4294967295
269.10864 -10.024648 -81.938187 4294967295
269.12234 2.0100269 -78.704643 4294967295
269.14014 2.4359932 -78.135056 4294967295
269.14325 -9.1539955 -81.38736 4294967295
269.15701 2.8913774 -78.204971 4294967295
269.16006 -8.6981297 -81.476456 4294967295
269.17392 3.3454504 -78.246872 4294967295
269.17603 -8.207408 -82.199783 4294967295
269.19046 3.8117113 -78.563293 4294967295
269.20795 4.2485676 -78.218956 4294967295
269.2106 -7.3343663 -81.680794 4294967295
269.22754 -6.8847332 -81.65892 4294967295
269.24469 -6.4406919 -81.532333 4294967295
269.26169 -5.9924889 -81.482063 4294967295
269.29642 -5.1202984 -80.91674 4294967295
269.33057 -4.2265229 -80.753036 4294967295
269.3483 -3.800878 -80.254211 4294967295
269.36575 -3.365797 -79.933456 4294967295
269.38214 -2.895978 -80.297073 4294967295
269.40015 -2.4770966 -79.64772 4294967295
269.41721 -2.0281096 -79.594872 4294967295
269.43967 -13.256231 -80.880173 4294967295
269.45096 -1.119873 -79.696854 4294967295
269.45663 -12.806353 -80.859512 4294967295
269.46768 -0.66115278 -79.84407 4294967295
269.48639 -0.26041409 -78.786949 4294967295
269.50281 0.2075939 -79.124031 4294967295
269.50726 -11.445992 -80.981033 4294967295
269.51898 0.6817522 -79.596909 4294967295
269.52368 -10.977089 -81.29184 4294967295
269.53757 1.0889807 -78.649658 4294967295
269.54089 -10.534982 -81.136856 4294967295
269.55481 1.533823 -78.495789 4294967295
269.55789 -10.086041 -81.100479 4294967295
269.57144 1.9950285 -78.694252 4294967295
269.5741 -9.6116142 -81.516724 4294967295
269.58789 2.4604759 -78.988815 4294967295
269.59119 -9.1647892 -81.44445 4294967295
269.60651 2.8701687 -78.058159 4294967295
269.60818 -8.7160778 -81.405365 4294967295
269.62338 3.3261032 -78.140724 4294967295
269.62573 -8.2830095 -81.081757 4294967295
269.6394 3.8016682 -78.665466 4294967295
269.65814 4.2108917 -77.696594 4294967295
269.65851 -7.3481236 -81.686401 4294967295
269.6767 -6.9350376 -80.987106 4294967295
269.69241 -6.4479079 -81.66095 4294967295
269.70938 -5.9988966 -81.627274 4294967295
269.72803 -5.5952454 -80.733185 4294967295
269.74472 -5.1375875 -80.857178 4294967295
269.77933 -4.2540126 -80.495605 4294967295
269.79602 -3.7952261 -80.642822 4294967295
269.8132 -3.3505392 -80.514511 4294967295
269.83014 -2.898633 -80.527771 4294967295
269.8476 -2.4603839 -80.267838 4294967295
269.90009 -1.1443939 -79.488899 4294967295
269.90442 -12.808534 -81.056938 4294967295
269.91672 -0.68648243 -79.618057 4294967295
269.92276 -12.396978 -80.383797 4294967295
269.93381 -0.2367363 -79.579582 4294967295
269.95215 0.18161011 -78.881653 4294967295
269.95526 -11.455349 -81.059494 4294967295
269.97003 0.61339569 -78.456543 4294967295
269.98538 1.1017656 -79.231033 4294967295
270.00375 1.5231915 -78.578812 4294967295
270.00555 -10.088036 -81.311554 4294967295
270.02051 1.9804544 -78.69297 4294967295
270.02267 -9.6413326 -81.236694 4294967295
270.03738 2.4343653 -78.735489 4294967295
270.03964 -9.1917276 -81.212723 4294967295
270.07324 3.2992954 -77.868561 4294967295
270.07465 -8.3183575 -80.694794 4294967295
270.0903 -7.8341579 -81.298859 4294967295
270.10574 -7.3467345 -81.970886 4294967295
270.10654 4.2172756 -78.17234 4294967295
270.14267 -6.5189066 -80.598167 4294967295
270.15915 -6.0560718 -80.817291 4294967295
270.17725 -5.6324563 -80.296051 4294967295
270.19263 -5.1447825 -80.990448 4294967295
270.21042 -4.712925 -80.621361 4294967295
270.22687 -4.2505517 -80.83828 4294967295
270.24634 -3.8549867 -79.753403 4294967295
270.26108 -3.3554702 -80.698036 4294967295
270.27911 -2.9268937 -80.25029 4294967295
270.33118 -1.5984039 -79.732117 4294967295
270.33679 -13.304096 -80.539436 4294967295
270.354 -12.858205 -80.449707 4294967295
270.36655 -0.72355562 -79.149902 4294967295
270.36969 -12.377187 -80.957794 4294967295
270.3862 -11.915548 -81.139946 4294967295
270.40204 0.1495657 -78.512283 4294967295
270.40305 -11.462405 -81.177673 4294967295
270.43787 -10.581572 -80.808685 4294967295
270.45248 -10.078831 -81.720047 4294967295
270.45273 1.5102596 -78.612427 4294967295
270.46878 1.9796066 -78.989227 4294967295
270.48669 -9.1842155 -81.597359 4294967295
270.50537 2.8354597 -77.934967 4294967295
270.5062 -8.7894611 -80.587791 4294967295
270.52124 3.3081112 -78.389198 4294967295
270.52148 -8.3030891 -81.226418 4294967295
270.5379 -7.8413649 -81.423798 4294967295
270.54041 3.7220154 -77.532814 4294967295
270.5542 -7.376503 -81.681656 4294967295
270.55804 4.1635323 -77.286514 4294967295
270.57166 -6.936749 -81.477737 4294967295
270.59085 -6.5316129 -80.624496 4294967295
270.60742 -6.0727334 -80.769653 4294967295
270.62335 -5.6016521 -81.148201 4294967295
270.64197 -5.1840501 -80.511292 4294967295
270.65985 -4.7505808 -80.17009 4294967295
270.69257 -3.8257685 -80.602089 4294967295
270.71124 -3.4060574 -79.982994 4294967295
270.7287 -2.964057 -79.796288 4294967295
270.76282 -2.0645618 -79.726219 4294967295
270.77921 -1.6027431 -79.935287 4294967295
270.79849 -1.1918917 -79.10466 4294967295
270.81567 -0.7442522 -79.019722 4294967295
270.83502 -11.946408 -80.848213 4294967295
270.84943 0.16292571 -79.095047 4294967295
270.86725 0.60068423 -78.798958 4294967295
270.88464 1.0455828 -78.650116 4294967295
270.88519 -10.579778 -81.084183 4294967295
270.90158 -10.118154 -81.272362 4294967295
270.90283 1.4787312 -78.246353 4294967295
270.91809 -9.6593943 -81.412109 4294967295
270.9342 -9.1914606 -81.718018 4294967295
270.95212 -8.7598171 -81.374352 4294967295
270.95242 2.8557272 -78.702927 4294967295
270.96939 -8.3159714 -81.247253 4294967295
270.9863 -7.8639011 -81.268631 4294967295
270.98831 3.7300739 -78.041313 4294967295
271.05573 -6.0904765 -80.701607 4294967295
271.0715 -5.6183352 -81.100082 4294967295
271.09128 -5.2162023 -80.168015 4294967295
271.10727 -4.7487373 -80.4785 4294967295
271.1413 -3.8480253 -80.445412 4294967295
271.159 -3.4092379 -80.200935 4294967295
271.17554 -2.9513378 -80.331573 4294967295
271.19464 -2.5340362 -79.653091 4294967295
271.21088 -2.0712957 -79.878876 4294967295
271.22971 -1.6488104 -79.291229 4294967295
271.24551 -1.1788073 -79.666344 4294967295
271.26392 -0.75006962 -79.196449 4294967295
271.26813 -12.446701 -80.244865 4294967295
271.28073 -0.29573539 -79.251129 4294967295
271.28366 -11.970142 -80.678886 4294967295
271.29938 0.13129809 -78.734406 4294967295
271.30054 -11.518528 -80.687729 4294967295
271.31656 0.5800209 -78.667526 4294967295
271.31754 -11.067674 -80.683655 4294967295
271.33453 1.0175066 -78.360237 4294967295
271.35172 -10.170472 -80.595268 4294967295
271.36652 -9.6818914 -81.260498 4294967295
271.36996 1.9011431 -77.91761 4294967295
271.38367 -9.235425 -81.18158 4294967295
271.38608 2.3653574 -78.180038 4294967295
271.40231 2.8278856 -78.409866 4294967295
271.4032 -8.8274117 -80.409149 4294967295
271.41592 -8.3069773 -81.664764 4294967295
271.41995 3.2708101 -78.207787 4294967295
271.4335 -7.8668251 -81.471771 4294967295
271.4382 3.7066832 -77.844078 4294967295
271.45602 4.1472435 -77.579819 4294967295
271.50491 -6.1209984 -80.393372 4294967295
271.5206 -5.6496987 -80.773926 4294967295
271.5394 -5.2271495 -80.22963 4294967295
271.55563 -4.7654481 -80.429977 4294967295
271.59033 -3.8745732 -80.205025 4294967295
271.60687 -3.4169369 -80.329773 4294967295
271.62674 -3.0076222 -79.498848 4294967295
271.642 -2.5320892 -79.9776 4294967295
271.65961 -2.0900445 -79.789658 4294967295
271.6774 -1.6495867 -79.566551 4294967295
271.69458 -1.2016315 -79.493164 4294967295
271.71121 -0.74498838 -79.59787 4294967295
271.71646 -12.46204 -80.219574 4294967295
271.73206 -11.988857 -80.595726 4294967295
271.74802 0.1199913 -78.799873 4294967295
271.74872 -11.532831 -80.680771 4294967295
271.76581 -11.084107 -80.639709 4294967295
271.76599 0.55870253 -78.522446 4294967295
271.78296 -10.636391 -80.580452 4294967295
271.78519 0.98246002 -77.921982 4294967295
271.79724 -10.144323 -81.302505 4294967295
271.81668 -9.7316999 -80.623947 4294967295
271.81802 1.9011393 -78.231972 4294967295
271.83286 -9.2682371 -80.845078 4294967295
271.8364 2.3356342 -77.848213 4294967295
271.84888 -8.8038864 -81.08503 4294967295
271.85464 2.7722702 -77.50489 4294967295
271.86493 -8.3396044 -81.327179 4294967295
271.87064 3.2370577 -77.78157 4294967295
271.88168 -7.8863468 -81.371552 4294967295
271.90112 -7.4717369 -80.705666 4294967295
271.90573 4.1282587 -77.481148 4294967295
271.92429 4.5621872 -77.060516 4294967295
271.93448 -6.5620112 -80.847137 4294967295
271.95419 -6.1501093 -80.111794 4294967295
271.96857 -5.6633167 -80.783813 4294967295
271.98563 -5.2132964 -80.764381 4294967295
272.00601 -4.8083739 -79.877602 4294967295
272.02039 -4.3225722 -80.543961 4294967295
272.039 -3.8935342 -80.112732 4294967295
272.05502 -3.4300261 -80.352676 4294967295
272.073 -2.9926691 -80.078186 4294967295
272.09372 -2.5889196 -79.128098 4294967295
272.10876 -2.1131401 -79.612907 4294967295
272.12622 -1.6678619 -79.486656 4294967295
272.14377 -1.2233038 -79.343681 4294967295
272.16281 -0.79708862 -78.820267 4294967295
272.16299 -12.450753 -80.648026 4294967295
272.17841 -11.976763 -81.041397 4294967295
272.181 -0.35986331 -78.517006 4294967295
272.19504 -11.521395 -81.11821 4294967295
272.19666 0.1078816 -78.848534 4294967295
272.21564 -11.122794 -80.208771 4294967295
272.2287 -10.61666 -81.169952 4294967295
272.23276 0.98634619 -78.313057 4294967295
272.24884 -10.210842 -80.37558 4294967295
272.24963 1.4392347 -78.331863 4294967295
272.26462 -9.7435904 -80.660881 4294967295
272.26517 1.9079027 -78.692871 4294967295
272.28043 -9.2768021 -80.941895 4294967295
272.31619 -8.4007006 -80.473763 4294967295
272.32074 3.2123442 -77.556297 4294967295
272.33054 -7.91433 -81.116928 4294967295
272.33823 3.6593723 -77.437912 4294967295
272.34866 -7.4792871 -80.825577 4294967295
272.35663 4.0968447 -77.101471 4294967295
272.36856 -7.0668907 -80.110367 4294967295
272.37387 4.5471869 -77.052536 4294967295
272.38477 -6.6053171 -80.302246 4294967295
272.40085 -6.1434932 -80.501762 4294967295
272.4194 -5.7122936 -80.124359 4294967295
272.45349 -4.8119678 -80.081314 4294967295
272.47232 -4.3831987 -79.645279 4294967295
272.5058 -3.4751811 -79.745087 4294967295
272.52155 -3.0095625 -80.026215 4294967295
272.54294 -2.6098619 -78.99556 4294967295
272.55905 -2.1481915 -79.195808 4294967295
272.57315 -1.6638813 -79.858154 4294967295
272.61023 -12.453749 -80.833099 4294967295
272.61139 -0.80929661 -78.865105 4294967295
272.62811 -12.015405 -80.616234 4294967295
272.6283 -0.35696319 -78.876656 4294967295
272.64719 -11.592047 -80.137772 4294967295
272.66385 -11.136897 -80.20562 4294967295
272.68088 0.98085791 -78.504288 4294967295
272.69507 -10.200188 -80.809341 4294967295
272.70169 1.392458 -77.638741 4294967295
272.71582 -9.797718 -79.948181 4294967295
272.71835 1.848321 -77.716789 4294967295
272.7308 -9.3215933 -80.391342 4294967295
272.73721 2.28162 -77.303619 4294967295
272.74658 -8.8559008 -80.652939 4294967295
272.75195 2.7564926 -77.798889 4294967295
272.76572 -8.4316101 -80.167831 4294967295
272.77039 3.1942406 -77.477913 4294967295
272.78214 -7.9741268 -80.281784 4294967295
272.78619 3.6579771 -77.733849 4294967295
272.79422 -7.4643536 -81.358688 4294967295
272.80536 4.0892801 -77.261047 4294967295
272.81332 -7.0394721 -80.879112 4294967295
272.82471 4.5190239 -76.744255 4294967295
272.8316 -6.604207 -80.586151 4294967295
272.85022 -6.1723852 -80.22435 4294967295
272.90063 -4.813725 -80.320335 4294967295
272.91846 -4.3723364 -80.130768 4294967295
272.95297 -3.4765291 -79.998718 4294967295
272.97 -3.0262642 -79.978058 4294967295
272.99045 -2.6120901 -79.236504 4294967295
273.00562 -2.1417303 -79.613792 4294967295
273.02557 -1.7212334 -78.985825 4294967295
273.04227 -12.932012 -80.605377 4294967295
273.04425 -1.2868481 -78.631767 4294967295
273.05826 -0.8052054 -79.245819 4294967295
273.0607 -12.49872 -80.302811 4294967295
273.07834 -0.38456821 -78.602501 4294967295
273.07999 -12.076113 -79.813011 4294967295
273.09482 -11.599127 -80.255341 4294967295
273.09644 0.056240998 -78.371124 4294967295
273.11118 0.52968413 -78.824997 4294967295
273.11169 -11.147019 -80.271317 4294967295
273.13043 -10.717033 -79.900513 4294967295
273.1514 1.3728676 -77.529373 4294967295
273.15906 -9.7531204 -80.987541 4294967295
273.16644 1.8437204 -77.931488 4294967295
273.17929 -9.3399105 -80.314072 4294967295
273.18399 2.2908239 -77.821945 4294967295
273.1958 -8.8838568 -80.401962 4294967295
273.19986 2.7532635 -78.048264 4294967295
273.20883 -8.3885393 -81.202667 4294967295
273.21997 3.1763668 -77.404808 4294967295
273.22684 -7.9501843 -80.975098 4294967295
273.23514 3.6450548 -77.7714 4294967295
273.24313 -7.4916129 -81.116096 4294967295
273.25632 4.0599995 -76.929787 4294967295
273.2717 4.5266361 -77.251869 4294967295
273.27658 -6.5851369 -81.204964 4294967295
273.30084 -6.2129688 -79.727341 4294967295
273.31122 -5.6917768 -81.04821 4294967295
273.33112 -5.2722392 -80.450706 4294967295
273.35315 -4.873703 -79.44075 4294967295
273.41867 -3.0446053 -79.897446 4294967295
273.43893 -2.6255145 -79.254097 4294967295
273.45407 -2.1562667 -79.609375 4294967295
273.48831 -1.2567053 -79.54126 4294967295
273.49426 -12.991655 -79.830147 4294967295
273.51062 -0.85572147 -78.501427 4294967295
273.52744 -12.080652 -79.973114 4294967295
273.52777 -0.40501019 -78.477196 4294967295
273.54269 -11.610667 -80.295975 4294967295
273.5448 0.046111099 -78.461212 4294967295
273.55911 -11.153533 -80.399849 4294967295
273.56342 0.48311231 -78.146843 4294967295
273.57666 -10.708684 -80.290421 4294967295
273.57761 0.96029091 -78.682365 4294967295
273.59219 -10.242503 -80.555115 4294967295
273.59692 1.3911858 -78.233627 4294967295
273.61026 -9.8036098 -80.339462 4294967295
273.61667 1.8187666 -77.705467 4294967295
273.62778 -9.3579168 -80.242203 4294967295
273.63412 2.2666998 -77.61264 4294967295
273.65475 2.6876698 -76.924667 4294967295
273.65826 -8.4205875 -80.875854 4294967295
273.66736 3.1774464 -77.752411 4294967295
273.67996 -8.0184793 -79.985092 4294967295
273.69327 -7.5300317 -80.668304 4294967295
273.70236 4.0732737 -77.560127 4294967295
273.72076 4.5142031 -77.302185 4294967295
273.74695 -6.2049685 -80.143181 4294967295
273.76184 -5.7337956 -80.520737 4294967295
273.78311 -5.3248706 -79.717522 4294967295
273.80029 -4.8758421 -79.672272 4294967295
273.81436 -4.3965678 -80.211632 4294967295
273.85071 -3.517096 -79.761627 4294967295
273.86807 -3.0693774 -79.689575 4294967295
273.90274 -2.1734524 -79.55162 4294967295
273.9245 -1.7651005 -78.678207 4294967295
273.93967 -12.975203 -80.342644 4294967295
273.94269 -1.3242254 -78.455185 4294967295
273.95544 -0.83526129 -79.219032 4294967295
273.9743 -0.400033 -78.879692 4294967295
273.99353 0.032302901 -78.474091 4294967295
274.02533 -10.729202 -80.175148 4294967295
274.02841 0.92817777 -78.30687 4294967295
274.03915 -10.246399 -80.732231 4294967295
274.04736 1.3637657 -77.956223 4294967295
274.06619 1.8004236 -77.622787 4294967295
274.07178 -9.3316927 -80.960541 4294967295
274.0863 2.2272263 -77.06855 4294967295
274.08954 -8.8889246 -80.814705 4294967295
274.10501 2.6658926 -76.765846 4294967295
274.10532 -8.4267063 -81.019165 4294967295
274.12051 3.1306982 -77.038284 4294967295
274.13855 3.5749435 -76.854973 4294967295
274.13986 -7.5314655 -80.900253 4294967295
274.15182 4.0564318 -77.509888 4294967295
274.16223 -7.1320915 -79.946762 4294967295
274.17291 4.4769964 -76.787712 4294967295
274.17313 -6.6239996 -81.005981 4294967295
274.1951 -6.2195845 -80.134003 4294967295
274.22839 -5.3117523 -80.237518 4294967295
274.2464 -4.8700566 -80.055908 4294967295
274.28302 -3.9915261 -79.589539 4294967295
274.29749 -3.5186806 -80.010399 4294967295
274.35687 -2.2370367 -78.561157 4294967295
274.37131 -1.7638636 -78.993813 4294967295
274.3743 -13.476017 -79.739487 4294967295
274.39178 -13.030289 -79.644684 4294967295
274.40778 -0.88161182 -78.560646 4294967295
274.42203 -0.40727809 -79.028091 4294967295
274.4473 -0.0223036 -77.633453 4294967295
274.45767 -11.205852 -79.974304 4294967295
274.46454 0.42752171 -77.583771 4294967295
274.47604 -10.768353 -79.73391 4294967295
274.47656 0.91867542 -78.412453 4294967295
274.49478 1.36092 -78.205887 4294967295
274.50879 -9.8545904 -79.930756 4294967295
274.51813 1.7638912 -77.146545 4294967295
274.52518 -9.398222 -80.02198 4294967295
274.53207 2.2395096 -77.653709 4294967295
274.5517 2.6721964 -77.225098 4294967295
274.57114 3.1058931 -76.811363 4294967295
274.57431 -8.0292311 -80.301559 4294967295
274.58911 3.551465 -76.656433 4294967295
274.5899 -7.5657492 -80.52877 4294967295
274.6037 4.0215483 -77.052078 4294967295
274.6228 4.4586449 -76.703262 4294967295
274.62515 -6.6756039 -80.306946 4294967295
274.65976 -5.7796068 -80.18927 4294967295
274.67545 -5.3173342 -80.401108 4294967295
274.7168 -4.4775772 -79.194397 4294967295
274.73093 -4.0029516 -79.644165 4294967295
274.74841 -3.5555429 -79.566452 4294967295
274.76675 -3.1158743 -79.334183 4294967295
274.80444 -2.2424197 -78.740776 4294967295
274.82138 -1.7905521 -78.743721 4294967295
274.82208 -13.485895 -79.805679 4294967295
274.8382 -1.3376102 -78.768555 4294967295
274.84232 -13.065351 -79.285797 4294967295
274.85623 -12.585453 -79.769524 4294967295
274.85837 -0.91048431 -78.262459 4294967295
274.87793 -0.47819331 -77.855469 4294967295
274.89105 0.0029134999 -78.462738 4294967295
274.89111 -11.69203 -79.61113 4294967295
274.90683 -11.229368 -79.807495 4294967295
274.9108 0.43391711 -78.023407 4294967295
274.92355 -10.775809 -79.847206 4294967295
274.92798 0.88461018 -77.995735 4294967295
274.94153 -10.333552 -79.688576 4294967295
274.95007 1.299263 -77.194427 4294967295
274.95819 -9.8796358 -79.734436 4294967295
274.96777 -9.3645554 -80.872803 4294967295
274.98044 2.2297173 -77.75705 4294967295
274.99002 -8.9592314 -80.054123 4294967295
274.99854 2.6738777 -77.582207 4294967295
275.00598 -8.4995117 -80.208557 4294967295
275.0162 3.1214609 -77.48027 4294967295
275.02255 -8.0453568 -80.263626 4294967295
275.04163 -7.6122255 -79.933472 4294967295
275.05444 -7.1262937 -80.575325 4294967295
275.05563 3.9885263 -76.636536 4294967295
275.07269 4.4406433 -76.626823 4294967295
275.07272 -6.686512 -80.366653 4294967295
275.08777 -6.219698 -80.662117 4294967295
275.12903 -5.3773084 -79.528526 4294967295
275.16199 -4.4667854 -79.677902 4294967295
275.18051 -4.0275044 -79.443039 4294967295
275.19604 -3.5654712 -79.651215 4294967295
275.21252 -3.1103711 -79.725464 4294967295
275.23615 -2.7093105 -78.723572 4294967295
275.24948 -2.2302446 -79.273193 4294967295
275.26871 -13.48664 -80.025108 4294967295
275.29153 -1.3871326 -78.050827 4294967295
275.30432 -0.90460491 -78.679398 4294967295
275.30499 -12.604712 -79.677338 4294967295
275.32126 -12.14764 -79.776077 4294967295
275.32236 -0.4607048 -78.517082 4294967295
275.33768 -11.691754 -79.855515 4294967295
275.34351 -0.038419701 -77.900063 4294967295
275.35855 0.42731291 -78.188881 4294967295
275.371 -10.784262 -79.943039 4294967295
275.37708 0.86850929 -77.960899 4294967295
275.39932 1.2840586 -77.179352 4294967295
275.40326 -9.8683662 -80.181839 4294967295
275.4158 1.7399387 -77.256447 4294967295
275.42242 -9.4352064 -79.861252 4294967295
275.43698 2.1639338 -76.639549 4294967295
275.44006 -8.9898815 -79.754875 4294967295
275.45258 -8.5023165 -80.411514 4294967295
275.46899 3.0822277 -76.933289 4294967295
275.48755 -7.6091013 -80.249176 4294967295
275.50031 -7.1252108 -80.855774 4294967295
275.50552 3.9703026 -76.555283 4294967295
275.52362 4.416151 -76.402557 4294967295
275.53867 -6.2581186 -80.206001 4294967295
275.5589 -5.8319187 -79.735146 4294967295
275.57883 -5.4032621 -79.304024 4294967295
275.59537 -4.9484754 -79.367836 4294967295
275.61298 -4.5021501 -79.269089 4294967295
275.62952 -4.0475674 -79.329453 4294967295
275.64682 -3.5987015 -79.278656 4294967295
275.66486 -3.1547956 -79.129005 4294967295
275.68686 -2.7389894 -78.417015 4294967295
275.70282 -2.2800555 -78.560135 4294967295
275.71906 -13.519541 -79.704453 4294967295
275.71918 -1.8241615 -78.643753 4294967295
275.73318 -13.044735 -80.102142 4294967295
275.73959 -1.3963642 -78.155563 4294967295
275.74985 -12.591242 -80.142349 4294967295
275.75952 -0.96463108 -77.740425 4294967295
275.76923 -12.160399 -79.795197 4294967295
275.78738 -11.719038 -79.624619 4294967295
275.79471 -0.068494797 -77.572929 4294967295
275.80594 0.42203429 -78.382042 4294967295
275.82178 -10.819972 -79.562263 4294967295
275.82477 0.86134809 -78.11618 4294967295
275.84772 1.2742319 -77.279388 4294967295
275.85452 -9.9082289 -79.722847 4294967295
275.862 1.7441216 -77.660454 4294967295
275.86639 -9.4172564 -80.431274 4294967295
275.88501 -8.9791775 -80.199104 4294967295
275.88693 2.1455603 -76.556084 4294967295
275.89896 2.6294041 -77.244316 4294967295
275.89999 -8.5129414 -80.473206 4294967295
275.91904 3.0625648 -76.820564 4294967295
275.92316 -8.1095123 -79.606247 4294967295
275.93536 3.5189247 -76.908363 4294967295
275.95087 -7.1606884 -80.46003 4294967295
275.95901 3.930685 -75.991394 4294967295
275.97491 -6.7618852 -79.488037 4294967295
275.98654 -6.2719612 -80.211357 4294967295
276.00455 -5.8280711 -80.07534 4294967295
276.0217 -5.3784666 -80.046066 4294967295
276.03949 -4.9332614 -79.931946 4294967295
276.056 -4.4791999 -79.987274 4294967295
276.07849 -4.0664425 -79.239098 4294967295
276.09753 -3.6294165 -78.955643 4294967295
276.11377 -3.1726465 -79.058319 4294967295
276.14905 -2.2789893 -78.869049 4294967295
276.16708 -1.8345137 -78.724426 4294967295
276.16766 -13.537699 -79.631592 4294967295
276.18036 -13.052547 -80.203796 4294967295
276.18695 -1.4016075 -78.341599 4294967295
276.2081 -0.977108 -77.779739 4294967295
276.21655 -12.168377 -79.896095 4294967295
276.23651 -11.740527 -79.493706 4294967295
276.24899 -11.254792 -80.0905 4294967295
276.25494 0.40489101 -78.325218 4294967295
276.26404 -10.789273 -80.342224 4294967295
276.27499 0.8376236 -77.919411 4294967295
276.28281 -10.35217 -80.097382 4294967295
276.2919 1.2898149 -77.923706 4294967295
276.29929 -9.8973408 -80.163284 4294967295
276.31128 1.7273407 -77.611343 4294967295
276.31903 -9.4673367 -79.787216 4294967295
276.33627 2.1307878 -76.551071 4294967295
276.34988 2.6034861 -76.994507 4294967295
276.36404 -8.0715466 -80.554085 4294967295
276.36746 3.0525103 -76.920837 4294967295
276.409 3.9135981 -75.935944 4294967295
276.42603 4.3661709 -75.931641 4294967295
276.43973 -6.3225021 -79.528168 4294967295
276.45639 -5.8692899 -79.563698 4294967295
276.46912 -5.3893437 -80.108482 4294967295
276.48584 -4.9364419 -80.142914 4294967295
276.52475 -4.0674391 -79.496773 4294967295
276.54541 -3.6405621 -79.01667 4294967295
276.56403 -3.1996088 -78.807465 4294967295
276.58652 -2.7837687 -78.094681 4294967295
276.61105 -13.515862 -80.229958 4294967295
276.63367 -1.4041729 -78.58226 4294967295
276.63556 -13.121824 -79.266739 4294967295
276.65274 -12.672297 -79.234642 4294967295
276.65454 -0.97674471 -78.08297 4294967295
276.66553 -12.189581 -79.770348 4294967295
276.673 -0.53384972 -77.896286 4294967295
276.69183 -0.093097702 -77.66188 4294967295
276.69345 -11.243697 -80.524338 4294967295
276.7121 0.33914191 -77.244118 4294967295
276.71252 -10.808416 -80.250946 4294967295
276.73016 -10.362118 -80.167679 4294967295
276.7467 1.2397547 -77.16172 4294967295
276.74951 -9.9281044 -79.865616 4294967295
276.76218 -9.4465933 -80.406738 4294967295
276.76434 1.6883793 -77.083252 4294967295
276.78293 2.1313305 -76.879715 4294967295
276.78302 -9.0229511 -79.915787 4294967295
276.79813 -8.559269 -80.142189 4294967295
276.8002 2.5823116 -76.849091 4294967295
276.81674 -8.1196222 -79.933975 4294967295
276.819 3.0244761 -76.622673 4294967295
276.83444 -7.6735153 -79.841232 4294967295
276.84027 3.4533186 -76.094482 4294967295
276.854 3.9239216 -76.498581 4294967295
276.85535 -7.2489672 -79.34893 4294967295
276.87012 -6.7828264 -79.623535 4294967295
276.87241 4.3688641 -76.326157 4294967295
276.88876 -6.3427415 -79.413719 4294967295
276.90164 -5.8647442 -79.91684 4294967295
276.9245 -5.4516883 -79.191597 4294967295
276.9635 -4.5813475 -78.562775 4294967295
276.97864 -4.1183267 -78.783157 4294967295
277.01624 -3.2374706 -78.341385 4294967295
277.03284 -2.7836676 -78.381592 4294967295
277.05209 -2.3456078 -78.106461 4294967295
277.05975 -13.536065 -80.122559 4294967295
277.06772 -1.8857098 -78.268799 4294967295
277.08282 -13.129162 -79.376503 4294967295
277.09375 -12.634941 -80.105568 4294967295
277.09912 -0.96706492 -78.577728 4294967295
277.11072 -12.183912 -80.104942 4294967295
277.12045 -0.54066372 -78.05368 4294967295
277.12933 -11.744445 -79.904953 4294967295
277.14243 -0.1177568 -77.448105 4294967295
277.1485 -11.308711 -79.637451 4294967295
277.15598 0.3540068 -77.861687 4294967295
277.16586 -10.860215 -79.589355 4294967295
277.20013 1.2007818 -76.637505 4294967295
277.21207 -9.4753475 -80.14328 4294967295
277.21472 1.6666279 -76.926872 4294967295
277.22623 2.1491604 -77.584579 4294967295
277.23038 -9.0332489 -79.982391 4294967295
277.2478 -8.585495 -79.921387 4294967295
277.2504 2.5620279 -76.723328 4294967295
277.26767 -8.153161 -79.578857 4294967295
277.26776 3.0124369 -76.678925 4294967295
277.28046 -7.674984 -80.072395 4294967295
277.28638 3.4561539 -76.484116 4294967295
277.30002 -7.2406778 -79.762337 4294967295
277.30176 3.9174232 -76.681732 4294967295
277.32169 4.3544312 -76.330856 4294967295
277.37573 -5.4847989 -78.831284 4294967295
277.41101 -4.5898242 -78.673714 4294967295
277.42636 -4.1285167 -78.861885 4294967295
277.44785 -3.7038488 -78.334747 4294967295
277.465 -3.2531404 -78.313843 4294967295
277.48111 -2.7964668 -78.411476 4294967295
277.51031 -13.568884 -79.803467 4294967295
277.51965 -1.9194803 -77.875725 4294967295
277.52625 -13.110673 -79.922516 4294967295
277.53671 -1.4679012 -77.868347 4294967295
