# .PCD v0.7 - Point Cloud Data file format
VERSION 0.7
FIELDS x y z rgb
SIZE 4 4 4 4
TYPE F F F U
COUNT 1 1 1 1
WIDTH 1121
HEIGHT 1
VIEWPOINT 0 0 0 1 0 0 0
POINTS 1121
DATA ascii
259.80896 -77.454361 -66.126015 4294967295
259.82565 -77.0056 -66.051956 4294967295
259.84137 -76.573463 -65.829781 4294967295
259.85669 -76.147331 -65.552338 4294967295
259.8974 -75.124405 -66.522324 4294967295
259.91443 -74.669876 -66.500084 4294967295
259.93365 -74.177956 -66.815353 4294967295
259.94418 -73.83358 -65.79586 4294967295
259.96115 -73.379807 -65.763931 4294967295
259.98166 -72.866264 -66.277283 4294967295
259.99603 -72.456482 -65.843872 4294967295
260.05087 -71.028923 -66.360168 4294967295
260.06787 -70.574478 -66.335846 4294967295
260.1398 -80.731903 -65.555008 4294967295
260.15421 -80.325348 -65.116402 4294967295
260.17181 -79.860207 -65.18235 4294967295
260.1908 -79.36953 -65.470734 4294967295
260.2092 -78.889839 -65.665268 4294967295
260.22696 -78.421608 -65.760704 4294967295
260.24231 -77.998016 -65.465065 4294967295
260.26245 -77.486633 -65.940872 4294967295
260.27582 -77.098587 -65.329338 4294967295
260.29337 -76.634399 -65.389153 4294967295
260.31317 -76.12928 -65.813736 4294967295
260.36874 -74.684685 -66.468979 4294967295
260.38095 -74.316887 -65.663643 4294967295
260.40091 -73.809723 -66.115372 4294967295
260.4187 -73.34127 -66.21817 4294967295
260.43265 -72.942108 -65.689415 4294967295
260.45526 -72.387039 -66.584778 4294967295
260.46838 -72.002739 -65.917122 4294967295
260.48505 -71.554382 -65.83532 4294967295
260.52316 -70.572792 -66.458618 4294967295
260.5932 -80.770554 -65.317993 4294967295
260.61084 -80.304329 -65.39389 4294967295
260.62509 -79.90419 -64.898041 4294967295
260.64627 -79.368164 -65.579475 4294967295
260.66086 -78.961815 -65.135078 4294967295
260.68286 -78.410103 -65.959488 4294967295
260.69595 -78.03273 -65.258766 4294967295
260.71436 -77.551277 -65.470268 4294967295
260.73566 -77.01368 -66.179581 4294967295
260.74649 -76.679626 -65.087898 4294967295
260.76456 -76.205048 -65.23983 4294967295
260.78149 -75.752182 -65.198685 4294967295
260.80185 -75.233803 -65.744888 4294967295
260.81732 -74.80938 -65.449371 4294967295
260.83636 -74.31572 -65.77681 4294967295
260.87167 -73.382866 -65.943848 4294967295
260.88831 -72.935852 -65.850861 4294967295
260.90628 -72.463448 -65.989899 4294967295
260.92746 -71.929352 -66.696884 4294967295
260.94022 -71.557312 -65.91423 4294967295
260.95847 -71.079437 -66.105713 4294967295
260.97311 -70.670204 -65.660721 4294967295
261.04822 -80.778427 -65.345795 4294967295
261.06644 -80.299446 -65.532005 4294967295
261.0806 -79.904839 -64.988838 4294967295
261.0986 -79.430122 -65.138077 4294967295
261.11691 -78.949371 -65.341103 4294967295
261.13147 -78.547089 -64.858742 4294967295
261.15073 -78.046425 -65.236938 4294967295
261.16708 -77.605965 -65.087448 4294967295
261.18716 -77.088219 -65.620041 4294967295
261.20343 -76.650345 -65.447708 4294967295
261.22049 -76.194901 -65.430748 4294967295
261.2363 -75.765854 -65.177841 4294967295
261.25763 -75.22245 -65.948112 4294967295
261.27426 -74.776802 -65.844559 4294967295
261.29126 -74.322861 -65.815079 4294967295
261.30597 -73.916794 -65.351753 4294967295
261.32394 -73.443291 -65.498169 4294967295
261.34268 -72.953506 -65.794189 4294967295
261.36017 -72.489906 -65.852524 4294967295
261.37744 -72.03083 -65.869843 4294967295
261.39737 -71.516731 -66.394562 4294967295
261.41049 -71.142731 -65.626381 4294967295
261.43323 -70.571404 -66.685669 4294967295
261.49872 -80.887093 -64.506371 4294967295
261.55502 -79.407379 -65.4328 4294967295
261.56866 -79.029297 -64.741592 4294967295
261.58679 -78.551323 -64.919701 4294967295
261.60715 -78.022476 -65.545799 4294967295
261.62161 -77.626083 -65.009239 4294967295
261.6391 -77.161766 -65.069298 4294967295
261.65729 -76.681122 -65.274689 4294967295
261.67343 -76.247444 -65.063522 4294967295
261.69229 -75.752617 -65.397141 4294967295
261.72668 -74.836998 -65.405243 4294967295
261.74261 -74.407364 -65.155022 4294967295
261.76559 -73.820442 -66.327736 4294967295
261.77759 -73.479141 -65.276001 4294967295
261.81393 -72.52037 -65.678413 4294967295
261.83044 -72.077675 -65.54464 4294967295
261.86426 -71.175125 -65.43322 4294967295
261.88272 -70.689156 -65.699036 4294967295
261.95602 -80.844376 -64.969505 4294967295
261.98834 -79.979622 -64.534264 4294967295
262.02594 -78.98645 -65.212715 4294967295
262.04398 -78.507431 -65.401764 4294967295
262.05936 -78.094383 -65.01297 4294967295
262.07855 -77.587112 -65.451385 4294967295
262.09372 -77.179367 -65.013451 4294967295
262.11395 -76.647766 -65.670654 4294967295
262.12973 -76.224876 -65.365005 4294967295
262.14795 -75.741539 -65.597061 4294967295
262.18121 -74.854156 -65.353088 4294967295
262.20187 -74.311913 -66.119125 4294967295
262.21841 -73.870514 -65.977364 4294967295
262.23291 -73.477859 -65.391525 4294967295
262.25101 -72.998528 -65.592117 4294967295
262.26993 -72.498924 -65.979813 4294967295
262.28845 -72.009094 -66.280281 4294967295
262.3009 -71.665863 -65.231201 4294967295
262.32138 -71.128754 -65.968864 4294967295
262.33636 -70.725105 -65.472328 4294967295
262.40933 -80.897743 -64.605919 4294967295
262.42566 -80.463036 -64.407997 4294967295
262.44394 -79.975456 -64.666718 4294967295
262.46075 -79.528183 -64.577042 4294967295
262.47879 -79.048225 -64.771622 4294967295
262.49741 -78.553345 -65.098022 4294967295
262.51428 -78.103798 -65.028854 4294967295
262.53323 -77.59967 -65.439774 4294967295
262.55096 -77.126755 -65.577972 4294967295
262.5679 -76.676399 -65.51667 4294967295
262.5838 -76.253258 -65.212997 4294967295
262.61624 -75.389069 -64.759674 4294967295
262.63754 -74.822716 -65.737907 4294967295
262.67154 -73.917068 -65.658913 4294967295
262.68823 -73.473007 -65.539375 4294967295
262.72556 -72.479538 -66.261948 4294967295
262.74124 -72.061646 -65.902863 4294967295
262.75696 -71.642937 -65.548691 4294967295
262.79468 -70.640656 -66.363647 4294967295
262.8815 -80.451469 -64.603851 4294967295
262.90143 -79.914398 -65.291824 4294967295
262.918 -79.47393 -65.145386 4294967295
262.93408 -79.04866 -64.86515 4294967295
262.9491 -78.655037 -64.306412 4294967295
262.97107 -78.057693 -65.531868 4294967295
262.98752 -77.621849 -65.343407 4294967295
263.00317 -77.208405 -64.955681 4294967295
263.03729 -76.301025 -64.888474 4294967295
263.05658 -75.782341 -65.434792 4294967295
263.0719 -75.378876 -64.952583 4294967295
263.09311 -74.803169 -66.015747 4294967295
263.10876 -74.391273 -65.608246 4294967295
263.12708 -73.900993 -65.907639 4294967295
263.14508 -73.419647 -66.128021 4294967295
263.17694 -72.577827 -65.467064 4294967295
263.19449 -72.109062 -65.572601 4294967295
263.21249 -71.627769 -65.794464 4294967295
263.22891 -71.192604 -65.591019 4294967295
263.24637 -70.727844 -65.661049 4294967295
263.31866 -80.939194 -64.440361 4294967295
263.33743 -80.430527 -64.880569 4294967295
263.3555 -79.944405 -65.128616 4294967295
263.37137 -79.529984 -64.755241 4294967295
263.38977 -79.033394 -65.09581 4294967295
263.40692 -78.576584 -65.090515 4294967295
263.4249 -78.093872 -65.312889 4294967295
263.44031 -77.693298 -64.81321 4294967295
263.45685 -77.255913 -64.635323 4294967295
263.47412 -76.796501 -64.651642 4294967295
263.49197 -76.317734 -64.840363 4294967295
263.52762 -75.36084 -65.215675 4294967295
263.54642 -74.851768 -65.680817 4294967295
263.56287 -74.417366 -65.475388 4294967295
263.57932 -73.983444 -65.264069 4294967295
263.59741 -73.496666 -65.531769 4294967295
263.61417 -73.05233 -65.4142 4294967295
263.6499 -72.093826 -65.817894 4294967295
263.66599 -71.671738 -65.495026 4294967295
263.70111 -70.733101 -65.719345 4294967295
263.77283 -80.979385 -64.190247 4294967295
263.82446 -79.605591 -64.195518 4294967295
263.85919 -78.676826 -64.311981 4294967295
263.87695 -78.198441 -64.493698 4294967295
263.89441 -77.731445 -64.576263 4294967295
263.91119 -77.287743 -64.453766 4294967295
263.94818 -76.278786 -65.287376 4294967295
263.96347 -75.889786 -64.677475 4294967295
263.98282 -75.352608 -65.391075 4294967295
264.00128 -74.848923 -65.808434 4294967295
264.01727 -74.434113 -65.426811 4294967295
264.034 -73.994308 -65.269058 4294967295
264.06906 -73.052887 -65.513428 4294967295
264.08545 -72.62439 -65.25061 4294967295
264.10422 -72.1091 -65.783096 4294967295
264.11987 -71.708511 -65.262024 4294967295
264.13608 -71.285637 -64.943314 4294967295
264.22897 -80.945824 -64.574234 4294967295
264.24487 -80.540031 -64.127731 4294967295
264.26279 -80.052429 -64.386238 4294967295
264.28055 -79.572037 -64.583939 4294967295
264.29797 -79.104492 -64.670914 4294967295
264.33273 -78.17437 -64.80336 4294967295
264.35156 -77.647026 -65.418442 4294967295
264.36658 -77.279816 -64.62323 4294967295
264.40128 -76.351318 -64.742531 4294967295
264.41879 -75.879311 -64.872025 4294967295
264.4537 -74.941528 -65.077827 4294967295
264.47052 -74.499985 -64.935165 4294967295
264.48834 -74.017334 -65.163696 4294967295
264.5213 -73.160736 -64.634132 4294967295
264.53937 -72.666504 -64.970047 4294967295
264.55847 -72.126274 -65.730598 4294967295
264.57452 -71.717812 -65.282249 4294967295
264.59256 -71.223381 -65.625916 4294967295
264.60977 -70.764046 -65.646065 4294967295
264.62466 -70.406807 -64.715317 4294967295
264.7012 -80.487976 -64.672577 4294967295
264.71826 -80.038712 -64.601303 4294967295
264.73593 -79.557983 -64.802818 4294967295
264.7532 -79.095757 -64.844345 4294967295
264.76917 -78.697296 -64.32888 4294967295
264.78711 -78.202087 -64.658432 4294967295
264.82236 -77.244064 -65.038345 4294967295
264.83917 -76.804565 -64.880203 4294967295
264.87366 -75.88382 -64.932907 4294967295
264.89059 -75.438675 -64.823181 4294967295
264.92603 -74.471672 -65.293159 4294967295
264.94434 -73.958458 -65.799774 4294967295
264.9599 -73.579437 -65.09079 4294967295
264.97708 -73.123123 -65.081436 4294967295
264.99487 -72.63472 -65.365646 4294967295
265.01221 -72.17157 -65.419952 4294967295
265.04666 -71.250648 -65.480026 4294967295
265.06326 -70.821899 -65.216095 4294967295
265.15463 -80.575996 -64.009201 4294967295
265.17175 -80.121803 -63.978603 4294967295
265.19095 -79.551628 -64.954994 4294967295
265.2254 -78.63047 -65.011024 4294967295
265.24084 -78.275375 -64.113884 4294967295
265.25931 -77.74279 -64.773132 4294967295
265.27686 -77.263062 -64.9701 4294967295
265.29309 -76.861465 -64.475754 4294967295
265.31027 -76.402153 -64.491226 4294967295
265.34619 -75.397949 -65.289322 4294967295
265.36398 -74.904747 -65.612617 4294967295
265.38123 -74.443352 -65.651192 4294967295
265.39731 -74.050079 -65.073532 4294967295
265.41461 -73.584938 -65.144432 4294967295
265.43161 -73.13871 -65.043549 4294967295
265.4491 -72.663727 -65.204994 4294967295
265.46722 -72.149338 -65.729446 4294967295
265.48419 -71.704803 -65.613937 4294967295
265.50046 -71.302582 -65.106201 4294967295
265.51715 -70.874733 -64.832779 4294967295
265.59167 -81.094666 -63.580994 4294967295
265.60977 -80.57682 -64.098083 4294967295
265.62717 -80.106445 -64.207932 4294967295
265.64413 -79.662659 -64.087631 4294967295
265.66153 -79.19146 -64.205345 4294967295
265.67892 -78.720734 -64.31987 4294967295
265.69635 -78.243172 -64.49498 4294967295
265.71341 -77.794357 -64.418175 4294967295
265.73029 -77.361313 -64.201645 4294967295
265.74899 -76.793106 -65.181656 4294967295
265.76608 -76.342316 -65.124008 4294967295
265.80002 -75.458069 -64.852425 4294967295
265.81772 -74.96273 -65.19355 4294967295
265.83508 -74.490639 -65.327248 4294967295
265.8519 -74.058601 -65.099411 4294967295
265.86804 -73.683502 -64.352768 4294967295
265.88559 -73.193207 -64.650879 4294967295
265.90384 -72.656898 -65.372208 4294967295
265.91965 -72.306274 -64.393921 4294967295
265.93732 -71.807533 -64.773254 4294967295
265.95453 -71.351883 -64.756783 4294967295
265.97214 -70.857292 -65.101608 4294967295
266.04742 -81.048874 -64.070107 4294967295
266.06537 -80.524002 -64.649651 4294967295
266.11655 -79.184204 -64.365891 4294967295
266.13293 -78.803474 -63.694283 4294967295
266.15118 -78.24752 -64.55513 4294967295
266.16788 -77.834793 -64.161148 4294967295
266.18604 -77.286957 -64.95784 4294967295
266.22021 -76.388016 -64.8181 4294967295
266.2374 -75.931183 -64.813171 4294967295
266.27213 -74.978813 -65.150993 4294967295
266.30643 -74.071457 -65.086098 4294967295
266.32339 -73.632408 -64.92057 4294967295
266.37445 -72.315247 -64.416824 4294967295
266.39151 -71.869087 -64.311874 4294967295
266.40952 -71.323669 -65.124054 4294967295
266.44348 -70.453812 -64.707932 4294967295
266.50192 -81.111893 -63.623913 4294967295
266.51959 -80.597794 -64.109093 4294967295
266.53683 -80.126373 -64.228302 4294967295
266.55447 -79.607994 -64.75602 4294967295
266.57104 -79.234795 -64.02269 4294967295
266.58786 -78.830704 -63.554214 4294967295
266.62317 -77.78447 -64.703033 4294967295
266.64038 -77.321762 -64.749725 4294967295
266.65787 -76.824997 -65.098747 4294967295
266.67407 -76.509621 -63.836975 4294967295
266.69165 -75.996895 -64.32769 4294967295
266.70862 -75.572014 -64.035072 4294967295
266.7262 -75.050621 -64.607758 4294967295
266.74374 -74.5373 -65.111511 4294967295
266.76071 -74.114601 -64.798851 4294967295
266.81232 -72.728363 -64.928009 4294967295
266.82935 -72.301804 -64.645592 4294967295
266.84671 -71.803665 -65.020546 4294967295
266.86374 -71.382286 -64.688591 4294967295
266.95731 -81.03273 -64.399567 4294967295
266.97415 -80.656601 -63.697926 4294967295
266.99133 -80.2108 -63.594307 4294967295
267.00888 -79.656151 -64.434708 4294967295
267.02615 -79.186401 -64.541618 4294967295
267.04324 -78.74823 -64.373001 4294967295
267.07751 -77.861221 -64.12645 4294967295
267.09457 -77.455482 -63.668274 4294967295
267.11206 -76.893448 -64.591995 4294967295
267.12906 -76.497253 -64.047539 4294967295
267.16351 -75.558815 -64.254745 4294967295
267.18085 -75.051338 -64.703331 4294967295
267.19812 -74.556824 -65.037979 4294967295
267.21533 -74.088837 -65.135071 4294967295
267.24954 -73.229424 -64.633621 4294967295
267.284 -72.286072 -64.895393 4294967295
267.30103 -71.881729 -64.407227 4294967295
267.31839 -71.356064 -65.03746 4294967295
267.33551 -70.940979 -64.646011 4294967295
267.35266 -70.478073 -64.697144 4294967295
267.44638 -80.133408 -64.360168 4294967295
267.4635 -79.776573 -63.486301 4294967295
267.48074 -79.207024 -64.459221 4294967295
267.49796 -78.746948 -64.482079 4294967295
267.51511 -78.370674 -63.770203 4294967295
267.53232 -77.876495 -64.090866 4294967295
267.5495 -77.440689 -63.898384 4294967295
267.56671 -76.950882 -64.183029 4294967295
267.58386 -76.48008 -64.300652 4294967295
267.6011 -76.079918 -63.788864 4294967295
267.61823 -75.528946 -64.623642 4294967295
267.63547 -75.140587 -64.003326 4294967295
267.65265 -74.664459 -64.169983 4294967295
267.66986 -74.25135 -63.767586 4294967295
267.68695 -73.714569 -64.485352 4294967295
267.70416 -73.257782 -64.479332 4294967295
267.72131 -72.782722 -64.640327 4294967295
267.73849 -72.295334 -64.915634 4294967295
267.75574 -71.887115 -64.463585 4294967295
267.80722 -70.499367 -64.606628 4294967295
267.88409 -80.702972 -63.489777 4294967295
267.90128 -80.234756 -63.579865 4294967295
267.91849 -79.787163 -63.491241 4294967295
267.95276 -78.826263 -63.886768 4294967295
267.98727 -77.948288 -63.55809 4294967295
268.00406 -77.370522 -64.61734 4294967295
268.02151 -76.989159 -63.943779 4294967295
268.03879 -76.559074 -63.698692 4294967295
268.05603 -76.107376 -63.644855 4294967295
268.07275 -75.540726 -64.619659 4294967295
268.08984 -75.05706 -64.855774 4294967295
268.1073 -74.659103 -64.320969 4294967295
268.12451 -74.212051 -64.226334 4294967295
268.15857 -73.236069 -64.781395 4294967295
268.19293 -72.31707 -64.821335 4294967295
268.21054 -71.937386 -64.106476 4294967295
268.22711 -71.367073 -65.148392 4294967295
268.2616 -70.472527 -64.964005 4294967295
268.32169 -81.144669 -63.723724 4294967295
268.33911 -80.730042 -63.352394 4294967295
268.35614 -80.24247 -63.609535 4294967295
268.3735 -79.806923 -63.416664 4294967295
268.39001 -79.24617 -64.312973 4294967295
268.40717 -78.781029 -64.379845 4294967295
268.42456 -78.355965 -64.095901 4294967295
268.44193 -77.923782 -63.872551 4294967295
268.45966 -77.542526 -63.198227 4294967295
268.47623 -76.99501 -63.991776 4294967295
268.51074 -76.101692 -63.796455 4294967295
268.54535 -75.212059 -63.565231 4294967295
268.56171 -74.645065 -64.550041 4294967295
268.57925 -74.23555 -64.11676 4294967295
268.59659 -73.797798 -63.937042 4294967295
268.61356 -73.316299 -64.154358 4294967295
268.63031 -72.801025 -64.682289 4294967295
268.6474 -72.335587 -64.756523 4294967295
268.6644 -71.858498 -64.938683 4294967295
268.68176 -71.421112 -64.755295 4294967295
268.69952 -71.025536 -64.18261 4294967295
268.81073 -80.218925 -63.909378 4294967295
268.82834 -79.808472 -63.500046 4294967295
268.84512 -79.306992 -63.880608 4294967295
268.86188 -78.809013 -64.233147 4294967295
268.87946 -78.389175 -63.903091 4294967295
268.89731 -77.999298 -63.307041 4294967295
268.91455 -77.545601 -63.270409 4294967295
268.93097 -77.011658 -63.944263 4294967295
268.9491 -76.642136 -63.161362 4294967295
268.98279 -75.661278 -63.743397 4294967295
269.00003 -75.203735 -63.742287 4294967295
269.017 -74.728874 -63.897041 4294967295
269.05157 -73.830177 -63.7467 4294967295
269.0676 -73.27507 -64.634201 4294967295
269.08459 -72.803268 -64.766579 4294967295
269.10291 -72.43689 -63.932304 4294967295
269.11975 -71.951653 -64.186745 4294967295
269.13574 -71.400703 -65.05027 4294967295
269.15308 -70.951927 -64.972328 4294967295
269.23248 -81.263863 -62.890499 4294967295
269.26608 -80.284309 -63.440224 4294967295
269.28235 -79.755585 -64.055969 4294967295
269.30017 -79.3451 -63.646122 4294967295
269.31686 -78.847511 -63.994621 4294967295
269.33548 -78.497841 -63.048809 4294967295
269.35162 -77.962944 -63.725765 4294967295
269.36911 -77.52549 -63.547394 4294967295
269.38705 -77.123428 -63.054207 4294967295
269.40244 -76.535439 -64.210098 4294967295
269.43829 -75.724022 -63.283325 4294967295
269.45523 -75.245293 -63.471031 4294967295
269.47147 -74.725609 -64.02887 4294967295
269.48837 -74.249016 -64.201096 4294967295
269.50565 -73.796539 -64.155609 4294967295
269.52292 -73.346581 -64.086899 4294967295
269.53949 -72.849136 -64.451736 4294967295
269.55594 -72.342735 -64.90152 4294967295
269.57391 -71.934448 -64.450989 4294967295
269.59058 -71.447227 -64.726593 4294967295
269.60742 -70.969345 -64.91761 4294967295
269.6864 -81.202812 -63.510231 4294967295
269.70291 -80.699776 -63.900787 4294967295
269.72098 -80.300148 -63.399582 4294967295
269.73929 -79.909348 -62.818466 4294967295
269.75461 -79.338142 -63.804024 4294967295
269.78946 -78.45018 -63.564911 4294967295
269.80667 -77.991951 -63.56945 4294967295
269.82297 -77.482971 -64.021843 4294967295
269.84021 -77.026505 -64.012375 4294967295
269.85858 -76.637184 -63.406311 4294967295
269.87595 -76.190575 -63.306732 4294967295
269.8923 -75.686333 -63.722122 4294967295
269.91028 -75.270309 -63.348278 4294967295
269.92606 -74.736641 -64.032028 4294967295
269.94388 -74.313263 -63.723087 4294967295
269.97687 -73.323624 -64.4002 4294967295
269.99326 -72.824379 -64.782761 4294967295
270.01065 -72.37851 -64.678513 4294967295
270.02887 -71.975433 -64.179398 4294967295
270.04572 -71.499809 -64.347076 4294967295
270.06384 -71.090309 -63.902912 4294967295
270.14212 -81.262436 -63.093513 4294967295
270.15976 -80.829575 -62.87788 4294967295
270.17551 -80.296753 -63.525398 4294967295
270.21103 -79.438202 -63.030315 4294967295
270.22705 -78.920135 -63.555748 4294967295
270.24384 -78.440758 -63.745804 4294967295
270.26074 -77.971802 -63.845509 4294967295
270.31412 -76.684196 -63.088806 4294967295
270.33002 -76.165085 -63.634903 4294967295
270.34619 -75.657738 -64.079437 4294967295
270.36404 -75.231567 -63.798157 4294967295
270.38022 -74.727798 -64.214172 4294967295
270.4321 -73.370193 -64.080154 4294967295
270.4498 -72.935577 -63.87104 4294967295
270.46518 -72.399841 -64.588013 4294967295
270.48337 -71.984634 -64.2005 4294967295
270.49966 -71.490326 -64.541039 4294967295
270.51749 -71.060181 -64.289124 4294967295
270.53394 -70.57119 -64.582947 4294967295
270.59854 -81.34243 -62.501945 4294967295
270.61353 -80.786812 -63.342274 4294967295
270.63275 -80.419189 -62.563049 4294967295
270.66754 -79.517975 -62.433086 4294967295
270.68176 -78.929619 -63.570808 4294967295
270.69849 -78.454292 -63.725471 4294967295
270.71564 -77.993484 -63.753613 4294967295
270.74997 -77.076408 -63.770203 4294967295
270.78662 -76.252968 -62.952126 4294967295
270.80353 -75.784462 -63.046913 4294967295
270.8187 -75.246002 -63.770439 4294967295
270.83594 -74.789085 -63.764404 4294967295
270.88715 -73.403839 -63.87775 4294967295
270.90491 -72.966812 -63.690258 4294967295
270.92087 -72.463219 -64.11171 4294967295
270.93909 -72.04406 -63.759216 4294967295
270.9552 -71.545654 -64.136284 4294967295
270.97141 -71.0522 -64.469948 4294967295
270.98941 -70.625862 -64.181763 4294967295
271.05344 -81.345871 -62.567745 4294967295
271.07181 -80.932945 -62.178974 4294967295
271.08823 -80.445862 -62.428688 4294967295
271.10501 -79.968864 -62.592693 4294967295
271.12152 -79.485573 -62.812645 4294967295
271.13693 -78.960159 -63.401695 4294967295
271.15393 -78.495865 -63.459473 4294967295
271.18909 -77.60775 -63.218727 4294967295
271.25616 -75.714981 -63.770012 4294967295
271.27274 -75.236954 -63.953712 4294967295
271.29126 -74.826897 -63.526211 4294967295
271.32504 -73.889282 -63.728325 4294967295
271.35895 -72.959389 -63.862701 4294967295
271.37747 -72.544983 -63.467171 4294967295
271.40985 -71.565659 -64.057686 4294967295
271.44403 -70.642822 -64.131325 4294967295
271.52603 -80.910942 -62.464359 4294967295
271.54178 -80.405441 -62.87442 4294967295
271.55948 -79.962196 -62.747269 4294967295
271.57468 -79.437286 -63.330204 4294967295
271.59308 -79.020233 -62.974983 4294967295
271.6113 -78.59549 -62.684677 4294967295
271.62784 -78.115707 -62.876476 4294967295
271.64313 -77.596535 -63.416992 4294967295
271.66074 -77.15181 -63.302147 4294967295
271.67975 -76.7519 -62.788441 4294967295
271.69287 -76.164566 -63.942112 4294967295
271.72919 -75.309937 -63.400372 4294967295
271.74716 -74.876793 -63.179176 4294967295
271.76462 -74.426384 -63.112526 4294967295
271.77933 -73.893333 -63.795044 4294967295
271.79492 -73.387764 -64.232391 4294967295
271.8313 -72.53289 -63.683266 4294967295
271.84946 -72.103561 -63.42321 4294967295
271.8663 -71.635933 -63.514931 4294967295
271.88211 -71.137772 -63.890434 4294967295
271.89902 -70.672348 -63.964077 4294967295
271.96591 -81.444702 -61.909843 4294967295
271.98218 -80.958115 -62.153793 4294967295
271.99649 -80.409515 -62.935566 4294967295
272.01486 -79.988319 -62.617466 4294967295
272.02988 -79.464302 -63.192299 4294967295
272.04971 -79.084778 -62.509125 4294967295
272.08401 -78.165962 -62.533348 4294967295
272.10095 -77.699478 -62.607979 4294967295
272.13351 -76.730431 -63.079762 4294967295
272.16989 -75.871666 -62.571201 4294967295
272.18713 -75.413612 -62.571568 4294967295
272.20132 -74.872299 -63.321983 4294967295
272.21735 -74.380852 -63.627045 4294967295
272.23254 -73.869308 -64.116547 4294967295
272.2504 -73.429604 -63.955456 4294967295
272.28638 -72.559242 -63.546856 4294967295
272.32117 -71.65403 -63.454132 4294967295
272.35159 -70.634529 -64.423424 4294967295
272.4194 -81.40731 -62.326206 4294967295
272.43677 -80.954071 -62.284523 4294967295
272.45468 -80.515907 -62.112236 4294967295
272.4722 -80.065491 -62.045219 4294967295
272.48978 -79.617325 -61.957916 4294967295
272.50656 -79.147209 -62.061813 4294967295
272.52203 -78.64212 -62.472755 4294967295
272.53802 -78.152016 -62.754837 4294967295
272.55423 -77.667549 -62.989082 4294967295
272.57297 -77.250481 -62.628429 4294967295
272.60464 -76.262787 -63.268204 4294967295
272.62247 -75.82196 -63.117081 4294967295
272.64066 -75.389252 -62.892288 4294967295
272.65665 -74.900536 -63.170189 4294967295
272.69327 -74.041176 -62.660976 4294967295
272.70496 -73.445847 -63.911652 4294967295
272.72263 -72.999466 -63.810452 4294967295
272.74109 -72.574036 -63.516312 4294967295
272.75809 -72.111389 -63.562675 4294967295
272.77689 -71.693451 -63.19635 4294967295
272.7915 -71.173195 -63.775764 4294967295
272.80789 -70.696518 -63.954056 4294967295
272.8923 -80.978325 -62.17141 4294967295
272.90909 -80.509399 -62.264866 4294967295
272.92697 -80.068207 -62.118408 4294967295
272.9451 -79.633377 -61.915497 4294967295
272.96188 -79.164055 -62.012634 4294967295
272.9787 -78.696259 -62.096748 4294967295
272.991 -78.117622 -63.156017 4294967295
273.01062 -77.718369 -62.640144 4294967295
273.02759 -77.255249 -62.686012 4294967295
273.04361 -76.7696 -62.93232 4294967295
273.05835 -76.251625 -63.46859 4294967295
273.07626 -75.812805 -63.300484 4294967295
273.09628 -75.420219 -62.716248 4294967295
273.11035 -74.888809 -63.378189 4294967295
273.12997 -74.488998 -62.855446 4294967295
273.14389 -73.954903 -63.547028 4294967295
273.16443 -73.573837 -62.85051 4294967295
273.18259 -73.138565 -62.644176 4294967295
273.19675 -72.611465 -63.27845 4294967295
273.23273 -71.7313 -62.953178 4294967295
273.24615 -71.189888 -63.727901 4294967295
273.26428 -70.753075 -63.535446 4294967295
273.33362 -81.529877 -61.464695 4294967295
273.34818 -81.010033 -61.99411 4294967295
273.38412 -80.128899 -61.688873 4294967295
273.39764 -79.584991 -62.433731 4294967295
273.41537 -79.138718 -62.331657 4294967295
273.43304 -78.691666 -62.235367 4294967295
273.44788 -78.179298 -62.712635 4294967295
273.48199 -77.257523 -62.765747 4294967295
273.49854 -76.784729 -62.898186 4294967295
273.51617 -76.336227 -62.8153 4294967295
273.53217 -75.852524 -63.046616 4294967295
273.54865 -75.379135 -63.186806 4294967295
273.57068 -75.026535 -62.240257 4294967295
273.5856 -74.519173 -62.685913 4294967295
273.62054 -73.614029 -62.588757 4294967295
273.65173 -72.630936 -63.204983 4294967295
273.67139 -72.224434 -62.7341 4294967295
273.68756 -71.745598 -62.927536 4294967295
273.71918 -70.77272 -63.460136 4294967295
273.7905 -81.57679 -61.157356 4294967295
273.80417 -81.041565 -61.818268 4294967295
273.82172 -80.589912 -61.761688 4294967295
273.86844 -79.11087 -62.672474 4294967295
273.88654 -78.672104 -62.504852 4294967295
273.90347 -78.208359 -62.555885 4294967295
273.92511 -77.84301 -61.739525 4294967295
273.95874 -76.909943 -61.886726 4294967295
273.97296 -76.390717 -62.430676 4294967295
273.98886 -75.90564 -62.672935 4294967295
274.00421 -75.410255 -63.009541 4294967295
274.02411 -75.00663 -62.521915 4294967295
274.03607 -74.44397 -63.468376 4294967295
274.05939 -74.108559 -62.360432 4294967295
274.07318 -73.583153 -62.973862 4294967295
274.09021 -73.121559 -63.009029 4294967295
274.1055 -72.627304 -63.343529 4294967295
274.14325 -71.776176 -62.75161 4294967295
274.15533 -71.220787 -63.655281 4294967295
274.177 -70.848328 -62.864502 4294967295
274.27917 -80.649284 -61.344902 4294967295
274.31406 -79.741692 -61.265198 4294967295
274.32834 -79.224403 -61.77916 4294967295
274.3584 -78.222099 -62.53392 4294967295
274.37711 -77.794403 -62.26741 4294967295
274.39886 -77.424088 -61.491356 4294967295
274.43109 -76.465027 -61.869286 4294967295
274.46164 -75.474678 -62.533401 4294967295
274.47983 -75.036049 -62.359505 4294967295
274.49631 -74.56456 -62.481613 4294967295
274.5116 -74.070709 -62.807289 4294967295
274.52921 -73.620178 -62.74099 4294967295
274.54306 -73.100822 -63.302914 4294967295
274.55942 -72.628235 -63.440155 4294967295
274.58002 -72.232689 -62.869621 4294967295
274.5943 -71.72242 -63.354065 4294967295
274.61105 -71.256836 -63.428093 4294967295
274.62952 -70.821671 -63.219757 4294967295
274.75003 -80.172523 -61.601089 4294967295
274.77057 -79.775963 -61.064598 4294967295
274.78592 -79.282211 -61.37244 4294967295
274.79993 -78.765091 -61.887047 4294967295
274.81619 -78.289238 -62.042747 4294967295
274.83017 -77.772369 -62.561024 4294967295
274.84821 -77.329689 -62.426594 4294967295
274.90503 -76.04924 -61.591717 4294967295
274.91782 -75.511482 -62.305061 4294967295
274.9346 -75.046135 -62.371346 4294967295
274.9516 -74.584763 -62.40197 4294967295
274.98657 -73.67849 -62.314514 4294967295
275.00412 -73.226372 -62.260887 4294967295
275.01462 -72.653397 -63.31456 4294967295
275.03366 -72.227516 -63.022938 4294967295
275.04816 -71.723816 -63.447502 4294967295
275.06622 -71.280922 -63.31184 4294967295
275.082 -70.799652 -63.531868 4294967295
275.22293 -79.735085 -61.517349 4294967295
275.24246 -79.318184 -61.156219 4294967295
275.25381 -78.757248 -62.053978 4294967295
275.27374 -78.346291 -61.640083 4294967295
275.28955 -77.863953 -61.852745 4294967295
275.30252 -77.332932 -62.497738 4294967295
275.32574 -76.977661 -61.586578 4294967295
275.33752 -76.427162 -62.40844 4294967295
275.36905 -75.463287 -62.839287 4294967295
275.38834 -75.040237 -62.526752 4294967295
275.40649 -74.598328 -62.382469 4294967295
275.44199 -73.700729 -62.216179 4294967295
275.46082 -73.268181 -61.983822 4294967295
275.47028 -72.685593 -63.124622 4294967295
275.51022 -71.858788 -62.307911 4294967295
275.52713 -71.396027 -62.352306 4294967295
275.53699 -70.821762 -63.433693 4294967295
275.69659 -79.311165 -61.315266 4294967295
275.71338 -78.845879 -61.376274 4294967295
275.7276 -78.338501 -61.807396 4294967295
275.74185 -77.831802 -62.235443 4294967295
275.78372 -77.035988 -61.168999 4294967295
275.81326 -76.041634 -61.862606 4294967295
275.82416 -75.483192 -62.762493 4294967295
275.84311 -75.052864 -62.515491 4294967295
275.85773 -74.55513 -62.875652 4294967295
275.88306 -74.223366 -61.733685 4294967295
275.89789 -73.728729 -62.065544 4294967295
275.91553 -73.277557 -62.002808 4294967295
275.93268 -72.818398 -62.012764 4294967295
275.9458 -72.297585 -62.58989 4294967295
275.96259 -71.834076 -62.642284 4294967295
275.99463 -70.883148 -62.970322 4294967295
276.19708 -77.850449 -62.170425 4294967295
276.22195 -77.510201 -61.129028 4294967295
276.24017 -77.067703 -60.987938 4294967295
276.25476 -76.56871 -61.349083 4294967295
276.27338 -76.131332 -61.162117 4294967295
276.28577 -75.601151 -61.806297 4294967295
276.3006 -75.106964 -62.13092 4294967295
276.33743 -74.22731 -61.801491 4294967295
276.35049 -73.707954 -62.358589 4294967295
276.36462 -73.205231 -62.767834 4294967295
276.3862 -72.811043 -62.185394 4294967295
276.41785 -71.855186 -62.553673 4294967295
276.43903 -71.453751 -62.031372 4294967295
276.45129 -70.926147 -62.678024 4294967295
276.46808 -70.462189 -62.735584 4294967295
276.65894 -77.965866 -61.25219 4294967295
276.67728 -77.524323 -61.103825 4294967295
276.68954 -76.994064 -61.741898 4294967295
276.72681 -76.119072 -61.3731 4294967295
276.74069 -75.61319 -61.800198 4294967295
276.75815 -75.15863 -61.76833 4294967295
276.77112 -74.640068 -62.314259 4294967295
276.80609 -73.732376 -62.240437 4294967295
276.8241 -73.285912 -62.135754 4294967295
276.85968 -72.385796 -61.990219 4294967295
276.86841 -71.812401 -63.054653 4294967295
277.12677 -77.457359 -61.795952 4294967295
277.14743 -77.046799 -61.374237 4294967295
277.16687 -76.619194 -61.101246 4294967295
277.18369 -76.155212 -61.151558 4294967295
277.19604 -75.631332 -61.739349 4294967295
277.21051 -75.136169 -62.072845 4294967295
277.22543 -74.647476 -62.350372 4294967295
277.24612 -74.236084 -61.92902 4294967295
277.26657 -73.821243 -61.536224 4294967295
277.28412 -73.367455 -61.496113 4294967295
277.29697 -72.851585 -62.024223 4294967295
277.31448 -72.397705 -61.986458 4294967295
277.33102 -71.930977 -62.06691 4294967295
277.34689 -71.45549 -62.229042 4294967295
277.36063 -70.95311 -62.642139 4294967295
277.38501 -70.58757 -61.78199 4294967295
277.60141 -77.045296 -61.487694 4294967295
277.61929 -76.595978 -61.40871 4294967295
277.6376 -76.152237 -61.279411 4294967295
277.64728 -75.595955 -62.158409 4294967295
277.66797 -75.182991 -61.753777 4294967295
277.68387 -74.708572 -61.901409 4294967295
277.70435 -74.291855 -61.527161 4294967295
277.72531 -73.881111 -61.095711 4294967295
277.7413 -73.407242 -61.237556 4294967295
277.75452 -72.898712 -61.697784 4294967295
277.77408 -72.469933 -61.428238 4294967295
277.78513 -71.935059 -62.135494 4294967295
277.8027 -71.481918 -62.09108 4294967295
277.81339 -70.943771 -62.836227 4294967295
277.84189 -70.624657 -61.544109 4294967295
278.11014 -75.709885 -61.238708 4294967295
278.12579 -75.232307 -61.41243 4294967295
278.13824 -74.71579 -61.939106 4294967295
278.15915 -74.302406 -61.534828 4294967295
278.17618 -73.842537 -61.550457 4294967295
278.19714 -73.42955 -61.138542 4294967295
278.20547 -72.863846 -62.12204 4294967295
278.22836 -72.474304 -61.493607 4294967295
278.242 -71.973839 -61.88385 4294967295
278.276 -71.05278 -61.930588 4294967295
278.28809 -70.534714 -62.49086 4294967295
278.56479 -75.717827 -61.269253 4294967295
278.60495 -74.868896 -60.659615 4294967295
278.61142 -74.284515 -61.80051 4294967295
278.63019 -73.844147 -61.639946 4294967295
278.6467 -73.37796 -61.71376 4294967295
278.66168 -72.894318 -61.948143 4294967295
278.68484 -72.504501 -61.321766 4294967295
278.71765 -71.570053 -61.488586 4294967295
278.72757 -71.029213 -62.257065 4294967295
279.05081 -74.775444 -61.6063 4294967295
279.06723 -74.308327 -61.68824 4294967295
279.1033 -73.410622 -61.520401 4294967295
279.11871 -72.932854 -61.700279 4294967295
279.13962 -72.515625 -61.325249 4294967295
279.1525 -72.009804 -61.764626 4294967295
279.16724 -71.524773 -62.014645 4294967295
279.19104 -71.138596 -61.348122 4294967295
279.2048 -70.643028 -61.696693 4294967295
279.51282 -74.866173 -60.890099 4294967295
279.52588 -74.362381 -61.301811 4294967295
279.53867 -73.856987 -61.731239 4294967295
279.56415 -73.487488 -60.923565 4294967295
279.57098 -72.918411 -61.937698 4294967295
279.59009 -72.480789 -61.751038 4294967295
279.60452 -71.993568 -62.0205 4294967295
279.62811 -71.602615 -61.400841 4294967295
279.64371 -71.127502 -61.558578 4294967295
279.65594 -70.617661 -62.041164 4294967295
280.02179 -73.526649 -60.670845 4294967295
280.03162 -72.992424 -61.365093 4294967295
280.04596 -72.50486 -61.635559 4294967295
280.07181 -72.134666 -60.825508 4294967295
280.08423 -71.627769 -61.274887 4294967295
280.10544 -71.210007 -60.899456 4294967295
280.11664 -70.691246 -61.463028 4294967295
280.47327 -73.503197 -60.989464 4294967295
280.48969 -73.037201 -61.060226 4294967295
280.50293 -72.539322 -61.424461 4294967295
280.51691 -72.049767 -61.71463 4294967295
280.55121 -71.13295 -61.722496 4294967295
280.57315 -70.720711 -61.296223 4294967295
280.98724 -71.589958 -61.838249 4294967295
281.02206 -70.677994 -61.802185 4294967295
281.45096 -71.68605 -61.055878 4294967295
281.4693 -71.238098 -60.960617 4294967295
281.48053 -70.725533 -61.467041 4294967295
281.9119 -71.752953 -60.543587 4294967295
281.91653 -71.183258 -61.577145 4294967295
281.94824 -70.852394 -60.392807 4294967295
282.38248 -71.292793 -60.667557 4294967295
282.39383 -70.784767 -61.130821 4294967295
282.8512 -70.818848 -60.921032 4294967295
250.61736 -68.244286 -68.771614 4294967295
251.50813 -68.730881 -68.706894 4294967295
252.04874 -66.456039 -68.744141 4294967295
252.36446 -70.131302 -68.634323 4294967295
252.37862 -69.699417 -68.404335 4294967295
252.41245 -68.789932 -68.369232 4294967295
252.43221 -68.311974 -68.570862 4294967295
252.53598 -65.565697 -68.638702 4294967295
252.81453 -70.17926 -68.295448 4294967295
252.85027 -69.253601 -68.411659 4294967295
252.88515 -68.335556 -68.457672 4294967295
252.90613 -67.846886 -68.762039 4294967295
252.94008 -66.93663 -68.736877 4294967295
252.95515 -66.497437 -68.571434 4294967295
252.96982 -66.061493 -68.373344 4294967295
253.02579 -64.654335 -68.736855 4294967295
253.30058 -69.300629 -68.079269 4294967295
253.34248 -68.321129 -68.703491 4294967295
253.35733 -67.884537 -68.515343 4294967295
253.38977 -66.987556 -68.361908 4294967295
253.40779 -66.523529 -68.433334 4294967295
253.45964 -65.150223 -68.468552 4294967295
253.7238 -70.197655 -68.338715 4294967295
253.7446 -69.708176 -68.646057 4294967295
253.79733 -68.326912 -68.758469 4294967295
253.83093 -67.420433 -68.698196 4294967295
253.84331 -67.006653 -68.291069 4294967295
253.87906 -66.08033 -68.417358 4294967295
253.99951 -62.880878 -68.453415 4294967295
254.17897 -70.201302 -68.412094 4294967295
254.19638 -69.742294 -68.435165 4294967295
254.21367 -69.284363 -68.448547 4294967295
254.23064 -68.829514 -68.432953 4294967295
254.25024 -68.350151 -68.648613 4294967295
254.26894 -67.879555 -68.782883 4294967295
254.28244 -67.456856 -68.462517 4294967295
254.29456 -67.046783 -68.019287 4294967295
254.31174 -66.589691 -68.023331 4294967295
254.33034 -66.11982 -68.150238 4294967295
254.35022 -65.638153 -68.39193 4294967295
254.42123 -63.789974 -68.608063 4294967295
254.43472 -63.36657 -68.282906 4294967295
254.45457 -62.885704 -68.522865 4294967295
254.62985 -70.245689 -68.106323 4294967295
254.6664 -69.31076 -68.309578 4294967295
254.6861 -68.829445 -68.542435 4294967295
254.70197 -68.385338 -68.426064 4294967295
254.71709 -67.948212 -68.242424 4294967295
254.74727 -67.07431 -67.867905 4294967295
254.7836 -66.141785 -68.051529 4294967295
254.84189 -64.707344 -68.679016 4294967295
254.89258 -63.345158 -68.610016 4294967295
254.90878 -62.89727 -68.525558 4294967295
254.92519 -62.447845 -68.455833 4294967295
254.98019 -61.045212 -68.788475 4294967295
255.01436 -60.13361 -68.777298 4294967295
255.02937 -59.696743 -68.579422 4294967295
255.04556 -59.249077 -68.489807 4294967295
255.08293 -58.308014 -68.778625 4294967295
255.0842 -70.256958 -68.108749 4294967295
255.0954 -69.860168 -67.550323 4294967295
255.13242 -68.919655 -67.80307 4294967295
255.14923 -68.466034 -67.773849 4294967295
255.17067 -67.966698 -68.177353 4294967295
255.19296 -67.458885 -68.664566 4294967295
255.20303 -67.072685 -67.994797 4294967295
255.2274 -66.544815 -68.677071 4294967295
255.24474 -66.086571 -68.694992 4294967295
255.27817 -65.182159 -68.614212 4294967295
255.28671 -64.809898 -67.795914 4294967295
255.31259 -64.267761 -68.629669 4294967295
255.32523 -63.855633 -68.195839 4294967295
255.34717 -63.352394 -68.65506 4294967295
255.36211 -62.917358 -68.444046 4294967295
255.37509 -62.501099 -68.045456 4294967295
255.43031 -61.094963 -68.409042 4294967295
255.44872 -60.626534 -68.529335 4294967295
255.48445 -59.699684 -68.671112 4294967295
255.51686 -58.804832 -68.487701 4294967295
255.53699 -70.284096 -67.963501 4294967295
255.55019 -69.868797 -67.57766 4294967295
255.57155 -69.368362 -67.986572 4294967295
255.59239 -68.873093 -68.349823 4294967295
255.60548 -68.458763 -67.952072 4294967295
255.63068 -67.91906 -68.738838 4294967295
255.65407 -67.118294 -67.670815 4294967295
255.67665 -66.605927 -68.203583 4294967295
255.70769 -65.726105 -67.882561 4294967295
255.72812 -65.235939 -68.207016 4294967295
255.74525 -64.779739 -68.203697 4294967295
255.76636 -64.282852 -68.597382 4294967295
255.78168 -63.845043 -68.415321 4294967295
255.79506 -63.426373 -68.043472 4294967295
255.81662 -62.92543 -68.481369 4294967295
255.83421 -62.46447 -68.526161 4294967295
255.88135 -61.138134 -68.095634 4294967295
255.90044 -60.662331 -68.289101 4294967295
255.93825 -59.714108 -68.646202 4294967295
255.99037 -70.305847 -67.868462 4294967295
256.00211 -69.90786 -67.320923 4294967295
256.05746 -68.495468 -67.715111 4294967295
256.08249 -67.954315 -68.514938 4294967295
256.09717 -67.524277 -68.264359 4294967295
256.11111 -67.101616 -67.94136 4294967295
256.12601 -66.669662 -67.705154 4294967295
256.15308 -66.106895 -68.724472 4294967295
256.16266 -65.730919 -67.949203 4294967295
256.18298 -65.24073 -68.274399 4294967295
256.20285 -64.755661 -68.552094 4294967295
256.23303 -63.886097 -68.12867 4294967295
256.25409 -63.388359 -68.533669 4294967295
256.26318 -63.016239 -67.701675 4294967295
256.30414 -62.033642 -68.389648 4294967295
256.34225 -61.080772 -68.790466 4294967295
256.34967 -60.725346 -67.774948 4294967295
256.40921 -59.271786 -68.625336 4294967295
256.42377 -58.8423 -68.350464 4294967295
256.43857 -70.386543 -67.22525 4294967295
256.45871 -69.895737 -67.541748 4294967295
256.46014 -57.907768 -68.573029 4294967295
256.47275 -69.474197 -67.211853 4294967295
256.49579 -68.951218 -67.833191 4294967295
256.49637 -56.97538 -68.776932 4294967295
256.51312 -56.522881 -68.737152 4294967295
256.51541 -68.466858 -68.094574 4294967295
256.52878 -56.081779 -68.577667 4294967295
256.53128 -68.024773 -67.957672 4294967295
256.55237 -67.523781 -68.379646 4294967295
256.56802 -67.084335 -68.217575 4294967295
256.57755 -66.712456 -67.40715 4294967295
256.6221 -65.685318 -68.502274 4294967295
256.63516 -65.274139 -68.064468 4294967295
256.66772 -64.380081 -67.878456 4294967295
256.68173 -63.958065 -67.539238 4294967295
256.69937 -63.495956 -67.591774 4294967295
256.74002 -62.513279 -68.277451 4294967295
256.75507 -62.079758 -68.049088 4294967295
256.77258 -61.619125 -68.089722 4294967295
256.80533 -60.723099 -67.917831 4294967295
256.82736 -60.213554 -68.452621 4294967295
256.83981 -59.807907 -67.937714 4294967295
256.87979 -58.833569 -68.562614 4294967295
256.89603 -70.363304 -67.548477 4294967295
256.89819 -58.363708 -68.701218 4294967295
256.91238 -69.915855 -67.461914 4294967295
256.91296 -57.932701 -68.440323 4294967295
256.92542 -69.507484 -67.008492 4294967295
256.93317 -57.443535 -68.779282 4294967295
256.94379 -69.036507 -67.140228 4294967295
256.94659 -57.02689 -68.367264 4294967295
256.9671 -68.507545 -67.820282 4294967295
256.98019 -56.121304 -68.290649 4294967295
256.98792 -68.007973 -68.226791 4294967295
256.99646 -67.651833 -67.273178 4294967295
256.99982 -55.63868 -68.565887 4294967295
257.01541 -67.174179 -67.47171 4294967295
257.03055 -66.740807 -67.247635 4294967295
257.04846 -66.275314 -67.330513 4294967295
257.07413 -65.720306 -68.277847 4294967295
257.09244 -65.250275 -68.409348 4294967295
257.10693 -64.824112 -68.11528 4294967295
257.1217 -64.395065 -67.84726 4294967295
257.13672 -63.962833 -67.608208 4294967295
257.15714 -63.468811 -67.97506 4294967295
257.17575 -62.995239 -68.142769 4294967295
257.19034 -62.568047 -67.852272 4294967295
257.21124 -62.06926 -68.271797 4294967295
257.26221 -60.704887 -68.221321 4294967295
257.2793 -60.249043 -68.214813 4294967295
257.29971 -59.755974 -68.586075 4294967295
257.31186 -59.355515 -68.016769 4294967295
257.33307 -58.853329 -68.483444 4294967295
257.36108 -69.997307 -66.80954 4294967295
257.36804 -57.933262 -68.558685 4294967295
257.38486 -69.45932 -67.567955 4294967295
257.39816 -69.049637 -67.125824 4294967295
257.40173 -57.02689 -68.492996 4294967295
257.41629 -68.580933 -67.237427 4294967295
257.41711 -56.589851 -68.291145 4294967295
257.43442 -56.131691 -68.309059 4294967295
257.43665 -68.084702 -67.610306 4294967295
257.45364 -55.652237 -68.551056 4294967295
257.45786 -67.579117 -68.075035 4294967295
257.46948 -55.210468 -68.396965 4294967295
257.483 -66.776955 -67.013329 4294967295
257.50455 -66.266815 -67.524834 4294967295
257.52856 -65.727493 -68.321564 4294967295
257.5563 -64.893211 -67.557976 4294967295
257.57611 -64.404617 -67.86898 4294967295
257.59146 -63.969738 -67.656189 4294967295
257.60727 -63.528984 -67.499641 4294967295
257.60846 -51.539589 -68.61068 4294967295
257.62973 -63.008755 -68.126198 4294967295
257.64639 -62.558342 -68.066025 4294967295
257.66382 -62.098476 -68.099289 4294967295
257.76968 -59.324192 -68.458038 4294967295
257.789 -58.84243 -68.717728 4294967295
257.80371 -70.398994 -67.431046 4294967295
257.81696 -58.003544 -67.958549 4294967295
257.81812 -69.977524 -67.101959 4294967295
257.84088 -69.448883 -67.773979 4294967295
257.85681 -57.026028 -68.627579 4294967295
257.85834 -68.987938 -67.814621 4294967295
257.86951 -68.608025 -67.091263 4294967295
257.88806 -68.13356 -67.257767 4294967295
257.90704 -67.653366 -67.480003 4294967295
257.92532 -55.201363 -68.621796 4294967295
257.94302 -54.738796 -68.688217 4294967295
257.94659 -66.672905 -68.121445 4294967295
257.98083 -65.760971 -68.111618 4294967295
257.9971 -65.315582 -68.004288 4294967295
258.02948 -64.426636 -67.769142 4294967295
258.04779 -63.955437 -67.911819 4294967295
258.06448 -63.504711 -67.854477 4294967295
258.12817 -61.739006 -67.249115 4294967295
258.1496 -61.229855 -67.773773 4294967295
258.17133 -60.716064 -68.349159 4294967295
258.18552 -60.296268 -67.979324 4294967295
258.20294 -59.836555 -68.011612 4294967295
258.21799 -59.405502 -67.752159 4294967295
258.2348 -58.953339 -67.706596 4294967295
258.27161 -58.00927 -68.023865 4294967295
258.27444 -69.963341 -67.341995 4294967295
258.29126 -69.511742 -67.293732 4294967295
258.3053 -69.096397 -66.904228 4294967295
258.30872 -57.062244 -68.376999 4294967295
258.323 -56.640343 -68.017349 4294967295
258.32941 -68.546509 -67.78109 4294967295
258.34106 -68.163475 -67.084717 4294967295
258.35782 -67.711899 -67.034386 4294967295
258.36047 -55.689056 -68.419472 4294967295
258.37616 -67.239426 -67.183197 4294967295
258.37732 -55.236019 -68.384346 4294967295
258.39301 -54.797176 -68.198448 4294967295
258.39536 -66.755402 -67.44352 4294967295
258.40897 -54.354717 -68.049255 4294967295
258.41388 -66.280411 -67.61911 4294967295
258.42514 -65.902237 -66.862076 4294967295
258.42984 -53.853992 -68.522102 4294967295
258.44623 -53.406528 -68.427063 4294967295
258.4494 -65.351006 -67.774925 4294967295
258.48022 -52.497459 -68.38739 4294967295
258.49976 -63.995457 -67.635536 4294967295
258.51355 -63.583359 -67.197647 4294967295
258.51736 -51.550476 -68.761154 4294967295
258.53256 -63.101891 -67.440781 4294967295
258.53339 -51.107635 -68.614166 4294967295
258.54865 -62.659454 -67.299187 4294967295
258.55109 -50.64476 -68.686737 4294967295
258.56619 -62.197144 -67.354332 4294967295
258.57809 -61.809429 -66.664955 4294967295
258.61078 -60.916817 -66.449081 4294967295
258.63419 -60.378811 -67.266258 4294967295
258.65149 -59.920044 -67.28627 4294967295
258.67407 -59.393005 -68.001663 4294967295
258.69012 -58.950764 -67.855774 4294967295
258.71048 -58.452789 -68.280884 4294967295
258.72391 -58.044147 -67.788605 4294967295
258.72519 -70.025978 -66.865387 4294967295
258.73895 -57.614487 -67.510101 4294967295
258.74246 -69.566925 -66.885162 4294967295
258.77408 -68.691589 -66.522156 4294967295
258.77771 -56.644611 -68.099136 4294967295
258.79135 -56.232441 -67.635101 4294967295
258.79376 -68.199181 -66.856659 4294967295
258.81097 -55.744114 -67.968231 4294967295
258.81528 -67.681114 -67.437492 4294967295
258.83044 -55.258274 -68.277908 4294967295
258.8306 -67.249809 -67.195335 4294967295
258.84558 -54.827335 -68.007881 4294967295
258.84628 -66.813812 -66.996262 4294967295
258.86722 -54.314342 -68.609322 4294967295
258.87909 -53.924458 -67.899445 4294967295
258.88373 -65.856483 -67.416473 4294967295
258.89926 -53.429768 -68.309082 4294967295
258.9007 -65.402206 -67.392899 4294967295
258.91476 -64.988739 -66.972549 4294967295
258.93356 -64.508949 -67.196045 4294967295
258.93378 -52.514236 -68.338791 4294967295
258.94693 -64.104515 -66.683228 4294967295
258.95349 -52.025711 -68.68837 4294967295
258.9697 -51.581112 -68.561279 4294967295
258.99979 -62.714943 -66.86705 4294967295
259.01364 -62.303909 -66.410721 4294967295
259.02087 -50.215172 -68.528717 4294967295
259.03564 -61.780243 -67.07518 4294967295
259.03772 -49.762379 -68.489792 4294967295
259.05002 -61.361565 -66.692665 4294967295
259.08542 -60.432854 -66.841362 4294967295
259.10016 -60.009129 -66.504395 4294967295
259.11899 -59.529339 -66.735741 4294967295
259.13297 -59.115517 -66.294525 4294967295
259.15073 -58.650604 -66.374092 4294967295
259.172 -58.137611 -66.949898 4294967295
259.17865 -70.05204 -66.730026 4294967295
259.19806 -69.561722 -67.042442 4294967295
259.20795 -57.202255 -67.173752 4294967295
259.21375 -69.126839 -66.835999 4294967295
259.22961 -56.684612 -67.808243 4294967295
259.23294 -68.639717 -67.120903 4294967295
259.24814 -68.212318 -66.842499 4294967295
259.26651 -55.736519 -68.17601 4294967295
259.26694 -67.73082 -67.075943 4294967295
259.28558 -67.251648 -67.289001 4294967295
259.30096 -54.821415 -68.199951 4294967295
259.30331 -66.786636 -67.36821 4294967295
259.31979 -66.339943 -67.271927 4294967295
259.33368 -65.931885 -66.802437 4294967295
259.35199 -65.457397 -66.972275 4294967295
