# .PCD v0.7 - Point Cloud Data file format
VERSION 0.7
FIELDS x y z rgb
SIZE 4 4 4 4
TYPE F F F U
COUNT 1 1 1 1
WIDTH 1147
HEIGHT 1
VIEWPOINT 0 0 0 1 0 0 0
POINTS 1147
DATA ascii
377.1239 15.657636 -37.967339 4294967295
377.12805 5.9541035 -38.902512 4294967295
377.12973 22.561481 -35.774719 4294967295
377.13507 22.090502 -35.525097 4294967295
377.13599 7.3619385 -39.386654 4294967295
377.13901 14.242791 -37.230358 4294967295
377.15326 15.177289 -37.455414 4294967295
377.17355 16.578804 -37.80608 4294967295
377.19632 7.8059311 -38.917519 4294967295
377.21021 16.096169 -37.214336 4294967295
377.23462 17.496241 -37.518944 4294967295
377.24277 9.196764 -38.980457 4294967295
377.27036 17.953367 -37.31884 4294967295
377.27963 8.7108984 -38.387558 4294967295
377.2995 18.412863 -37.190857 4294967295
377.30923 9.6391039 -38.445026 4294967295
377.36694 11.495808 -38.575111 4294967295
377.37451 11.022786 -38.302498 4294967295
377.37708 10.551595 -38.084515 4294967295
377.38147 18.854902 -36.485641 4294967295
377.3858 20.261539 -37.009972 4294967295
377.39352 11.955117 -38.475052 4294967295
377.40305 12.421181 -38.561203 4294967295
377.40897 19.315376 -36.376026 4294967295
377.41241 3.1937914 -39.625439 4294967295
377.4422 3.6504765 -39.490734 4294967295
377.44943 20.710541 -36.5056 4294967295
377.45163 21.648081 -36.862118 4294967295
377.46945 4.5790663 -39.572548 4294967295
377.47455 4.1060562 -39.327724 4294967295
377.50052 21.163841 -36.138409 4294967295
377.50427 5.9744501 -39.761597 4294967295
377.50861 5.5021553 -39.525478 4294967295
377.52283 13.314584 -37.635227 4294967295
377.53262 5.020647 -39.074451 4294967295
377.58435 6.4090214 -39.079662 4294967295
377.5864 15.170027 -37.702248 4294967295
377.59512 7.8150816 -39.530304 4294967295
377.59628 14.226748 -37.214378 4294967295
377.60785 22.069725 -35.347794 4294967295
377.61148 15.630522 -37.61832 4294967295
377.61417 22.537251 -35.46907 4294967295
377.61606 14.68934 -37.188679 4294967295
377.63535 6.8569422 -38.714169 4294967295
377.67001 9.1932011 -39.283607 4294967295
377.67865 8.7195482 -39.000931 4294967295
377.69946 16.068668 -36.850262 4294967295
377.72232 17.469599 -37.170414 4294967295
377.74326 18.401243 -37.322472 4294967295
377.74365 16.99263 -36.748707 4294967295
377.75677 9.6270552 -38.529549 4294967295
377.79132 10.553036 -38.532761 4294967295
377.79135 10.082936 -38.343063 4294967295
377.81128 3.2053013 -40.23307 4294967295
377.83698 19.308846 -36.682026 4294967295
377.84204 11.002568 -38.170872 4294967295
377.8428 19.776266 -36.808399 4294967295
377.84897 11.469813 -38.284706 4294967295
377.85556 18.833229 -36.289627 4294967295
377.86038 12.404981 -38.538708 4294967295
377.87683 5.0561199 -40.276134 4294967295
377.89014 3.6387253 -39.565994 4294967295
377.9054 5.5133247 -40.155453 4294967295
377.91629 4.5677309 -39.659962 4294967295
377.9212 11.911238 -37.688683 4294967295
377.939 13.314176 -38.063831 4294967295
377.94675 12.841359 -37.790344 4294967295
377.97562 14.239725 -38.044094 4294967295
378.00592 21.602201 -35.793045 4294967295
378.00748 6.4080372 -39.42543 4294967295
378.02243 14.692027 -37.725163 4294967295
378.04276 22.060368 -35.582249 4294967295
378.06305 6.8538589 -39.012127 4294967295
378.07602 7.3185053 -39.060043 4294967295
378.09274 22.514805 -35.228947 4294967295
378.09344 8.2513275 -39.248241 4294967295
378.11304 15.598467 -37.120441 4294967295
378.1134 15.128512 -36.927387 4294967295
378.12653 16.063354 -37.163387 4294967295
378.13916 8.7020178 -38.941715 4294967295
378.14246 16.996826 -37.36797 4294967295
378.14386 9.1700745 -39.079391 4294967295
378.14755 7.7579193 -38.473911 4294967295
378.15076 16.524422 -37.089516 4294967295
378.15335 9.6360407 -39.164803 4294967295
378.22043 18.378399 -37.08987 4294967295
378.23502 17.904078 -36.742889 4294967295
378.24487 10.068364 -38.36216 4294967295
378.24634 17.430597 -36.431286 4294967295
378.25244 18.837097 -36.932327 4294967295
378.28149 11.463501 -38.531494 4294967295
378.2858 19.764687 -36.948582 4294967295
378.30774 19.288309 -36.521774 4294967295
378.31134 10.511493 -37.831779 4294967295
378.31537 12.389692 -38.54179 4294967295
378.32388 3.1629887 -39.606125 4294967295
378.32568 12.85533 -38.618633 4294967295
378.32611 3.632535 -39.769768 4294967295
378.32745 10.975202 -37.846169 4294967295
378.33157 20.21924 -36.641575 4294967295
378.3407 11.910033 -38.079823 4294967295
378.35965 21.148672 -36.715061 4294967295
378.36832 4.5539665 -39.689919 4294967295
378.38449 4.0759783 -39.327133 4294967295
378.401 5.9499559 -39.899612 4294967295
378.42221 21.598564 -36.226784 4294967295
378.44067 13.281164 -37.563217 4294967295
378.44519 6.8705959 -39.798912 4294967295
378.44846 5.4584455 -39.200359 4294967295
378.46082 6.3936024 -39.442211 4294967295
378.47504 14.677593 -37.756763 4294967295
378.49048 14.20219 -37.401691 4294967295
378.49103 13.7321 -37.20752 4294967295
378.49673 7.3181992 -39.430283 4294967295
378.49683 22.045231 -35.608158 4294967295
378.54501 15.12175 -37.188766 4294967295
378.54919 16.059502 -37.520863 4294967295
378.55887 16.525499 -37.604042 4294967295
378.57278 8.6957912 -39.172771 4294967295
378.57391 8.2252941 -38.973255 4294967295
378.57895 7.7529583 -38.731396 4294967295
378.59314 15.57419 -36.857521 4294967295
378.59988 9.1544018 -39.068222 4294967295
378.60483 9.622221 -39.20269 4294967295
378.61523 16.975319 -37.183907 4294967295
378.64584 18.372852 -37.418167 4294967295
378.647 17.433868 -37.029335 4294967295
378.6702 18.83392 -37.343307 4294967295
378.67331 10.064033 -38.652164 4294967295
378.67657 17.893261 -36.897861 4294967295
378.73914 10.507326 -38.129833 4294967295
378.76355 19.27264 -36.523533 4294967295
378.76602 19.741133 -36.685299 4294967295
378.76855 11.435569 -38.188423 4294967295
378.77402 10.963408 -37.941856 4294967295
378.77582 11.902571 -38.298061 4294967295
378.78976 12.366882 -38.335052 4294967295
378.79324 12.835177 -38.485153 4294967295
378.81567 20.663782 -36.525879 4294967295
378.81744 3.1298113 -39.189095 4294967295
378.81885 20.193579 -36.303654 4294967295
378.83875 3.5906067 -39.147007 4294967295
378.84094 4.530757 -39.497509 4294967295
378.84128 4.0600843 -39.306671 4294967295
378.88715 6.861002 -39.93578 4294967295
378.89182 13.737168 -37.798935 4294967295
378.90765 5.4414291 -39.153942 4294967295
378.91489 7.3188744 -39.824657 4294967295
378.91489 14.198265 -37.738338 4294967295
378.93658 22.50346 -35.974754 4294967295
378.93753 4.9573994 -38.645496 4294967295
378.95871 22.027714 -35.548176 4294967295
378.96112 6.3584833 -38.953537 4294967295
378.97256 15.116401 -37.492245 4294967295
379.0184 16.508533 -37.561523 4294967295
379.02222 7.7427998 -38.857922 4294967295
379.03192 15.564726 -37.040943 4294967295
379.04666 16.968077 -37.445183 4294967295
379.04684 17.437256 -37.630424 4294967295
379.08359 8.1869469 -38.385597 4294967295
379.09244 8.6534672 -38.477722 4294967295
379.09497 9.1225395 -38.63776 4294967295
379.09851 17.888985 -37.262039 4294967295
379.10202 10.059473 -38.935871 4294967295
379.12927 9.5784197 -38.455986 4294967295
379.14627 18.342318 -36.936256 4294967295
379.19803 10.490599 -38.092182 4294967295
379.20303 3.6175909 -40.117653 4294967295
379.20786 19.260706 -36.649448 4294967295
379.21878 10.952291 -38.055798 4294967295
379.23914 12.353752 -38.398228 4294967295
379.24094 20.188515 -36.668808 4294967295
379.24396 11.412301 -37.972736 4294967295
379.2645 11.874184 -37.939453 4294967295
379.28058 12.807523 -38.140472 4294967295
379.28345 3.109622 -39.069672 4294967295
379.29565 21.109653 -36.455132 4294967295
379.30817 4.5100498 -39.364067 4294967295
379.32611 21.569429 -36.316067 4294967295
379.34741 14.660653 -38.170872 4294967295
379.36633 5.8950062 -39.300476 4294967295
379.36749 6.8346968 -39.660187 4294967295
379.38608 7.2966032 -39.647514 4294967295
379.38794 13.236662 -37.175838 4294967295
379.40164 22.015856 -35.692059 4294967295
379.40906 14.168518 -37.323219 4294967295
379.41699 6.3429718 -38.944111 4294967295
379.42584 16.040495 -37.890629 4294967295
379.44467 15.094924 -37.315018 4294967295
379.45169 15.561977 -37.42675 4294967295
379.46545 7.7326403 -38.984203 4294967295
379.49158 16.486832 -37.372864 4294967295
379.53979 8.6414948 -38.561279 4294967295
379.56015 9.5730791 -38.715744 4294967295
379.56647 17.399895 -36.943748 4294967295
379.57758 9.0959225 -38.343483 4294967295
379.59689 10.967558 -38.881367 4294967295
379.60861 16.915966 -36.305683 4294967295
379.61346 17.853489 -36.627254 4294967295
379.63034 10.014514 -38.151638 4294967295
379.63974 3.1405869 -40.122311 4294967295
379.64001 11.42019 -38.606461 4294967295
379.64322 10.47932 -38.199932 4294967295
379.6459 19.250715 -36.839813 4294967295
379.67029 20.181067 -36.951801 4294967295
379.67557 18.302345 -36.149601 4294967295
379.70044 3.5827942 -39.659889 4294967295
379.74423 4.9737577 -39.749775 4294967295
379.75198 19.686069 -35.891579 4294967295
379.75723 12.314218 -37.725979 4294967295
379.76172 11.842562 -37.492039 4294967295
379.76205 4.4954281 -39.373905 4294967295
379.7673 21.558067 -36.474144 4294967295
379.77094 20.618793 -36.061928 4294967295
379.79086 5.4230938 -39.437595 4294967295
379.80392 4.0057793 -38.740871 4294967295
379.80585 14.174609 -37.951065 4294967295
379.81967 12.760311 -37.245441 4294967295
379.83459 15.102946 -38.015881 4294967295
379.83502 13.224429 -37.26741 4294967295
379.86371 21.998264 -35.629467 4294967295
379.87009 5.8583193 -38.778355 4294967295
379.89871 6.3161345 -38.658154 4294967295
379.90488 22.455317 -35.376041 4294967295
379.92062 15.541687 -37.283783 4294967295
379.93323 7.2418499 -38.661861 4294967295
379.94873 7.7054262 -38.681858 4294967295
379.96671 8.6379776 -38.86153 4294967295
379.99863 15.983799 -36.637245 4294967295
380.00327 16.45182 -36.773941 4294967295
380.01566 10.027395 -38.895916 4294967295
380.02951 17.851118 -37.052067 4294967295
380.03354 9.0803328 -38.334667 4294967295
380.04987 16.905376 -36.46278 4294967295
380.05814 9.5403118 -38.258171 4294967295
380.06693 18.307961 -36.838875 4294967295
380.06949 10.475554 -38.508236 4294967295
380.09222 3.1265182 -40.142876 4294967295
380.09357 17.360161 -36.182648 4294967295
380.11438 19.23093 -36.704517 4294967295
380.11569 10.927038 -38.201904 4294967295
380.1369 11.388514 -38.161415 4294967295
380.17188 11.844694 -37.974407 4294967295
380.17255 12.31414 -38.15247 4294967295
380.17841 20.148941 -36.394096 4294967295
380.20291 19.671972 -35.947094 4294967295
380.2113 3.5419292 -39.062138 4294967295
380.22067 21.543003 -36.501114 4294967295
380.23224 20.601387 -36.006062 4294967295
380.24255 13.226958 -37.77858 4294967295
380.24289 3.998065 -38.911385 4294967295
380.25778 12.75148 -37.431015 4294967295
380.25861 13.690568 -37.792603 4294967295
380.26248 4.9302177 -39.073421 4294967295
380.27585 5.8648195 -39.300789 4294967295
380.28827 5.3890848 -38.984016 4294967295
380.29285 14.617034 -37.799419 4294967295
380.30438 21.98702 -35.795094 4294967295
380.33823 22.446156 -35.62088 4294967295
380.34314 15.068399 -37.449753 4294967295
380.34634 14.12798 -37.04496 4294967295
380.36523 6.7663317 -38.721237 4294967295
380.41705 15.511703 -36.849369 4294967295
380.42371 7.2115288 -38.284744 4294967295
380.4299 9.0891819 -38.958523 4294967295
380.43799 8.615984 -38.688068 4294967295
380.448 17.847816 -37.446751 4294967295
380.44958 7.6708632 -38.195084 4294967295
380.46118 15.965878 -36.56575 4294967295
380.47049 8.1323452 -38.158073 4294967295
380.47833 9.5392351 -38.6292 4294967295
380.50101 16.891365 -36.512733 4294967295
380.50116 16.421692 -36.325977 4294967295
380.54202 9.9834156 -38.138199 4294967295
380.55249 10.449148 -38.212074 4294967295
380.5575 3.5767221 -40.212364 4294967295
380.5769 11.379066 -38.322342 4294967295
380.59314 18.269154 -36.090286 4294967295
380.5954 18.737854 -36.251457 4294967295
380.59964 10.90038 -37.896656 4294967295
380.63797 19.193523 -35.984604 4294967295
380.64828 4.9459047 -39.803162 4294967295
380.65625 20.126343 -36.160919 4294967295
380.65692 5.4120817 -39.896175 4294967295
380.66 19.655899 -35.935932 4294967295
380.66306 3.9988203 -39.279114 4294967295
380.6637 12.285062 -37.771599 4294967295
380.66623 12.753764 -37.929176 4294967295
380.67532 20.589584 -36.143528 4294967295
380.67899 11.809366 -37.425022 4294967295
380.71478 21.984669 -36.280243 4294967295
380.72934 21.511395 -35.940994 4294967295
380.74933 22.44339 -36.098579 4294967295
380.76849 13.185207 -37.030487 4294967295
380.77325 14.12296 -37.349373 4294967295
380.78183 14.58941 -37.442879 4294967295
380.79028 6.2938719 -38.853142 4294967295
380.79239 7.2331038 -39.198864 4294967295
380.79764 6.7608519 -38.959312 4294967295
380.79855 13.643951 -36.896744 4294967295
380.80923 15.518506 -37.521847 4294967295
380.88721 8.6031332 -38.748806 4294967295
380.89682 8.1291428 -38.462566 4294967295
380.90472 9.5355253 -38.931225 4294967295
380.90918 7.6537991 -38.148132 4294967295
380.9213 16.887814 -36.888905 4294967295
380.92395 17.825371 -37.229271 4294967295
380.93723 16.412909 -36.535988 4294967295
380.93729 9.0524998 -38.403816 4294967295
380.98132 18.275642 -36.807426 4294967295
380.99026 3.5715914 -40.439957 4294967295
381.00803 9.9637899 -38.023804 4294967295
381.02899 10.895181 -38.169846 4294967295
381.0296 3.0834436 -39.842121 4294967295
381.04367 10.419541 -37.830822 4294967295
381.04489 19.662544 -36.688332 4294967295
381.05267 18.721701 -36.236824 4294967295
381.08273 3.9996567 -39.648495 4294967295
381.08316 11.343881 -37.782257 4294967295
381.10788 20.111923 -36.20676 4294967295
381.12 4.9232235 -39.622154 4294967295
381.13327 12.264242 -37.620815 4294967295
381.13544 5.8563604 -39.826195 4294967295
381.13705 4.4454412 -39.259277 4294967295
381.14072 11.791571 -37.358658 4294967295
381.16196 20.564411 -35.819328 4294967295
381.18787 13.652823 -37.59621 4294967295
381.19193 21.02449 -35.686958 4294967295
381.21835 21.485729 -35.592201 4294967295
381.23441 15.044312 -37.656555 4294967295
381.242 6.7501888 -39.069626 4294967295
381.24292 14.102304 -37.19894 4294967295
381.25476 6.2746143 -38.752327 4294967295
381.27252 15.969444 -37.622143 4294967295
381.27292 14.561113 -37.066685 4294967295
381.27979 21.936749 -35.127399 4294967295
381.29163 16.432014 -37.604511 4294967295
381.33908 9.0589094 -38.963799 4294967295
381.36221 7.639492 -38.170238 4294967295
381.41187 17.799049 -36.888458 4294967295
381.41522 10.437258 -38.71143 4294967295
381.43472 8.5498266 -37.773693 4294967295
381.44699 9.954958 -38.194435 4294967295
381.45905 17.31403 -36.207317 4294967295
381.46005 18.721619 -36.748001 4294967295
381.46625 3.076642 -40.028973 4294967295
381.47433 10.883679 -38.272915 4294967295
381.48199 11.350329 -38.375732 4294967295
381.48642 18.243866 -36.28653 4294967295
381.48947 19.18129 -36.62133 4294967295
381.50082 11.812607 -38.360458 4294967295
381.52032 3.5221004 -39.643101 4294967295
381.52875 4.4585285 -39.920296 4294967295
381.5625 3.9732714 -39.383408 4294967295
381.56543 20.09565 -36.189163 4294967295
381.58817 12.718654 -37.80867 4294967295
381.58987 12.248361 -37.607498 4294967295
381.59286 19.61788 -35.716518 4294967295
381.60382 20.552958 -35.968483 4294967295
381.61954 21.486229 -36.170525 4294967295
381.62299 21.016216 -35.950226 4294967295
381.62872 4.8842039 -39.053535 4294967295
381.63794 13.639298 -37.651936 4294967295
381.63837 5.3501444 -39.13475 4294967295
381.67426 13.156308 -37.087132 4294967295
381.68265 14.09253 -37.364822 4294967295
381.69119 21.934063 -35.600269 4294967295
381.70523 22.398968 -35.635788 4294967295
381.71475 15.019957 -37.393986 4294967295
381.72852 6.2513409 -38.553383 4294967295
381.73337 14.543849 -37.015091 4294967295
381.73376 8.1289568 -39.228745 4294967295
381.73792 6.7175217 -38.638084 4294967295
381.75226 15.945462 -37.365913 4294967295
381.7739 7.1723871 -38.443092 4294967295
381.77914 15.466762 -36.900585 4294967295
381.78787 7.6366014 -38.478977 4294967295
381.79697 9.0423985 -38.930923 4294967295
381.81802 9.5035295 -38.892666 4294967295
381.81964 8.5633821 -38.510651 4294967295
381.84546 16.382824 -36.56974 4294967295
381.87244 16.843142 -36.469639 4294967295
381.89294 18.244183 -36.803326 4294967295
381.91449 17.298527 -36.211452 4294967295
381.93039 17.762709 -36.227955 4294967295
381.9324 9.9276152 -37.876369 4294967295
381.93842 3.0535135 -39.842262 4294967295
381.97769 20.09333 -36.64621 4294967295
381.97937 10.378995 -37.566502 4294967295
381.98978 18.682178 -35.970638 4294967295
381.99286 12.25266 -38.154797 4294967295
382.00421 19.146893 -36.002296 4294967295
382.00912 3.4915771 -39.284599 4294967295
382.01028 10.836867 -37.425163 4294967295
382.02335 4.4255991 -39.499588 4294967295
382.02991 19.608067 -35.915607 4294967295
382.0343 12.706602 -37.903301 4294967295
382.04694 20.541067 -36.102764 4294967295
382.05197 4.883009 -39.382336 4294967295
382.05399 11.289943 -37.150192 4294967295
382.05713 13.636981 -38.029346 4294967295
382.05759 3.9400539 -38.959572 4294967295
382.07153 21.00264 -36.027992 4294967295
382.07941 21.469219 -36.128216 4294967295
382.12415 5.3214788 -38.809639 4294967295
382.13071 6.728714 -39.286316 4294967295
382.14691 14.543293 -37.454075 4294967295
382.17511 15.002672 -37.341423 4294967295
382.1853 6.2354279 -38.534161 4294967295
382.19455 14.056671 -36.772869 4294967295
382.2193 8.1010275 -38.906128 4294967295
382.23578 15.45083 -36.888985 4294967295
382.23938 7.1527758 -38.332569 4294967295
382.28931 16.371273 -36.694107 4294967295
382.29672 15.899248 -36.433685 4294967295
382.30655 9.4747763 -38.540459 4294967295
382.31665 9.0009365 -38.253189 4294967295
382.31863 17.30003 -36.75185 4294967295
382.40039 17.742393 -36.079094 4294967295
382.42001 3.4963017 -39.739506 4294967295
382.439 3.0174894 -39.360558 4294967295
382.44476 18.666779 -35.980473 4294967295
382.4458 19.604786 -36.333553 4294967295
382.46021 20.069324 -36.365459 4294967295
382.46854 11.290251 -37.576408 4294967295
382.47507 19.126461 -35.84597 4294967295
382.49332 11.750564 -37.499775 4294967295
382.51987 13.149398 -37.767788 4294967295
382.53494 21.45348 -36.1311 4294967295
382.54086 12.202389 -37.185543 4294967295
382.54941 5.7892237 -39.297924 4294967295
382.56079 20.976864 -35.679531 4294967295
382.56345 4.3726225 -38.608227 4294967295
382.57468 4.8380098 -38.672432 4294967295
382.57565 22.379179 -36.070244 4294967295
382.58316 14.065224 -37.470814 4294967295
382.58362 20.500792 -35.258644 4294967295
382.58551 6.2436399 -39.102921 4294967295
382.60794 12.647208 -36.66787 4294967295
382.61176 14.524421 -37.354931 4294967295
382.61581 5.2903376 -38.425259 4294967295
382.65262 21.888018 -35.085007 4294967295
382.67728 15.44014 -37.034859 4294967295
382.69754 15.902488 -37.005421 4294967295
382.70642 16.368706 -37.094471 4294967295
382.70749 8.0720854 -38.558014 4294967295
382.73074 16.8297 -37.023052 4294967295
382.73224 9.001544 -38.662712 4294967295
382.85767 17.256821 -35.882767 4294967295
382.86896 3.0136633 -39.615501 4294967295
382.89087 3.4739189 -39.568913 4294967295
382.89301 17.714733 -35.696217 4294967295
382.89734 18.182789 -35.832714 4294967295
382.90927 20.055611 -36.434818 4294967295
382.93915 11.738752 -37.597748 4294967295
382.9574 20.50988 -36.115253 4294967295
382.96219 12.199713 -37.539001 4294967295
383.00427 3.8933926 -38.572491 4294967295
383.0072 13.122197 -37.433784 4294967295
383.01297 4.8301668 -38.843262 4294967295
383.01315 4.3598242 -38.660793 4294967295
383.03375 14.051427 -37.519482 4294967295
383.06403 14.509985 -37.386082 4294967295
383.06534 6.6877079 -39.021984 4294967295
383.07184 13.568241 -36.943172 4294967295
383.08377 21.410328 -35.163876 4294967295
383.09497 14.968413 -37.245846 4294967295
383.0979 22.344341 -35.379971 4294967295
383.10614 21.872936 -35.112576 4294967295
383.14435 15.889878 -37.095184 4294967295
383.15869 8.0583658 -38.595428 4294967295
383.17401 7.112113 -38.075867 4294967295
383.1767 16.817245 -37.12101 4294967295
383.18359 16.345776 -36.868504 4294967295
383.22458 15.392853 -36.081551 4294967295
383.25632 18.198256 -36.837933 4294967295
383.25824 8.9577169 -37.924438 4294967295
383.29382 17.716991 -36.267586 4294967295
383.34262 3.4601154 -39.596199 4294967295
383.36606 20.039503 -36.422581 4294967295
383.37241 9.3822393 -36.922539 4294967295
383.38385 3.9117727 -39.349621 4294967295
383.38687 19.564163 -36.026608 4294967295
383.39905 11.251889 -37.368324 4294967295
383.40378 9.8400774 -36.778332 4294967295
383.40564 10.309493 -36.939178 4294967295
383.41156 10.777235 -37.058548 4294967295
383.41638 18.616364 -35.358524 4294967295
383.42007 12.183312 -37.511036 4294967295
383.42117 20.491693 -36.032204 4294967295
383.4252 12.650939 -37.638474 4294967295
383.42673 11.711169 -37.262115 4294967295
383.47925 5.28016 -38.903049 4294967295
383.48746 20.940886 -35.526676 4294967295
383.48792 21.409725 -35.702301 4294967295
383.49274 4.8041658 -38.584068 4294967295
383.50143 13.092544 -37.030331 4294967295
383.50964 13.559143 -37.125839 4294967295
383.51086 21.871952 -35.645412 4294967295
383.56207 14.009901 -36.763771 4294967295
383.58771 15.878392 -37.218861 4294967295
383.60059 22.315193 -34.896954 4294967295
383.6405 6.1515884 -37.596786 4294967295
383.65741 15.385197 -36.318462 4294967295
383.65823 5.6735315 -37.234066 4294967295
383.66888 7.0803556 -37.663853 4294967295
383.68109 6.6049109 -37.358036 4294967295
383.70093 17.247986 -36.589104 4294967295
383.70517 16.307961 -36.185303 4294967295
383.70917 16.776035 -36.324528 4294967295
383.72229 17.710159 -36.548359 4294967295
383.72913 7.9959946 -37.401371 4294967295
383.73026 7.5252571 -37.210087 4294967295
383.7439 8.9302311 -37.608433 4294967295
383.74829 8.4584103 -37.383606 4294967295
383.7915 9.3813267 -37.297268 4294967295
383.79736 9.8490057 -37.416763 4294967295
383.80634 18.621552 -36.041195 4294967295
383.82095 18.147621 -35.70969 4294967295
383.84564 19.078369 -35.814888 4294967295
383.896 10.750735 -36.758533 4294967295
383.89822 20.000496 -35.632542 4294967295
383.90363 20.936855 -35.937092 4294967295
383.9104 4.3350897 -38.786102 4294967295
383.91397 11.213896 -36.753181 4294967295
383.91861 3.8612156 -38.522625 4294967295
383.92804 12.618001 -37.14669 4294967295
383.93051 21.397778 -35.839088 4294967295
383.93744 11.674973 -36.690578 4294967295
383.95404 13.078092 -37.058365 4294967295
383.97668 20.446011 -35.003036 4294967295
383.98798 12.126066 -36.349361 4294967295
383.99234 14.003353 -37.022957 4294967295
383.99741 4.7674141 -38.070076 4294967295
383.99747 14.470932 -37.149658 4294967295
384.00378 21.845451 -35.263493 4294967295
384.034 5.2219744 -37.872559 4294967295
384.04269 5.6886158 -37.962742 4294967295
384.04733 15.861365 -37.174244 4294967295
384.05673 15.388974 -36.898476 4294967295
384.05737 7.0927658 -38.348438 4294967295
384.08405 22.291586 -34.615738 4294967295
384.09659 16.313889 -36.846313 4294967295
384.14282 16.767681 -36.549931 4294967295
384.17276 6.5744877 -36.982498 4294967295
384.21246 18.621473 -36.551147 4294967295
384.21576 17.21298 -35.979275 4294967295
384.23749 7.4887257 -36.675297 4294967295
384.2663 18.135296 -35.817787 4294967295
384.27924 17.66176 -35.505264 4294967295
384.30319 20.000153 -36.155888 4294967295
384.32791 9.8042765 -36.641365 4294967295
384.32941 8.3925104 -36.088711 4294967295
384.33249 8.8618288 -36.236526 4294967295
384.33984 19.050716 -35.419918 4294967295
384.34622 19.517996 -35.534069 4294967295
384.35034 11.205728 -36.948429 4294967295
384.35504 3.3839579 -38.531742 4294967295
384.36264 10.260993 -36.464092 4294967295
384.3656 9.3191786 -36.075283 4294967295
384.38193 20.445419 -35.525616 4294967295
384.43866 12.582314 -36.578232 4294967295
384.43884 3.8173141 -37.851093 4294967295
384.44272 13.989628 -37.073746 4294967295
384.45084 4.2825623 -37.906364 4294967295
384.4574 13.514908 -36.743942 4294967295
384.46143 11.633958 -35.986698 4294967295
384.46506 12.102704 -36.128551 4294967295
384.491 13.033097 -36.220348 4294967295
384.50607 21.816334 -34.787891 4294967295
384.5358 22.276985 -34.662048 4294967295
384.55133 15.829332 -36.674232 4294967295
384.55142 4.709425 -37.053669 4294967295
384.55292 15.359467 -36.479458 4294967295
384.58252 22.732996 -34.36121 4294967295
384.58426 16.287539 -36.515472 4294967295
384.58432 5.1659851 -36.895031 4294967295
384.6326 6.5574312 -36.935886 4294967295
384.64264 5.6118765 -36.476009 4294967295
384.655 16.733368 -35.968525 4294967295
384.67282 18.135286 -36.32267 4294967295
384.68204 7.4779654 -36.78656 4294967295
384.68704 17.192261 -35.819084 4294967295
384.71222 8.8766594 -37.01302 4294967295
384.74802 8.3921118 -36.468155 4294967295
384.76587 19.513346 -35.905155 4294967295
384.76819 10.734746 -37.153126 4294967295
384.77402 9.3224382 -36.558716 4294967295
384.78421 7.9069624 -35.918583 4294967295
384.78622 19.03796 -35.518078 4294967295
384.80554 19.970291 -35.677078 4294967295
384.80835 20.438419 -35.827385 4294967295
384.81113 18.560841 -35.083683 4294967295
384.82745 20.901623 -35.80999 4294967295
384.82816 11.181892 -36.718323 4294967295
384.84454 9.7651854 -36.015099 4294967295
384.85715 10.23066 -36.064907 4294967295
384.86389 3.3449326 -37.978207 4294967295
384.89862 4.2706375 -37.979439 4294967295
384.90527 5.2083158 -38.267033 4294967295
384.90906 12.091578 -36.247379 4294967295
384.95038 13.486032 -36.359295 4294967295
384.95529 14.423428 -36.66563 4294967295
384.96335 22.269192 -34.95509 4294967295
384.96811 21.32962 -34.549015 4294967295
384.97546 14.885838 -36.637676 4294967295
384.98026 4.7057457 -37.323483 4294967295
385.00143 12.99786 -35.659275 4294967295
385.0304 15.805813 -36.432819 4294967295
385.03323 15.335462 -36.225613 4294967295
385.03629 5.6229162 -37.106823 4294967295
385.04083 13.923743 -35.612938 4294967295
385.04468 16.270304 -36.464989 4294967295
385.064 16.73311 -36.44548 4294967295
385.07437 6.0774174 -36.896114 4294967295
385.07642 17.198187 -36.49691 4294967295
385.07703 6.546793 -37.046928 4294967295
385.09027 7.0117006 -37.089661 4294967295
385.15231 7.4566765 -36.633976 4294967295
385.16104 17.640049 -35.810677 4294967295
385.1987 18.566542 -35.782104 4294967295
385.2056 8.8463326 -36.62439 4294967295
385.23389 8.3647099 -36.157658 4294967295
385.23877 7.8921814 -35.930069 4294967295
385.24838 20.427294 -35.987186 4294967295
385.25113 3.3598166 -38.666519 4294967295
385.25449 19.018417 -35.391403 4294967295
385.26343 10.704213 -36.745014 4294967295
385.27164 19.951427 -35.571774 4294967295
385.31903 19.467894 -34.910522 4294967295
385.36172 9.255394 -35.210133 4294967295
385.36957 13.483471 -36.728966 4294967295
385.37399 20.859226 -34.883553 4294967295
385.38797 11.12731 -35.6535 4294967295
385.39236 21.323027 -34.874973 4294967295
385.40057 10.18166 -35.169628 4294967295
385.41373 21.785961 -34.83522 4294967295
385.41867 22.253536 -34.962551 4294967295
385.43973 12.518693 -35.659573 4294967295
385.44638 12.986286 -35.769276 4294967295
385.45511 14.392489 -36.213516 4294967295
385.46655 14.858055 -36.274387 4294967295
385.46793 15.796258 -36.615021 4294967295
385.4859 4.1981325 -36.631981 4294967295
385.49161 22.702187 -34.397072 4294967295
385.51013 5.1293058 -36.740063 4294967295
385.51062 16.720398 -36.535133 4294967295
385.52512 4.652091 -36.410339 4294967295
385.52759 15.306722 -35.83025 4294967295
385.5289 13.896911 -35.284389 4294967295
385.53564 6.5302114 -37.011761 4294967295
385.53864 16.241953 -36.072994 4294967295
385.54062 5.5870733 -36.607239 4294967295
385.54532 6.0557175 -36.73645 4294967295
385.55579 17.174814 -36.253254 4294967295
385.57297 17.63838 -36.255608 4294967295
385.64203 7.4275284 -36.284706 4294967295
385.64758 6.9546537 -36.051273 4294967295
385.65475 19.488697 -36.133102 4294967295
385.65594 7.892416 -36.320854 4294967295
385.66248 19.017422 -35.877811 4294967295
385.71756 18.531166 -35.140244 4294967295
385.72653 8.8052235 -35.957825 4294967295
385.74741 8.3263969 -35.568718 4294967295
385.78848 20.386534 -35.128807 4294967295
385.83096 9.2348804 -35.074238 4294967295
385.83524 21.310989 -35.008663 4294967295
385.84177 9.701376 -35.141705 4294967295
385.85797 10.636239 -35.331402 4294967295
385.86426 20.833443 -34.536221 4294967295
385.86554 21.771303 -34.877472 4294967295
385.8736 10.159783 -34.995716 4294967295
385.87433 22.237778 -34.966293 4294967295
385.88028 12.508748 -35.813187 4294967295
385.90103 22.699207 -34.871876 4294967295
385.90997 12.027849 -35.334877 4294967295
385.91141 12.967479 -35.674168 4294967295
385.91635 11.084748 -34.91571 4294967295
385.91855 11.554387 -35.070625 4294967295
385.92764 3.7180843 -36.592693 4294967295
385.95572 13.891578 -35.578743 4294967295
385.96259 15.767567 -36.216938 4294967295
385.96558 4.6433983 -36.561501 4294967295
385.97168 14.355841 -35.594265 4294967295
386.00342 4.1561842 -36.001671 4294967295
386.0152 6.0344992 -36.588459 4294967295
386.01675 5.0924101 -36.219578 4294967295
386.0217 15.278152 -35.440086 4294967295
386.02472 5.5598593 -36.31562 4294967295
386.02695 16.215534 -35.740856 4294967295
386.04318 16.679596 -35.753029 4294967295
386.04468 17.148411 -35.91465 4294967295
386.11456 18.533768 -35.736614 4294967295
386.12326 6.9312477 -35.847458 4294967295
386.13345 18.058664 -35.368622 4294967295
386.13791 7.3959837 -35.87566 4294967295
386.16541 6.4430494 -35.243519 4294967295
386.19965 8.783061 -35.779984 4294967295
386.2049 7.8397369 -35.37421 4294967295
386.21719 10.187202 -36.131824 4294967295
386.23135 19.436321 -34.907566 4294967295
386.2338 8.2989693 -35.257915 4294967295
386.2471 9.2350407 -35.4767 4294967295
386.26804 9.6974478 -35.441162 4294967295
386.26935 20.363398 -34.876129 4294967295
386.30417 10.62451 -35.42873 4294967295
386.3241 11.087345 -35.403389 4294967295
386.33405 21.282864 -34.574726 4294967295
386.33554 21.751509 -34.736107 4294967295
386.33981 3.2510233 -36.852234 4294967295
386.36121 12.014089 -35.380764 4294967295
386.3735 13.419592 -35.785408 4294967295
386.37894 22.208332 -34.473965 4294967295
386.37927 11.537225 -35.02232 4294967295
386.38583 5.1138182 -37.091026 4294967295
386.39664 12.941485 -35.375538 4294967295
386.39929 4.1668139 -36.603725 4294967295
386.40082 12.46989 -35.157001 4294967295
386.40759 13.877421 -35.61731 4294967295
386.42621 22.664291 -34.17231 4294967295
386.43613 3.6799212 -36.055668 4294967295
386.44467 4.618166 -36.321308 4294967295
386.47354 14.32438 -35.127293 4294967295
386.48523 15.259984 -35.361732 4294967295
386.49667 17.133932 -35.950623 4294967295
386.5029 16.193251 -35.535534 4294967295
386.50656 16.661472 -35.674938 4294967295
386.50809 14.782431 -34.954472 4294967295
386.51865 15.718461 -35.200584 4294967295
386.52682 5.9959764 -36.019741 4294967295
386.53458 18.060131 -35.920303 4294967295
386.55551 18.99155 -36.060814 4294967295
386.55905 17.583229 -35.497017 4294967295
386.64444 19.43351 -35.339592 4294967295
386.64569 6.8888464 -35.172977 4294967295
386.65509 6.4139519 -34.901749 4294967295
386.71552 19.88135 -34.798996 4294967295
386.72113 7.8003531 -34.763939 4294967295
386.73425 20.344982 -34.785702 4294967295
386.7504 8.7305727 -34.820969 4294967295
386.75439 21.277252 -34.934792 4294967295
386.75681 9.6694565 -35.107857 4294967295
386.76773 21.742378 -34.976036 4294967295
386.76776 8.2528133 -34.469471 4294967295
386.76791 12.016507 -35.874577 4294967295
386.78665 9.1872692 -34.631115 4294967295
386.79385 10.125905 -34.910664 4294967295
386.80157 22.201771 -34.810921 4294967295
386.81308 11.059624 -35.068333 4294967295
386.81531 12.939229 -35.748947 4294967295
386.82724 4.1634741 -36.878181 4294967295
386.83206 13.872778 -35.931095 4294967295
386.85117 3.2114391 -36.286861 4294967295
386.86444 10.569907 -34.375393 4294967295
386.86908 12.449996 -35.032162 4294967295
386.87628 22.650084 -34.234055 4294967295
386.88037 5.0821114 -36.694405 4294967295
386.88632 15.262798 -35.911572 4294967295
386.8909 14.791753 -35.690289 4294967295
386.90387 11.49656 -34.329803 4294967295
386.90829 14.316102 -35.33905 4294967295
386.91446 4.5969524 -36.17614 4294967295
386.93658 15.715466 -35.58144 4294967295
386.96252 16.176371 -35.496078 4294967295
386.99094 17.575108 -35.736244 4294967295
387.01324 17.098755 -35.337032 4294967295
387.02652 6.4333687 -35.750683 4294967295
387.0799 19.42387 -35.54327 4294967295
387.11139 20.352285 -35.57756 4294967295
387.1142 19.88258 -35.374165 4294967295
387.11536 18.474762 -34.836678 4294967295
387.12012 18.942608 -34.964157 4294967295
387.15143 7.3244085 -34.845985 4294967295
387.16885 7.7883711 -34.84623 4294967295
387.18826 9.6634626 -35.352924 4294967295
387.22006 21.258652 -34.836781 4294967295
387.22473 20.788271 -34.614136 4294967295
387.23209 21.724159 -34.891083 4294967295
387.29504 11.034571 -34.806076 4294967295
387.30484 22.641739 -34.51112 4294967295
387.3111 4.1361208 -36.590027 4294967295
387.31186 11.969066 -34.987598 4294967295
387.31873 11.496257 -34.74345 4294967295
387.32001 3.1905394 -36.151394 4294967295
387.34766 13.836454 -35.328411 4294967295
387.34827 14.306007 -35.497517 4294967295
387.35831 15.241734 -35.746399 4294967295
387.3685 12.418923 -34.59446 4294967295
387.37576 16.174658 -35.921082 4294967295
387.37756 3.636652 -35.749409 4294967295
387.39133 12.881063 -34.540283 4294967295
387.40515 14.756328 -35.101643 4294967295
387.41223 15.693264 -35.380711 4294967295
387.42377 13.339887 -34.390301 4294967295
387.42737 5.0284424 -35.774258 4294967295
387.42859 17.565125 -35.916107 4294967295
387.44574 4.549695 -35.415646 4294967295
387.46237 17.08522 -35.402821 4294967295
387.48828 16.607464 -34.968307 4294967295
387.51349 18.476822 -35.414867 4294967295
387.55396 17.995035 -34.834606 4294967295
387.64862 20.781712 -34.935478 4294967295
387.64886 20.312634 -34.758533 4294967295
387.68356 21.709555 -34.935089 4294967295
387.6944 21.237598 -34.65229 4294967295
387.71292 10.562902 -35.011505 4294967295
387.7131 11.033144 -35.184105 4294967295
387.77322 22.622498 -34.387749 4294967295
387.81488 3.6294165 -35.930546 4294967295
387.83093 13.34148 -34.878536 4294967295
387.84613 12.866023 -34.552357 4294967295
387.85556 11.921905 -34.108753 4294967295
387.86447 4.0792007 -35.609566 4294967295
387.88388 16.611248 -35.569508 4294967295
387.89758 13.788396 -34.386715 4294967295
387.89774 14.258448 -34.560295 4294967295
387.89966 15.197542 -34.889454 4294967295
387.94952 14.710886 -34.216965 4294967295
387.96259 18.463135 -35.480152 4294967295
387.96817 15.644625 -34.379734 4294967295
387.99356 17.984413 -34.99704 4294967295
388.005 17.511463 -34.709003 4294967295
388.03821 18.909229 -34.899986 4294967295
388.09232 19.362188 -34.534168 4294967295
388.09668 20.768141 -35.012554 4294967295
388.11737 19.824015 -34.458736 4294967295
388.14792 21.691339 -34.850262 4294967295
388.14832 20.28417 -34.323917 4294967295
388.20789 21.205469 -34.078121 4294967295
388.25385 22.130905 -33.968277 4294967295
388.28558 3.1367493 -35.605171 4294967295
388.30283 22.586636 -33.654636 4294967295
388.32101 3.5926352 -35.426224 4294967295
388.32242 12.373078 -34.175983 4294967295
388.3241 12.842799 -34.33268 4294967295
388.3324 13.310115 -34.424133 4294967295
388.33322 13.779924 -34.589901 4294967295
388.34845 11.422552 -33.56871 4294967295
388.37469 14.705728 -34.524029 4294967295
388.37704 14.234951 -34.32708 4294967295
388.38284 15.172873 -34.616859 4294967295
388.39474 17.047264 -35.192806 4294967295
388.40427 16.105261 -34.750805 4294967295
388.42935 15.627329 -34.327812 4294967295
388.43112 16.566206 -34.6576 4294967295
388.44565 18.439056 -35.207092 4294967295
388.46649 18.901806 -35.173161 4294967295
388.48111 19.36644 -35.201241 4294967295
388.51285 19.826021 -35.059208 4294967295
388.61923 21.202278 -34.522617 4294967295
388.64954 20.724575 -34.048679 4294967295
388.6524 22.130848 -34.540253 4294967295
388.71094 11.911433 -34.672462 4294967295
388.72379 12.377018 -34.71769 4294967295
388.74078 13.780986 -35.068245 4294967295
388.77029 22.567707 -33.543407 4294967295
388.79501 3.0984497 -35.070004 4294967295
388.82837 17.038599 -35.411076 4294967295
388.83005 13.280157 -34.010464 4294967295
388.8526 16.561577 -34.99789 4294967295
388.86453 16.088238 -34.707344 4294967295
388.88025 12.792203 -33.339783 4294967295
388.8866 18.427822 -35.352047 4294967295
388.90356 14.195503 -33.628071 4294967295
388.905 15.135328 -33.959621 4294967295
388.97473 17.462032 -34.134457 4294967295
389.02951 20.261505 -34.628651 4294967295
389.04416 18.84943 -33.965813 4294967295
389.10883 21.176975 -34.18924 4294967295
389.11295 20.706669 -33.975742 4294967295
389.12762 22.578495 -34.521397 4294967295
389.15475 3.1246147 -36.016705 4294967295
389.19119 22.092316 -33.720352 4294967295
389.2688 13.270658 -34.181473 4294967295
389.28705 12.323596 -33.656174 4294967295
389.28851 11.852489 -33.469017 4294967295
389.2981 14.670772 -34.409264 4294967295
389.30447 16.077747 -34.863232 4294967295
389.31577 16.543577 -34.923882 4294967295
389.32242 14.192599 -33.996677 4294967295
389.3454 12.773635 -33.252274 4294967295
389.35172 17.470949 -34.913673 4294967295
389.36206 18.406103 -35.15588 4294967295
389.36673 16.996878 -34.593426 4294967295
389.37079 13.705882 -33.3466 4294967295
389.41467 18.859333 -34.809395 4294967295
389.45334 19.31694 -34.599743 4294967295
389.46106 19.783754 -34.695679 4294967295
389.5603 22.100182 -34.577972 4294967295
389.57721 20.219261 -33.722862 4294967295
389.58273 20.686977 -33.840912 4294967295
389.62866 21.143253 -33.559929 4294967295
389.65839 21.604244 -33.439255 4294967295
389.68622 22.535 -33.50946 4294967295
389.74561 14.658021 -34.491577 4294967295
389.76566 13.241096 -33.779331 4294967295
389.76968 16.528524 -34.941204 4294967295
389.77161 16.058487 -34.751183 4294967295
389.8078 15.577135 -34.223492 4294967295
389.81448 17.453106 -34.844254 4294967295
389.81927 13.693019 -33.423016 4294967295
389.82074 14.162824 -33.580727 4294967295
389.83524 18.854103 -35.154327 4294967295
389.85904 16.969788 -34.234791 4294967295
389.86298 15.089105 -33.508636 4294967295
389.88275 17.90139 -34.344398 4294967295
389.95917 19.286469 -34.108501 4294967295
389.97394 19.751385 -34.134476 4294967295
389.9931 20.215019 -34.117702 4294967295
390.03488 20.672283 -33.879444 4294967295
390.05823 21.134878 -33.821648 4294967295
390.06644 21.601673 -33.912373 4294967295
390.20996 12.288968 -33.551777 4294967295
390.24893 14.626709 -34.025917 4294967295
390.25171 13.68559 -33.656174 4294967295
390.25739 16.972153 -34.79821 4294967295
390.25864 12.742456 -33.245537 4294967295
390.26349 15.091816 -34.054371 4294967295
390.26758 13.209847 -33.3293 4294967295
390.27087 17.437237 -34.837223 4294967295
390.28036 16.495485 -34.401989 4294967295
390.2814 14.145778 -33.536114 4294967295
390.32767 16.010715 -33.767517 4294967295
390.34091 18.354313 -34.492832 4294967295
390.34494 18.822292 -34.624317 4294967295
390.35556 17.880539 -34.178391 4294967295
390.36057 19.75573 -34.812981 4294967295
390.42026 20.676435 -34.570618 4294967295
390.43256 19.265591 -33.937389 4294967295
390.48907 20.187788 -33.726097 4294967295
390.53308 22.051888 -33.97913 4294967295
390.53412 21.113506 -33.627037 4294967295
390.57816 21.570536 -33.367649 4294967295
390.63464 13.224878 -34.200207 4294967295
390.69452 12.734034 -33.444275 4294967295
390.74951 16.006039 -34.101368 4294967295
390.75027 13.655698 -33.241051 4294967295
390.7533 16.943951 -34.404884 4294967295
390.75336 15.065145 -33.722664 4294967295
390.76691 15.530663 -33.760948 4294967295
390.76883 14.119788 -33.230968 4294967295
390.78049 14.586141 -33.287521 4294967295
390.80508 18.336084 -34.410469 4294967295
390.82141 19.738464 -34.761955 4294967295
390.82901 18.798151 -34.347324 4294967295
390.84906 19.261421 -34.32283 4294967295
390.87088 20.662067 -34.620007 4294967295
390.89343 20.186764 -34.230602 4294967295
390.97687 21.101393 -33.757175 4294967295
390.99384 21.565777 -33.762272 4294967295
391.01163 22.49881 -33.929054 4294967295
391.0722 22.013554 -33.16853 4294967295
391.11261 13.201849 -33.984711 4294967295
391.16949 13.652665 -33.600761 4294967295
391.17975 16.468075 -34.519913 4294967295
391.18271 15.997671 -34.322159 4294967295
391.23532 14.100825 -33.130783 4294967295
391.24878 15.036736 -33.339474 4294967295
391.24979 14.566279 -33.16024 4294967295
391.2529 17.85355 -34.318287 4294967295
391.25674 18.321611 -34.449917 4294967295
391.2753 18.785244 -34.439594 4294967295
391.29016 16.903118 -33.616764 4294967295
391.29434 19.248745 -34.424549 4294967295
391.2959 17.370975 -33.730251 4294967295
391.31186 19.712677 -34.42355 4294967295
391.39597 21.564632 -34.284954 4294967295
391.41763 20.620728 -33.735565 4294967295
391.48053 22.479475 -33.802921 4294967295
391.49695 21.067833 -33.13496 4294967295
391.61624 14.110326 -33.860432 4294967295
391.61761 13.639837 -33.677841 4294967295
391.62616 16.92466 -34.779247 4294967295
391.65015 16.447853 -34.377636 4294967295
391.69189 14.555348 -33.296227 4294967295
391.69455 15.964258 -33.778137 4294967295
391.71289 17.367249 -34.107895 4294967295
391.72504 18.771294 -34.497566 4294967295
391.72934 17.831612 -34.117466 4294967295
391.82544 19.211075 -33.694698 4294967295
391.91791 20.592522 -33.306377 4294967295
391.94839 21.053324 -33.18108 4294967295
391.98575 21.512321 -32.988277 4294967295
391.98788 21.980932 -33.136696 4294967295
391.98972 22.449516 -33.287964 4294967295
392.08835 13.149192 -33.3661 4294967295
392.10391 15.4938 -34.058853 4294967295
392.13638 16.422688 -34.082462 4294967295
392.1601 14.535838 -33.179379 4294967295
392.16605 17.821697 -34.301979 4294967295
392.18246 14.998644 -33.131893 4294967295
392.18628 13.586538 -32.588562 4294967295
392.18982 12.644101 -32.21701 4294967295
392.22086 16.866039 -33.435574 4294967295
392.22897 18.272127 -33.863045 4294967295
392.24924 17.327028 -33.330891 4294967295
392.27261 19.197872 -33.779003 4294967295
392.33224 19.649971 -33.372402 4294967295
392.3598 20.111441 -33.274818 4294967295
392.36215 21.04915 -33.589542 4294967295
392.36279 21.986795 -33.919453 4294967295
392.40646 22.444008 -33.667107 4294967295
392.41302 20.565845 -32.930481 4294967295
392.44666 21.495205 -32.94315 4294967295
392.56812 13.595921 -33.305695 4294967295
392.58664 17.816551 -34.638794 4294967295
392.62018 14.989015 -33.30867 4294967295
392.62167 16.397865 -33.798203 4294967295
392.62857 17.334679 -34.067959 4294967295
392.63037 16.864721 -33.882984 4294967295
392.63257 14.04473 -32.853573 4294967295
392.6543 15.917951 -33.317238 4294967295
392.66574 18.262093 -34.046558 4294967295
392.72208 19.183971 -33.839951 4294967295
392.73016 18.712376 -33.594936 4294967295
392.73947 20.117168 -34.008766 4294967295
392.74734 19.645889 -33.76561 4294967295
392.80048 20.569136 -33.590565 4294967295
392.84982 21.024612 -33.284145 4294967295
392.86612 21.489285 -33.295815 4294967295
392.88553 21.953102 -33.27705 4294967295
392.92868 22.410694 -33.030407 4294967295
393.01581 16.401411 -34.389381 4294967295
393.039 15.924755 -34.000263 4294967295
393.04144 15.454383 -33.809555 4294967295
393.06073 14.97843 -33.457001 4294967295
393.07462 13.563613 -32.821739 4294967295
393.08026 16.850883 -33.939091 4294967295
393.09464 17.785172 -34.136009 4294967295
393.12051 14.489038 -32.716694 4294967295
393.12109 14.018554 -32.543514 4294967295
393.13846 19.648537 -34.385124 4294967295
393.20758 20.566856 -34.057533 4294967295
393.26431 21.020145 -33.681725 4294967295
393.34686 22.404739 -33.393169 4294967295
393.36356 21.931396 -33.066719 4294967295
393.48639 15.44223 -33.912548 4294967295
393.49463 15.909174 -34.000568 4294967295
393.51654 16.841213 -34.125366 4294967295
393.56036 14.478791 -32.872711 4294967295
393.56421 13.536996 -32.501862 4294967295
393.59604 18.69429 -34.032616 4294967295
393.59708 18.224823 -33.855953 4294967295
393.60492 14.934572 -32.614365 4294967295
393.65494 19.615517 -33.803856 4294967295
393.72321 19.126801 -32.986427 4294967295
393.72357 21.003389 -33.648819 4294967295
393.72549 20.064764 -33.297611 4294967295
393.75897 21.462727 -33.477623 4294967295
393.79541 20.514578 -32.797451 4294967295
393.85159 21.90704 -32.761269 4294967295
393.9021 22.362904 -32.446224 4294967295
393.94785 14.48545 -33.526192 4294967295
393.98016 15.414631 -33.55043 4294967295
393.98935 14.941942 -33.297043 4294967295
394.03281 13.517399 -32.384239 4294967295
394.04797 13.982788 -32.406609 4294967295
394.07001 15.85622 -32.862389 4294967295
394.07538 12.091022 -31.479252 4294967295
394.08035 16.792589 -33.095863 4294967295
394.09048 19.605469 -33.995735 4294967295
394.10306 20.070839 -34.042358 4294967295
394.10489 19.132347 -33.693245 4294967295
394.17352 20.520229 -33.538212 4294967295
394.19275 20.983934 -33.521301 4294967295
394.25119 21.43716 -33.132511 4294967295
394.28281 21.897758 -32.997986 4294967295
394.30994 22.359638 -32.906353 4294967295
394.4227 13.523785 -33.013977 4294967295
394.44934 16.333992 -33.754498 4294967295
394.45325 16.802193 -33.883049 4294967295
394.46524 15.389853 -33.273441 4294967295
394.47546 17.734028 -34.003647 4294967295
394.47733 14.916162 -32.992828 4294967295
394.47751 18.202513 -34.149612 4294967295
394.48267 15.854121 -33.273693 4294967295
394.48361 13.033272 -32.27021 4294967295
394.48773 14.442804 -32.728619 4294967295
394.50128 13.968216 -32.43433 4294967295
394.53409 17.247208 -33.282764 4294967295
394.55087 19.119389 -33.785061 4294967295
394.62814 20.03574 -33.383827 4294967295
394.64337 19.562321 -33.074974 4294967295
394.68628 20.957918 -33.16486 4294967295
394.68756 20.488462 -32.987072 4294967295
394.73495 22.35181 -33.199924 4294967295
394.74667 21.410759 -32.758293 4294967295
394.86273 13.513515 -33.164448 4294967295
394.86957 13.981265 -33.265282 4294967295
394.87936 16.326263 -33.997253 4294967295
394.88855 14.445015 -33.250607 4294967295
394.89005 15.85357 -33.731422 4294967295
394.89124 13.033938 -32.729641 4294967295
394.91116 17.255112 -34.026352 4294967295
394.91183 14.90742 -33.19577 4294967295
394.94504 15.366743 -33.046688 4294967295
394.95236 18.650192 -34.131893 4294967295
395.0257 18.159779 -33.274582 4294967295
395.03482 19.095625 -33.518646 4294967295
395.10394 21.421221 -33.690224 4294967295
395.11365 19.542522 -32.93898 4294967295
395.11368 20.48082 -33.268478 4294967295
395.13474 20.005909 -32.905525 4294967295
395.15936 20.937447 -33.00214 4294967295
395.15936 22.344076 -33.496864 4294967295
395.30432 13.0327 -33.134525 4294967295
395.33447 13.49281 -33.014767 4294967295
395.33447 13.962806 -33.179646 4294967295
395.35849 14.424967 -33.117966 4294967295
395.36874 15.830843 -33.514244 4294967295
395.37527 15.359198 -33.288319 4294967295
395.38068 14.887753 -33.073334 4294967295
395.3884 16.294308 -33.493973 4294967295
395.40518 16.758656 -33.500439 4294967295
395.42484 18.160576 -33.80769 4294967295
395.4718 20.022976 -34.023037 4294967295
395.47592 18.614927 -33.491474 4294967295
395.47769 17.675842 -33.14642 4294967295
395.50888 19.54377 -33.510235 4294967295
395.5152 19.072899 -33.286919 4294967295
395.58447 21.867493 -33.6199 4294967295
395.6152 20.45256 -32.838779 4294967295
395.621 20.920101 -32.948692 4294967295
395.64365 21.383083 -32.90044 4294967295
395.67117 22.313732 -32.969936 4294967295
395.71378 3.3078651 -34.40509 4294967295
395.74457 13.962055 -33.608574 4294967295
395.75363 13.019382 -33.195858 4294967295
395.76761 16.301998 -34.211033 4294967295
395.77197 15.831428 -34.006355 4294967295
395.78146 16.766918 -34.244606 4294967295
395.81711 15.347975 -33.419052 4294967295
395.81946 14.877582 -33.233532 4294967295
395.82507 14.40598 -33.016537 4294967295
395.84357 13.459943 -32.515778 4294967295
395.896 19.078342 -33.98867 4294967295
395.89883 17.670364 -33.471764 4294967295
395.91522 18.134785 -33.481331 4294967295
395.99313 18.581604 -32.915161 4294967295
396.02487 19.98033 -33.108761 4294967295
396.02966 19.509834 -32.89986 4294967295
396.06989 20.437115 -32.850864 4294967295
396.10431 21.834908 -33.019089 4294967295
396.10587 20.896509 -32.677273 4294967295
396.14594 21.35498 -32.465984 4294967295
396.2243 12.528913 -32.892849 4294967295
396.2251 22.272633 -32.051777 4294967295
