# .PCD v0.7 - Point Cloud Data file format
VERSION 0.7
FIELDS x y z rgb
SIZE 4 4 4 4
TYPE F F F U
COUNT 1 1 1 1
WIDTH 1120
HEIGHT 1
VIEWPOINT 0 0 0 1 0 0 0
POINTS 1120
DATA ascii
176.76909 -64.1362 -59.108116 4294967295
176.77023 -75.339554 -58.51046 4294967295
176.79112 -75.748009 -59.007355 4294967295
176.81491 -63.63533 -59.477058 4294967295
176.83687 -62.284256 -59.084846 4294967295
176.83879 -74.363724 -58.948746 4294967295
176.85435 -61.820549 -59.086189 4294967295
176.87822 -73.429909 -59.009071 4294967295
176.8851 -72.981224 -58.872356 4294967295
176.89821 -60.881767 -59.203896 4294967295
176.91252 -61.304501 -59.615482 4294967295
176.9418 -72.462128 -59.383152 4294967295
176.96597 -60.353889 -59.858192 4294967295
176.9696 -71.98407 -59.518394 4294967295
177.00432 -68.859772 -58.386189 4294967295
177.05013 -59.805656 -60.725716 4294967295
177.05469 -69.230278 -59.268013 4294967295
177.06215 -69.659409 -59.59127 4294967295
177.06596 -70.093369 -59.867012 4294967295
177.08687 -57.994957 -60.300003 4294967295
177.1031 -57.533287 -60.285011 4294967295
177.10934 -58.407921 -60.818077 4294967295
177.12639 -56.621288 -60.135754 4294967295
177.14066 -66.474174 -59.028465 4294967295
177.16029 -57.020691 -60.802849 4294967295
177.16144 -65.125305 -58.619301 4294967295
177.17328 -65.549927 -59.000198 4294967295
177.24692 -75.333969 -58.664623 4294967295
177.2599 -75.753548 -59.060894 4294967295
177.26479 -64.547424 -59.739456 4294967295
177.26796 -63.662476 -59.327488 4294967295
177.27203 -63.216511 -59.153854 4294967295
177.28714 -74.837349 -58.96244 4294967295
177.29465 -73.94931 -58.606262 4294967295
177.29506 -74.38739 -58.83876 4294967295
177.30609 -64.052483 -60.051144 4294967295
177.31775 -62.715927 -59.523293 4294967295
177.31995 -73.474304 -58.709351 4294967295
177.34454 -61.799522 -59.419128 4294967295
177.34799 -72.995453 -58.848633 4294967295
177.36879 -72.527 -58.89299 4294967295
177.37424 -62.201553 -60.033485 4294967295
177.40604 -71.157166 -58.697662 4294967295
177.4115 -71.588669 -58.996204 4294967295
177.41933 -72.016586 -59.325569 4294967295
177.44688 -61.22617 -60.527946 4294967295
177.5 -67.949509 -58.333328 4294967295
177.50333 -60.27232 -60.811367 4294967295
177.51073 -68.374695 -58.701199 4294967295
177.5121 -69.691292 -59.401859 4294967295
177.51346 -67.491074 -58.281532 4294967295
177.51707 -70.5625 -59.921448 4294967295
177.5173 -69.244759 -59.242596 4294967295
177.51918 -59.811405 -60.791389 4294967295
177.52208 -68.798683 -59.077484 4294967295
177.53355 -58.911472 -60.525391 4294967295
177.53584 -70.097359 -59.939602 4294967295
177.54364 -58.457695 -60.430229 4294967295
177.54831 -58.010674 -60.264153 4294967295
177.56435 -66.541595 -58.491982 4294967295
177.58195 -66.077545 -58.494785 4294967295
177.58771 -57.519939 -60.552078 4294967295
177.64851 -56.561565 -60.892647 4294967295
177.65576 -75.865425 -58.159554 4294967295
177.69478 -64.605324 -59.288918 4294967295
177.69991 -75.362656 -58.510147 4294967295
177.73125 -63.676155 -59.311218 4294967295
177.75525 -74.843887 -59.007698 4294967295
177.77538 -63.177414 -59.661674 4294967295
177.78035 -73.930763 -58.880596 4294967295
177.79265 -74.35144 -59.27018 4294967295
177.81682 -62.682465 -59.977028 4294967295
177.83231 -73.417572 -59.334034 4294967295
177.83513 -62.218056 -59.989334 4294967295
177.83708 -72.533539 -58.940193 4294967295
177.85043 -61.317013 -59.734055 4294967295
177.85995 -72.062157 -59.012211 4294967295
177.86 -71.623177 -58.784454 4294967295
177.86548 -61.737968 -60.159203 4294967295
177.87473 -72.91835 -59.662575 4294967295
177.88231 -71.152634 -58.848923 4294967295
177.92728 -70.211159 -58.982601 4294967295
177.93056 -60.331886 -60.329437 4294967295
177.95906 -59.85453 -60.475418 4294967295
177.96741 -68.397659 -58.595222 4294967295
177.97006 -69.272964 -59.087402 4294967295
177.98735 -70.565796 -60.000252 4294967295
177.99673 -58.924805 -60.513924 4294967295
178.01241 -58.023045 -60.263031 4294967295
178.02466 -58.448441 -60.652344 4294967295
178.02884 -68.752068 -59.631634 4294967295
178.06593 -66.503426 -58.976036 4294967295
178.07147 -66.935646 -59.277626 4294967295
178.08107 -67.80143 -59.861343 4294967295
178.08786 -57.486691 -61.026321 4294967295
178.11104 -67.320961 -60.026829 4294967295
178.13927 -56.540268 -61.245544 4294967295
178.13963 -65.523712 -59.488213 4294967295
178.14134 -65.081467 -59.281784 4294967295
178.16975 -65.922577 -60.11372 4294967295
178.17024 -64.602608 -59.43325 4294967295
178.18239 -75.786415 -58.972397 4294967295
178.19077 -74.897827 -58.624481 4294967295
178.19579 -74.452133 -58.461189 4294967295
178.20633 -75.313286 -59.058804 4294967295
178.24388 -63.183952 -59.716335 4294967295
178.25232 -64.052734 -60.285172 4294967295
178.25847 -73.484459 -58.82885 4294967295
178.26968 -73.906609 -59.206154 4294967295
178.27235 -73.025871 -58.782677 4294967295
178.29347 -72.556946 -58.831779 4294967295
178.29385 -63.557461 -60.603962 4294967295
178.29895 -62.670853 -60.212914 4294967295
178.33456 -61.303261 -59.995033 4294967295
178.33896 -62.177956 -60.511349 4294967295
178.35074 -61.722336 -60.437752 4294967295
178.35243 -60.398849 -59.772274 4294967295
178.37483 -59.929096 -59.838699 4294967295
178.39026 -71.979988 -59.87933 4294967295
178.40532 -71.520096 -59.848747 4294967295
178.40848 -69.760513 -58.971931 4294967295
178.42023 -69.304848 -58.897598 4294967295
178.42259 -71.05706 -59.847282 4294967295
178.42285 -58.544716 -59.784225 4294967295
178.46417 -58.932686 -60.558758 4294967295
178.47046 -68.356285 -59.101601 4294967295
178.4892 -67.451431 -58.889439 4294967295
178.48927 -57.578117 -60.201965 4294967295
178.49696 -57.12727 -60.074131 4294967295
178.52277 -57.976444 -60.87376 4294967295
178.5351 -68.705406 -60.185829 4294967295
178.57765 -75.900154 -58.054413 4294967295
178.58517 -66.879868 -59.928829 4294967295
178.60001 -56.556324 -61.206322 4294967295
178.65961 -64.58091 -59.763702 4294967295
178.67686 -65.43663 -60.45224 4294967295
178.67792 -74.000031 -58.460846 4294967295
178.68196 -74.432465 -58.744686 4294967295
178.68488 -75.304192 -59.244476 4294967295
178.68866 -64.981255 -60.378143 4294967295
178.69943 -63.647686 -59.830605 4294967295
178.70743 -73.080254 -58.390541 4294967295
178.72621 -64.051506 -60.415436 4294967295
178.72795 -63.169598 -59.978313 4294967295
178.73814 -62.716049 -59.882771 4294967295
178.75902 -73.443909 -59.305298 4294967295
178.76308 -72.561409 -58.897881 4294967295
178.80003 -61.753876 -60.242516 4294967295
178.8091 -62.181915 -60.592625 4294967295
178.83456 -60.828083 -60.239594 4294967295
178.84085 -72.011154 -59.698936 4294967295
178.84373 -59.494587 -59.669632 4294967295
178.84512 -61.254395 -60.60994 4294967295
178.86836 -59.90324 -60.226917 4294967295
178.87431 -70.648033 -59.450817 4294967295
178.89145 -58.551418 -59.841461 4294967295
178.90059 -69.294456 -59.107021 4294967295
178.90588 -69.725914 -59.408287 4294967295
178.9223 -58.952415 -60.481373 4294967295
178.93326 -70.125877 -60.002522 4294967295
178.94608 -67.913383 -59.018059 4294967295
178.94621 -58.040394 -60.337574 4294967295
178.95828 -57.584145 -60.267132 4294967295
178.96762 -67.44416 -59.073025 4294967295
178.98563 -68.736214 -60.005692 4294967295
179.00125 -68.275558 -59.9823 4294967295
179.03171 -66.916138 -59.694195 4294967295
179.06329 -75.880852 -58.330963 4294967295
179.07962 -65.971657 -59.868843 4294967295
179.08163 -66.408112 -60.126961 4294967295
179.09213 -75.400208 -58.483192 4294967295
179.12871 -64.586319 -59.82814 4294967295
179.13933 -65.01136 -60.200813 4294967295
179.15459 -64.111618 -59.941483 4294967295
179.15877 -73.988029 -58.67551 4294967295
179.17245 -74.40596 -59.089897 4294967295
179.18614 -63.629379 -60.130383 4294967295
179.20522 -73.043884 -58.830902 4294967295
179.22914 -62.692265 -60.239944 4294967295
179.24786 -61.347355 -59.794754 4294967295
179.2482 -62.227005 -60.262367 4294967295
179.27174 -72.070938 -59.254303 4294967295
179.28311 -61.7407 -60.496235 4294967295
179.30222 -60.835468 -60.287712 4294967295
179.31601 -70.692093 -59.148769 4294967295
179.31674 -71.129539 -59.390572 4294967295
179.32654 -70.238457 -59.056995 4294967295
179.32932 -71.549789 -59.789955 4294967295
179.3389 -60.347137 -60.545109 4294967295
179.3555 -58.123039 -59.607567 4294967295
179.3654 -59.872311 -60.666855 4294967295
179.3709 -69.297981 -59.184967 4294967295
179.3847 -59.406952 -60.692577 4294967295
179.38617 -69.71505 -59.62104 4294967295
179.41661 -57.603722 -60.1912 4294967295
179.4505 -56.678757 -60.179626 4294967295
179.47997 -67.828148 -59.945229 4294967295
179.50908 -57.044804 -61.193703 4294967295
179.53941 -66.428696 -60.042976 4294967295
179.54449 -75.867798 -58.551361 4294967295
179.55031 -74.983482 -58.163055 4294967295
179.57085 -75.390869 -58.671043 4294967295
179.5817 -64.613541 -59.678696 4294967295
179.59013 -64.162476 -59.558891 4294967295
179.60265 -65.463402 -60.423965 4294967295
179.60875 -74.021126 -58.479698 4294967295
179.61931 -63.243484 -59.484062 4294967295
179.62053 -74.441719 -58.870453 4294967295
179.65802 -73.510742 -58.906528 4294967295
179.65854 -61.870827 -59.311005 4294967295
179.67137 -63.612759 -60.413483 4294967295
179.6817 -62.7197 -60.086735 4294967295
179.68591 -62.274288 -59.910263 4294967295
179.71649 -72.549232 -59.224152 4294967295
179.71744 -72.985832 -59.469742 4294967295
179.72458 -72.099388 -59.09935 4294967295
179.73982 -61.322567 -60.166935 4294967295
179.7419 -71.636017 -59.098625 4294967295
179.76984 -60.842808 -60.33622 4294967295
179.7944 -58.608917 -59.500656 4294967295
179.80128 -70.673851 -59.428551 4294967295
179.80132 -60.361237 -60.525372 4294967295
179.81242 -71.096008 -59.811386 4294967295
179.81454 -70.216492 -59.3731 4294967295
179.81911 -59.897793 -60.531105 4294967295
179.8373 -68.868164 -58.978447 4294967295
179.83864 -58.991863 -60.326958 4294967295
179.86575 -69.266472 -59.593834 4294967295
179.88295 -67.486893 -58.890701 4294967295
179.88655 -57.167713 -60.037266 4294967295
179.91138 -66.568733 -58.805264 4294967295
179.92268 -66.992195 -59.190891 4294967295
179.92833 -57.554523 -60.831284 4294967295
179.92981 -57.992939 -61.083931 4294967295
179.93156 -68.296196 -60.010666 4294967295
179.9377 -56.661457 -60.490524 4294967295
180.01511 -75.870323 -58.631859 4294967295
180.0215 -75.423187 -58.483887 4294967295
180.02194 -74.984818 -58.255478 4294967295
180.02417 -65.53389 -59.85405 4294967295
180.02818 -64.649818 -59.440395 4294967295
180.07698 -74.465195 -58.762405 4294967295
180.08484 -65.0112 -60.436035 4294967295
180.08525 -74.015182 -58.639297 4294967295
180.13747 -73.500259 -59.108322 4294967295
180.1413 -72.180588 -58.456959 4294967295
180.16089 -73.028008 -59.189617 4294967295
180.16229 -60.950085 -59.373367 4294967295
180.17073 -61.818771 -59.955345 4294967295
180.1756 -72.568542 -59.153664 4294967295
180.18944 -62.672718 -60.674931 4294967295
180.19327 -60.468727 -59.556671 4294967295
180.20616 -71.647903 -59.09687 4294967295
180.23114 -61.298195 -60.534767 4294967295
180.24544 -59.959518 -60.025551 4294967295
180.26689 -71.121696 -59.681316 4294967295
180.2746 -58.600334 -59.715736 4294967295
180.28159 -70.662407 -59.644867 4294967295
180.29234 -69.331993 -59.086384 4294967295
180.29564 -70.204025 -59.599892 4294967295
180.2999 -58.126846 -59.822495 4294967295
180.30737 -59.43784 -60.625935 4294967295
180.34752 -58.945175 -60.932831 4294967295
180.34937 -68.812149 -59.621235 4294967295
180.35684 -57.171947 -60.121597 4294967295
180.37161 -67.903442 -59.452293 4294967295
180.37851 -57.584389 -60.648239 4294967295
180.39041 -68.315346 -59.940941 4294967295
180.40146 -67.422623 -59.620506 4294967295
180.4278 -66.069008 -59.27166 4294967295
180.44279 -66.925781 -59.944233 4294967295
180.45834 -66.465286 -59.919365 4294967295
180.47289 -75.016937 -58.069389 4294967295
180.48863 -65.10627 -59.624039 4294967295
180.5034 -65.524773 -60.058929 4294967295
180.50372 -64.646202 -59.593323 4294967295
180.50571 -75.405251 -58.749184 4294967295
180.51158 -75.833687 -59.063896 4294967295
180.52924 -63.292892 -59.232918 4294967295
180.54053 -63.716991 -59.62075 4294967295
180.55714 -74.453346 -58.974564 4294967295
180.56325 -64.125092 -60.163261 4294967295
180.56607 -62.803135 -59.495941 4294967295
180.56845 -73.999016 -58.891914 4294967295
180.59186 -62.32851 -59.609543 4294967295
180.59944 -73.07766 -58.840843 4294967295
180.61406 -61.418961 -59.439636 4294967295
180.62712 -71.723045 -58.508572 4294967295
180.62846 -60.959694 -59.39917 4294967295
180.62946 -72.157707 -58.775879 4294967295
180.63252 -72.591087 -59.053185 4294967295
180.6517 -61.808048 -60.184479 4294967295
180.67958 -71.208336 -58.983955 4294967295
180.70355 -59.099194 -59.474503 4294967295
180.72205 -70.708519 -59.323788 4294967295
180.75864 -58.146118 -59.749836 4294967295
180.75999 -59.46476 -60.47506 4294967295
180.7662 -70.20649 -59.686779 4294967295
180.78075 -58.557438 -60.285042 4294967295
180.78423 -69.742393 -59.695557 4294967295
180.78996 -69.295952 -59.53783 4294967295
180.82076 -68.813553 -59.719704 4294967295
180.82275 -56.741173 -59.912441 4294967295
180.82489 -67.492134 -59.067947 4294967295
180.84073 -67.908287 -59.519058 4294967295
180.84227 -68.344513 -59.77589 4294967295
180.85428 -57.581017 -60.811104 4294967295
180.85869 -67.0056 -59.290646 4294967295
180.8622 -57.130501 -60.683365 4294967295
180.86937 -66.551704 -59.199589 4294967295
180.92078 -66.040688 -59.661808 4294967295
180.93906 -75.463753 -58.326019 4294967295
180.94148 -65.133911 -59.470795 4294967295
180.94589 -65.566711 -59.766998 4294967295
180.97444 -64.209946 -59.446056 4294967295
181.00821 -74.92218 -59.030102 4294967295
181.0121 -64.596855 -60.194595 4294967295
181.01666 -74.472206 -58.908447 4294967295
181.054 -63.222027 -60.055397 4294967295
181.06842 -62.323669 -59.778824 4294967295
181.07727 -73.506859 -59.259884 4294967295
181.08792 -61.857704 -59.807472 4294967295
181.08842 -73.052803 -59.175156 4294967295
181.09592 -62.725483 -60.389374 4294967295
181.10841 -61.390343 -59.85014 4294967295
181.13028 -71.677925 -59.034981 4294967295
181.14767 -60.897808 -60.148163 4294967295
181.15826 -71.199059 -59.17907 4294967295
181.16306 -60.437523 -60.120857 4294967295
181.18016 -70.729118 -59.240868 4294967295
181.18102 -59.973747 -60.128906 4294967295
181.24619 -58.567577 -60.306618 4294967295
181.24701 -68.441391 -58.966724 4294967295
181.24936 -58.123344 -60.11306 4294967295
181.25192 -59.439537 -60.858303 4294967295
181.25655 -69.74218 -59.808186 4294967295
181.27428 -68.840538 -59.575851 4294967295
181.28566 -67.947594 -59.256729 4294967295
181.29062 -57.629059 -60.438877 4294967295
181.30452 -56.289936 -59.917549 4294967295
181.31497 -57.157078 -60.534081 4294967295
181.31961 -67.022163 -59.24551 4294967295
181.32472 -67.453415 -59.552689 4294967295
181.35106 -56.669945 -60.789196 4294967295
181.36647 -66.517166 -59.648014 4294967295
181.37349 -75.958328 -58.151756 4294967295
181.38431 -75.504646 -58.061539 4294967295
181.3923 -65.603409 -59.526123 4294967295
181.3925 -64.725166 -59.053894 4294967295
181.40596 -66.02285 -59.950199 4294967295
181.43045 -65.111122 -59.810135 4294967295
181.44894 -64.207565 -59.587563 4294967295
181.45572 -63.319798 -59.204926 4294967295
181.45697 -74.957245 -58.817459 4294967295
181.47231 -63.736141 -59.669106 4294967295
181.47626 -74.490921 -58.843555 4294967295
181.50995 -62.805885 -59.708729 4294967295
181.52356 -73.107857 -58.776993 4294967295
181.54353 -62.320576 -59.930466 4294967295
181.55699 -61.423424 -59.639008 4294967295
181.5658 -72.169891 -58.878784 4294967295
181.58859 -61.819782 -60.309433 4294967295
181.59698 -71.248337 -58.82954 4294967295
181.61806 -71.6549 -59.356644 4294967295
181.62556 -60.451542 -60.101967 4294967295
181.64523 -60.864391 -60.609062 4294967295
181.65553 -70.724457 -59.393589 4294967295
181.67598 -70.256714 -59.43589 4294967295
181.68134 -69.81105 -59.27095 4294967295
181.68336 -59.934292 -60.655502 4294967295
181.69728 -59.036488 -60.370636 4294967295
181.7041 -68.901894 -59.106266 4294967295
181.73138 -69.300354 -59.718697 4294967295
181.73233 -58.550175 -60.612724 4294967295
181.75116 -57.645599 -60.394402 4294967295
181.75185 -67.956566 -59.284119 4294967295
181.75305 -68.393036 -59.539139 4294967295
181.7717 -56.738407 -60.199982 4294967295
181.78595 -56.279549 -60.157078 4294967295
181.79698 -66.576744 -59.187698 4294967295
181.81177 -66.994125 -59.629356 4294967295
181.84572 -66.069038 -59.618011 4294967295
181.86839 -75.923431 -58.568119 4294967295
181.87463 -65.589584 -59.776611 4294967295
181.88474 -65.136765 -59.676537 4294967295
181.90958 -63.785378 -59.301441 4294967295
181.90982 -64.224014 -59.543785 4294967295
181.91386 -74.543022 -58.475838 4294967295
181.91736 -74.100471 -58.284569 4294967295
181.93863 -63.305916 -59.461987 4294967295
181.95523 -64.599174 -60.406609 4294967295
181.9702 -73.583427 -58.77232 4294967295
181.98509 -62.802582 -59.861702 4294967295
181.99957 -61.904259 -59.582924 4294967295
182.00951 -72.212296 -58.594948 4294967295
182.0329 -73.051941 -59.396004 4294967295
182.03638 -62.292877 -60.32811 4294967295
182.03874 -71.731163 -58.758186 4294967295
182.04419 -61.403915 -59.957645 4294967295
182.04463 -72.597176 -59.318352 4294967295
182.06889 -71.248825 -58.933731 4294967295
182.08005 -70.794609 -58.84803 4294967295
182.08351 -60.032185 -59.78138 4294967295
182.09917 -60.889782 -60.475006 4294967295
182.10614 -69.880516 -58.728195 4294967295
182.12343 -59.538788 -60.091743 4294967295
182.12788 -58.653301 -59.674477 4294967295
182.14378 -70.263046 -59.486588 4294967295
182.17114 -69.347496 -59.38467 4294967295
182.17879 -68.898468 -59.250328 4294967295
182.18939 -57.251587 -59.803452 4294967295
182.19044 -59.009315 -60.77549 4294967295
182.1969 -58.121532 -60.385895 4294967295
182.2191 -56.772316 -59.973503 4294967295
182.22818 -57.640259 -60.577766 4294967295
182.23708 -67.937958 -59.574734 4294967295
182.25803 -56.281101 -60.270702 4294967295
182.27344 -67.009377 -59.597046 4294967295
182.28506 -67.430733 -59.997261 4294967295
182.32785 -66.493301 -60.108078 4294967295
182.34848 -65.14904 -59.673363 4294967295
182.3588 -66.011017 -60.295692 4294967295
182.36383 -75.450478 -58.756676 4294967295
182.36511 -74.13752 -58.05275 4294967295
182.38101 -65.541283 -60.362747 4294967295
182.38937 -74.974556 -58.869446 4294967295
182.40224 -62.879578 -59.215115 4294967295
182.45505 -61.488842 -59.224136 4294967295
182.4552 -73.563698 -59.058285 4294967295
182.46046 -73.118683 -58.890663 4294967295
182.46133 -63.674786 -60.512695 4294967295
182.46988 -63.22435 -60.390423 4294967295
182.47055 -62.345818 -59.919495 4294967295
182.4782 -72.654785 -58.895416 4294967295
182.48985 -72.200012 -58.816051 4294967295
182.50706 -60.978188 -59.703362 4294967295
182.51923 -61.83968 -60.352386 4294967295
182.52101 -71.27858 -58.765831 4294967295
182.54883 -71.674431 -59.391972 4294967295
182.56361 -60.022404 -60.005203 4294967295
182.57277 -60.449219 -60.372391 4294967295
182.58961 -59.547783 -60.12455 4294967295
182.5927 -70.297134 -59.277138 4294967295
182.60017 -69.848488 -59.139984 4294967295
182.60393 -70.717873 -59.67384 4294967295
182.62517 -69.374023 -59.245438 4294967295
182.62801 -68.932076 -59.043793 4294967295
182.62938 -58.615204 -60.194038 4294967295
182.63397 -68.48542 -58.885307 4294967295
182.64012 -59.040237 -60.583168 4294967295
182.65756 -57.698143 -60.103218 4294967295
182.66563 -58.127041 -60.45578 4294967295
182.67856 -67.106209 -58.77998 4294967295
182.67911 -57.229668 -60.161011 4294967295
182.686 -67.971687 -59.365772 4294967295
182.68945 -67.528664 -59.172535 4294967295
182.70697 -56.312908 -60.065678 4294967295
182.72998 -56.722496 -60.625473 4294967295
182.75418 -66.559036 -59.588387 4294967295
182.7567 -75.572266 -57.763851 4294967295
182.81407 -65.596924 -59.937424 4294967295
182.83694 -74.138016 -58.153633 4294967295
182.84691 -64.23526 -59.66922 4294967295
182.84915 -63.793465 -59.458916 4294967295
182.84944 -64.67009 -59.946079 4294967295
182.88348 -63.306549 -59.694572 4294967295
182.91675 -62.821285 -59.915489 4294967295
182.92894 -73.560715 -59.191528 4294967295
182.93517 -73.114395 -59.036449 4294967295
182.94826 -61.4608 -59.628746 4294967295
182.95247 -61.015827 -59.445381 4294967295
182.96254 -72.635941 -59.175682 4294967295
182.97127 -71.311272 -58.570473 4294967295
182.97514 -62.301208 -60.486042 4294967295
182.9812 -61.854122 -60.328773 4294967295
182.98853 -71.722702 -59.053032 4294967295
182.98865 -72.159569 -59.296867 4294967295
183.02515 -70.793297 -59.078999 4294967295
183.04915 -69.882675 -58.928917 4294967295
183.05598 -60.434589 -60.644402 4294967295
183.06474 -59.983654 -60.524441 4294967295
183.07304 -58.654526 -59.914398 4294967295
183.07872 -69.401367 -59.098633 4294967295
183.09268 -57.748772 -59.703976 4294967295
183.09572 -59.063255 -60.472141 4294967295
183.10742 -68.921448 -59.256149 4294967295
183.11093 -58.16394 -60.200397 4294967295
183.16815 -56.768536 -60.271599 4294967295
183.18407 -67.496078 -59.598137 4294967295
183.18826 -56.302078 -60.309635 4294967295
183.21687 -66.572723 -59.571075 4294967295
183.21732 -67.009964 -59.819664 4294967295
183.22377 -65.248146 -58.939163 4294967295
183.25858 -75.525955 -58.284515 4294967295
183.26941 -75.072533 -58.192711 4294967295
183.27524 -65.612656 -59.900494 4294967295
183.29248 -74.600166 -58.272087 4294967295
183.30873 -64.688515 -59.882816 4294967295
183.34193 -64.203056 -60.104103 4294967295
183.34587 -74.081253 -58.775513 4294967295
183.3587 -63.741055 -60.095451 4294967295
183.3692 -62.410572 -59.513779 4294967295
183.3806 -73.154556 -58.77478 4294967295
183.39482 -63.251678 -60.357941 4294967295
183.39488 -62.813206 -60.115807 4294967295
183.39528 -73.568825 -59.223331 4294967295
183.40112 -72.249374 -58.575317 4294967295
183.40504 -61.043747 -59.285797 4294967295
183.41368 -61.470825 -59.649715 4294967295
183.42747 -71.772392 -58.700653 4294967295
183.43188 -72.639572 -59.249306 4294967295
183.4389 -71.317947 -58.617256 4294967295
183.44064 -61.872101 -60.269798 4294967295
183.48039 -59.622379 -59.61058 4294967295
183.48273 -60.058399 -59.886486 4294967295
183.49057 -70.365814 -58.853668 4294967295
183.49548 -59.162407 -59.578644 4294967295
183.50333 -58.712254 -59.445023 4294967295
183.52724 -69.873734 -59.123734 4294967295
183.55089 -68.963676 -58.967918 4294967295
183.56958 -58.183025 -60.129593 4294967295
183.57176 -69.370155 -59.504257 4294967295
183.57668 -57.294346 -59.74226 4294967295
183.58234 -68.041924 -58.921341 4294967295
183.62358 -66.667831 -58.767963 4294967295
183.63129 -57.660446 -60.750763 4294967295
183.64771 -67.508324 -59.59449 4294967295
183.65056 -56.316204 -60.290771 4294967295
183.66939 -67.038979 -59.654839 4294967295
183.67589 -56.721954 -60.889267 4294967295
183.73065 -66.074471 -60.026958 4294967295
183.73172 -75.523804 -58.407494 4294967295
183.73785 -64.311829 -59.151909 4294967295
183.74327 -74.632843 -58.080605 4294967295
183.76657 -74.160072 -58.163635 4294967295
183.76816 -75.030678 -58.675133 4294967295
183.77431 -63.821472 -59.419781 4294967295
183.77547 -62.942623 -58.947563 4294967295
183.81033 -73.219109 -58.289597 4294967295
183.83556 -72.743546 -58.400066 4294967295
183.84488 -63.282906 -60.167534 4294967295
183.86728 -61.93605 -59.749584 4294967295
183.88925 -72.224693 -58.910828 4294967295
183.89365 -60.582687 -59.387352 4294967295
183.90195 -61.010128 -59.748489 4294967295
183.90938 -61.438492 -60.097435 4294967295
183.91759 -60.110523 -59.479286 4294967295
183.95613 -59.179096 -59.532562 4294967295
183.96506 -71.235924 -59.488655 4294967295
183.98228 -58.703991 -59.656559 4294967295
184.00352 -59.553108 -60.444427 4294967295
184.00871 -57.789196 -59.539032 4294967295
184.01392 -70.288521 -59.687401 4294967295
184.02324 -58.208893 -59.988564 4294967295
184.03442 -69.383751 -59.486835 4294967295
184.03709 -69.816788 -59.769463 4294967295
184.06705 -68.460777 -59.456467 4294967295
184.08089 -57.25219 -60.311054 4294967295
184.10394 -67.968842 -59.731667 4294967295
184.10399 -56.342171 -60.147186 4294967295
184.14813 -65.277756 -58.883656 4294967295
184.16296 -75.150803 -57.69426 4294967295
184.16454 -66.567451 -59.851406 4294967295
184.17186 -65.681381 -59.464157 4294967295
184.22054 -64.735115 -59.660835 4294967295
184.2294 -74.610527 -58.387711 4294967295
184.23604 -63.398254 -59.143242 4294967295
184.2401 -73.720863 -58.046783 4294967295
184.27568 -64.217834 -60.194515 4294967295
184.27585 -74.101891 -58.798271 4294967295
184.28088 -63.772449 -60.022354 4294967295
184.29163 -62.442341 -59.437576 4294967295
184.3204 -62.839912 -60.089909 4294967295
184.33354 -73.139771 -59.122986 4294967295
184.3486 -71.806854 -58.597816 4294967295
184.36176 -60.589058 -59.446125 4294967295
184.36636 -72.652855 -59.341125 4294967295
184.36681 -61.897736 -60.255119 4294967295
184.37715 -61.006313 -59.909813 4294967295
184.38159 -59.683479 -59.23494 4294967295
184.38617 -60.116173 -59.545734 4294967295
184.42915 -59.178688 -59.6623 4294967295
184.45001 -70.77887 -59.541466 4294967295
184.45093 -58.709625 -59.724613 4294967295
184.46539 -69.444984 -59.020317 4294967295
184.47809 -68.988754 -58.953743 4294967295
184.48285 -58.226761 -59.930428 4294967295
184.48621 -68.539268 -58.822662 4294967295
184.50427 -57.758308 -59.987984 4294967295
184.51646 -57.302444 -59.914574 4294967295
184.53186 -56.842197 -59.886528 4294967295
184.53702 -68.026283 -59.296501 4294967295
184.53737 -67.150772 -58.808273 4294967295
184.53746 -67.588203 -59.056412 4294967295
184.55003 -56.37817 -59.897873 4294967295
184.57993 -66.650414 -59.16555 4294967295
184.60233 -66.179871 -59.236763 4294967295
184.60782 -65.734055 -59.067993 4294967295
184.6113 -75.624199 -57.711151 4294967295
184.66927 -65.206703 -59.693771 4294967295
184.67712 -64.757538 -59.558418 4294967295
184.67892 -74.645218 -58.177937 4294967295
184.69968 -64.287003 -59.632076 4294967295
184.72694 -63.809769 -59.772549 4294967295
184.72882 -63.369034 -59.552204 4294967295
184.73004 -62.929035 -59.322853 4294967295
184.74547 -73.668602 -58.62973 4294967295
184.76192 -62.445282 -59.528801 4294967295
184.77446 -72.750809 -58.54718 4294967295
184.80502 -61.945755 -59.8946 4294967295
184.81728 -61.051609 -59.574532 4294967295
184.83406 -61.466385 -60.060432 4294967295
184.84456 -71.333115 -58.802528 4294967295
184.86383 -60.54763 -59.98996 4294967295
184.88014 -70.405243 -58.814114 4294967295
184.88495 -60.079536 -60.043243 4294967295
184.88542 -70.833954 -59.136761 4294967295
184.88904 -69.954819 -58.692894 4294967295
184.92422 -69.027489 -58.698631 4294967295
184.93465 -58.255371 -59.761089 4294967295
184.93495 -59.571285 -60.507698 4294967295
184.94006 -68.566437 -58.676804 4294967295
184.95001 -59.11179 -60.475136 4294967295
184.97633 -57.759064 -60.10775 4294967295
184.98053 -57.31422 -59.919975 4294967295
184.98465 -56.86932 -59.731224 4294967295
185.0011 -68.037827 -59.299194 4294967295
185.01111 -67.148308 -58.946178 4294967295
185.01314 -67.582672 -59.22298 4294967295
185.02451 -66.253311 -58.640846 4294967295
185.02475 -56.375576 -60.055077 4294967295
185.02788 -66.685989 -58.937035 4294967295
185.07553 -75.636139 -57.707436 4294967295
185.09314 -65.277023 -59.124214 4294967295
185.10068 -64.828148 -58.983856 4294967295
185.11951 -75.130348 -58.087296 4294967295
185.1412 -74.659996 -58.14875 4294967295
185.16429 -74.187447 -58.230579 4294967295
185.21112 -63.354355 -59.816963 4294967295
185.21689 -73.232628 -58.485081 4294967295
185.23045 -73.647514 -58.927994 4294967295
185.2355 -62.44334 -59.668808 4294967295
185.24037 -62.874378 -59.986698 4294967295
185.25061 -61.106827 -59.138973 4294967295
185.2534 -61.97961 -59.676369 4294967295
185.26436 -72.722404 -58.915436 4294967295
185.27499 -72.269615 -58.818851 4294967295
185.28394 -60.621181 -59.366882 4294967295
185.28607 -71.379547 -58.479485 4294967295
185.34143 -70.857826 -59.023361 4294967295
185.34187 -69.983742 -58.531555 4294967295
185.36487 -70.385338 -59.110184 4294967295
185.37108 -60.060062 -60.365696 4294967295
185.38086 -59.169418 -60.008537 4294967295
185.38998 -69.47364 -58.972023 4294967295
185.39197 -58.715248 -59.919029 4294967295
185.42163 -57.796501 -59.845993 4294967295
185.42494 -58.230793 -60.142426 4294967295
185.44395 -68.081238 -58.997879 4294967295
185.44579 -68.515442 -59.27372 4294967295
185.4549 -57.311783 -60.073769 4294967295
185.4622 -68.927399 -59.757961 4294967295
185.47757 -66.281609 -58.482178 4294967295
185.48621 -56.829895 -60.273636 4294967295
185.48685 -56.389931 -60.033775 4294967295
185.48788 -67.578239 -59.378838 4294967295
185.51416 -67.101868 -59.506638 4294967295
185.53992 -65.75177 -59.127876 4294967295
185.54584 -75.202332 -57.541405 4294967295
185.54938 -75.63266 -57.842373 4294967295
185.5605 -65.283882 -59.173851 4294967295
185.5943 -64.796654 -59.409691 4294967295
185.59944 -63.913654 -58.983986 4294967295
185.62193 -64.318634 -59.556885 4294967295
185.62502 -74.640541 -58.429699 4294967295
185.62923 -63.432442 -59.16227 4294967295
185.6635 -73.707878 -58.482994 4294967295
185.69722 -62.458282 -59.640175 4294967295
185.69835 -62.018612 -59.406525 4294967295
185.70467 -73.207077 -58.825432 4294967295
185.72928 -72.732521 -58.929214 4294967295
185.7325 -61.531593 -59.647736 4294967295
185.76543 -71.803925 -58.949097 4294967295
185.77208 -70.920921 -58.544098 4294967295
185.77226 -60.598545 -59.719933 4294967295
185.7805 -61.025059 -60.088074 4294967295
185.79503 -71.321785 -59.124947 4294967295
185.79596 -70.447533 -58.637634 4294967295
185.80005 -60.120903 -59.869678 4294967295
185.83867 -69.508766 -58.751785 4294967295
185.83939 -58.750099 -59.685791 4294967295
185.8441 -59.182076 -60.003944 4294967295
185.86072 -58.281624 -59.742855 4294967295
185.87265 -57.826248 -59.66433 4294967295
185.89952 -68.979248 -59.378609 4294967295
185.91447 -68.519882 -59.343613 4294967295
185.91466 -57.329281 -60.019302 4294967295
185.91539 -68.081726 -59.106171 4294967295
185.96277 -66.699394 -59.03727 4294967295
185.96416 -67.571259 -59.558979 4294967295
185.97717 -56.365601 -60.419773 4294967295
185.97791 -67.113724 -59.506664 4294967295
185.99319 -75.677162 -57.545494 4294967295
185.99503 -66.214005 -59.252277 4294967295
186.04588 -63.951279 -58.7313 4294967295
186.04686 -74.719574 -57.818314 4294967295
186.04709 -75.154984 -58.073082 4294967295
186.05249 -65.691383 -59.830803 4294967295
186.05901 -64.369789 -59.171791 4294967295
186.08035 -74.230354 -58.050888 4294967295
186.08945 -64.762352 -59.863007 4294967295
186.09795 -62.999569 -58.980934 4294967295
186.11317 -63.415173 -59.452644 4294967295
186.13429 -72.83696 -58.076134 4294967295
186.1382 -73.702652 -58.636276 4294967295
186.14005 -62.500534 -59.338615 4294967295
186.14816 -73.25106 -58.528961 4294967295
186.15524 -62.040649 -59.306793 4294967295
186.15837 -61.159744 -58.84948 4294967295
186.18402 -61.561169 -59.471912 4294967295
186.18474 -72.321541 -58.554688 4294967295
186.24007 -71.36277 -58.852745 4294967295
186.25041 -71.782646 -59.254105 4294967295
186.27756 -69.995705 -58.640064 4294967295
186.27847 -70.86692 -59.156918 4294967295
186.27942 -59.67244 -59.846909 4294967295
186.3028 -58.324043 -59.430458 4294967295
186.31796 -70.369553 -59.477535 4294967295
186.32266 -69.053253 -58.789577 4294967295
186.32671 -58.729088 -60.028492 4294967295
186.32765 -69.482109 -59.114109 4294967295
186.34302 -68.148613 -58.580917 4294967295
186.34526 -57.826023 -59.794239 4294967295
186.36543 -57.359287 -59.83448 4294967295
186.38028 -67.655182 -58.86898 4294967295
186.3956 -68.505196 -59.595345 4294967295
186.42616 -67.148933 -59.28241 4294967295
186.43297 -66.264679 -58.876785 4294967295
186.44884 -56.366501 -60.540085 4294967295
186.4593 -65.788101 -59.006676 4294967295
186.46851 -75.671112 -57.703625 4294967295
186.48505 -64.875137 -58.875454 4294967295
186.48935 -75.201904 -57.75375 4294967295
186.53326 -63.928852 -59.07119 4294967295
186.5345 -74.258049 -57.904381 4294967295
186.54987 -74.66906 -58.380638 4294967295
186.57019 -63.437023 -59.355347 4294967295
186.57228 -62.558525 -58.880089 4294967295
186.57829 -62.987549 -59.220352 4294967295
186.59535 -73.289474 -58.283436 4294967295
186.60562 -73.708786 -58.686157 4294967295
186.62601 -62.042557 -59.40889 4294967295
186.65578 -61.123711 -59.336205 4294967295
186.66621 -61.546513 -59.741219 4294967295
186.67114 -71.862015 -58.627373 4294967295
186.70168 -60.619743 -59.751343 4294967295
186.70195 -60.18129 -59.502556 4294967295
186.70351 -70.939171 -58.592369 4294967295
186.71046 -71.364326 -58.946907 4294967295
186.73082 -59.701939 -59.669876 4294967295
186.73514 -70.017426 -58.546394 4294967295
186.73993 -58.812332 -59.296333 4294967295
186.77089 -58.330124 -59.494507 4294967295
186.79945 -57.851471 -59.657322 4294967295
186.81519 -69.457191 -59.460011 4294967295
186.81534 -69.020752 -59.208893 4294967295
186.81915 -68.578514 -59.010948 4294967295
186.82135 -57.382225 -59.723305 4294967295
186.82234 -56.942104 -59.484505 4294967295
186.85078 -67.220215 -58.711533 4294967295
186.85144 -56.462887 -59.655254 4294967295
186.87186 -67.62487 -59.272682 4294967295
186.90086 -66.707443 -59.189011 4294967295
186.90384 -66.26609 -58.978516 4294967295
186.95192 -75.651634 -57.982529 4294967295
186.9861 -75.160873 -58.228172 4294967295
186.99382 -64.82016 -59.531246 4294967295
187.03696 -73.337074 -57.953995 4294967295
187.03783 -62.568176 -58.904366 4294967295
187.05611 -74.17733 -58.743484 4294967295
187.06638 -72.41848 -57.875443 4294967295
187.11436 -62.018639 -59.769806 4294967295
187.11617 -72.775002 -58.859352 4294967295
187.12889 -71.883492 -58.53651 4294967295
187.13477 -61.551388 -59.814072 4294967295
187.13757 -71.433937 -58.408684 4294967295
187.16342 -60.634476 -59.725166 4294967295
187.18213 -70.927849 -58.807034 4294967295
187.20352 -59.70105 -59.803589 4294967295
187.21686 -60.119747 -60.253265 4294967295
187.22258 -58.797638 -59.573814 4294967295
187.22293 -69.555878 -58.640434 4294967295
187.23418 -57.90443 -59.234406 4294967295
187.23506 -59.21801 -60.01104 4294967295
187.23802 -70.40435 -59.37125 4294967295
187.23822 -58.337173 -59.548325 4294967295
187.24652 -68.646584 -58.476509 4294967295
187.26747 -68.177757 -58.528706 4294967295
187.27171 -57.413017 -59.530159 4294967295
187.27884 -69.032913 -59.205376 4294967295
187.30086 -67.689896 -58.763618 4294967295
187.32727 -56.896656 -60.08984 4294967295
187.33473 -67.201469 -59.0056 4294967295
187.34875 -66.743477 -58.956085 4294967295
187.36877 -56.400257 -60.44413 4294967295
187.37325 -66.269554 -59.060371 4294967295
187.38118 -75.720222 -57.469002 4294967295
187.40576 -65.346664 -59.027679 4294967295
187.40596 -75.244499 -57.577435 4294967295
187.44107 -64.856644 -59.29113 4294967295
187.44321 -64.416412 -59.066956 4294967295
187.46085 -63.952892 -59.07098 4294967295
187.46414 -63.5107 -58.863766 4294967295
187.48961 -73.367218 -57.784184 4294967295
187.49846 -63.022469 -59.112816 4294967295
187.50482 -74.648499 -58.776176 4294967295
187.51237 -74.201195 -58.631516 4294967295
187.5202 -62.55294 -59.176971 4294967295
187.52063 -61.677017 -58.671669 4294967295
187.54897 -61.197781 -58.832909 4294967295
187.57057 -72.801758 -58.720318 4294967295
187.57562 -71.922585 -58.282684 4294967295
187.58704 -72.340019 -58.706657 4294967295
187.59895 -60.687248 -59.313087 4294967295
187.64655 -70.93869 -58.815216 4294967295
187.65643 -58.852364 -59.135876 4294967295
187.66321 -59.718712 -59.747528 4294967295
187.67738 -60.135921 -60.212357 4294967295
187.68916 -58.367416 -59.362125 4294967295
187.69116 -69.560883 -58.704231 4294967295
187.72542 -68.635208 -58.696663 4294967295
187.74141 -69.046425 -59.188942 4294967295
187.74158 -57.416466 -59.62252 4294967295
187.77812 -68.117294 -59.217979 4294967295
187.79262 -67.658707 -59.175411 4294967295
187.80476 -56.889084 -60.298225 4294967295
187.80597 -67.201912 -59.115517 4294967295
187.81882 -65.872406 -58.535175 4294967295
187.82388 -56.423973 -60.324318 4294967295
187.86168 -65.370499 -58.911709 4294967295
187.87186 -75.688416 -57.858551 4294967295
187.89807 -64.44175 -58.93573 4294967295
187.90356 -75.201401 -58.070435 4294967295
187.90851 -63.551785 -58.575924 4294967295
187.93854 -74.709236 -58.330486 4294967295
187.9453 -63.059616 -58.863167 4294967295
187.94962 -63.927414 -59.440945 4294967295
187.96001 -73.804108 -58.133614 4294967295
187.96935 -74.22403 -58.529194 4294967295
187.99037 -72.884399 -58.067757 4294967295
188.00731 -62.530296 -59.523529 4294967295
188.0134 -73.282448 -58.666656 4294967295
188.02843 -71.516541 -57.858566 4294967295
188.03101 -71.948105 -58.154484 4294967295
188.09624 -60.650265 -59.811378 4294967295
188.09726 -60.211243 -59.569138 4294967295
188.12619 -70.489655 -58.792305 4294967295
188.13423 -70.041237 -58.65374 4294967295
188.1396 -58.836613 -59.424248 4294967295
188.14026 -59.273529 -59.691605 4294967295
188.14577 -57.9515 -59.000397 4294967295
188.18561 -57.018066 -59.075661 4294967295
188.20227 -69.062592 -59.147514 4294967295
188.2066 -56.549877 -59.129322 4294967295
188.27521 -67.64122 -59.45623 4294967295
188.28522 -66.753494 -59.088715 4294967295
188.30084 -75.758125 -57.33511 4294967295
188.3036 -65.852386 -58.845615 4294967295
188.30513 -66.286514 -59.126656 4294967295
188.35413 -65.33873 -59.338161 4294967295
188.3676 -64.881691 -59.280098 4294967295
188.37585 -75.199387 -58.192654 4294967295
188.38802 -64.414101 -59.325356 4294967295
188.403 -63.954727 -59.289864 4294967295
188.40407 -74.718254 -58.353539 4294967295
188.4138 -74.26741 -58.239853 4294967295
188.41776 -62.621517 -58.733406 4294967295
188.43085 -63.476002 -59.445755 4294967295
188.44321 -61.708862 -58.594963 4294967295
188.45949 -62.996223 -59.613346 4294967295
188.46219 -73.75341 -58.701691 4294967295
188.46312 -62.116764 -59.149837 4294967295
188.46838 -72.002686 -57.757298 4294967295
188.47121 -72.868813 -58.31781 4294967295
188.47397 -73.299385 -58.61776 4294967295
188.48808 -71.535431 -57.791573 4294967295
188.50867 -61.174725 -59.310974 4294967295
188.53059 -70.596046 -57.906605 4294967295
188.56329 -70.108215 -58.134956 4294967295
188.57303 -60.64275 -60.01075 4294967295
188.58224 -70.949104 -58.936386 4294967295
188.58653 -69.635551 -58.222183 4294967295
188.59441 -59.736816 -59.811684 4294967295
188.59705 -58.857666 -59.33329 4294967295
188.61948 -69.147614 -58.454559 4294967295
188.62962 -57.496723 -59.041531 4294967295
188.63008 -68.694969 -58.35331 4294967295
188.63492 -58.365189 -59.638725 4294967295
188.64301 -59.22868 -60.277275 4294967295
188.68661 -67.298195 -58.418575 4294967295
188.69698 -67.718193 -58.832947 4294967295
188.72202 -68.114906 -59.466156 4294967295
188.73582 -56.469166 -60.108093 4294967295
188.7628 -66.74379 -59.29697 4294967295
188.77916 -66.282372 -59.281971 4294967295
188.8064 -64.494843 -58.649612 4294967295
188.82216 -75.674744 -58.188622 4294967295
188.82808 -64.898376 -59.233913 4294967295
188.83405 -65.325592 -59.582787 4294967295
188.85205 -63.988766 -59.072407 4294967295
188.87787 -73.844032 -57.980881 4294967295
188.87862 -74.712166 -58.513119 4294967295
188.87958 -63.073547 -58.964333 4294967295
188.88007 -74.2752 -58.274258 4294967295
188.88605 -63.500591 -59.321259 4294967295
188.916 -73.346619 -58.291702 4294967295
188.91698 -62.580425 -59.264046 4294967295
188.93242 -72.884865 -58.277184 4294967295
188.95122 -62.092247 -59.51667 4294967295
188.95273 -60.778393 -58.758308 4294967295
188.97461 -61.183323 -59.346634 4294967295
188.98129 -71.500153 -58.227791 4294967295
188.9924 -71.917358 -58.654987 4294967295
189.01756 -70.57106 -58.250114 4294967295
189.03 -70.986427 -58.697449 4294967295
189.03304 -59.347721 -59.180618 4294967295
189.03522 -60.219398 -59.733925 4294967295
189.06616 -59.736664 -59.937759 4294967295
189.07909 -70.037209 -58.912262 4294967295
189.08301 -69.159943 -58.44944 4294967295
189.08498 -58.396812 -59.438248 4294967295
189.1033 -58.807758 -59.973743 4294967295
189.10962 -68.68206 -58.58815 4294967295
189.12979 -57.89423 -59.850296 4294967295
189.1534 -67.741493 -58.723309 4294967295
189.15437 -57.421112 -59.958496 4294967295
189.17603 -68.141624 -59.32423 4294967295
189.19197 -66.373123 -58.518978 4294967295
189.19492 -67.240555 -59.086105 4294967295
189.19772 -56.92115 -60.348843 4294967295
189.19908 -56.481461 -60.108292 4294967295
189.22131 -75.794731 -57.213043 4294967295
189.25485 -75.304092 -57.455933 4294967295
189.25504 -65.839111 -59.206268 4294967295
189.26413 -65.388931 -59.081589 4294967295
189.29221 -64.473099 -58.981201 4294967295
189.29518 -64.904892 -59.287262 4294967295
189.31105 -64.007812 -59.003033 4294967295
189.31273 -63.131771 -58.505203 4294967295
189.32782 -63.545654 -58.994133 4294967295
189.34181 -74.724731 -58.50386 4294967295
189.35388 -74.270294 -58.423832 4294967295
189.36009 -73.825523 -58.255356 4294967295
189.383 -62.151932 -59.039639 4294967295
189.39236 -72.902969 -58.217667 4294967295
189.41382 -72.432999 -58.278793 4294967295
189.42433 -62.52636 -59.924049 4294967295
189.44295 -60.751163 -59.157604 4294967295
189.44453 -71.947937 -58.47995 4294967295
189.45363 -60.298084 -59.056717 4294967295
189.45897 -71.054398 -58.173016 4294967295
189.47705 -59.826149 -59.147598 4294967295
189.47742 -70.153961 -57.926224 4294967295
189.4897 -70.569504 -58.374435 4294967295
189.5244 -58.881691 -59.337776 4294967295
189.53366 -59.305466 -59.739609 4294967295
189.55923 -68.7164 -58.374191 4294967295
189.56935 -69.135765 -58.7897 4294967295
189.58405 -57.919662 -59.713627 4294967295
189.58688 -58.35297 -60.018471 4294967295
189.59557 -57.465332 -59.62542 4294967295
189.60645 -67.77018 -58.562187 4294967295
189.60999 -68.200241 -58.878273 4294967295
189.61949 -56.993065 -59.72448 4294967295
189.63086 -56.53891 -59.63372 4294967295
189.64883 -66.395844 -58.414333 4294967295
189.68173 -65.472221 -58.38591 4294967295
189.68396 -66.776741 -59.208389 4294967295
189.71211 -65.861107 -59.108475 4294967295
189.71472 -75.757202 -57.654148 4294967295
189.7536 -74.823265 -57.716133 4294967295
189.75412 -64.487717 -58.955376 4294967295
189.76468 -75.238976 -58.147392 4294967295
189.77019 -74.361115 -57.703808 4294967295
189.7906 -63.122383 -58.718346 4294967295
189.79935 -73.878014 -57.882294 4294967295
189.81346 -62.650944 -58.801174 4294967295
189.82291 -63.509541 -59.470795 4294967295
189.85237 -61.71843 -58.86425 4294967295
189.85408 -73.352715 -58.448372 4294967295
189.85855 -72.910805 -58.252563 4294967295
189.86664 -72.462799 -58.11142 4294967295
189.86996 -61.255043 -58.867302 4294967295
189.88843 -60.35313 -58.62014 4294967295
189.89775 -62.086624 -59.815063 4294967295
189.90393 -71.966805 -58.413364 4294967295
189.91777 -59.872192 -58.801548 4294967295
189.93106 -59.415108 -58.739693 4294967295
189.93719 -71.04277 -58.390549 4294967295
189.94028 -60.712749 -59.670265 4294967295
189.94061 -71.472 -58.706406 4294967295
189.95071 -70.5858 -58.331627 4294967295
189.96115 -70.133766 -58.226219 4294967295
190.00667 -69.625099 -58.653458 4294967295
190.03099 -58.830379 -59.992451 4294967295
190.04633 -58.370697 -59.961708 4294967295
190.0502 -57.927765 -59.756763 4294967295
190.06081 -57.474888 -59.653915 4294967295
190.07349 -57.018871 -59.583038 4294967295
190.0806 -56.570908 -59.426888 4294967295
190.08156 -68.199364 -58.999214 4294967295
190.08696 -67.755402 -58.816948 4294967295
190.09862 -66.865669 -58.465706 4294967295
190.12323 -67.26236 -59.104492 4294967295
190.13094 -66.378952 -58.692871 4294967295
190.16608 -75.790237 -57.460522 4294967295
190.16666 -65.887085 -58.972008 4294967295
190.16838 -65.012444 -58.468887 4294967295
190.17355 -65.440414 -58.812553 4294967295
190.20285 -64.522728 -58.729111 4294967295
190.23575 -64.035629 -58.965546 4294967295
190.25735 -73.465111 -57.525917 4294967295
190.26799 -63.549698 -59.192215 4294967295
190.27992 -63.095127 -59.109013 4294967295
190.28355 -74.289894 -58.455959 4294967295
190.29813 -72.962738 -57.882294 4294967295
190.30696 -62.617393 -59.256393 4294967295
190.32088 -72.490433 -57.964043 4294967295
190.33821 -61.696838 -59.203209 4294967295
190.33969 -62.131096 -59.490509 4294967295
190.3537 -72.001572 -58.199638 4294967295
190.38176 -70.65097 -57.831669 4294967295
190.39264 -61.177933 -59.768303 4294967295
190.40225 -60.29018 -59.384857 4294967295
190.40877 -59.406441 -58.953964 4294967295
190.42412 -71.016541 -58.744022 4294967295
190.44641 -69.240471 -58.022125 4294967295
190.46434 -58.886761 -59.537357 4294967295
190.47882 -70.057899 -59.04855 4294967295
190.48528 -68.742516 -58.350563 4294967295
190.49637 -57.527771 -59.23053 4294967295
190.49841 -58.399323 -59.792213 4294967295
190.50648 -57.950291 -59.650208 4294967295
190.53294 -68.230659 -58.813568 4294967295
190.54091 -57.025234 -59.645325 4294967295
190.55531 -67.32428 -58.623978 4294967295
190.56998 -67.736153 -59.114307 4294967295
190.59975 -66.382675 -58.772091 4294967295
190.6259 -75.809052 -57.394863 4294967295
190.63191 -65.896278 -58.998413 4294967295
190.63672 -64.581116 -58.273338 4294967295
190.6628 -75.312325 -57.693798 4294967295
190.66838 -64.967606 -59.024635 4294967295
190.67081 -65.399498 -59.327816 4294967295
190.67513 -74.857399 -57.616196 4294967295
190.70047 -64.045776 -58.983887 4294967295
190.73782 -63.551846 -59.289997 4294967295
190.74271 -73.875229 -58.118999 4294967295
190.74487 -74.305519 -58.419029 4294967295
190.7536 -62.218834 -58.732693 4294967295
190.76811 -63.069073 -59.487774 4294967295
190.77097 -61.319084 -58.465626 4294967295
190.7717 -72.958252 -58.030304 4294967295
190.78561 -73.36911 -58.510651 4294967295
190.80235 -62.580315 -59.746666 4294967295
190.80537 -72.033333 -58.013588 4294967295
190.83057 -61.664833 -59.646736 4294967295
190.83806 -59.906982 -58.695244 4294967295
190.86134 -71.506149 -58.606186 4294967295
190.86919 -59.423298 -58.906178 4294967295
190.87369 -70.616737 -58.261513 4294967295
190.88403 -70.165016 -58.15329 4294967295
190.88695 -71.029503 -58.732224 4294967295
190.88881 -58.956921 -58.940704 4294967295
190.90146 -60.248268 -59.935158 4294967295
190.92169 -69.233696 -58.197708 4294967295
190.92377 -68.795242 -57.962105 4294967295
190.95171 -58.426296 -59.639908 4294967295
190.96788 -57.528152 -59.354671 4294967295
190.97055 -68.284378 -58.414398 4294967295
191.00488 -57.036453 -59.656631 4294967295
191.02104 -66.897438 -58.388657 4294967295
191.02332 -67.764275 -58.958561 4294967295
191.02977 -66.448013 -58.255302 4294967295
191.0383 -67.305099 -58.921951 4294967295
191.06325 -65.523521 -58.23542 4294967295
191.10648 -65.890656 -59.168903 4294967295
191.12881 -75.320343 -57.725269 4294967295
191.13368 -64.976685 -59.052879 4294967295
191.1346 -64.103683 -58.531166 4294967295
191.14542 -64.522583 -58.966003 4294967295
191.15759 -74.837471 -57.9011 4294967295
191.16049 -63.627247 -58.662567 4294967295
191.19333 -74.342964 -58.183926 4294967295
191.1955 -62.700661 -58.666233 4294967295
191.20061 -73.462769 -57.759689 4294967295
191.23071 -73.845795 -58.493004 4294967295
191.23436 -61.768181 -58.729309 4294967295
191.23665 -63.072926 -59.568981 4294967295
191.27136 -72.909607 -58.583649 4294967295
191.28667 -60.815262 -59.00042 4294967295
191.29907 -71.560928 -58.206139 4294967295
191.30128 -71.991432 -58.509102 4294967295
191.33084 -59.438301 -58.877552 4294967295
191.3401 -70.624039 -58.303024 4294967295
191.34552 -70.180542 -58.117805 4294967295
191.34734 -71.046432 -58.683468 4294967295
191.3499 -59.846195 -59.44075 4294967295
191.35866 -60.269394 -59.843868 4294967295
191.38194 -69.685989 -58.412231 4294967295
191.38676 -58.48061 -59.20467 4294967295
191.39622 -68.357948 -57.826195 4294967295
191.40086 -58.022591 -59.154034 4294967295
191.40576 -58.888931 -59.766884 4294967295
191.41637 -68.760193 -58.406746 4294967295
191.42416 -69.182152 -58.796577 4294967295
191.44391 -56.647175 -59.013847 4294967295
191.44644 -67.841415 -58.334141 4294967295
191.45024 -57.07513 -59.380486 4294967295
149.65726 -39.357265 -63.298401 4294967295
