# .PCD v0.7 - Point Cloud Data file format
VERSION 0.7
FIELDS x y z rgb
SIZE 4 4 4 4
TYPE F F F U
COUNT 1 1 1 1
WIDTH 1147
HEIGHT 1
VIEWPOINT 0 0 0 1 0 0 0
POINTS 1147
DATA ascii
382.55859 112.16611 -33.314812 4294967295
382.57986 113.0892 -33.457943 4294967295
382.59769 105.56156 -35.122498 4294967295
382.60867 106.02297 -35.189915 4294967295
382.66693 121.15398 -30.872799 4294967295
382.68863 114.05665 -32.686005 4294967295
382.70453 122.08733 -30.8461 4294967295
382.77847 109.29478 -34.694031 4294967295
382.8475 122.62646 -29.532944 4294967295
382.87433 117.34711 -32.02602 4294967295
382.93805 111.65208 -33.941036 4294967295
383.13815 106.03554 -34.429039 4294967295
383.14258 113.57868 -32.539227 4294967295
383.23026 116.36108 -32.718864 4294967295
383.28339 108.84119 -34.009373 4294967295
383.28656 115.02161 -31.586231 4294967295
383.31281 117.77281 -32.406483 4294967295
383.31717 122.61262 -29.416698 4294967295
383.3331 109.77744 -33.856155 4294967295
383.35767 110.24551 -33.782402 4294967295
383.36444 116.88825 -31.504776 4294967295
383.37671 111.62355 -34.128918 4294967295
383.38919 117.35773 -31.430042 4294967295
383.40887 112.09533 -33.976696 4294967295
383.44418 111.19987 -33.246784 4294967295
383.46039 105.50102 -35.639816 4294967295
383.51099 106.43596 -35.47691 4294967295
383.53165 113.06837 -33.065502 4294967295
383.53226 112.61227 -32.877655 4294967295
383.53391 113.98189 -33.404819 4294967295
383.54739 119.72533 -30.695549 4294967295
383.56345 105.08867 -34.390984 4294967295
383.57141 120.19493 -30.628014 4294967295
383.57925 119.2866 -30.181816 4294967295
383.61597 106.93892 -34.570892 4294967295
383.63553 120.68715 -30.143692 4294967295
383.66122 107.87241 -34.4641 4294967295
383.68585 121.1719 -29.803139 4294967295
383.69781 108.34563 -34.265694 4294967295
383.71378 122.55653 -30.059753 4294967295
383.74426 116.37089 -32.131084 4294967295
383.98077 105.50926 -34.976002 4294967295
384.07626 107.3777 -34.711391 4294967295
384.09247 113.55663 -32.174019 4294967295
384.09714 114.47195 -32.487144 4294967295
384.13913 116.31825 -32.77631 4294967295
384.28629 110.66969 -33.807549 4294967295
384.29568 109.30417 -33.169949 4294967295
384.32834 117.33031 -31.184422 4294967295
384.33627 118.70331 -31.644688 4294967295
384.35516 119.16963 -31.630531 4294967295
384.35852 111.61705 -33.423367 4294967295
384.37152 118.26616 -31.100113 4294967295
384.39386 120.10276 -31.592651 4294967295
384.39752 112.54869 -33.382019 4294967295
384.42346 105.94058 -35.295216 4294967295
384.4256 120.57629 -31.44577 4294967295
384.45917 113.03535 -32.927185 4294967295
384.46881 121.05634 -31.181431 4294967295
384.51932 113.52158 -32.488255 4294967295
384.53693 106.44662 -34.308407 4294967295
384.56253 122.02126 -30.576252 4294967295
384.57852 122.48635 -30.592155 4294967295
384.5831 114.00999 -32.011448 4294967295
384.60379 108.75968 -34.518871 4294967295
384.60626 115.84737 -32.49371 4294967295
384.62213 116.31172 -32.510586 4294967295
384.647 109.23592 -34.254623 4294967295
384.72287 117.27682 -31.834732 4294967295
384.8497 119.6257 -31.430939 4294967295
384.97913 114.41583 -32.820267 4294967295
385.01035 120.62673 -30.140335 4294967295
385.03131 107.35733 -34.278053 4294967295
385.05032 122.47403 -30.449631 4294967295
385.06689 108.7431 -34.450275 4294967295
385.14792 122.07329 -29.268181 4294967295
385.22409 110.64174 -33.557911 4294967295
385.24545 112.02106 -33.875183 4294967295
385.25269 111.56821 -33.622852 4294967295
385.33167 120.07493 -31.360466 4294967295
385.33179 119.61892 -31.180161 4294967295
385.34015 106.36008 -35.427204 4294967295
385.34256 112.52432 -33.061684 4294967295
385.34711 118.25807 -30.485298 4294967295
385.41418 113.92867 -32.866344 4294967295
385.44931 107.32082 -34.670414 4294967295
385.46326 114.86585 -32.72192 4294967295
385.47623 107.78934 -34.573677 4294967295
385.4837 113.50655 -31.97747 4294967295
385.48502 114.42043 -32.321198 4294967295
385.49023 121.53131 -30.276176 4294967295
385.5159 122.91404 -30.551346 4294967295
385.51886 108.7215 -34.49543 4294967295
385.57916 115.38096 -31.717438 4294967295
385.59213 122.045 -29.4133 4294967295
385.61301 117.22387 -32.086483 4294967295
385.61545 109.6786 -33.867062 4294967295
385.62021 115.85849 -31.476906 4294967295
385.6438 116.32719 -31.415062 4294967295
385.66443 111.07082 -33.902187 4294967295
385.72534 112.46872 -33.815872 4294967295
385.73584 119.56969 -31.726482 4294967295
385.76376 118.67245 -31.084862 4294967295
385.85736 105.45329 -34.450695 4294967295
385.86996 121.46736 -31.073299 4294967295
385.89606 114.37752 -32.790722 4294967295
386.05112 108.27924 -33.547203 4294967295
386.08456 116.2986 -31.58551 4294967295
386.17093 117.25636 -31.063934 4294967295
386.24155 111.5645 -32.856579 4294967295
386.31607 106.34856 -34.779648 4294967295
386.31992 114.34119 -33.126293 4294967295
386.32324 120.98868 -30.940353 4294967295
386.32874 119.62284 -30.350857 4294967295
386.33688 105.44362 -34.215202 4294967295
386.34406 113.8968 -32.704418 4294967295
386.34732 107.2754 -34.816784 4294967295
386.37576 113.45583 -32.205559 4294967295
386.39017 115.28876 -32.768623 4294967295
386.42014 122.41096 -30.490299 4294967295
386.45767 107.78053 -33.877365 4294967295
386.47009 121.52642 -29.627357 4294967295
386.47116 108.24335 -33.917355 4294967295
386.48471 116.24928 -32.16568 4294967295
386.521 115.81136 -31.620495 4294967295
386.52286 108.72324 -33.571468 4294967295
386.53046 117.64153 -32.233852 4294967295
386.53577 109.18586 -33.617794 4294967295
386.55862 109.65301 -33.563015 4294967295
386.60666 116.7684 -31.108212 4294967295
386.61859 110.13721 -33.134045 4294967295
386.63339 111.05753 -33.337353 4294967295
386.63519 111.97131 -33.672424 4294967295
386.63837 119.06681 -31.673504 4294967295
386.64117 118.15586 -31.291008 4294967295
386.65546 117.25029 -30.791523 4294967295
386.77158 112.49294 -32.471581 4294967295
386.77802 113.40924 -32.760078 4294967295
386.97885 115.33498 -31.439625 4294967295
387.00281 122.91728 -29.405796 4294967295
387.08539 118.58511 -31.600819 4294967295
387.12875 119.06434 -31.340382 4294967295
387.13889 111.97385 -33.198406 4294967295
387.2468 106.31744 -34.593929 4294967295
387.28799 105.42074 -33.82933 4294967295
387.30215 106.79795 -34.213734 4294967295
387.30304 121.43997 -30.466785 4294967295
387.30875 113.42524 -32.016884 4294967295
387.32083 107.26287 -34.201561 4294967295
387.35458 108.6478 -34.388607 4294967295
387.39093 121.94492 -29.758385 4294967295
387.41425 115.30405 -31.660416 4294967295
387.41489 110.04439 -34.309483 4294967295
387.4248 116.22243 -31.906334 4294967295
387.42786 122.42195 -29.563023 4294967295
387.43991 122.8851 -29.61829 4294967295
387.49271 109.62312 -33.353596 4294967295
387.49493 116.71467 -31.377361 4294967295
387.50061 117.17409 -31.496464 4294967295
387.5647 111.93952 -33.508095 4294967295
387.57242 110.57317 -32.904961 4294967295
387.60266 119.05296 -31.174782 4294967295
387.61743 118.60437 -30.85099 4294967295
387.64786 112.4354 -32.849556 4294967295
387.68362 106.74643 -34.961819 4294967295
387.69366 119.55785 -30.437153 4294967295
387.71277 120.02456 -30.421139 4294967295
387.74969 114.31076 -32.530209 4294967295
387.76556 121.87853 -30.595123 4294967295
387.84671 107.27336 -33.505203 4294967295
387.86356 109.10824 -34.036312 4294967295
387.91632 115.76316 -31.387638 4294967295
387.96408 111.43663 -33.90414 4294967295
388.05511 105.32139 -35.282192 4294967295
388.06912 112.3988 -33.20433 4294967295
388.15762 113.81058 -32.844852 4294967295
388.18912 114.28233 -32.704746 4294967295
388.29385 114.79024 -31.834267 4294967295
388.30161 115.25071 -31.931404 4294967295
388.32074 108.17543 -33.679165 4294967295
388.34909 122.38419 -29.512722 4294967295
388.36987 109.11089 -33.537674 4294967295
388.37473 109.56982 -33.663624 4294967295
388.41971 117.13632 -31.45219 4294967295
388.4574 116.24204 -30.726799 4294967295
388.47369 110.98495 -33.200539 4294967295
388.50369 118.09262 -30.963913 4294967295
388.50806 112.3707 -33.379894 4294967295
388.55206 119.48735 -31.005272 4294967295
388.63675 120.90161 -30.685299 4294967295
388.63705 120.44543 -30.507927 4294967295
388.66882 108.10866 -34.754128 4294967295
388.67215 105.82578 -33.854034 4294967295
388.67365 106.74053 -34.186443 4294967295
388.67639 121.37943 -30.464695 4294967295
388.69345 107.66271 -34.336372 4294967295
388.7146 113.38219 -31.674156 4294967295
388.75305 113.85765 -31.465725 4294967295
388.78397 122.80751 -29.917545 4294967295
388.79596 116.1624 -31.909161 4294967295
388.81476 121.91156 -29.261845 4294967295
388.82166 114.80494 -31.132065 4294967295
388.85498 110.93074 -33.946918 4294967295
388.86526 110.47891 -33.671764 4294967295
388.91373 110.04405 -33.017998 4294967295
389.03513 111.47029 -32.334641 4294967295
389.03918 119.02631 -30.537304 4294967295
389.11087 114.24658 -32.623695 4294967295
389.26581 117.06163 -32.129147 4294967295
389.31952 116.63231 -31.424442 4294967295
389.31967 109.54485 -33.345264 4294967295
389.33121 110.46355 -33.577065 4294967295
389.37256 110.93901 -33.341282 4294967295
389.42114 118.05383 -30.938484 4294967295
389.44385 117.60876 -30.540482 4294967295
389.46899 119.44819 -30.985058 4294967295
389.48389 118.54288 -30.491283 4294967295
389.5029 111.91253 -32.399632 4294967295
389.50339 112.82635 -32.739639 4294967295
389.51303 106.21404 -34.733025 4294967295
389.52625 105.30558 -34.258217 4294967295
389.54218 113.30133 -32.529934 4294967295
389.55588 106.68884 -34.4827 4294967295
389.55994 120.40917 -30.432144 4294967295
389.56491 121.32454 -30.729275 4294967295
389.58267 107.15701 -34.390518 4294967295
389.62259 115.62274 -32.598866 4294967295
389.62439 114.7107 -32.236507 4294967295
389.64633 108.09785 -34.107883 4294967295
389.6788 115.19391 -31.871777 4294967295
389.72165 109.95766 -34.054077 4294967295
389.72189 116.58486 -31.965065 4294967295
389.77368 110.43758 -33.714046 4294967295
389.8078 117.08456 -31.290634 4294967295
389.93649 111.88205 -32.627872 4294967295
389.97687 113.27106 -32.747005 4294967295
389.98331 120.37085 -30.76886 4294967295
390.08786 114.694 -32.171555 4294967295
390.12799 121.81775 -29.862007 4294967295
390.13165 114.25836 -31.568905 4294967295
390.14807 122.28514 -29.836903 4294967295
390.19754 121.39863 -29.004723 4294967295
390.24298 117.50997 -31.678463 4294967295
390.31638 117.09039 -30.785858 4294967295
390.33298 118.01224 -30.967106 4294967295
390.33585 110.46542 -32.67551 4294967295
390.34879 111.38511 -32.891678 4294967295
390.3692 105.23856 -34.935333 4294967295
390.40366 112.78063 -32.867821 4294967295
390.41351 119.42349 -30.692295 4294967295
390.41608 118.96822 -30.495022 4294967295
390.42084 120.34018 -30.964233 4294967295
390.42725 113.70482 -32.979252 4294967295
390.496 113.28069 -32.134438 4294967295
390.49649 112.36697 -31.786831 4294967295
390.52039 121.76224 -30.50296 4294967295
390.54715 114.21857 -31.976398 4294967295
390.54797 107.14035 -33.869438 4294967295
390.57367 115.14476 -32.059147 4294967295
390.57431 108.52227 -34.124252 4294967295
390.58612 120.8844 -29.514572 4294967295
390.58923 116.06541 -32.249222 4294967295
390.61081 122.72403 -29.959816 4294967295
390.63223 121.36585 -29.23418 4294967295
390.64804 122.28783 -29.42326 4294967295
390.65082 115.63908 -31.475346 4294967295
390.65579 108.10036 -33.157028 4294967295
390.71231 109.49615 -33.117126 4294967295
390.77234 116.61275 -30.628426 4294967295
390.80649 117.08675 -30.465908 4294967295
390.91287 111.87141 -32.0121 4294967295
390.91702 119.88395 -30.412846 4294967295
390.99335 120.83736 -30.009441 4294967295
391.0242 114.20831 -31.779625 4294967295
391.08737 107.61302 -33.228298 4294967295
391.18576 111.31121 -33.631828 4294967295
391.32852 105.67599 -34.639294 4294967295
391.33408 112.74906 -32.699211 4294967295
391.33994 106.13757 -34.697941 4294967295
391.34601 113.66788 -32.922726 4294967295
391.36172 119.40059 -30.366096 4294967295
391.36206 105.2325 -34.143772 4294967295
391.40253 114.60765 -32.713612 4294967295
391.41782 120.34312 -30.161079 4294967295
391.43747 121.26657 -30.311169 4294967295
391.46323 106.6454 -33.670483 4294967295
391.48032 107.10968 -33.673954 4294967295
391.51102 107.57966 -33.545967 4294967295
391.51221 115.11691 -31.817532 4294967295
391.51727 120.8522 -29.363453 4294967295
391.52231 108.04153 -33.605858 4294967295
391.53076 108.95898 -33.862553 4294967295
391.53476 114.21387 -31.258419 4294967295
391.54712 122.69485 -29.756035 4294967295
391.55865 121.78782 -29.302429 4294967295
391.56262 122.24669 -29.434006 4294967295
391.57559 116.9743 -31.881886 4294967295
391.59628 108.53019 -33.057522 4294967295
391.60999 115.62106 -31.037498 4294967295
391.61273 116.07932 -31.180878 4294967295
391.66858 109.4758 -32.695564 4294967295
391.67618 110.39328 -32.960842 4294967295
391.68015 111.3087 -33.261406 4294967295
391.68338 118.3978 -31.344749 4294967295
391.71152 117.4987 -30.731586 4294967295
391.76678 110.89066 -32.251846 4294967295
391.78903 117.99452 -30.149113 4294967295
391.81152 119.83309 -30.610683 4294967295
391.87314 114.5945 -32.577 4294967295
391.90979 112.78429 -31.54409 4294967295
391.92801 113.24988 -31.537128 4294967295
391.93335 113.70943 -31.654797 4294967295
391.95654 121.27899 -29.713608 4294967295
391.96368 106.64413 -33.242134 4294967295
392.31711 112.74167 -32.022873 4294967295
392.319 120.29559 -30.2948 4294967295
392.33725 105.21888 -33.533527 4294967295
392.34079 119.85013 -29.91534 4294967295
392.35016 113.21393 -31.872646 4294967295
392.35098 107.05338 -34.074562 4294967295
392.35526 107.96891 -34.370293 4294967295
392.37952 114.59826 -32.096172 4294967295
392.41635 120.80312 -29.523434 4294967295
392.44714 114.17332 -31.274452 4294967295
392.4516 122.19197 -29.690929 4294967295
392.46051 121.74004 -29.435463 4294967295
392.50134 109.85867 -33.635509 4294967295
392.51562 109.40798 -33.329948 4294967295
392.52603 115.12498 -30.851219 4294967295
392.54227 116.04685 -31.032383 4294967295
392.54401 122.69825 -28.967892 4294967295
392.55472 110.33884 -33.290169 4294967295
392.60938 117.90714 -31.060207 4294967295
392.6604 112.21324 -32.94595 4294967295
392.66162 105.147 -34.799198 4294967295
392.68149 118.40002 -30.534588 4294967295
392.69003 111.31278 -32.324505 4294967295
392.7464 106.09505 -34.320248 4294967295
392.76212 118.89771 -29.925972 4294967295
392.90552 115.98154 -31.933788 4294967295
392.98938 117.39221 -31.632942 4294967295
393.0462 111.24832 -33.287411 4294967295
393.10919 118.36514 -30.81839 4294967295
393.16196 105.14529 -34.370865 4294967295
393.26587 113.17525 -31.8522 4294967295
393.33316 107.95753 -33.735176 4294967295
393.33655 115.0359 -31.84499 4294967295
393.35095 121.22966 -29.506771 4294967295
393.35233 113.67234 -31.190468 4294967295
393.39053 108.89571 -33.521038 4294967295
393.418 116.44519 -31.567738 4294967295
393.41916 109.36494 -33.413914 4294967295
393.4328 122.18647 -29.058411 4294967295
393.47476 121.75172 -28.486931 4294967295
393.48096 115.56162 -30.630127 4294967295
393.50308 110.31519 -32.945885 4294967295
393.55844 118.79777 -31.060951 4294967295
393.60834 117.90913 -30.248611 4294967295
393.62173 111.73866 -32.313694 4294967295
393.63782 106.50493 -34.678352 4294967295
393.6423 105.59276 -34.302292 4294967295
393.69635 106.07155 -33.953548 4294967295
393.70358 107.44557 -34.383804 4294967295
393.70721 119.32967 -29.805824 4294967295
393.71088 112.69303 -31.796326 4294967295
393.73926 120.71665 -30.001793 4294967295
393.74097 113.16388 -31.675903 4294967295
393.82059 114.11487 -31.250134 4294967295
393.94699 122.19606 -28.518879 4294967295
393.99237 117.39605 -30.780102 4294967295
393.99948 111.22701 -32.896519 4294967295
394.00159 116.94358 -30.525593 4294967295
394.05566 110.79465 -32.19545 4294967295
394.07285 118.34962 -30.346634 4294967295
394.15216 118.84624 -29.757442 4294967295
394.20432 114.06111 -31.945625 4294967295
394.2236 119.79649 -29.410591 4294967295
394.33453 122.5955 -29.356266 4294967295
394.33746 115.49434 -31.178932 4294967295
394.33929 108.87199 -33.172043 4294967295
394.35101 110.24788 -33.558189 4294967295
394.37173 109.79993 -33.19553 4294967295
394.37497 117.33962 -31.488125 4294967295
394.43909 116.91405 -30.71188 4294967295
394.46069 118.2951 -31.00629 4294967295
394.47772 116.47559 -30.178589 4294967295
394.50525 111.22906 -32.427174 4294967295
394.5173 119.23675 -30.800728 4294967295
394.54926 112.61964 -32.506714 4294967295
394.55386 105.55392 -34.300495 4294967295
394.57019 118.80645 -30.132103 4294967295
394.57663 120.18 -30.570301 4294967295
394.60266 106.03044 -34.004303 4294967295
394.61383 113.10579 -32.060524 4294967295
394.62103 119.74583 -29.982334 4294967295
394.66962 114.50212 -32.02932 4294967295
394.71234 114.06499 -31.458237 4294967295
394.71655 107.44811 -33.421989 4294967295
394.74207 121.17855 -29.332108 4294967295
394.85263 108.41901 -32.465683 4294967295
394.89249 116.89229 -30.746307 4294967295
394.89413 115.97884 -30.399551 4294967295
394.90054 109.354 -32.343369 4294967295
394.94434 112.11562 -32.920315 4294967295
394.9816 110.3035 -31.90736 4294967295
395.08884 105.10817 -33.387451 4294967295
395.16388 113.12831 -31.17688 4294967295
395.18884 120.23867 -29.102734 4294967295
395.35657 116.41861 -30.514389 4294967295
395.35876 109.33517 -32.325188 4294967295
395.38815 118.26173 -30.877064 4294967295
395.38831 111.1767 -32.705402 4294967295
395.41107 110.72945 -32.326916 4294967295
395.41919 117.82008 -30.419415 4294967295
395.49167 119.22668 -30.231369 4294967295
395.49799 111.68188 -31.838173 4294967295
395.49881 113.05355 -32.323673 4294967295
395.51755 105.99286 -33.971306 4294967295
395.54459 105.54617 -33.553154 4294967295
395.54959 120.16951 -30.015347 4294967295
395.55927 113.53786 -31.919079 4294967295
395.59653 106.93885 -33.557613 4294967295
395.5976 114.01234 -31.723438 4294967295
395.64716 114.49219 -31.421394 4294967295
395.65457 107.41962 -33.176628 4294967295
395.67398 122.06056 -29.504246 4294967295
395.67435 108.34222 -33.319069 4294967295
395.67853 120.692 -28.96545 4294967295
395.73163 116.35966 -31.28503 4294967295
395.74039 109.74116 -33.191147 4294967295
395.75891 115.91553 -30.864777 4294967295
395.77792 115.46732 -30.521225 4294967295
395.7782 117.29557 -31.17701 4294967295
395.83347 110.69511 -32.645454 4294967295
395.90247 118.26979 -30.33812 4294967295
395.92313 112.56249 -32.459995 4294967295
396.07764 113.54604 -31.339146 4294967295
396.09784 119.73801 -28.99572 4294967295
396.21332 121.62565 -28.570614 4294967295
396.24438 115.90906 -30.596439 4294967295
396.3624 118.25111 -30.311146 4294967295
396.37021 110.25256 -31.728176 4294967295
396.37216 111.16823 -32.036591 4294967295
396.41125 117.81776 -29.689285 4294967295
396.4324 119.19955 -29.983612 4294967295
396.43979 113.02661 -32.058575 4294967295
396.44751 120.1209 -30.169815 4294967295
396.46051 112.57872 -31.701439 4294967295
396.47266 105.97109 -33.562267 4294967295
396.52017 113.51981 -31.471096 4294967295
396.53372 107.36732 -33.481697 4294967295
396.55786 114.45121 -31.445854 4294967295
396.57431 120.64178 -29.147179 4294967295
396.5752 119.72774 -28.810581 4294967295
396.58325 121.10342 -29.227844 4294967295
396.62485 116.31017 -31.473686 4294967295
396.66785 122.06094 -28.764454 4294967295
396.66809 115.87354 -30.906357 4294967295
396.67856 108.34098 -32.456738 4294967295
396.69525 109.26271 -32.627045 4294967295
396.70737 115.43467 -30.376179 4294967295
396.73828 117.27789 -30.741508 4294967295
396.75009 116.82648 -30.467793 4294967295
396.75946 109.74698 -32.191563 4294967295
396.8031 122.58829 -27.663139 4294967295
397.00638 121.52266 -29.711109 4294967295
397.07013 107.83763 -32.894562 4294967295
397.08347 108.30043 -32.933098 4294967295
397.34717 120.07337 -30.304935 4294967295
397.37247 112.5387 -31.710411 4294967295
397.38068 119.63314 -29.830196 4294967295
397.38815 105.4762 -33.363411 4294967295
397.43179 112.10732 -30.997318 4294967295
397.43314 106.40874 -33.269917 4294967295
397.43796 118.74677 -28.972191 4294967295
397.45117 113.48817 -31.304623 4294967295
397.46747 114.40987 -31.477924 4294967295
397.49146 105.97393 -32.56786 4294967295
397.50079 108.2651 -33.291153 4294967295
397.50494 121.98039 -29.489803 4294967295
397.50726 107.81045 -33.069241 4294967295
397.52557 115.8076 -31.425823 4294967295
397.53625 120.62503 -28.710384 4294967295
397.5498 122.46035 -29.23584 4294967295
397.60706 109.22327 -32.630619 4294967295
397.61212 121.57804 -28.33123 4294967295
397.64331 117.23378 -30.821251 4294967295
397.69333 118.17162 -30.682381 4294967295
397.71973 117.72731 -30.275131 4294967295
397.74374 111.56741 -32.174217 4294967295
397.74673 109.73887 -31.499519 4294967295
397.75766 110.20113 -31.55994 4294967295
397.78571 118.67336 -29.98856 4294967295
397.84747 119.16064 -29.578808 4294967295
397.84842 112.98474 -31.691204 4294967295
397.93103 105.49022 -32.559029 4294967295
398.03329 107.81912 -32.421005 4294967295
398.03635 108.27789 -32.554161 4294967295
398.09271 122.48409 -28.443661 4294967295
398.1196 109.22697 -32.10881 4294967295
398.14346 110.60912 -32.372383 4294967295
398.30838 119.14233 -29.544231 4294967295
398.36493 120.08449 -29.345928 4294967295
398.37885 105.92541 -32.794636 4294967295
398.38519 114.37228 -31.43404 4294967295
398.40729 107.30927 -33.015324 4294967295
398.40909 113.92577 -31.052612 4294967295
398.43533 121.03393 -29.019581 4294967295
398.4559 106.8709 -32.407455 4294967295
398.49704 116.70877 -31.209492 4294967295
398.50632 121.52688 -28.526512 4294967295
398.52185 115.80617 -30.65873 4294967295
398.53003 115.35262 -30.422256 4294967295
398.53595 122.45641 -28.576862 4294967295
398.53879 108.27704 -32.127563 4294967295
398.58783 107.83896 -31.515472 4294967295
398.58844 109.21252 -31.992409 4294967295
398.59097 109.67112 -32.129551 4294967295
398.59735 110.13119 -32.23175 4294967295
398.63593 111.51928 -32.359673 4294967295
398.6438 108.77743 -31.322624 4294967295
398.70203 119.54829 -30.290066 4294967295
398.72394 118.64483 -29.766403 4294967295
398.7305 118.19076 -29.54398 4294967295
398.74731 120.02743 -30.034561 4294967295
398.76492 113.40397 -31.816944 4294967295
398.80112 114.33423 -31.80526 4294967295
398.8071 112.05029 -30.947861 4294967295
398.94733 107.78073 -32.403217 4294967295
399.0582 116.73764 -30.249325 4294967295
399.11118 109.67789 -31.542904 4294967295
399.13031 111.97314 -32.16843 4294967295
399.1955 111.54373 -31.411579 4294967295
399.21707 110.6375 -30.893585 4294967295
399.24854 119.5719 -29.467747 4294967295
399.32034 114.34251 -31.229652 4294967295
399.37823 113.91094 -30.539951 4294967295
399.37988 121.92278 -29.067131 4294967295
399.38345 106.83789 -32.265324 4294967295
399.41562 108.68113 -32.610371 4294967295
399.42264 120.5722 -28.193203 4294967295
399.42944 107.31377 -32.004696 4294967295
399.44479 121.04072 -28.151409 4294967295
399.44778 109.15163 -32.476196 4294967295
399.46768 115.78113 -30.362137 4294967295
399.47241 122.42676 -28.380802 4294967295
399.47873 114.87112 -29.941128 4294967295
399.48752 105.96194 -30.995022 4294967295
399.50311 108.25874 -31.651424 4294967295
399.51923 116.71957 -30.211056 4294967295
399.55621 117.65141 -30.19302 4294967295
399.58353 110.12253 -31.556412 4294967295
399.58548 111.03841 -31.857323 4294967295
399.5885 109.66687 -31.351002 4294967295
399.65518 118.15556 -29.449211 4294967295
399.65878 112.89906 -31.826469 4294967295
399.66977 112.44654 -31.566967 4294967295
399.68729 111.53905 -31.088116 4294967295
399.69107 119.08746 -29.441254 4294967295
399.72147 113.38365 -31.415123 4294967295
399.74207 120.02675 -29.295277 4294967295
399.77206 115.23474 -31.590946 4294967295
399.84747 122.36477 -29.132877 4294967295
399.86557 114.81974 -30.579155 4294967295
399.96365 107.78291 -31.452942 4294967295
399.98679 110.08094 -32.038357 4294967295
400.05179 108.27603 -30.810287 4294967295
400.08725 117.66624 -29.517487 4294967295
400.09631 118.12794 -29.593956 4294967295
400.13724 113.34609 -31.783413 4294967295
400.15842 119.0723 -29.347378 4294967295
400.2569 115.22771 -31.33176 4294967295
400.3642 114.81865 -30.197697 4294967295
400.37729 108.66199 -32.156754 4294967295
400.38379 116.19976 -30.49725 4294967295
400.40021 109.58634 -32.265934 4294967295
400.40796 117.12532 -30.595356 4294967295
400.4136 107.76083 -31.510349 4294967295
400.48163 108.24581 -31.052097 4294967295
400.51422 118.54667 -30.107281 4294967295
400.51807 110.54991 -31.51482 4294967295
400.56891 117.65775 -29.293652 4294967295
400.59067 112.41059 -31.490425 4294967295
400.60226 113.33016 -31.702572 4294967295
400.62381 118.14115 -28.954178 4294967295
400.62433 111.05193 -30.710602 4294967295
400.62576 119.5144 -29.413643 4294967295
400.66885 120.90691 -29.499191 4294967295
400.67029 113.81716 -31.244816 4294967295
400.75092 121.40456 -28.914246 4294967295
400.84476 115.26694 -30.140781 4294967295
400.87503 106.36871 -30.989136 4294967295
400.90723 105.92252 -30.539085 4294967295
400.9122 110.04709 -31.917099 4294967295
400.92914 109.13858 -31.448513 4294967295
400.93265 117.13686 -29.979229 4294967295
400.93509 107.7669 -30.919987 4294967295
401.05573 119.48129 -29.658134 4294967295
401.19299 114.74122 -30.961227 4294967295
401.19785 120.00715 -28.531967 4294967295
401.20883 113.83329 -30.502842 4294967295
401.23926 115.21915 -30.702301 4294967295
401.26862 120.95679 -28.208641 4294967295
401.29077 107.24995 -31.669868 4294967295
401.37573 117.11053 -30.102634 4294967295
401.38019 116.19765 -29.746468 4294967295
401.38275 105.91016 -30.368019 4294967295
401.38507 108.20292 -31.135712 4294967295
401.39526 110.49603 -31.831032 4294967295
401.39838 109.58204 -31.487911 4294967295
401.40637 115.75185 -29.352371 4294967295
401.43069 106.8457 -30.25148 4294967295
401.46835 110.98386 -31.330208 4294967295
401.47076 117.61197 -29.403843 4294967295
401.48746 108.70171 -30.371105 4294967295
401.49878 110.08073 -30.742085 4294967295
401.49954 118.08292 -29.302242 4294967295
401.5881 119.4973 -28.978024 4294967295
401.59152 112.8663 -30.851891 4294967295
401.63928 115.17408 -31.208923 4294967295
401.63962 114.717 -31.04911 4294967295
401.67377 120.91097 -28.680412 4294967295
401.67487 113.35987 -30.260139 4294967295
401.68436 121.8308 -28.900043 4294967295
401.73026 106.30784 -31.504948 4294967295
401.74692 105.39746 -31.04068 4294967295
401.77783 107.70041 -31.548721 4294967295
401.78751 121.42426 -27.814117 4294967295
401.79193 122.34155 -28.089943 4294967295
401.86029 105.89854 -30.179649 4294967295
401.86063 116.18838 -29.534691 4294967295
401.89621 118.03474 -29.84399 4294967295
401.90363 107.29098 -30.262226 4294967295
401.9884 110.07455 -30.443909 4294967295
402.00601 109.62348 -30.128876 4294967295
402.01407 113.28949 -31.311638 4294967295
402.14664 120.89844 -28.539242 4294967295
402.20862 107.67101 -31.77483 4294967295
402.21689 114.75047 -29.964806 4294967295
402.23077 115.67185 -30.154095 4294967295
402.36404 109.56417 -31.010639 4294967295
402.4017 117.57979 -29.250648 4294967295
402.41742 111.87489 -31.31461 4294967295
402.45013 110.05698 -30.397083 4294967295
402.50427 114.19901 -31.320435 4294967295
402.51483 119.92046 -29.022293 4294967295
402.52231 112.83439 -30.690479 4294967295
402.52374 113.29261 -30.833878 4294967295
402.53369 120.84419 -29.167183 4294967295
402.60294 119.50487 -28.076942 4294967295
402.61176 121.79679 -28.782738 4294967295
402.67694 114.73205 -29.934498 4294967295
402.69293 121.37914 -27.899826 4294967295
402.71823 115.66564 -29.879143 4294967295
402.72504 106.75838 -30.923443 4294967295
402.73804 105.84628 -30.495197 4294967295
402.7562 116.14028 -29.696434 4294967295
402.76221 109.06344 -31.371586 4294967295
402.79877 107.24496 -30.421806 4294967295
402.80069 106.32845 -30.09269 4294967295
402.81775 110.45919 -31.344574 4294967295
402.87091 108.64825 -30.247528 4294967295
402.88193 118.02808 -29.199421 4294967295
403.07263 112.85442 -29.853722 4294967295
403.10962 120.88151 -28.106628 4294967295
403.12845 122.26318 -28.407734 4294967295
403.15024 105.81033 -30.888229 4294967295
403.2016 107.66315 -31.053772 4294967295
403.24371 108.5958 -30.990818 4294967295
403.25812 118.42805 -30.072601 4294967295
403.25925 116.5988 -29.439625 4294967295
403.28598 117.0686 -29.357536 4294967295
403.34741 109.09487 -30.224834 4294967295
403.40707 112.78298 -30.937931 4294967295
403.43433 119.42529 -28.817699 4294967295
403.45255 118.97619 -28.500275 4294967295
403.52197 115.11995 -30.694363 4294967295
403.52484 113.74847 -30.204037 4294967295
403.54138 121.76393 -28.644791 4294967295
403.55072 105.77016 -31.382412 4294967295
403.5575 114.67799 -30.224548 4294967295
403.55786 120.85694 -28.186947 4294967295
403.56589 121.31841 -28.271645 4294967295
403.67154 122.28517 -27.644756 4294967295
403.67645 109.48286 -31.507278 4294967295
403.67673 116.56119 -29.787811 4294967295
403.69312 107.19876 -30.585785 4294967295
403.71875 106.74995 -30.2034 4294967295
403.72873 108.58746 -30.735046 4294967295
403.73038 110.41998 -31.340206 4294967295
403.73883 116.13125 -29.082047 4294967295
403.7558 108.13969 -30.340343 4294967295
403.76929 112.26626 -31.614491 4294967295
403.77237 117.51968 -29.250706 4294967295
403.78018 111.35571 -31.208477 4294967295
403.81088 109.07799 -30.162582 4294967295
403.8287 118.91833 -29.217243 4294967295
403.85431 113.21693 -31.171516 4294967295
403.8544 110.01192 -30.087322 4294967295
404.09222 115.60764 -29.842484 4294967295
404.14807 117.46273 -29.967484 4294967295
404.16895 110.8509 -31.647964 4294967295
404.17065 110.394 -31.478043 4294967295
404.18005 122.28989 -27.192936 4294967295
404.29269 107.23356 -29.320366 4294967295
404.40018 111.86124 -29.917572 4294967295
404.40701 120.32784 -28.608978 4294967295
404.5004 119.91427 -27.629631 4294967295
404.50098 114.65143 -29.95488 4294967295
404.50543 115.11108 -30.069443 4294967295
404.51187 120.83548 -27.837868 4294967295
404.52866 121.75892 -27.999695 4294967295
404.5368 116.49748 -30.255657 4294967295
404.56189 122.23268 -27.860874 4294967295
404.61346 121.34208 -27.096474 4294967295
404.62451 117.45177 -29.791531 4294967295
404.62637 109.0006 -31.018761 4294967295
404.66507 116.09686 -28.971748 4294967295
404.66727 111.30607 -31.42754 4294967295
404.66742 110.84846 -31.272785 4294967295
404.69153 108.56776 -30.291744 4294967295
404.71732 107.20183 -29.603172 4294967295
404.73862 106.75094 -29.261322 4294967295
404.74942 112.25508 -31.013264 4294967295
404.75232 118.42521 -28.974972 4294967295
404.76508 117.97328 -28.708633 4294967295
404.7681 107.67997 -29.30983 4294967295
404.79092 119.35825 -28.943737 4294967295
404.84842 118.92725 -28.283806 4294967295
404.87051 113.22116 -30.256638 4294967295
405.03302 122.21915 -27.739307 4294967295
405.14163 106.71132 -29.732498 4294967295
405.20227 109.48608 -30.121391 4294967295
405.24466 110.41945 -30.056938 4294967295
405.26559 112.26014 -30.486877 4294967295
405.27777 114.09583 -30.992592 4294967295
405.30222 113.64865 -30.625839 4294967295
405.40622 120.78548 -28.015453 4294967295
405.44318 122.17606 -28.152534 4294967295
405.45099 121.72223 -27.930607 4294967295
405.45963 115.08916 -29.707565 4294967295
405.50989 107.57583 -30.809498 4294967295
405.52142 109.41266 -31.319954 4294967295
405.52652 116.9493 -29.73468 4294967295
405.54166 106.67078 -30.225994 4294967295
405.54874 116.04371 -29.234066 4294967295
405.56778 110.80444 -31.372574 4294967295
405.58875 107.14704 -29.967335 4294967295
405.60403 108.52846 -30.292793 4294967295
405.60938 108.98887 -30.399048 4294967295
405.61984 117.44875 -29.071331 4294967295
405.63925 118.83037 -29.361561 4294967295
405.68823 111.31083 -30.474174 4294967295
405.70068 112.23168 -30.670738 4294967295
405.71231 108.11137 -29.192974 4294967295
405.71628 119.781 -28.994301 4294967295
405.72791 114.07347 -31.043724 4294967295
405.75119 119.33961 -28.536232 4294967295
405.77451 113.63563 -30.484615 4294967295
405.85104 114.58356 -30.121689 4294967295
405.92941 106.62587 -30.822685 4294967295
405.93521 120.79924 -27.387794 4294967295
405.98883 116.47427 -29.530956 4294967295
406.01859 117.40276 -29.577232 4294967295
406.14331 111.74857 -30.635647 4294967295
406.16302 110.38229 -30.007462 4294967295
406.3996 116.43416 -29.928665 4294967295
406.42401 115.5294 -29.411949 4294967295
406.44177 107.08569 -30.485229 4294967295
406.4509 106.6305 -30.253937 4294967295
406.45953 117.37579 -29.712044 4294967295
406.47495 122.19215 -27.128235 4294967295
406.5408 108.49852 -30.081219 4294967295
406.54642 112.16498 -31.246815 4294967295
406.54895 110.33475 -30.617855 4294967295
406.55487 118.79133 -29.340389 4294967295
406.56021 116.96282 -28.685337 4294967295
406.58148 108.97264 -29.880016 4294967295
406.59799 117.89552 -28.661438 4294967295
406.60254 109.89767 -30.000954 4294967295
406.616 107.60958 -29.124146 4294967295
406.63516 114.0318 -31.083549 4294967295
406.65668 109.46032 -29.379452 4294967295
406.69296 119.76997 -28.44593 4294967295
406.69907 111.76923 -29.770756 4294967295
406.70477 105.80501 -27.74427 4294967295
406.73444 113.15797 -29.919807 4294967295
406.7764 114.54921 -30.011002 4294967295
406.85986 115.95827 -29.742863 4294967295
406.86755 122.14081 -27.690578 4294967295
406.9455 109.83372 -30.980698 4294967295
406.98663 111.22359 -31.078613 4294967295
407.05991 108.0441 -29.385624 4294967295
407.10703 106.22512 -28.371147 4294967295
407.12436 117.90663 -28.058876 4294967295
407.12814 113.56998 -30.611485 4294967295
407.20935 120.69293 -28.233551 4294967295
407.29364 121.19025 -27.656345 4294967295
407.30063 106.10999 -30.642887 4294967295
407.31171 114.5628 -29.32798 4294967295
407.34879 107.50312 -30.680214 4294967295
407.38358 116.42536 -29.312534 4294967295
407.41763 107.07014 -29.934841 4294967295
407.42404 116.90092 -29.114319 4294967295
407.42731 111.19781 -31.209164 4294967295
407.43668 117.36431 -29.156246 4294967295
407.44461 109.83088 -30.607903 4294967295
407.46124 110.75349 -30.765682 4294967295
407.48041 119.21432 -29.383442 4294967295
407.49225 118.30455 -28.979168 4294967295
407.52048 110.31874 -30.104553 4294967295
407.52658 109.40433 -29.750656 4294967295
407.54675 117.87111 -28.357891 4294967295
407.55078 113.53629 -30.898674 4294967295
407.55432 108.49765 -29.209122 4294967295
407.58466 118.80405 -28.332874 4294967295
407.6254 112.65146 -29.954712 4294967295
407.63846 114.03049 -30.294289 4294967295
407.65033 119.74979 -28.068707 4294967295
407.65179 120.20827 -28.207439 4294967295
407.66653 115.41519 -30.504337 4294967295
407.67261 121.13338 -28.32988 4294967295
407.67416 113.12953 -29.685432 4294967295
407.77173 122.09551 -27.778023 4294967295
407.78085 115.00627 -29.369602 4294967295
407.78671 116.38216 -29.771767 4294967295
407.81915 117.31159 -29.793045 4294967295
407.85431 108.41885 -30.554157 4294967295
408.22327 105.61619 -30.400356 4294967295
408.2482 106.54247 -30.486588 4294967295
408.24829 115.90681 -29.575371 4294967295
408.26901 108.38371 -30.907341 4294967295
408.39658 107.51431 -29.514904 4294967295
408.41754 112.10532 -30.834141 4294967295
408.42154 117.35586 -28.540264 4294967295
408.42703 113.02451 -31.051792 4294967295
408.45605 109.3715 -29.605244 4294967295
408.49548 111.67867 -30.016769 4294967295
408.50604 119.22522 -28.416798 4294967295
408.52072 113.52068 -30.399807 4294967295
408.54343 118.78415 -27.946167 4294967295
408.56555 120.168 -28.206997 4294967295
408.61145 114.93172 -30.072872 4294967295
408.66769 106.50975 -30.797485 4294967295
408.69855 122.51876 -27.81847 4294967295
408.70764 121.14954 -27.290226 4294967295
408.73166 106.0742 -30.101551 4294967295
408.76807 108.38032 -30.538239 4294967295
408.776 115.91747 -28.964924 4294967295
408.77798 109.75863 -30.901009 4294967295
408.78558 110.67741 -31.135098 4294967295
408.79233 116.38249 -28.974995 4294967295
408.79791 117.75832 -29.376213 4294967295
408.81503 107.022 -29.688358 4294967295
408.83365 111.15414 -30.873985 4294967295
408.86908 107.95953 -29.5257 4294967295
408.89755 118.718 -28.824402 4294967295
408.90128 107.51257 -29.101311 4294967295
408.92905 112.10796 -30.358128 4294967295
408.9335 119.19194 -28.666359 4294967295
408.99323 114.88058 -30.705952 4294967295
409.08975 119.72061 -27.481747 4294967295
409.10168 121.10004 -27.828819 4294967295
409.12631 106.94965 -30.922459 4294967295
409.14468 115.40223 -29.563858 4294967295
409.22177 117.72398 -29.653069 4294967295
409.25336 105.61912 -29.393253 4294967295
409.30109 106.09526 -29.135624 4294967295
409.43536 120.56532 -28.72887 4294967295
409.43649 113.02477 -30.217869 4294967295
409.49503 120.13496 -28.071404 4294967295
409.53799 119.69652 -27.556416 4294967295
409.54987 121.07581 -27.903259 4294967295
409.55258 106.91943 -31.171803 4294967295
409.5614 114.44993 -29.602047 4294967295
409.60257 115.383 -29.549881 4294967295
409.64459 114.94269 -29.043972 4294967295
409.64673 116.31741 -29.472462 4294967295
409.64905 107.41296 -30.501682 4294967295
409.6553 108.7902 -30.893856 4294967295
409.66742 105.5847 -29.751686 4294967295
409.68149 108.34177 -30.523087 4294967295
409.69971 106.51406 -29.77433 4294967295
409.7081 106.05813 -29.554661 4294967295
409.72226 105.14487 -29.137333 4294967295
409.74677 109.74124 -30.414543 4294967295
409.75412 118.65273 -29.303562 4294967295
409.76425 117.74182 -28.919994 4294967295
409.79019 116.83714 -28.402744 4294967295
409.80054 112.05232 -30.700298 4294967295
409.80444 110.67988 -30.222122 4294967295
409.83542 118.23101 -28.464848 4294967295
409.84824 111.6133 -30.147305 4294967295
409.89954 119.17542 -28.217548 4294967295
409.93188 121.02111 -28.538013 4294967295
410.03159 113.97777 -29.335049 4294967295
410.0585 107.37649 -30.893658 4294967295
410.14694 110.15835 -31.033035 4294967295
410.15179 109.70222 -30.843853 4294967295
410.17828 111.54397 -31.211269 4294967295
410.25153 108.36458 -29.556984 4294967295
410.27563 112.04027 -30.536026 4294967295
410.29788 119.12923 -28.711575 4294967295
410.36642 114.8234 -30.655624 4294967295
410.42395 120.1016 -27.941158 4294967295
410.43115 113.01856 -29.518116 4294967295
410.44299 115.31295 -30.15712 4294967295
410.491 121.04803 -27.671059 4294967295
410.5087 116.256 -29.897968 4294967295
410.51639 107.35777 -30.874165 4294967295
410.57257 106.91962 -30.253162 4294967295
410.5759 109.67059 -31.109772 4294967295
410.58554 106.46557 -29.996372 4294967295
410.5863 117.20461 -29.538258 4294967295
410.58914 107.8427 -30.408737 4294967295
410.6012 108.7639 -30.601547 4294967295
410.60165 116.75352 -29.260822 4294967295
410.61539 110.60152 -31.071793 4294967295
410.62543 111.52096 -31.281406 4294967295
410.62988 106.02243 -29.474831 4294967295
410.651 111.9887 -31.213192 4294967295
410.65558 108.32568 -29.996109 4294967295
410.67123 109.24847 -30.158669 4294967295
410.71667 118.17691 -28.73344 4294967295
410.76282 112.9487 -30.566048 4294967295
410.78796 119.12411 -28.427734 4294967295
410.83755 113.89455 -30.231213 4294967295
410.89212 114.83256 -30.066647 4294967295
410.89923 105.93704 -31.045246 4294967295
410.95081 120.57123 -27.497707 4294967295
411.01495 115.79953 -29.327515 4294967295
411.03204 122.44045 -27.404217 4294967295
411.13153 110.14703 -30.4156 4294967295
411.17166 108.32826 -29.489994 4294967295
411.18484 111.5419 -30.408245 4294967295
411.21545 119.09116 -28.67152 4294967295
411.2515 118.19113 -28.073929 4294967295
411.44583 115.31113 -29.392345 4294967295
411.44824 121.02754 -27.304173 4294967295
411.46234 105.95538 -30.142792 4294967295
411.46249 107.33126 -30.581585 4294967295
411.47015 116.23706 -29.482334 4294967295
411.47559 108.71098 -30.910969 4294967295
411.55994 117.64882 -29.169518 4294967295
411.56174 107.82582 -29.895935 4294967295
411.58929 111.04428 -30.690865 4294967295
411.59775 109.6731 -30.180614 4294967295
411.60583 116.75266 -28.49086 4294967295
411.61856 118.13202 -28.825085 4294967295
411.63916 117.225 -28.358662 4294967295
411.67062 113.36541 -30.741753 4294967295
411.68781 118.62021 -28.391029 4294967295
411.7092 113.83867 -30.565361 4294967295
411.71967 110.63624 -29.452991 4294967295
411.72601 119.55285 -28.364872 4294967295
411.74084 111.56125 -29.568634 4294967295
411.74542 112.02132 -29.676678 4294967295
411.79623 114.78967 -30.129658 4294967295
411.79776 121.41617 -28.350918 4294967295
411.84436 115.72499 -30.020481 4294967295
411.85172 120.06703 -27.458046 4294967295
411.89844 109.59517 -31.475452 4294967295
411.99844 108.2578 -30.202309 4294967295
412.02356 110.10036 -30.57663 4294967295
412.07458 111.03602 -30.442554 4294967295
412.12833 119.50872 -28.817192 4294967295
412.18353 111.53632 -29.679428 4294967295
412.28644 120.9529 -27.935596 4294967295
412.33792 113.88881 -29.121571 4294967295
412.40414 105.92694 -29.890617 4294967295
412.40454 122.38055 -27.388474 4294967295
412.40756 114.8336 -28.833122 4294967295
412.45779 108.69797 -30.317734 4294967295
412.4642 116.68959 -28.944904 4294967295
412.50082 116.24696 -28.493629 4294967295
412.51602 110.09458 -30.270042 4294967295
412.53433 117.17741 -28.506317 4294967295
412.54401 109.1883 -29.745682 4294967295
412.54727 118.55679 -28.835968 4294967295
412.57181 119.02525 -28.777817 4294967295
412.60156 118.12241 -28.238293 4294967295
412.61194 113.33786 -30.490501 4294967295
412.61768 111.50816 -29.860573 4294967295
412.69775 119.53862 -27.875145 4294967295
412.74185 106.32482 -31.016125 4294967295
412.75952 114.31309 -29.554298 4294967295
412.76434 108.1657 -31.409771 4294967295
412.76865 115.23265 -29.769417 4294967295
412.77756 120.94827 -27.648308 4294967295
412.78259 120.49254 -27.460339 4294967295
412.7897 107.71675 -31.054337 4294967295
412.80573 113.87364 -29.02457 4294967295
412.85168 121.89793 -27.323025 4294967295
412.85425 106.82295 -30.228279 4294967295
412.93637 110.51971 -30.707829 4294967295
412.94449 115.76346 -28.453625 4294967295
412.97116 117.60707 -28.813778 4294967295
413.04153 119.01109 -28.665749 4294967295
413.09546 105.35335 -31.569138 4294967295
413.09726 112.41396 -29.953587 4294967295
413.15103 118.14246 -27.465614 4294967295
413.19159 114.28358 -29.751762 4294967295
413.23105 109.06622 -31.603348 4294967295
413.23828 120.01376 -27.323441 4294967295
413.27185 109.53915 -31.410728 4294967295
413.33969 115.26007 -28.81514 4294967295
413.49808 117.61722 -28.228111 4294967295
413.49814 118.0753 -28.37302 4294967295
413.50989 111.91933 -30.165157 4294967295
413.53891 112.38869 -30.069538 4294967295
413.53903 105.32996 -31.664234 4294967295
413.5394 113.30476 -30.354649 4294967295
413.59393 114.24216 -30.193405 4294967295
413.60995 106.27099 -31.367149 4294967295
413.65158 119.05804 -27.392574 4294967295
413.65161 105.82705 -30.879192 4294967295
413.69379 108.59148 -31.396393 4294967295
413.69568 121.82583 -27.898155 4294967295
413.72458 107.22797 -30.709721 4294967295
413.72495 120.92319 -27.366413 4294967295
413.73743 116.13204 -29.586052 4294967295
413.75931 115.68324 -29.261097 4294967295
413.76025 121.39717 -27.219254 4294967295
413.78668 117.06818 -29.468636 4294967295
413.80054 109.54675 -30.804581 4294967295
413.81479 116.62217 -29.091881 4294967295
413.81705 122.33914 -27.039227 4294967295
413.83838 108.18567 -30.059151 4294967295
413.88675 112.32695 -30.957714 4294967295
413.89697 110.49908 -30.297443 4294967295
413.92584 111.88426 -30.491673 4294967295
414.02069 111.4626 -29.566051 4294967295
414.08923 107.6344 -31.599586 4294967295
414.22949 109.97533 -31.164749 4294967295
414.32285 109.55184 -30.25367 4294967295
414.38635 118.94052 -28.861271 4294967295
414.43903 105.28767 -31.745911 4294967295
414.44827 111.8903 -29.941364 4294967295
414.46423 118.51618 -28.076855 4294967295
414.487 106.22052 -31.638939 4294967295
414.48792 107.13694 -31.918232 4294967295
414.4903 119.90146 -28.294495 4294967295
414.52606 106.69227 -31.461983 4294967295
414.57861 114.23187 -29.589718 4294967295
414.6011 107.63509 -31.133121 4294967295
414.60138 108.55136 -31.417267 4294967295
414.61469 120.41427 -27.415936 4294967295
414.66656 121.35355 -27.277847 4294967295
414.72565 114.74917 -28.52634 4294967295
414.77872 109.53231 -30.250854 4294967295
414.78497 115.2316 -28.183414 4294967295
414.79901 117.98625 -28.930244 4294967295
414.80084 116.15483 -28.340302 4294967295
414.83295 118.45859 -28.795269 4294967295
414.83578 117.0858 -28.341049 4294967295
414.8602 105.71487 -32.164436 4294967295
414.86783 110.02366 -29.663486 4294967295
414.91464 105.27525 -31.57618 4294967295
414.9166 112.33354 -29.980751 4294967295
414.93234 113.2557 -30.138138 4294967295
414.97452 117.60247 -27.346783 4294967295
414.99759 120.3616 -28.019897 4294967295
415.01178 108.05776 -31.639412 4294967295
415.05396 119.47009 -27.270191 4294967295
415.0939 112.86068 -28.67215 4294967295
415.10275 114.69748 -29.173206 4294967295
415.12845 122.25166 -27.52219 4294967295
415.16464 116.09684 -29.096493 4294967295
415.1731 108.57382 -30.463871 4294967295
415.17349 115.64241 -28.880463 4294967295
415.17484 109.03274 -30.592506 4294967295
415.45706 113.72104 -29.716297 4294967295
415.46497 113.26608 -29.508465 4294967295
415.50967 118.9912 -27.13451 4294967295
415.53912 108.06401 -31.049004 4294967295
415.54309 120.83878 -27.434357 4294967295
415.54501 107.60786 -30.858471 4294967295
415.55014 114.21606 -29.099136 4294967295
415.56259 106.69712 -30.430824 4294967295
415.58878 121.7752 -27.347801 4294967295
415.5965 122.23663 -27.427986 4294967295
415.59946 109.00201 -30.842274 4294967295
415.6499 116.08896 -28.856419 4294967295
415.65738 108.56461 -30.228081 4294967295
415.6756 115.64122 -28.504627 4294967295
415.69217 110.86847 -30.656452 4294967295
415.741 117.50089 -28.542603 4294967295
415.74646 110.43058 -30.072029 4294967295
415.77032 111.814 -30.305019 4294967295
415.80807 105.23083 -31.709679 4294967295
415.81262 112.28822 -30.10302 4294967295
415.82452 119.8261 -28.574959 4294967295
415.83652 118.91547 -28.192051 4294967295
415.96133 114.6365 -29.60487 4294967295
415.9895 106.66779 -30.661179 4294967295
416.08408 115.14379 -28.749081 4294967295
416.1402 111.30399 -30.856541 4294967295
416.14978 117.00316 -28.784184 4294967295
416.16504 109.48067 -30.08791 4294967295
416.23407 116.12138 -27.814217 4294967295
416.24332 118.41638 -28.450924 4294967295
416.26825 110.43544 -29.533833 4294967295
416.30255 119.8155 -28.396492 4294967295
416.31555 105.22903 -31.282639 4294967295
416.38022 108.00045 -31.60754 4294967295
416.48782 106.66312 -30.311924 4294967295
416.48825 114.64501 -29.026562 4294967295
416.49701 109.41624 -31.086571 4294967295
416.52914 108.51147 -30.54393 4294967295
416.53931 122.20955 -27.185406 4294967295
416.5419 114.20795 -28.449699 4294967295
416.57166 116.05307 -28.776234 4294967295
416.60703 115.60918 -28.347569 4294967295
416.61667 109.00125 -29.976509 4294967295
416.61929 116.53067 -28.532009 4294967295
416.6395 111.30086 -30.499199 4294967295
416.67618 117.0123 -28.213058 4294967295
416.74091 106.11617 -31.803238 4294967295
416.74884 112.25835 -29.897778 4294967295
416.7496 110.42523 -29.325634 4294967295
416.76468 105.66599 -31.470695 4294967295
416.82831 114.57922 -29.962151 4294967295
416.82892 119.82572 -27.827595 4294967295
416.84705 107.98512 -31.510662 4294967295
416.8551 120.29511 -27.757111 4294967295
416.88855 107.08327 -30.89352 4294967295
416.96246 115.09063 -29.019226 4294967295
416.96939 121.26138 -27.115612 4294967295
417.10684 110.36934 -30.119427 4294967295
417.11563 117.90158 -28.630753 4294967295
417.16794 105.17104 -31.744858 4294967295
417.20883 106.10117 -31.696766 4294967295
417.24454 111.79559 -29.431778 4294967295
417.24646 118.41462 -27.715485 4294967295
417.28638 112.26979 -29.235615 4294967295
417.30225 119.3548 -27.547848 4294967295
417.31662 106.59613 -30.969746 4294967295
417.31964 121.19447 -27.972897 4294967295
417.42911 107.09324 -30.205341 4294967295
417.45694 113.71085 -28.284168 4294967295
417.49857 116.4774 -28.795303 4294967295
417.52457 117.40413 -28.867661 4294967295
417.52832 115.11455 -28.132336 4294967295
417.5397 109.88318 -30.159119 4294967295
417.57397 110.35398 -30.024464 4294967295
417.62497 111.74759 -30.036041 4294967295
417.64316 118.36955 -28.194839 4294967295
