# .PCD v0.7 - Point Cloud Data file format
VERSION 0.7
FIELDS x y z rgb
SIZE 4 4 4 4
TYPE F F F U
COUNT 1 1 1 1
WIDTH 1120
HEIGHT 1
VIEWPOINT 0 0 0 1 0 0 0
POINTS 1120
DATA ascii
336.33633 -67.560806 -83.179718 4294967295
336.34369 -58.792618 -81.290848 4294967295
336.35431 -59.286316 -80.829239 4294967295
336.36646 -67.137337 -82.956741 4294967295
336.37061 -58.361397 -81.121338 4294967295
336.37399 -50.979786 -78.441246 4294967295
336.3837 -66.690804 -82.950165 4294967295
336.40454 -57.941559 -80.83429 4294967295
336.40811 -57.471706 -81.057098 4294967295
336.42279 -65.806015 -82.857727 4294967295
336.45389 -65.383659 -82.619522 4294967295
336.4707 -64.936356 -82.618896 4294967295
336.48322 -64.481453 -82.691399 4294967295
336.50537 -55.727879 -80.55584 4294967295
336.53421 -56.249947 -79.790237 4294967295
336.53821 -63.623623 -82.333908 4294967295
336.54352 -64.109367 -81.964081 4294967295
336.55072 -54.850063 -80.360962 4294967295
336.5632 -63.190178 -82.197174 4294967295
336.57767 -55.36853 -79.62751 4294967295
336.58902 -62.758007 -82.046951 4294967295
336.61459 -54.476608 -79.572937 4294967295
336.61755 -62.330345 -81.85144 4294967295
336.64801 -61.42955 -81.905243 4294967295
336.64957 -54.056683 -79.269913 4294967295
336.65558 -60.966358 -82.059525 4294967295
336.66431 -53.60463 -79.305664 4294967295
336.71555 -60.115086 -81.620377 4294967295
336.71631 -60.592369 -81.326279 4294967295
336.74637 -67.993355 -83.422089 4294967295
336.75876 -59.711227 -81.179504 4294967295
336.76416 -51.860077 -78.763702 4294967295
336.76828 -58.77552 -81.582733 4294967295
336.78467 -50.941914 -78.985641 4294967295
336.79016 -51.425251 -78.611252 4294967295
336.79282 -59.291759 -80.892685 4294967295
336.79849 -58.349712 -81.359512 4294967295
336.82428 -66.700569 -82.96534 4294967295
336.82562 -66.22625 -83.222336 4294967295
336.82974 -50.536224 -78.514114 4294967295
336.83878 -65.772736 -83.283203 4294967295
336.84967 -57.957916 -80.787613 4294967295
336.86191 -57.502388 -80.863937 4294967295
336.86755 -65.346519 -83.083733 4294967295
336.89844 -57.086231 -80.536041 4294967295
336.93091 -64.980072 -82.309479 4294967295
336.94983 -64.059807 -82.554092 4294967295
336.98004 -56.266869 -79.737946 4294967295
336.98544 -63.644585 -82.242264 4294967295
336.99097 -55.808868 -79.836807 4294967295
337.00439 -62.724682 -82.485519 4294967295
337.02084 -55.381184 -79.619888 4294967295
337.02344 -63.233265 -81.889969 4294967295
337.03342 -54.925835 -79.691269 4294967295
337.0383 -54.458374 -79.890839 4294967295
337.06546 -53.551285 -79.999336 4294967295
337.07999 -62.376743 -81.509834 4294967295
337.10138 -61.936661 -81.43396 4294967295
337.1062 -61.468639 -81.633667 4294967295
337.13782 -61.045673 -81.387794 4294967295
337.16064 -53.22506 -78.696678 4294967295
337.16699 -52.759785 -78.872116 4294967295
337.1712 -52.291344 -79.082939 4294967295
337.17621 -67.984444 -83.611023 4294967295
337.17731 -51.826008 -79.262085 4294967295
337.20761 -59.258327 -81.347778 4294967295
337.21539 -59.746864 -80.939331 4294967295
337.23926 -67.619118 -82.845413 4294967295
337.26242 -66.706276 -83.018883 4294967295
337.26813 -51.015739 -78.313797 4294967295
337.27359 -67.202667 -82.555466 4294967295
337.29108 -66.27977 -82.822739 4294967295
337.31604 -57.533443 -80.666809 4294967295
337.32227 -58.019009 -80.284851 4294967295
337.32611 -65.864174 -82.521408 4294967295
337.33926 -65.410446 -82.582153 4294967295
337.34964 -57.112328 -80.389252 4294967295
337.37433 -64.994598 -82.28009 4294967295
337.38129 -64.530182 -82.443176 4294967295
337.38211 -64.055405 -82.707596 4294967295
337.41431 -63.634239 -82.454285 4294967295
337.41644 -55.793472 -80.120842 4294967295
337.42224 -56.27803 -79.745308 4294967295
337.44107 -55.357483 -79.991898 4294967295
337.46667 -63.247173 -81.866982 4294967295
337.46902 -54.92662 -79.808258 4294967295
337.48666 -62.328979 -82.091934 4294967295
337.49817 -54.497433 -79.605324 4294967295
337.53101 -54.073868 -79.341499 4294967295
337.5538 -61.014057 -81.81707 4294967295
337.55453 -61.966991 -81.249481 4294967295
337.56076 -61.501423 -81.424568 4294967295
337.58569 -53.684158 -78.715874 4294967295
337.58871 -52.739052 -79.222931 4294967295
337.61267 -53.250938 -78.549072 4294967295
337.61349 -51.827934 -79.371521 4294967295
337.62427 -52.319069 -78.914452 4294967295
337.64148 -59.732086 -81.205124 4294967295
337.6554 -60.230759 -80.697296 4294967295
337.66724 -67.130386 -83.342957 4294967295
337.68063 -67.630394 -82.845993 4294967295
337.68567 -51.463524 -78.45858 4294967295
337.6904 -66.694435 -83.238129 4294967295
337.70398 -51.016766 -78.43457 4294967295
337.70575 -59.361828 -80.422821 4294967295
337.71881 -58.431976 -80.762833 4294967295
337.73511 -65.819405 -83.056198 4294967295
337.73645 -66.298004 -82.757965 4294967295
337.73758 -50.592995 -78.158981 4294967295
337.76041 -58.023872 -80.355347 4294967295
337.77939 -57.579136 -80.319946 4294967295
337.79233 -65.441727 -82.392517 4294967295
337.80908 -56.676228 -80.38649 4294967295
337.81448 -65.003418 -82.305267 4294967295
337.81784 -57.165401 -79.965408 4294967295
337.83295 -64.558792 -82.278282 4294967295
337.84018 -56.250668 -80.151749 4294967295
337.86539 -64.137901 -82.021729 4294967295
337.90991 -55.410759 -79.55986 4294967295
337.91983 -63.277882 -81.68029 4294967295
337.93024 -54.967739 -79.50206 4294967295
337.93387 -62.825527 -81.725945 4294967295
337.94107 -62.36171 -81.88446 4294967295
337.96793 -54.551575 -79.161133 4294967295
337.99808 -54.123608 -78.942108 4294967295
338.01099 -61.051022 -81.565773 4294967295
338.01212 -62.00444 -80.995193 4294967295
338.02448 -53.214775 -79.062622 4294967295
338.03314 -61.563423 -80.92662 4294967295
338.04111 -52.291176 -79.343857 4294967295
338.04904 -52.777908 -78.935768 4294967295
338.09546 -68.071823 -83.005844 4294967295
338.11761 -59.799492 -80.646042 4294967295
338.12314 -67.643616 -82.828247 4294967295
338.12857 -51.47533 -78.461807 4294967295
338.13464 -59.351665 -80.643433 4294967295
338.1424 -58.888874 -80.792175 4294967295
338.14453 -67.20433 -82.753616 4294967295
338.14902 -66.735733 -82.955444 4294967295
338.15048 -51.033943 -78.379509 4294967295
338.16461 -50.580845 -78.424408 4294967295
338.1676 -58.454334 -80.655289 4294967295
338.22098 -58.064903 -80.057327 4294967295
338.22113 -57.589893 -80.330559 4294967295
338.22787 -65.919121 -82.215752 4294967295
338.22925 -65.445267 -82.468071 4294967295
338.24036 -50.21981 -77.459213 4294967295
338.27847 -64.101089 -82.488457 4294967295
338.28247 -64.583771 -82.14827 4294967295
338.28387 -65.062294 -81.850662 4294967295
338.28802 -56.746117 -79.787521 4294967295
338.29639 -56.284248 -79.926849 4294967295
338.32669 -63.706596 -81.975861 4294967295
338.33646 -55.397461 -79.823013 4294967295
338.34586 -55.887207 -79.392998 4294967295
338.35361 -54.949551 -79.817932 4294967295
338.3558 -63.279633 -81.775612 4294967295
338.36423 -62.81797 -81.91272 4294967295
338.36526 -54.493057 -79.903175 4294967295
338.41882 -62.433155 -81.297279 4294967295
338.42517 -54.111164 -79.200287 4294967295
338.45193 -62.012299 -81.031937 4294967295
338.45364 -61.539444 -81.278458 4294967295
338.46817 -53.702705 -78.773712 4294967295
338.47818 -61.104282 -81.152954 4294967295
338.49924 -60.663322 -81.084137 4294967295
338.51532 -53.300236 -78.279823 4294967295
338.5228 -68.058907 -83.2323 4294967295
338.52371 -60.227909 -80.959381 4294967295
338.53876 -52.861275 -78.172272 4294967295
338.54163 -51.916538 -78.675781 4294967295
338.55399 -51.460865 -78.749771 4294967295
338.56006 -59.811562 -80.642319 4294967295
338.5618 -67.650314 -82.871658 4294967295
338.5827 -59.372803 -80.548615 4294967295
338.58484 -67.213867 -82.770782 4294967295
338.61325 -66.786583 -82.582413 4294967295
338.62231 -58.486107 -80.45208 4294967295
338.62344 -66.327927 -82.690186 4294967295
338.62964 -50.625679 -78.067032 4294967295
338.6655 -57.604935 -80.297485 4294967295
338.67358 -65.461479 -82.422348 4294967295
338.67596 -58.096722 -79.852982 4294967295
338.69086 -50.242367 -77.345215 4294967295
338.70422 -64.561714 -82.471085 4294967295
338.71475 -65.055367 -82.026932 4294967295
338.71515 -56.733639 -80.038452 4294967295
338.73184 -57.234989 -79.493324 4294967295
338.75491 -56.321232 -79.666801 4294967295
338.79019 -63.754581 -81.62233 4294967295
338.79831 -54.964809 -79.78299 4294967295
338.80698 -63.306824 -81.623184 4294967295
338.8251 -62.861313 -81.602264 4294967295
338.85834 -54.108486 -79.355148 4294967295
338.8623 -61.971756 -81.545303 4294967295
338.88443 -53.673996 -79.205765 4294967295
338.93719 -61.619225 -80.60498 4294967295
338.9375 -61.14426 -80.871796 4294967295
338.95364 -53.305 -78.357056 4294967295
338.9664 -52.375347 -78.698334 4294967295
338.97586 -68.090752 -83.040329 4294967295
338.9762 -52.864655 -78.265091 4294967295
338.9838 -60.744148 -80.395554 4294967295
339.00974 -60.310707 -80.24852 4294967295
339.01038 -59.836357 -80.51088 4294967295
339.03726 -67.244217 -82.591904 4294967295
339.05289 -66.319084 -82.882111 4294967295
339.08395 -65.896049 -82.652512 4294967295
339.08463 -66.849113 -82.099182 4294967295
339.09921 -65.446236 -82.677139 4294967295
339.10184 -50.680824 -77.597145 4294967295
339.10663 -50.213768 -77.792542 4294967295
339.18546 -57.264133 -79.31543 4294967295
339.19833 -64.185722 -81.892929 4294967295
339.20081 -56.813255 -79.339432 4294967295
339.20145 -55.864735 -79.874039 4294967295
339.20209 -56.340401 -79.591141 4294967295
339.23932 -63.302734 -81.77533 4294967295
339.24936 -63.795071 -81.341431 4294967295
339.26248 -55.484684 -79.161057 4294967295
339.26401 -55.012455 -79.408569 4294967295
339.28174 -62.421978 -81.633965 4294967295
339.28195 -54.565598 -79.390976 4294967295
339.28275 -62.899044 -81.346596 4294967295
339.32458 -62.016861 -81.2155 4294967295
339.37012 -61.14053 -81.024277 4294967295
339.37674 -53.761284 -78.406708 4294967295
339.41495 -68.098503 -83.073608 4294967295
339.42377 -52.883438 -78.192703 4294967295
339.43369 -60.768124 -80.272888 4294967295
339.43369 -51.949875 -78.576706 4294967295
339.4343 -67.655685 -83.033859 4294967295
339.44266 -60.307297 -80.399368 4294967295
339.44849 -67.204201 -83.07531 4294967295
339.4751 -51.537525 -78.181168 4294967295
339.47934 -59.890923 -80.08091 4294967295
339.48856 -59.430531 -80.203308 4294967295
339.49359 -66.32946 -82.891617 4294967295
339.50864 -66.830757 -82.380081 4294967295
339.50998 -50.641155 -78.16333 4294967295
339.51099 -58.991226 -80.113312 4294967295
339.51733 -51.125996 -77.773376 4294967295
339.5397 -50.210941 -77.957001 4294967295
339.54117 -58.564056 -79.899567 4294967295
339.55939 -65.964935 -82.105667 4294967295
339.56409 -65.497101 -82.300461 4294967295
339.57935 -58.149361 -79.556969 4294967295
339.58054 -57.676273 -79.809067 4294967295
339.60114 -57.233887 -79.747803 4294967295
339.61258 -56.777042 -79.835159 4294967295
339.63382 -56.335449 -79.76535 4294967295
339.66385 -64.236801 -81.510788 4294967295
339.67755 -63.783958 -81.560776 4294967295
339.67844 -63.310066 -81.816223 4294967295
339.67892 -55.930672 -79.312119 4294967295
339.69873 -62.868279 -81.759895 4294967295
339.69989 -55.488487 -79.245773 4294967295
339.72052 -62.428726 -81.68129 4294967295
339.7598 -54.631222 -78.826057 4294967295
339.7666 -54.167152 -78.988174 4294967295
339.77307 -62.03923 -81.109467 4294967295
339.80463 -61.615234 -80.874039 4294967295
339.82065 -53.774723 -78.391388 4294967295
339.83472 -53.321579 -78.436668 4294967295
339.86353 -68.122444 -82.955627 4294967295
339.86627 -61.239552 -80.157776 4294967295
339.88544 -52.923374 -77.894455 4294967295
339.89249 -60.806412 -80.007751 4294967295
339.89325 -60.33242 -80.26506 4294967295
339.89972 -59.867764 -80.430656 4294967295
339.90878 -52.009655 -78.062012 4294967295
339.91638 -67.736694 -82.380554 4294967295
339.93616 -67.294373 -82.333633 4294967295
339.93784 -66.34597 -82.843079 4294967295
339.94235 -59.460548 -80.018997 4294967295
339.96774 -58.551018 -80.151413 4294967295
339.96869 -50.202457 -78.183624 4294967295
339.98032 -50.693192 -77.727325 4294967295
340.00769 -58.138992 -79.782684 4294967295
340.02554 -65.541908 -81.981697 4294967295
340.05377 -56.78701 -79.854561 4294967295
340.08603 -65.167076 -81.285568 4294967295
340.09448 -64.705467 -81.419113 4294967295
340.1131 -56.404095 -79.177399 4294967295
340.12915 -64.287132 -81.135658 4294967295
340.13098 -55.957054 -79.161423 4294967295
340.1337 -63.343948 -81.598816 4294967295
340.14041 -63.830219 -81.22403 4294967295
340.18488 -54.616352 -79.108429 4294967295
340.1922 -62.96423 -80.93573 4294967295
340.19748 -55.10973 -78.639099 4294967295
340.20398 -54.171074 -79.073257 4294967295
340.22412 -62.065601 -80.96405 4294967295
340.22922 -62.54911 -80.614655 4294967295
340.2561 -61.642151 -80.722939 4294967295
340.26355 -53.786621 -78.392525 4294967295
340.2746 -61.196854 -80.696671 4294967295
340.30203 -53.370014 -78.048553 4294967295
340.31625 -68.153419 -82.771935 4294967295
340.31866 -52.920586 -78.053009 4294967295
340.32947 -60.809544 -80.092896 4294967295
340.33618 -52.472538 -78.042717 4294967295
340.33746 -60.347343 -80.232742 4294967295
340.36908 -67.767197 -82.20079 4294967295
340.37253 -59.927979 -79.944092 4294967295
340.39474 -51.610935 -77.64801 4294967295
340.39563 -66.86058 -82.313164 4294967295
340.39972 -59.021225 -80.047546 4294967295
340.42096 -51.175354 -77.500214 4294967295
340.42856 -58.591774 -79.857178 4294967295
340.44476 -66.46727 -81.801315 4294967295
340.44757 -65.521072 -82.289864 4294967295
340.45041 -66.001129 -81.978561 4294967295
340.45108 -50.745445 -77.289177 4294967295
340.46918 -58.180508 -79.479782 4294967295
340.47949 -65.09864 -82.051315 4294967295
340.49216 -50.331131 -76.905106 4294967295
340.50479 -57.761089 -79.182953 4294967295
340.51437 -64.680977 -81.764999 4294967295
340.5502 -56.881943 -78.997643 4294967295
340.55637 -55.942642 -79.434914 4294967295
340.56522 -63.814049 -81.492416 4294967295
340.56668 -56.432777 -79.003319 4294967295
340.58316 -55.509357 -79.276596 4294967295
340.5867 -64.324394 -80.887016 4294967295
340.59933 -63.394459 -81.219589 4294967295
340.62692 -55.101486 -78.850555 4294967295
340.63095 -62.495613 -81.252625 4294967295
340.65283 -62.056004 -81.172646 4294967295
340.6716 -54.220474 -78.677734 4294967295
340.67993 -53.758953 -78.813263 4294967295
340.70316 -61.661854 -80.643112 4294967295
340.7319 -61.232822 -80.455444 4294967295
340.74637 -52.909996 -78.294998 4294967295
340.75244 -53.392967 -77.932098 4294967295
340.75876 -60.325912 -80.563606 4294967295
340.76788 -68.18232 -82.607643 4294967295
340.78964 -67.268158 -82.793922 4294967295
340.80942 -59.931213 -80.028984 4294967295
340.80963 -52.529396 -77.561378 4294967295
340.81406 -51.588158 -78.025757 4294967295
340.82483 -67.802597 -81.975204 4294967295
340.83942 -59.028992 -80.087761 4294967295
340.84412 -52.106018 -77.283127 4294967295
340.84854 -58.56881 -80.209549 4294967295
340.90015 -51.239742 -76.931709 4294967295
340.90338 -66.031487 -81.798279 4294967295
340.91861 -50.318817 -77.173782 4294967295
340.92456 -57.737804 -79.541985 4294967295
340.92642 -65.594254 -81.700348 4294967295
340.96249 -57.321705 -79.210236 4294967295
340.96909 -56.857498 -79.371887 4294967295
340.98502 -64.264961 -81.571701 4294967295
340.98755 -65.21949 -81.003052 4294967295
341.02274 -63.851212 -81.243912 4294967295
341.03491 -56.483589 -78.600113 4294967295
341.05609 -62.955269 -81.248962 4294967295
341.06146 -63.438896 -80.899643 4294967295
341.06219 -55.576263 -78.702576 4294967295
341.0795 -62.518135 -81.14534 4294967295
341.09189 -54.198956 -79.031555 4294967295
341.10422 -54.691257 -78.571716 4294967295
341.12375 -53.772671 -78.794876 4294967295
341.12552 -62.116989 -80.686707 4294967295
341.14511 -61.673462 -80.64325 4294967295
341.18268 -68.149315 -83.021454 4294967295
341.18448 -53.388748 -78.105042 4294967295
341.19589 -61.279198 -80.111069 4294967295
341.19714 -60.806442 -80.355911 4294967295
341.21671 -52.962353 -77.863785 4294967295
341.22638 -52.502724 -77.977524 4294967295
341.25369 -67.792885 -82.172485 4294967295
341.25797 -60.42746 -79.665802 4294967295
341.2674 -51.615246 -77.86351 4294967295
341.27734 -52.103397 -77.441666 4294967295
341.2789 -51.158401 -77.948151 4294967295
341.28232 -67.365181 -81.987892 4294967295
341.28946 -60.002052 -79.436043 4294967295
341.31454 -59.566467 -79.306671 4294967295
341.31824 -59.097591 -79.513138 4294967295
341.33038 -66.969635 -81.498291 4294967295
341.33197 -66.49688 -81.73671 4294967295
341.33606 -65.553383 -82.199661 4294967295
341.34055 -58.657585 -79.427963 4294967295
341.3436 -66.040833 -81.818031 4294967295
341.34366 -58.188019 -79.643463 4294967295
341.34891 -50.785812 -77.113503 4294967295
341.37854 -50.354767 -76.912849 4294967295
341.39789 -65.17955 -81.495529 4294967295
341.42227 -57.359852 -78.940094 4294967295
341.44498 -64.781143 -81.022385 4294967295
341.45151 -64.316696 -81.183304 4294967295
341.45282 -56.932049 -78.725555 4294967295
341.47119 -55.537567 -79.230698 4294967295
341.47461 -56.490757 -78.648926 4294967295
341.4783 -56.022217 -78.854897 4294967295
341.48175 -63.415745 -81.237 4294967295
341.50742 -63.932037 -80.57238 4294967295
341.51773 -55.133427 -78.765869 4294967295
341.51932 -54.662083 -79.004402 4294967295
341.53439 -63.025337 -80.677704 4294967295
341.5347 -62.551117 -80.935547 4294967295
341.58887 -53.817684 -78.444618 4294967295
341.58893 -54.291592 -78.179482 4294967295
341.59665 -61.700195 -80.493965 4294967295
341.5994 -62.179272 -80.188095 4294967295
341.6015 -53.362679 -78.510834 4294967295
341.62088 -61.263794 -80.379196 4294967295
341.63394 -52.936695 -78.266846 4294967295
341.67191 -60.869385 -79.845657 4294967295
341.67249 -68.241997 -82.261597 4294967295
341.67578 -52.524136 -77.877037 4294967295
341.69586 -52.079704 -77.827515 4294967295
341.7204 -66.895988 -82.300926 4294967295
341.73419 -60.017414 -79.399246 4294967295
341.76282 -59.112755 -79.478439 4294967295
341.76691 -59.593552 -79.152145 4294967295
341.77216 -58.652763 -79.596405 4294967295
341.78131 -50.782383 -77.283569 4294967295
341.7854 -51.261742 -76.956284 4294967295
341.78568 -50.315266 -77.479507 4294967295
341.79712 -65.59697 -81.892738 4294967295
341.82513 -57.785427 -79.296432 4294967295
341.8436 -58.287979 -78.745216 4294967295
341.84518 -65.200287 -81.406456 4294967295
341.87427 -56.911865 -79.055771 4294967295
341.87582 -64.775002 -81.191902 4294967295
341.87964 -56.445992 -79.235138 4294967295
341.90414 -64.345764 -81.013748 4294967295
341.90576 -63.399036 -81.511757 4294967295
341.91321 -56.022545 -78.975044 4294967295
341.94208 -63.931866 -80.685677 4294967295
341.96738 -63.022739 -80.815887 4294967295
341.97601 -54.694885 -78.784981 4294967295
341.98901 -62.582527 -80.741104 4294967295
342.02069 -62.15807 -80.510956 4294967295
342.03375 -61.704166 -80.569504 4294967295
342.03888 -53.366859 -78.594193 4294967295
342.04086 -54.316864 -78.038895 4294967295
342.04529 -53.849689 -78.232361 4294967295
342.0777 -61.298607 -80.149567 4294967295
342.0954 -52.975731 -77.97821 4294967295
342.11261 -60.878716 -79.86879 4294967295
342.12039 -52.538494 -77.852295 4294967295
342.13382 -52.084473 -77.90625 4294967295
342.14883 -60.460594 -79.568321 4294967295
342.15149 -51.636627 -77.893867 4294967295
342.15259 -67.842445 -81.920486 4294967295
342.17404 -67.402649 -81.849037 4294967295
342.19049 -60.050598 -79.183929 4294967295
342.19159 -51.220779 -77.533508 4294967295
342.19482 -59.582794 -79.378525 4294967295
342.20151 -66.972641 -81.684616 4294967295
342.2038 -59.12233 -79.500458 4294967295
342.22427 -50.321022 -77.549706 4294967295
342.22845 -58.211864 -79.640701 4294967295
342.2529 -66.581612 -81.14978 4294967295
342.25397 -57.776665 -79.506729 4294967295
342.26642 -66.12851 -81.201279 4294967295
342.26947 -65.1838 -81.674301 4294967295
342.27084 -65.660751 -81.393036 4294967295
342.30145 -57.374481 -79.032837 4294967295
342.34494 -56.492043 -78.881287 4294967295
342.34702 -64.833862 -80.736359 4294967295
342.35818 -56.985851 -78.415199 4294967295
342.36871 -63.919117 -80.920807 4294967295
342.41513 -63.518311 -80.463959 4294967295
342.41913 -55.654865 -78.255348 4294967295
342.43198 -62.595856 -80.724045 4294967295
342.4386 -55.2099 -78.214737 4294967295
342.44641 -62.144264 -80.760696 4294967295
342.45612 -63.108513 -80.091431 4294967295
342.4715 -54.784576 -77.967255 4294967295
342.49536 -54.345856 -77.859299 4294967295
342.51678 -53.903446 -77.789459 4294967295
342.5177 -61.307068 -80.18103 4294967295
342.52747 -61.796738 -79.770264 4294967295
342.53943 -60.866539 -80.10611 4294967295
342.54791 -67.778221 -82.628494 4294967295
342.54953 -53.477428 -77.544708 4294967295
342.5611 -68.274719 -82.167206 4294967295
342.60059 -60.486893 -79.422348 4294967295
342.60114 -52.1315 -77.529449 4294967295
342.61731 -60.0383 -79.424683 4294967295
342.62308 -59.572945 -79.595642 4294967295
342.62308 -51.689587 -77.451447 4294967295
342.62708 -51.222099 -77.650864 4294967295
342.63406 -67.444489 -81.562256 4294967295
342.63828 -58.648296 -79.880371 4294967295
342.65903 -66.535362 -81.695953 4294967295
342.66275 -66.066734 -81.897255 4294967295
342.67026 -59.170929 -79.128159 4294967295
342.67593 -67.037827 -81.176834 4294967295
342.70053 -65.65313 -81.574844 4294967295
342.73312 -57.84396 -78.939331 4294967295
342.7471 -50.445347 -76.319672 4294967295
342.75272 -65.262344 -81.03157 4294967295
342.76709 -57.421059 -78.675995 4294967295
342.78036 -64.831833 -80.86615 4294967295
342.78049 -63.883129 -81.38092 4294967295
342.78149 -56.968735 -78.713852 4294967295
342.79968 -56.522041 -78.693672 4294967295
342.81149 -56.065918 -78.771416 4294967295
342.83923 -55.633327 -78.604271 4294967295
342.84744 -55.171928 -78.737473 4294967295
342.86053 -63.535355 -80.41037 4294967295
342.90402 -62.180546 -80.517937 4294967295
342.91956 -54.804039 -77.88842 4294967295
342.93301 -61.27742 -80.590225 4294967295
342.93335 -53.877197 -78.195068 4294967295
342.94858 -61.775635 -80.093384 4294967295
342.9588 -60.843292 -80.4534 4294967295
342.96503 -53.449715 -77.967636 4294967295
342.98145 -68.251854 -82.486252 4294967295
342.98737 -53.008667 -77.883316 4294967295
343.0256 -67.37468 -82.325638 4294967295
343.04416 -51.670502 -77.789062 4294967295
343.04434 -60.02668 -79.658539 4294967295
343.04639 -60.503902 -79.369209 4294967295
343.06799 -59.114899 -79.813019 4294967295
343.07492 -51.24107 -77.576241 4294967295
343.08759 -52.205357 -76.863411 4294967295
343.09933 -66.070518 -81.96965 4294967295
343.10614 -67.030785 -81.350609 4294967295
343.12289 -58.724186 -79.229889 4294967295
343.13336 -65.650719 -81.707024 4294967295
343.14029 -66.611099 -81.086502 4294967295
343.16296 -50.89196 -76.484802 4294967295
343.16925 -57.846291 -79.036224 4294967295
343.17242 -58.32486 -78.729935 4294967295
343.19116 -57.405319 -78.959084 4294967295
343.20871 -56.957806 -78.948669 4294967295
343.21643 -65.309013 -80.694229 4294967295
343.23773 -56.527225 -78.762955 4294967295
343.24539 -64.880356 -80.509857 4294967295
343.2478 -56.068645 -78.86657 4294967295
343.25125 -64.415085 -80.67762 4294967295
343.25366 -63.47039 -81.154274 4294967295
343.28287 -55.646759 -78.588364 4294967295
343.30438 -63.075661 -80.637833 4294967295
343.32953 -55.241554 -78.13324 4294967295
343.34024 -62.183357 -80.604385 4294967295
343.34097 -62.658623 -80.335976 4294967295
343.37216 -54.83012 -77.739899 4294967295
343.38477 -54.374996 -77.804512 4294967295
343.39206 -61.315517 -80.328018 4294967295
343.41602 -53.473373 -77.843735 4294967295
343.43341 -60.431335 -80.210495 4294967295
343.45059 -68.308823 -82.060066 4294967295
343.45197 -53.051682 -77.552292 4294967295
343.47638 -52.613361 -77.436882 4294967295
343.48584 -67.891518 -81.779236 4294967295
343.48932 -59.568882 -79.872711 4294967295
343.49661 -52.168976 -77.385864 4294967295
343.50378 -67.445946 -81.762131 4294967295
343.50516 -66.973663 -81.997124 4294967295
343.5394 -51.756325 -76.990921 4294967295
343.55673 -59.196976 -79.102333 4294967295
343.58365 -51.345444 -76.573425 4294967295
343.59415 -58.305569 -79.046478 4294967295
343.60968 -65.717766 -81.1763 4294967295
343.60977 -50.908867 -76.432907 4294967295
343.61292 -65.248619 -81.382568 4294967295
343.62964 -66.224228 -80.616905 4294967295
343.63843 -57.424324 -78.885376 4294967295
343.64404 -50.483517 -76.16806 4294967295
343.66043 -64.849602 -80.916023 4294967295
343.66501 -56.516731 -78.994308 4294967295
343.66919 -63.915077 -81.29451 4294967295
343.69763 -64.433868 -80.607315 4294967295
343.69852 -63.487041 -81.104439 4294967295
343.74191 -56.15612 -78.081436 4294967295
343.74539 -63.086079 -80.648895 4294967295
343.75217 -62.622681 -80.801437 4294967295
343.76593 -55.717636 -77.973457 4294967295
343.78357 -55.269901 -77.961319 4294967295
343.80634 -62.232445 -80.235687 4294967295
343.81323 -61.769226 -80.386124 4294967295
343.85233 -53.949196 -77.68605 4294967295
343.8587 -60.891281 -80.207924 4294967295
343.88358 -53.520679 -77.468002 4294967295
343.88391 -53.048096 -77.719208 4294967295
343.90216 -60.483673 -79.804512 4294967295
343.90677 -68.344467 -81.832832 4294967295
343.91989 -67.891121 -81.889038 4294967295
343.9295 -52.166779 -77.539665 4294967295
343.94382 -66.980965 -82.03537 4294967295
343.9444 -60.073891 -79.420059 4294967295
343.96686 -59.634007 -79.33522 4294967295
343.99097 -66.582054 -81.577339 4294967295
343.99521 -59.202835 -79.161743 4294967295
344.00391 -51.798355 -76.667023 4294967295
344.04373 -65.243317 -81.542877 4294967295
344.04565 -50.437782 -76.802811 4294967295
344.0643 -58.358681 -78.625717 4294967295
344.06848 -50.942314 -76.200348 4294967295
344.08514 -57.442429 -78.820953 4294967295
344.0932 -56.980961 -78.954178 4294967295
344.09509 -65.798752 -80.51268 4294967295
344.15048 -56.591507 -78.343491 4294967295
344.15854 -64.475372 -80.317871 4294967295
344.16095 -63.530952 -80.789734 4294967295
344.18576 -64.043579 -80.161469 4294967295
344.19061 -55.230286 -78.501083 4294967295
344.24228 -54.831612 -77.975594 4294967295
344.24698 -62.716068 -80.000092 4294967295
344.25784 -54.380859 -77.995514 4294967295
344.27072 -62.278557 -79.896446 4294967295
344.27481 -53.932137 -77.994019 4294967295
344.30203 -60.905098 -80.186401 4294967295
344.32654 -61.416054 -79.562592 4294967295
344.33762 -60.485386 -79.904076 4294967295
344.35013 -53.093121 -77.366615 4294967295
344.36206 -68.37838 -81.621925 4294967295
344.37741 -60.071808 -79.558105 4294967295
344.40594 -59.641037 -79.382515 4294967295
344.41803 -67.993782 -81.0336 4294967295
344.42105 -51.774025 -77.061256 4294967295
344.43805 -66.602531 -81.491364 4294967295
344.44272 -52.277283 -76.478821 4294967295
344.44803 -67.092682 -81.088562 4294967295
344.44955 -67.569664 -80.812439 4294967295
344.47162 -51.371552 -76.553215 4294967295
344.4931 -58.823772 -78.577881 4294967295
344.50092 -65.279602 -81.305099 4294967295
344.50412 -50.470901 -76.573128 4294967295
344.50711 -50.947792 -76.273125 4294967295
344.52942 -58.403908 -78.285278 4294967295
344.53735 -65.810921 -80.505783 4294967295
344.53833 -57.943436 -78.405251 4294967295
344.56876 -57.041248 -78.455139 4294967295
344.57294 -57.520763 -78.138412 4294967295
344.5957 -56.60722 -78.303688 4294967295
344.59653 -64.955109 -80.122513 4294967295
344.61829 -64.514793 -80.048454 4294967295
344.62085 -56.170532 -78.178741 4294967295
344.62222 -64.046738 -80.242485 4294967295
344.63364 -55.715878 -78.24015 4294967295
344.64127 -63.602188 -80.209534 4294967295
344.68152 -63.190208 -79.858459 4294967295
344.68527 -62.24839 -80.307068 4294967295
344.70718 -61.808167 -80.231033 4294967295
344.71884 -62.773479 -79.551239 4294967295
344.73007 -54.907944 -77.298706 4294967295
344.74777 -61.396137 -79.875259 4294967295
344.75186 -53.992737 -77.478844 4294967295
344.75702 -60.93655 -79.989548 4294967295
344.77475 -53.552143 -77.388947 4294967295
344.78699 -60.50819 -79.793015 4294967295
344.80142 -53.116817 -77.241951 4294967295
344.83545 -59.633961 -79.571594 4294967295
344.84818 -67.986984 -81.203445 4294967295
344.84918 -67.040192 -81.691086 4294967295
344.85861 -60.141964 -78.972275 4294967295
344.87411 -67.553947 -81.066971 4294967295
344.88229 -58.756874 -79.375671 4294967295
344.88864 -51.82008 -76.693878 4294967295
344.89728 -66.642258 -81.223114 4294967295
344.89807 -50.887924 -77.059006 4294967295
344.89905 -59.254967 -78.872574 4294967295
344.91586 -65.72345 -81.449203 4294967295
344.9231 -51.394981 -76.430374 4294967295
344.94547 -65.296005 -81.257614 4294967295
344.94821 -66.248245 -80.714256 4294967295
344.96378 -50.505512 -76.327087 4294967295
344.96558 -58.406235 -78.381699 4294967295
344.99396 -57.974472 -78.208939 4294967295
344.99631 -64.90123 -80.750633 4294967295
345.04242 -57.098282 -77.989616 4294967295
345.04565 -64.503799 -80.265434 4294967295
345.05493 -56.170082 -78.306961 4294967295
345.06418 -63.584732 -80.491165 4294967295
345.06485 -56.65749 -77.906647 4294967295
345.07645 -64.077408 -80.057014 4294967295
345.09912 -63.164574 -80.221329 4294967295
345.12006 -55.790581 -77.585419 4294967295
345.1366 -62.747978 -79.91433 4294967295
345.14059 -55.346794 -77.531174 4294967295
345.14682 -54.882656 -77.690277 4294967295
345.16458 -62.316872 -79.747887 4294967295
345.18143 -61.868725 -79.748123 4294967295
345.19458 -54.477463 -77.22863 4294967295
345.21225 -54.029381 -77.217606 4294967295
345.23196 -60.997719 -79.49733 4294967295
345.24387 -53.128159 -77.249405 4294967295
345.24634 -68.403809 -81.595749 4294967295
345.28064 -59.650261 -79.525528 4294967295
345.30115 -60.627567 -78.718033 4294967295
345.32736 -67.583961 -80.891571 4294967295
345.32947 -67.113083 -81.110748 4294967295
345.33746 -66.65168 -81.241638 4294967295
345.3504 -51.385208 -76.668365 4294967295
345.36359 -59.299461 -78.541786 4294967295
345.36713 -51.880875 -76.166992 4294967295
345.37607 -58.371262 -78.857658 4294967295
345.37894 -50.951782 -76.494736 4294967295
345.39819 -50.505558 -76.45993 4294967295
345.39868 -66.273544 -80.582306 4294967295
345.41714 -65.354408 -80.808044 4294967295
345.42712 -65.843826 -80.410027 4294967295
345.4299 -64.900406 -80.868835 4294967295
345.46252 -57.55072 -78.073898 4294967295
345.466 -57.082642 -78.272888 4294967295
345.49313 -64.524124 -80.180405 4294967295
345.49423 -56.650307 -78.103592 4294967295
345.49481 -63.579407 -80.655182 4294967295
345.49695 -64.056229 -80.373703 4294967295
345.50876 -56.19817 -78.138763 4294967295
345.55756 -62.727936 -80.224068 4294967295
345.56885 -55.811035 -77.496429 4294967295
345.57111 -62.275124 -80.27224 4294967295
345.57458 -63.227337 -79.721794 4294967295
345.57733 -54.877296 -77.872231 4294967295
345.57831 -55.351444 -77.607361 4294967295
345.60965 -54.450157 -77.643127 4294967295
345.63202 -61.893349 -79.619713 4294967295
345.65063 -61.447853 -79.593567 4294967295
345.66208 -54.051056 -77.114975 4294967295
345.68427 -53.609264 -77.036819 4294967295
345.69293 -61.037632 -79.216339 4294967295
345.70651 -67.97113 -81.564133 4294967295
345.72827 -52.725014 -76.885712 4294967295
345.72946 -60.618469 -78.925568 4294967295
345.7341 -59.678871 -79.355637 4294967295
345.74521 -67.08429 -81.489563 4294967295
345.7514 -67.567894 -81.149361 4294967295
345.77591 -66.658501 -81.28495 4294967295
345.7796 -51.850677 -76.624664 4294967295
345.7811 -58.801758 -79.158958 4294967295
345.78845 -51.390327 -76.744278 4294967295
345.80029 -52.351761 -76.067047 4294967295
345.80682 -59.312473 -78.528999 4294967295
345.82089 -66.254852 -80.868446 4294967295
345.84558 -65.819298 -80.753136 4294967295
345.85638 -58.438305 -78.295288 4294967295
345.86249 -64.898201 -81.000183 4294967295
345.86707 -57.980682 -78.386795 4294967295
345.86749 -65.379456 -80.677948 4294967295
345.87546 -50.563789 -75.955185 4294967295
345.87854 -51.040466 -75.659607 4294967295
345.92404 -64.045517 -80.588753 4294967295
345.93405 -57.131149 -77.895256 4294967295
345.94342 -63.601631 -80.551208 4294967295
345.95389 -64.564636 -79.900551 4294967295
345.97095 -56.710964 -77.599152 4294967295
345.97577 -55.772026 -78.027359 4294967295
346.02518 -54.896538 -77.795517 4294967295
346.07175 -61.90163 -79.652802 4294967295
346.08289 -62.391743 -79.240036 4294967295
346.10254 -61.474258 -79.447327 4294967295
346.11725 -53.607407 -77.184456 4294967295
346.13062 -54.098679 -76.737534 4294967295
346.14059 -61.057472 -79.135101 4294967295
346.15292 -60.60247 -79.201729 4294967295
346.15421 -53.1861 -76.887619 4294967295
346.15662 -67.996452 -81.433075 4294967295
346.16574 -60.148273 -79.26091 4294967295
346.18314 -59.700752 -79.253464 4294967295
346.21005 -52.790409 -76.313477 4294967295
346.21494 -59.2743 -79.033142 4294967295
346.22995 -52.345131 -76.268646 4294967295
346.25171 -58.854836 -78.740234 4294967295
346.25858 -51.911655 -76.095879 4294967295
346.2699 -66.751678 -80.510727 4294967295
346.27228 -58.411694 -78.685982 4294967295
346.28128 -66.295509 -80.590599 4294967295
346.28455 -57.95657 -78.75383 4294967295
346.30157 -65.379517 -80.78701 4294967295
346.3089 -51.03492 -75.852638 4294967295
346.35666 -57.114475 -78.189087 4294967295
346.35687 -57.587627 -77.938065 4294967295
346.36246 -56.65004 -78.351807 4294967295
346.36493 -65.002899 -80.104584 4294967295
346.37909 -64.550941 -80.143463 4294967295
346.43799 -63.693161 -79.773987 4294967295
346.44382 -55.81987 -77.652679 4294967295
346.46381 -63.258579 -79.642578 4294967295
346.48367 -62.341789 -79.844925 4294967295
346.49915 -55.42498 -77.08757 4294967295
346.51944 -54.980633 -77.037521 4294967295
346.52139 -54.510719 -77.256729 4294967295
346.52271 -62.873455 -79.026161 4294967295
346.54379 -61.957981 -79.21154 4294967295
346.56839 -61.048073 -79.344414 4294967295
346.57892 -54.11792 -76.660889 4294967295
346.58627 -53.655537 -76.800339 4294967295
346.59259 -60.6106 -79.237267 4294967295
346.6279 -67.580986 -81.2397 4294967295
346.64349 -52.316723 -76.704819 4294967295
346.65546 -60.229565 -78.563889 4294967295
346.65582 -52.805969 -76.275955 4294967295
346.67328 -66.704178 -81.068146 4294967295
346.68234 -58.849792 -78.910629 4294967295
346.68555 -51.901588 -76.335754 4294967295
346.68579 -59.327682 -78.612671 4294967295
346.69489 -66.264038 -80.99791 4294967295
346.74597 -50.566357 -76.193542 4294967295
346.75024 -65.401978 -80.681686 4294967295
346.75171 -51.046249 -75.861526 4294967295
346.77161 -57.559841 -78.344368 4294967295
346.78024 -58.044907 -77.971954 4294967295
346.8092 -57.140633 -78.041664 4294967295
346.8114 -65.021599 -80.035141 4294967295
346.82523 -64.569122 -80.078979 4294967295
346.85437 -56.259193 -77.875557 4294967295
346.86273 -64.15242 -79.777008 4294967295
346.87408 -63.696064 -79.85788 4294967295
346.90594 -55.859093 -77.368134 4294967295
346.93134 -55.421951 -77.244156 4294967295
346.94214 -63.324623 -79.111259 4294967295
346.95129 -62.864883 -79.223465 4294967295
346.95563 -61.925011 -79.651367 4294967295
346.96936 -62.418427 -79.205856 4294967295
346.98645 -54.081066 -77.17836 4294967295
346.98904 -55.029716 -76.64743 4294967295
346.99832 -61.514969 -79.274712 4294967295
347.02286 -60.605091 -79.408699 4294967295
347.02716 -61.084282 -79.100433 4294967295
347.07352 -67.599121 -81.175896 4294967295
347.07956 -53.263973 -76.313004 4294967295
347.08502 -60.222813 -78.748779 4294967295
347.10092 -59.773006 -78.76265 4294967295
347.10519 -51.881989 -76.678558 4294967295
347.11011 -52.360756 -76.360657 4294967295
347.12274 -68.149178 -80.215485 4294967295
347.12439 -67.204117 -80.681183 4294967295
347.12466 -51.436203 -76.640907 4294967295
347.13501 -59.349415 -78.511833 4294967295
347.1366 -66.749367 -80.748306 4294967295
347.13834 -58.881458 -78.708862 4294967295
347.16074 -65.839546 -80.887131 4294967295
347.16812 -51.022438 -76.253754 4294967295
347.20642 -66.382744 -79.978622 4294967295
347.22263 -57.583874 -78.219231 4294967295
347.24155 -57.138168 -78.189011 4294967295
347.26242 -65.520714 -79.654953 4294967295
347.28113 -65.075462 -79.628067 4294967295
347.28192 -64.603271 -79.860657 4294967295
347.30197 -56.278179 -77.801941 4294967295
347.31564 -55.824932 -77.848251 4294967295
347.31778 -56.772953 -77.326599 4294967295
347.31802 -64.184105 -79.581833 4294967295
347.3421 -62.800636 -79.965652 4294967295
347.36273 -55.418064 -77.40979 4294967295
347.42218 -55.027985 -76.791252 4294967295
347.43958 -61.525543 -79.28537 4294967295
347.45557 -54.129093 -76.796677 4294967295
347.45853 -54.605568 -76.50885 4294967295
347.46399 -62.034393 -78.687134 4294967295
347.51205 -61.158424 -78.479523 4294967295
347.51395 -53.736488 -76.194977 4294967295
347.51559 -59.745129 -79.160728 4294967295
347.5238 -53.277504 -76.297028 4294967295
347.53143 -52.343529 -76.676239 4294967295
347.53494 -52.820362 -76.380241 4294967295
347.53629 -60.720551 -78.373367 4294967295
347.53848 -60.250801 -78.585655 4294967295
347.5437 -67.654991 -80.757584 4294967295
347.55276 -59.326027 -78.866425 4294967295
347.57257 -67.22583 -80.583527 4294967295
347.57376 -68.175011 -80.079788 4294967295
347.62054 -51.991096 -75.62941 4294967295
347.6297 -58.490685 -78.24202 4294967295
347.63382 -51.064548 -75.926773 4294967295
347.6442 -58.038742 -78.27607 4294967295
347.64807 -65.920677 -80.222549 4294967295
347.64926 -66.395889 -79.962326 4294967295
347.66083 -64.993607 -80.524391 4294967295
347.66568 -57.59663 -78.209671 4294967295
347.68698 -50.663006 -75.401367 4294967295
347.69922 -65.524551 -79.727936 4294967295
347.71765 -64.605736 -79.947662 4294967295
347.73474 -56.276505 -77.942719 4294967295
347.74127 -56.757965 -77.604218 4294967295
347.74142 -57.230679 -77.358612 4294967295
347.745 -64.173477 -79.796036 4294967295
347.76749 -55.849758 -77.713692 4294967295
347.78888 -55.407234 -77.647903 4294967295
347.81244 -62.854488 -79.551865 4294967295
347.82068 -62.393799 -79.67572 4294967295
347.85416 -55.024918 -76.949074 4294967295
347.86121 -54.090282 -77.334885 4294967295
347.87051 -54.575119 -76.956375 4294967295
347.87473 -62.000023 -79.140732 4294967295
347.89624 -61.085915 -79.315979 4294967295
347.90799 -61.57568 -78.904259 4294967295
347.94943 -53.738132 -76.305344 4294967295
347.95801 -52.805485 -76.669098 4294967295
347.96063 -60.233685 -78.874245 4294967295
347.96304 -53.284336 -76.352646 4294967295
347.98199 -60.737236 -78.323425 4294967295
347.98703 -68.142914 -80.486275 4294967295
347.98749 -59.799709 -78.729813 4294967295
347.98929 -52.375557 -76.46138 4294967295
347.99744 -59.341393 -78.830009 4294967295
348.00177 -67.69191 -80.517471 4294967295
348.03555 -67.270126 -80.273193 4294967295
348.05713 -66.829529 -80.205299 4294967295
348.06671 -65.897621 -80.551376 4294967295
348.06885 -58.497959 -78.287949 4294967295
348.06946 -52.010605 -75.5495 4294967295
348.09293 -51.569672 -75.454742 4294967295
348.10278 -57.601135 -78.284698 4294967295
348.10648 -65.484329 -80.222481 4294967295
348.11801 -51.130806 -75.336823 4294967295
348.12234 -50.192726 -75.761391 4294967295
348.13257 -58.115414 -77.613602 4294967295
348.1347 -50.68079 -75.339905 4294967295
348.14774 -57.191795 -77.88089 4294967295
348.17178 -56.753044 -77.777695 4294967295
348.18591 -65.130135 -79.32341 4294967295
348.18903 -64.188461 -79.762512 4294967295
348.20001 -64.677841 -79.363411 4294967295
348.21317 -56.338242 -77.425293 4294967295
348.2373 -63.31398 -79.553284 4294967295
348.25699 -63.815971 -79.029434 4294967295
348.26465 -62.408611 -79.644165 4294967295
348.26483 -62.881584 -79.40004 4294967295
348.26736 -55.940788 -76.88932 4294967295
348.29501 -54.562088 -77.220123 4294967295
348.33084 -61.559566 -79.178894 4294967295
348.34616 -61.109173 -79.200676 4294967295
348.35922 -62.073505 -78.530807 4294967295
348.38852 -60.697647 -78.834885 4294967295
348.39145 -53.748734 -76.320358 4294967295
348.40927 -53.300682 -76.306717 4294967295
348.41772 -52.840027 -76.428085 4294967295
348.42758 -59.80854 -78.758919 4294967295
348.44751 -52.407913 -76.243149 4294967295
348.46487 -68.209846 -79.96595 4294967295
348.4725 -51.969284 -76.127075 4294967295
348.47321 -59.400963 -78.34729 4294967295
348.49561 -67.783096 -79.767487 4294967295
348.50195 -66.37278 -80.398605 4294967295
348.5079 -58.977615 -78.092224 4294967295
348.50946 -51.0746 -76.08197 4294967295
348.51797 -67.343536 -79.688324 4294967295
348.52823 -66.885597 -79.782578 4294967295
348.53049 -51.574085 -75.538574 4294967295
348.54608 -58.55896 -77.787369 4294967295
348.5589 -65.985161 -79.825912 4294967295
348.56058 -65.514664 -80.041824 4294967295
348.57413 -58.125912 -77.62706 4294967295
348.57895 -57.660233 -77.799988 4294967295
348.58176 -65.073189 -79.980606 4294967295
348.58368 -50.228485 -75.502007 4294967295
348.60129 -64.15657 -80.182503 4294967295
348.63739 -56.796909 -77.447044 4294967295
348.64746 -56.338715 -77.543777 4294967295
348.71118 -63.372513 -79.095337 4294967295
348.71252 -63.847466 -78.835709 4294967295
348.71732 -62.908669 -79.248192 4294967295
348.72818 -55.033047 -77.114784 4294967295
348.75687 -61.548363 -79.404984 4294967295
348.77371 -54.622906 -76.705002 4294967295
348.78748 -54.169495 -76.749832 4294967295
348.82196 -61.169468 -78.717453 4294967295
348.83319 -53.759079 -76.338196 4294967295
348.86328 -52.855507 -76.391327 4294967295
348.87097 -53.337662 -76.040405 4294967295
348.88962 -68.19561 -80.205231 4294967295
348.89594 -59.857479 -78.384811 4294967295
348.90164 -60.338085 -78.063126 4294967295
348.90891 -67.278381 -80.409851 4294967295
348.90955 -51.973377 -76.213547 4294967295
348.93884 -58.973396 -78.254105 4294967295
348.93887 -67.79689 -79.744621 4294967295
348.93903 -59.446011 -78.011192 4294967295
348.97174 -50.640312 -76.049393 4294967295
348.98059 -51.595184 -75.441078 4294967295
348.98343 -66.917351 -79.589989 4294967295
348.98517 -58.566109 -77.834526 4294967295
348.9888 -51.134167 -75.564941 4294967295
348.99042 -65.981567 -79.969177 4294967295
348.99213 -66.457115 -79.706177 4294967295
349.01221 -65.541069 -79.898682 4294967295
349.0304 -58.156868 -77.431534 4294967295
349.04291 -50.26123 -75.276047 4294967295
349.07446 -64.687363 -79.493431 4294967295
349.12256 -56.867378 -76.841614 4294967295
349.12491 -64.288597 -79.016602 4294967295
349.13867 -56.417282 -76.852005 4294967295
349.1618 -55.976734 -76.763046 4294967295
349.18231 -63.426636 -78.680481 4294967295
349.20413 -62.512703 -78.849564 4294967295
349.20441 -55.562553 -76.397614 4294967295
349.22733 -54.649422 -76.551682 4294967295
349.24243 -55.141872 -76.097565 4294967295
349.25375 -54.212959 -76.416656 4294967295
349.25922 -62.119381 -78.307693 4294967295
349.2597 -61.175026 -78.778046 4294967295
349.28238 -60.734928 -78.696152 4294967295
349.29938 -53.802101 -76.008591 4294967295
349.33487 -53.377369 -75.745102 4294967295
349.35492 -60.365353 -77.907379 4294967295
349.35919 -67.303177 -80.283333 4294967295
349.37222 -59.91729 -77.901535 4294967295
349.37445 -68.272491 -79.591934 4294967295
349.39401 -66.882332 -80.029099 4294967295
349.39468 -59.476501 -77.822128 4294967295
349.41324 -67.857559 -79.281578 4294967295
349.41486 -52.06728 -75.32933 4294967295
349.41623 -59.034359 -77.755722 4294967295
349.42288 -58.099377 -78.139114 4294967295
349.431 -65.991577 -79.982742 4294967295
349.43143 -58.583321 -77.779373 4294967295
349.43741 -66.473961 -79.654694 4294967295
349.46857 -65.101669 -79.927467 4294967295
349.49527 -64.668243 -79.78833 4294967295
349.50931 -50.303078 -74.949982 4294967295
349.52936 -56.358227 -77.588043 4294967295
349.53082 -56.832146 -77.32827 4294967295
349.55649 -63.340019 -79.637283 4294967295
349.56076 -63.818626 -79.339951 4294967295
349.56238 -64.293701 -79.07869 4294967295
349.59912 -55.981232 -76.840393 4294967295
349.60245 -62.933971 -79.227318 4294967295
349.61169 -55.526329 -76.901337 4294967295
349.65213 -54.637169 -76.807045 4294967295
349.65903 -62.542927 -78.666718 4294967295
349.66595 -55.127613 -76.372726 4294967295
349.685 -61.635231 -78.775604 4294967295
349.6976 -54.226196 -76.403549 4294967295
349.69849 -61.182106 -78.823654 4294967295
349.70139 -62.13105 -78.307182 4294967295
349.7428 -53.814545 -76.004021 4294967295
349.75284 -60.786781 -78.295502 4294967295
349.79413 -53.410725 -75.517532 4294967295
349.797 -60.376762 -77.910454 4294967295
349.80112 -52.948086 -75.657501 4294967295
349.84155 -68.322197 -79.232948 4294967295
349.84552 -67.381607 -79.651314 4294967295
349.84692 -52.536453 -75.249557 4294967295
349.84933 -59.505459 -77.648407 4294967295
349.84976 -52.068394 -75.44812 4294967295
349.87311 -59.066284 -77.551529 4294967295
349.87537 -51.630047 -75.325844 4294967295
349.89505 -66.036285 -79.665649 4294967295
349.89737 -66.512589 -79.396194 4294967295
349.91092 -65.586929 -79.679138 4294967295
349.91522 -65.120613 -79.855682 4294967295
349.91681 -50.740608 -75.217674 4294967295
349.9314 -58.202583 -77.206108 4294967295
349.93311 -50.290092 -75.2267 4294967295
349.94821 -57.753571 -77.207085 4294967295
349.99286 -56.398701 -77.291534 4294967295
349.99344 -64.762222 -78.993622 4294967295
349.99893 -56.878822 -76.968697 4294967295
350.0217 -63.857944 -79.07016 4294967295
350.02524 -55.970715 -77.073868 4294967295
350.05411 -62.959724 -79.088608 4294967295
350.05444 -63.432632 -78.847519 4294967295
350.08838 -62.536461 -78.844147 4294967295
350.15137 -54.252659 -76.250458 4294967295
350.1626 -61.225094 -78.512451 4294967295
350.17877 -60.30381 -78.757751 4294967295
350.1817 -61.724426 -78.008347 4294967295
350.19385 -60.796928 -78.310867 4294967295
350.23221 -53.416012 -75.589752 4294967295
350.24432 -59.923389 -78.075821 4294967295
350.25256 -52.970985 -75.541306 4294967295
350.25531 -68.291611 -79.625252 4294967295
350.27002 -52.522194 -75.533119 4294967295
350.27792 -59.498081 -77.841415 4294967295
350.2796 -52.063107 -75.636063 4294967295
350.28891 -51.603756 -75.742706 4294967295
350.30334 -67.890213 -79.188255 4294967295
350.30423 -66.472778 -79.882553 4294967295
350.31793 -59.081383 -77.517914 4294967295
350.3248 -67.448929 -79.124062 4294967295
350.33997 -58.639702 -77.445793 4294967295
350.35144 -51.213013 -75.102707 4294967295
350.36349 -65.14196 -79.760849 4294967295
350.37238 -66.100204 -79.165421 4294967295
350.37979 -50.306549 -75.179741 4294967295
350.38367 -58.227711 -77.070023 4294967295
350.38907 -57.763096 -77.230698 4294967295
350.44827 -57.371799 -76.638107 4294967295
350.46692 -64.346939 -78.786613 4294967295
350.47311 -63.411041 -79.170433 4294967295
350.48471 -56.949173 -76.36467 4294967295
350.49045 -56.484886 -76.520889 4294967295
350.49054 -63.90839 -78.692429 4294967295
350.50058 -62.978065 -79.022362 4294967295
350.51593 -56.047295 -76.400452 4294967295
350.52829 -62.545292 -78.871307 4294967295
350.54501 -55.614395 -76.229965 4294967295
350.54773 -55.146225 -76.428429 4294967295
350.55014 -54.67783 -76.630859 4294967295
350.58112 -61.675812 -78.604538 4294967295
350.6088 -60.770691 -78.688766 4294967295
350.61996 -61.258354 -78.297882 4294967295
350.6517 -59.886848 -78.56076 4294967295
350.6524 -53.869648 -75.673889 4294967295
350.65656 -53.403454 -75.852158 4294967295
350.67923 -52.961525 -75.771988 4294967295
350.70773 -52.527157 -75.60968 4294967295
350.72989 -52.084408 -75.536697 4294967295
350.75284 -67.440063 -79.314804 4294967295
350.75604 -68.391022 -78.801361 4294967295
350.75745 -67.919876 -79.016449 4294967295
350.77203 -51.667374 -75.183975 4294967295
350.78482 -59.126923 -77.175797 4294967295
350.79144 -66.078568 -79.480667 4294967295
350.79889 -50.75914 -75.281204 4294967295
350.80069 -58.204697 -77.425568 4294967295
350.8114 -57.747581 -77.510788 4294967295
350.8129 -67.05555 -78.714096 4294967295
350.82397 -50.31987 -75.167206 4294967295
350.87503 -65.254829 -78.787643 4294967295
350.8764 -57.363884 -76.841599 4294967295
350.87839 -56.894871 -77.048134 4294967295
350.89978 -63.873222 -79.145828 4294967295
350.90771 -64.356926 -78.801498 4294967295
350.92477 -62.964718 -79.266121 4294967295
350.95193 -56.521896 -76.260498 4294967295
350.95291 -63.476799 -78.642395 4294967295
350.97177 -56.076614 -76.219223 4294967295
350.98807 -55.626564 -76.227524 4294967295
350.99393 -55.162724 -76.380768 4294967295
