# .PCD v0.7 - Point Cloud Data file format
VERSION 0.7
FIELDS x y z rgb
SIZE 4 4 4 4
TYPE F F F U
COUNT 1 1 1 1
WIDTH 1175
HEIGHT 1
VIEWPOINT 0 0 0 1 0 0 0
POINTS 1175
DATA ascii
296.5686 58.282738 7.4889317 4294967295
296.57104 71.854088 6.3286324 4294967295
296.57986 59.248512 6.4116173 4294967295
296.61606 60.216774 6.4033508 4294967295
296.62405 60.699051 5.9668522 4294967295
296.65091 61.184757 6.3378067 4294967295
296.66962 61.668991 6.3602085 4294967295
296.69809 62.635269 6.0224838 4294967295
296.71429 63.118755 5.9377384 4294967295
296.71762 63.598511 5.3045578 4294967295
296.73669 64.082512 5.3438339 4294967295
296.75894 64.567528 5.5172367 4294967295
296.78897 65.055252 6.0208321 4294967295
296.80151 65.537285 5.7805386 4294967295
296.8111 66.018059 5.4146194 4294967295
296.85248 66.510643 6.3990383 4294967295
296.86966 66.994392 6.3567848 4294967295
296.8739 67.472755 5.7644901 4294967295
296.88718 67.954567 5.5586777 4294967295
296.93188 68.45018 6.6799297 4294967295
296.94327 69.406738 5.6226978 4294967295
296.96625 69.892982 5.8272533 4294967295
296.98944 56.326801 8.0560551 4294967295
296.99072 70.380089 6.0905666 4294967295
297.01282 56.811821 8.2734375 4294967295
297.01871 70.869301 6.5059757 4294967295
297.02356 71.820038 5.1747112 4294967295
297.02615 57.296352 8.0678616 4294967295
297.02786 71.348572 6.1239223 4294967295
297.03146 58.26284 6.7552471 4294967295
297.03186 57.780106 7.5400791 4294967295
297.03723 58.745678 6.2315254 4294967295
297.08951 59.716137 6.9007969 4294967295
297.13214 61.166744 6.3984928 4294967295
297.1337 61.647324 5.6986523 4294967295
297.18005 62.617481 6.1187572 4294967295
297.22595 64.066986 5.7561226 4294967295
297.25201 64.553299 6.086319 4294967295
297.28342 65.519615 5.879015 4294967295
297.29114 65.999794 5.4415169 4294967295
297.32974 66.491158 6.2932053 4294967295
297.34323 66.973419 6.0969944 4294967295
297.36929 67.460632 6.4263325 4294967295
297.38141 67.942207 6.173336 4294967295
297.41339 68.432266 6.7465458 4294967295
297.43741 68.919167 6.9885616 4294967295
297.44528 69.874039 5.8033085 4294967295
297.45245 69.402039 6.857254 4294967295
297.47552 56.308876 8.2913494 4294967295
297.48709 70.844643 6.0290546 4294967295
297.4989 57.760891 6.9923439 4294967295
297.50357 56.794186 8.7011356 4294967295
297.51248 57.27858 8.3135033 4294967295
297.5184 58.245342 7.0460396 4294967295
297.55215 58.73143 7.6896057 4294967295
297.56015 59.69656 6.5141487 4294967295
297.56201 60.178066 5.8370609 4294967295
297.56223 59.215004 7.3548088 4294967295
297.6217 61.15033 6.8027134 4294967295
297.64621 62.116188 6.3114796 4294967295
297.64847 61.636368 7.1569462 4294967295
297.66656 62.600769 6.4010181 4294967295
297.67865 63.083328 6.1504745 4294967295
297.70413 63.569313 6.4507618 4294967295
297.73685 64.057617 7.0493698 4294967295
297.75793 65.021423 6.4179726 4294967295
297.79187 65.988785 6.3170757 4294967295
297.79312 66.466652 5.6220036 4294967295
297.82733 66.956581 6.2801018 4294967295
297.85938 67.446159 6.8485355 4294967295
297.87201 67.928116 6.6188087 4294967295
297.879 68.407509 6.161211 4294967295
297.90436 68.894714 6.4543533 4294967295
297.94339 69.864235 6.5627289 4294967295
297.95767 70.821342 5.660347 4294967295
297.96396 70.349579 6.6601448 4294967295
297.97678 71.305649 5.6979046 4294967295
297.97772 56.775742 8.4351368 4294967295
297.9884 57.260143 8.1265621 4294967295
298.02847 71.807556 7.0657215 4294967295
298.03635 72.286179 6.6436024 4294967295
298.0488 60.160969 6.1325016 4294967295
298.06332 59.681625 7.468008 4294967295
298.06674 60.644913 6.1237469 4294967295
298.10086 61.612408 6.0326996 4294967295
298.10565 61.132797 6.9670143 4294967295
298.11261 62.094925 5.7714272 4294967295
298.14651 62.582466 6.4096012 4294967295
298.15521 63.064178 6.0254002 4294967295
298.20535 63.556629 7.3206062 4294967295
298.2323 65.001282 6.2006454 4294967295
298.24136 64.525414 7.3060532 4294967295
298.29343 65.977837 7.2025528 4294967295
298.30649 66.937843 6.2582569 4294967295
298.33771 67.426987 6.7863083 4294967295
298.34775 67.907875 6.4547081 4294967295
298.42633 69.847046 6.6905556 4294967295
298.43646 56.272663 8.2927895 4294967295
298.44766 70.332779 6.8179073 4294967295
298.45068 56.757275 8.1314106 4294967295
298.47742 57.242523 8.4748306 4294967295
298.47745 57.726006 7.7425003 4294967295
298.48178 58.209309 7.1847153 4294967295
298.49707 58.693363 7.0674381 4294967295
298.51227 59.659061 6.2164669 4294967295
298.51532 71.792419 7.3408909 4294967295
298.51749 59.177948 7.1563625 4294967295
298.52097 72.27002 6.8363514 4294967295
298.56155 60.629227 6.7348022 4294967295
298.56427 60.14827 7.5733204 4294967295
298.58997 61.115307 7.1426525 4294967295
298.59613 61.597244 6.6612434 4294967295
298.63513 63.045891 6.0388927 4294967295
298.6366 62.566521 6.8260441 4294967295
298.66809 63.533684 6.6296711 4294967295
298.68384 64.017166 6.5328407 4294967295
298.69836 64.500175 6.3842716 4294967295
298.71268 64.983047 6.2306519 4294967295
298.74902 65.472931 6.9550819 4294967295
298.7645 66.434082 6.1232033 4294967295
298.7807 66.917274 6.0411606 4294967295
298.85773 68.378395 6.935194 4294967295
298.8797 68.864304 7.0855865 4294967295
298.89474 69.823112 6.2390556 4294967295
298.90527 69.351929 7.3788776 4294967295
298.92401 70.312393 6.6778278 4294967295
298.94818 56.25544 9.5348148 4294967295
298.9595 70.805061 7.363327 4294967295
298.9599 56.74041 9.2782001 4294967295
298.9624 57.22464 8.6535015 4294967295
298.97849 71.289886 7.3927593 4294967295
298.98294 57.709724 8.7452679 4294967295
298.9866 58.193371 8.1690998 4294967295
298.99023 59.158875 6.8721504 4294967295
298.99451 71.773224 7.3087349 4294967295
299.01605 59.644123 7.1723537 4294967295
299.0881 61.581337 7.1433678 4294967295
299.09418 62.063099 6.6664925 4294967295
299.11316 62.547421 6.6976509 4294967295
299.14935 63.515686 6.6898689 4294967295
299.1503 63.036179 7.4436703 4294967295
299.17004 64.000504 6.7866859 4294967295
299.2048 64.489479 7.4387188 4294967295
299.21957 64.972885 7.3038139 4294967295
299.22513 65.453239 6.8069839 4294967295
299.23383 65.934273 6.4338398 4294967295
299.25906 66.420792 6.7113724 4294967295
299.30334 67.869202 6.306675 4294967295
299.35019 68.841667 6.7171135 4294967295
299.35791 68.368103 7.7317028 4294967295
299.3833 69.332367 7.2991695 4294967295
299.41196 56.72105 8.1570816 4294967295
299.42581 56.237228 9.410717 4294967295
299.42935 70.781433 6.9666576 4294967295
299.43982 57.20631 8.5342903 4294967295
299.45712 58.656998 7.0784798 4294967295
299.45859 71.746277 6.6872463 4294967295
299.45871 58.174461 7.8493137 4294967295
299.48111 72.232719 6.8560047 4294967295
299.51669 60.110584 7.2710018 4294967295
299.55582 61.079781 7.3769341 4294967295
299.59387 62.529274 6.7355556 4294967295
299.61295 63.013638 6.7690563 4294967295
299.63214 63.977348 6.1029282 4294967295
299.65118 63.502884 7.5461521 4294967295
299.6763 64.468628 7.1102715 4294967295
299.70786 64.956902 7.626442 4294967295
299.71033 65.436447 7.0160141 4294967295
299.73392 65.922501 7.2260475 4294967295
299.75928 66.409302 7.5033436 4294967295
299.76944 66.890854 7.190918 4294967295
299.78015 67.372398 6.9030018 4294967295
299.81235 67.862045 7.4438114 4294967295
299.8389 68.349815 7.7642326 4294967295
299.86349 68.837051 8.011961 4294967295
299.87549 69.319008 7.7719707 4294967295
299.87601 69.795662 7.0911961 4294967295
299.88605 56.702675 7.920557 4294967295
299.89615 70.280853 7.165472 4294967295
299.909 56.219173 9.5045452 4294967295
299.91016 57.187595 8.1469898 4294967295
299.92026 70.767975 7.3918915 4294967295
299.922 71.244339 6.7614994 4294967295
299.92661 57.672146 8.0784836 4294967295
299.93338 71.725037 6.4987183 4294967295
299.94385 58.156715 8.0418816 4294967295
299.96628 59.124359 7.5054512 4294967295
299.96686 59.606483 6.8283367 4294967295
299.96814 72.217712 7.1343899 4294967295
299.9693 58.642075 8.3195629 4294967295
299.99475 60.092064 7.2007599 4294967295
300.01828 60.577221 7.4050179 4294967295
300.02243 61.059155 6.8676071 4294967295
300.05945 61.546898 7.5870876 4294967295
300.07767 62.511833 6.8927135 4294967295
300.15378 64.449509 7.0185871 4294967295
300.155 64.92878 6.3723946 4294967295
300.15723 63.970978 7.8447666 4294967295
300.18192 65.415466 6.7055149 4294967295
300.22043 66.384399 6.7859497 4294967295
300.22583 65.907867 7.6848164 4294967295
300.25479 66.874252 7.4020538 4294967295
300.28302 67.839905 7.0899773 4294967295
300.28656 67.363609 7.9164028 4294967295
300.29202 68.320534 6.7406998 4294967295
300.32217 68.809578 7.1956577 4294967295
300.37387 69.784904 7.7740631 4294967295
300.3772 70.262695 7.211153 4294967295
300.38095 56.68515 8.4806519 4294967295
300.40613 57.653946 8.0542221 4294967295
300.41727 58.137962 7.7866058 4294967295
300.42365 71.236191 7.5916996 4294967295
300.43466 59.104839 7.068182 4294967295
300.43503 58.622433 7.7704582 4294967295
300.43622 71.717842 7.3779411 4294967295
300.44788 72.198875 7.1302967 4294967295
300.49512 60.076744 7.977047 4294967295
300.49973 60.559181 7.4616737 4294967295
300.51541 61.043137 7.3672886 4294967295
300.5271 61.526283 7.122591 4294967295
300.55215 62.011917 7.3816814 4294967295
300.5752 62.977547 6.877758 4294967295
300.5787 62.498077 7.6953506 4294967295
300.65103 64.435867 7.6772003 4294967295
300.65659 65.39547 6.518322 4294967295
300.67255 64.921295 7.80089 4294967295
300.68051 65.881302 6.7326851 4294967295
300.71652 66.371323 7.4002037 4294967295
300.72165 66.851181 6.912056 4294967295
300.74915 67.338699 7.2599735 4294967295
300.77475 67.825798 7.5380363 4294967295
300.81161 68.794823 7.5548954 4294967295
300.84183 69.284256 8.0021191 4294967295
300.84802 69.763672 7.5545082 4294967295
300.86398 56.182781 9.2644253 4294967295
300.86813 57.634548 7.378664 4294967295
300.87936 56.667732 9.1583309 4294967295
300.90271 57.15303 9.3494205 4294967295
300.90515 70.742096 8.3278427 4294967295
300.90536 58.603294 7.4096909 4294967295
300.91025 58.120853 8.2698345 4294967295
300.92776 72.180138 7.1338425 4294967295
300.93701 59.089138 7.9095478 4294967295
300.93951 71.710541 8.2513123 4294967295
300.95248 59.573338 7.8067837 4294967295
300.97186 60.058006 7.8516178 4294967295
300.98093 60.541111 7.511673 4294967295
301.01019 61.508572 7.2460117 4294967295
301.02203 61.029366 8.3634148 4294967295
301.02444 61.992081 7.1002445 4294967295
301.05951 62.479881 7.7257729 4294967295
301.07135 62.96291 7.4896927 4294967295
301.10358 63.930618 7.3346786 4294967295
301.10614 63.451298 8.1056099 4294967295
301.14603 64.900963 7.5579147 4294967295
301.16971 65.386993 7.7609577 4294967295
301.18661 66.349609 7.0406513 4294967295
301.21613 66.837677 7.4590607 4294967295
301.2337 67.321823 7.4361362 4294967295
301.23901 67.801422 6.959795 4294967295
301.27924 68.771278 7.1003628 4294967295
301.28052 68.294525 7.8199177 4294967295
301.34967 56.164787 9.4531231 4294967295
301.35529 70.233421 7.8907223 4294967295
301.37622 70.719193 7.990757 4294967295
301.38501 57.61887 8.7412758 4294967295
301.40009 72.157684 6.8617573 4294967295
301.40784 71.68605 7.8154106 4294967295
301.42322 58.588718 8.8070507 4294967295
301.43164 59.555 7.7767048 4294967295
301.43488 59.072868 8.5650482 4294967295
301.45969 60.040833 8.1401787 4294967295
301.47369 60.524788 7.9838142 4294967295
301.50629 61.011726 8.5107956 4294967295
301.51315 61.494438 8.0962849 4294967295
301.53799 62.46122 7.671793 4294967295
301.54932 62.944103 7.4196835 4294967295
301.62946 64.40387 8.3526402 4294967295
301.63977 64.886368 8.0643082 4294967295
301.64828 65.368111 7.7115288 4294967295
301.65585 65.849289 7.323885 4294967295
301.70477 66.343452 8.4430408 4294967295
301.72153 66.82769 8.389679 4294967295
301.74323 67.313614 8.5167046 4294967295
301.75092 68.272293 7.4707146 4294967295
301.75348 67.795494 8.2273865 4294967295
301.7619 68.753822 7.2087479 4294967295
301.78976 56.145752 7.9814262 4294967295
301.81912 70.20771 7.3038445 4294967295
301.82779 56.631008 8.7009048 4294967295
301.84775 57.115906 8.7636147 4294967295
301.85165 57.599808 8.2443504 4294967295
301.85736 70.700974 8.0315361 4294967295
301.86386 58.083961 8.0277157 4294967295
301.88013 71.663643 7.5377941 4294967295
301.884 58.568684 8.0978203 4294967295
301.88773 59.051697 7.5721531 4294967295
301.90829 72.152885 7.8973293 4294967295
301.93967 60.022545 8.1343861 4294967295
301.95764 60.507092 8.1261234 4294967295
301.9679 60.990376 7.8387604 4294967295
302.00192 61.477661 8.4109898 4294967295
302.00891 62.44101 7.3479462 4294967295
302.05164 62.930664 8.2330322 4294967295
302.07776 63.417145 8.5187721 4294967295
302.09604 64.861351 7.2082901 4294967295
302.1348 65.35154 7.9495735 4294967295
302.14893 65.834808 7.8019485 4294967295
302.1608 66.317276 7.5757008 4294967295
302.19977 66.808472 8.3188419 4294967295
302.22772 67.296524 8.671608 4294967295
302.23218 67.77639 8.1772385 4294967295
302.23773 68.256294 7.7237759 4294967295
302.25391 68.739922 7.6490993 4294967295
302.28079 69.227806 7.9607143 4294967295
302.29651 57.096195 7.6369743 4294967295
302.30206 56.612675 8.4879837 4294967295
302.3078 56.128498 9.3457756 4294967295
302.31924 70.197716 8.0333881 4294967295
302.3208 57.580959 7.8556919 4294967295
302.33136 58.064816 7.5806427 4294967295
302.34494 70.685585 8.302618 4294967295
302.35599 58.549747 7.8093395 4294967295
302.37131 71.173927 8.5929184 4294967295
302.37375 72.127113 7.3788109 4294967295
302.41998 60.004322 8.1452255 4294967295
302.42368 59.52235 8.9268646 4294967295
302.45938 60.492001 8.9013348 4294967295
302.49164 61.942371 8.1027985 4294967295
302.5004 62.425026 7.7666302 4294967295
302.54358 62.914841 8.6554489 4294967295
302.55908 63.879284 7.9111462 4294967295
302.59119 64.36734 8.4055157 4294967295
302.59653 64.848534 7.9483395 4294967295
302.61783 65.813026 7.4124088 4294967295
302.62677 65.336449 8.3750648 4294967295
302.66708 66.785782 7.86759 4294967295
302.68668 67.748787 7.2720203 4294967295
302.69116 67.272232 8.0755882 4294967295
302.71747 68.237617 7.7177143 4294967295
302.7525 69.205902 7.6693935 4294967295
302.77011 69.690048 7.6486797 4294967295
302.77689 56.110146 8.9444485 4294967295
302.78452 56.594635 8.5692024 4294967295
302.7977 57.562622 7.7488289 4294967295
302.8147 70.185524 8.5807514 4294967295
302.82401 70.666397 8.2661438 4294967295
302.8331 58.048317 8.3548717 4294967295
302.83749 71.148903 8.0989208 4294967295
302.8566 71.633888 8.1311951 4294967295
302.86154 58.533871 8.7158108 4294967295
302.86499 59.017105 8.1947746 4294967295
302.87543 72.118744 8.1526241 4294967295
302.8963 59.985584 8.0161934 4294967295
302.95316 60.957813 8.7363396 4294967295
302.98865 61.927193 8.7025566 4294967295
302.99799 62.410202 8.39077 4294967295
303.01724 62.895065 8.4271126 4294967295
303.01834 63.375858 7.8269615 4294967295
303.03683 63.860348 7.8355846 4294967295
303.05899 64.345779 7.9740906 4294967295
303.08011 64.831047 8.0769749 4294967295
303.14279 66.765884 7.7210464 4294967295
303.15948 66.292198 8.9409218 4294967295
303.21432 67.746857 8.9485321 4294967295
303.22693 68.229706 8.7534447 4294967295
303.22922 68.708549 8.1985245 4294967295
303.23422 69.188004 7.7371387 4294967295
303.25372 56.576149 8.1891403 4294967295
303.26114 56.092125 9.0826225 4294967295
303.26596 57.060413 7.9801216 4294967295
303.28058 69.683662 8.7174358 4294967295
303.2843 70.639252 7.5793762 4294967295
303.28546 57.544964 8.0271873 4294967295
303.30865 70.172531 9.0617313 4294967295
303.32269 71.132462 8.2810421 4294967295
303.33548 71.614609 8.092001 4294967295
303.36124 59.000534 8.761404 4294967295
303.36661 72.105186 8.5421543 4294967295
303.37216 59.48447 8.5078945 4294967295
303.38495 59.968445 8.3198261 4294967295
303.38934 60.451084 7.8399334 4294967295
303.43503 60.939758 8.7942734 4294967295
303.43634 61.421692 8.2080231 4294967295
303.46527 62.389328 7.9473629 4294967295
303.47629 61.910194 8.9603767 4294967295
303.51056 62.87944 8.8865414 4294967295
303.53769 63.846882 8.5638847 4294967295
303.55115 64.330399 8.4004612 4294967295
303.58499 65.298943 8.3102341 4294967295
303.62122 66.268066 8.3030701 4294967295
303.64682 66.754982 8.558157 4294967295
303.68387 67.724609 8.5815468 4294967295
303.70474 68.210236 8.6713848 4294967295
303.70984 68.690125 8.2195892 4294967295
303.72061 56.07362 8.3664818 4294967295
303.73837 69.178635 8.5748711 4294967295
303.75662 56.558796 8.9777546 4294967295
303.76114 69.665138 8.7321129 4294967295
303.77753 70.149155 8.6693707 4294967295
303.7789 57.043808 9.1182404 4294967295
303.784 58.011295 8.0418186 4294967295
303.79208 71.109138 7.9182262 4294967295
303.80765 57.529324 9.4817963 4294967295
303.81503 70.642006 9.3311443 4294967295
303.81885 71.597404 8.2116432 4294967295
303.82443 58.497681 8.805912 4294967295
303.83975 58.982162 8.7066917 4294967295
303.84094 72.083748 8.3443604 4294967295
303.87164 59.468418 9.1741467 4294967295
303.87436 59.951389 8.6441898 4294967295
303.88535 60.435078 8.3959713 4294967295
303.90829 60.920395 8.5580235 4294967295
303.94037 61.888954 8.4093742 4294967295
303.94464 61.40807 9.177803 4294967295
303.96338 62.3745 8.5742645 4294967295
303.98529 62.859932 8.6995926 4294967295
304.00681 63.345367 8.8118591 4294967295
304.02954 64.311539 8.3441334 4294967295
304.03912 64.7939 8.0493317 4294967295
304.05975 65.27903 8.1329994 4294967295
304.08368 65.765167 8.327589 4294967295
304.1171 66.254272 8.8450756 4294967295
304.11877 66.733902 8.2818489 4294967295
304.14487 67.221016 8.5502605 4294967295
304.16187 68.183578 7.891758 4294967295
304.21304 56.055759 8.7894516 4294967295
304.21484 68.680618 9.0731449 4294967295
304.23599 69.166588 9.1718502 4294967295
304.24048 69.646149 8.7056179 4294967295
304.25327 70.1287 8.5214863 4294967295
304.26083 57.025742 9.1754456 4294967295
304.2738 57.51033 8.9983253 4294967295
304.29919 70.624847 9.4598446 4294967295
304.31985 72.064491 8.3095932 4294967295
304.32022 71.111069 9.5549717 4294967295
304.32944 58.481586 9.6480713 4294967295
304.3338 58.965302 9.1793461 4294967295
304.33585 59.448395 8.6316261 4294967295
304.35675 59.933407 8.7220802 4294967295
304.37643 60.41832 8.7718639 4294967295
304.40067 61.385784 8.3609352 4294967295
304.4191 60.906712 9.5972443 4294967295
304.43814 61.873745 9.0097027 4294967295
304.44724 62.356846 8.7031746 4294967295
304.45294 62.839016 8.2799339 4294967295
304.48575 63.326714 8.7732849 4294967295
304.52896 63.817135 9.614563 4294967295
304.54004 64.300476 9.3733578 4294967295
304.54111 64.781082 8.7970409 4294967295
304.58484 65.752602 9.0414257 4294967295
304.60114 66.236893 8.9776936 4294967295
304.60577 66.717529 8.5210552 4294967295
304.61185 67.198303 8.1140785 4294967295
304.64801 68.167168 8.1053104 4294967295
304.68597 68.658714 8.7677574 4294967295
304.70569 56.037895 9.2112255 4294967295
304.71579 57.006489 8.3287086 4294967295
304.71625 69.625793 8.5596981 4294967295
304.71732 56.522564 8.9898548 4294967295
304.72681 69.15181 9.5243626 4294967295
304.76071 70.120865 9.4396706 4294967295
304.77023 57.976826 8.9321423 4294967295
304.77332 57.493263 9.6461563 4294967295
304.77579 70.604568 9.3340397 4294967295
304.77805 71.082779 8.8001213 4294967295
304.78754 58.944527 8.2926807 4294967295
304.78998 58.461723 8.983284 4294967295
304.80814 71.572708 9.1986923 4294967295
304.81281 72.051529 8.7440243 4294967295
304.84351 59.433167 9.5539227 4294967295
304.84653 59.916321 9.0468521 4294967295
304.86316 60.883026 8.3850861 4294967295
304.89172 61.369255 8.7315388 4294967295
304.93414 61.85815 9.5390816 4294967295
304.94669 62.342098 9.3492622 4294967295
304.96399 62.826843 9.3178253 4294967295
305.00253 63.797165 9.3875656 4294967295
305.01758 64.281364 9.2825451 4294967295
305.02194 64.762794 8.8219414 4294967295
305.05591 65.251671 9.3451347 4294967295
305.07382 65.736519 9.3345299 4294967295
305.07684 66.696304 8.2263412 4294967295
305.08813 66.220322 9.2041206 4294967295
305.14886 68.155708 8.8019066 4294967295
305.17923 68.644714 9.2041912 4294967295
305.1958 69.128998 9.1490898 4294967295
305.20248 56.020081 9.7613392 4294967295
305.20715 56.504742 9.3122978 4294967295
305.23309 56.989971 9.5666924 4294967295
305.23544 69.621964 9.8586407 4294967295
305.2417 57.47443 9.2499084 4294967295
305.24237 70.580307 8.8824635 4294967295
305.26309 57.95953 9.3551617 4294967295
305.27353 58.443802 9.0968075 4294967295
305.28958 71.077118 9.8386497 4294967295
305.33966 59.89962 9.4761658 4294967295
305.35782 60.384567 9.4730701 4294967295
305.38367 61.352821 9.1247234 4294967295
305.39233 61.836002 8.8096695 4294967295
305.43347 62.324917 9.5638733 4294967295
305.44104 62.807823 9.2134399 4294967295
305.45935 63.292713 9.2165165 4294967295
305.47482 63.776951 9.1249237 4294967295
305.48364 64.259575 8.8168907 4294967295
305.48767 64.740791 8.3521976 4294967295
305.54202 65.234695 9.5378075 4294967295
305.56134 65.719986 9.5739174 4294967295
305.56641 66.201233 9.1417599 4294967295
305.57684 66.683754 8.8877163 4294967295
305.62097 67.176529 9.7360935 4294967295
305.6431 68.620407 8.6719742 4294967295
305.66248 68.148354 9.9000072 4294967295
305.66516 56.001678 9.1820316 4294967295
305.66583 69.106705 8.8206139 4294967295
305.69278 69.59465 9.1040993 4294967295
305.69897 56.971218 9.0959759 4294967295
305.71832 57.456078 9.1327 4294967295
305.72919 70.564285 9.1035881 4294967295
305.75983 57.942459 9.8934669 4294967295
305.77692 58.910858 9.2625847 4294967295
305.80057 59.879066 8.8455658 4294967295
305.80499 71.550568 10.386187 4294967295
305.82382 59.398743 10.196056 4294967295
305.85519 60.368515 10.031723 4294967295
305.85779 60.85144 9.5216484 4294967295
305.89255 61.821068 9.467268 4294967295
305.89426 61.339226 10.11454 4294967295
305.91904 62.307499 9.734621 4294967295
305.94754 62.794521 10.068411 4294967295
305.9581 63.278122 9.8201447 4294967295
305.98352 64.726234 8.8728333 4294967295
305.98532 63.76516 10.110916 4294967295
305.99841 65.210083 8.7646008 4294967295
306.03909 66.180603 8.9012794 4294967295
306.06781 66.668411 9.2412319 4294967295
306.10934 67.639732 9.4057674 4294967295
306.13705 68.127792 9.7124386 4294967295
306.16052 55.983833 9.6747398 4294967295
306.16562 56.468449 9.2509289 4294967295
306.16846 69.096054 9.5493412 4294967295
306.19083 56.953568 9.4766273 4294967295
306.19354 69.583542 9.7694798 4294967295
306.21939 70.07151 10.015875 4294967295
306.2291 57.43956 10.123289 4294967295
306.24106 57.924324 9.9208679 4294967295
306.24432 58.40823 9.4378948 4294967295
306.24942 70.561295 10.395763 4294967295
306.25818 71.04277 10.091906 4294967295
306.26419 71.522858 9.6978226 4294967295
306.27118 58.893917 9.7165928 4294967295
306.2901 59.379002 9.7395115 4294967295
306.29196 72.011993 10.004984 4294967295
306.30957 59.86417 9.7783298 4294967295
306.32651 60.831497 9.1514893 4294967295
306.35437 61.317772 9.4618683 4294967295
306.37537 61.803154 9.5509853 4294967295
306.40237 62.289658 9.8317814 4294967295
306.40912 62.77253 9.4641819 4294967295
306.4104 63.254021 8.9222813 4294967295
306.45605 64.225517 9.2161369 4294967295
306.46515 63.746582 10.09185 4294967295
306.46933 64.709152 9.0583439 4294967295
306.49719 65.19635 9.3677368 4294967295
306.52646 65.684151 9.7206478 4294967295
306.5517 66.171112 9.9443722 4294967295
306.56351 67.133888 9.157402 4294967295
306.61966 68.588791 9.20508 4294967295
306.64182 68.117142 10.493246 4294967295
306.65298 69.078911 9.6871738 4294967295
306.67578 56.935616 9.6291294 4294967295
306.68478 69.568832 10.118975 4294967295
306.70319 57.904945 9.3403988 4294967295
306.72723 57.422321 10.687675 4294967295
306.73331 58.390717 9.7203178 4294967295
306.74997 58.875557 9.6695232 4294967295
306.76025 71.032654 10.779539 4294967295
306.76263 71.511566 10.2761 4294967295
306.77563 59.361298 9.9069405 4294967295
306.78232 71.997398 10.321575 4294967295
306.79092 59.846027 9.8132401 4294967295
306.8364 60.817329 10.098972 4294967295
306.84033 61.300316 9.6458054 4294967295
306.84302 61.782742 9.1525726 4294967295
306.92993 63.243523 10.173752 4294967295
306.95615 63.730389 10.427685 4294967295
306.96951 64.214546 10.272602 4294967295
306.99344 65.181862 9.8767452 4294967295
307.03745 65.673637 10.690348 4294967295
307.0481 66.156952 10.451551 4294967295
307.10468 55.947395 9.1611881 4294967295
307.10974 68.094437 10.095127 4294967295
307.13611 56.432495 9.5781116 4294967295
307.14008 69.062599 9.9024296 4294967295
307.1665 70.029022 9.5864601 4294967295
307.18692 57.403065 10.029665 4294967295
307.20462 57.888123 10.011536 4294967295
307.22855 71.009003 10.391294 4294967295
307.23068 58.85738 9.6861782 4294967295
307.25681 71.498337 10.705513 4294967295
307.27142 59.827782 9.8209038 4294967295
307.28137 71.986366 10.904465 4294967295
307.28406 59.345856 10.789648 4294967295
307.31332 60.798542 9.9922447 4294967295
307.32455 61.282578 9.7708282 4294967295
307.33972 61.76709 9.6763802 4294967295
307.39673 62.258743 10.88994 4294967295
307.41602 64.188576 9.2118168 4294967295
307.42157 63.708778 9.9556961 4294967295
307.42587 63.228153 10.659756 4294967295
307.44 64.674706 9.3927803 4294967295
307.50137 65.650818 10.170284 4294967295
307.50143 65.170158 10.742559 4294967295
307.54233 66.14209 10.879383 4294967295
307.5452 66.623192 10.400673 4294967295
307.55121 67.104843 10.019487 4294967295
307.5679 67.589478 9.9715214 4294967295
307.60971 69.040291 9.5710812 4294967295
307.61191 68.08271 10.773201 4294967295
307.61237 68.562256 10.220772 4294967295
307.62936 56.414726 9.9850826 4294967295
307.64523 69.531326 10.10894 4294967295
307.64908 57.383995 9.465044 4294967295
307.67493 56.900818 10.835127 4294967295
307.68021 70.022568 10.629536 4294967295
307.69568 57.870605 10.346035 4294967295
307.72165 71.473236 10.217262 4294967295
307.73022 58.357006 10.852482 4294967295
307.7388 58.841572 10.553133 4294967295
307.754 59.809772 9.8939037 4294967295
307.76025 59.32716 10.65237 4294967295
307.78122 71.975479 11.499971 4294967295
307.7915 60.779957 9.9263096 4294967295
307.82431 61.749435 9.813118 4294967295
307.84262 61.269794 10.943531 4294967295
307.85312 62.236229 10.141047 4294967295
307.8736 62.721752 10.210318 4294967295
307.91422 64.174126 9.775713 4294967295
307.9313 63.696419 10.865807 4294967295
307.96997 65.148727 10.370298 4294967295
307.97333 65.630165 9.912281 4294967295
308.02005 66.603065 10.228365 4294967295
308.02524 66.124138 10.949961 4294967295
308.03207 67.086426 10.037634 4294967295
308.0787 67.58007 10.912453 4294967295
308.09485 68.064827 10.847103 4294967295
308.10834 68.548668 10.700754 4294967295
308.10983 69.028358 10.185539 4294967295
308.11996 56.881336 9.7430687 4294967295
308.13715 69.995346 9.9057827 4294967295
308.14658 56.397537 11.12184 4294967295
308.15222 69.521927 10.928562 4294967295
308.15994 57.367344 10.411051 4294967295
308.16739 57.851891 10.079756 4294967295
308.18988 71.449646 9.8449726 4294967295
308.19165 70.972321 10.458082 4294967295
308.19995 58.821693 9.9615021 4294967295
308.20111 58.338093 10.555653 4294967295
308.22287 71.940681 10.298527 4294967295
308.25461 59.310246 11.077028 4294967295
308.28711 60.280678 10.954948 4294967295
308.29813 61.247841 10.176966 4294967295
308.31137 60.766891 11.139383 4294967295
308.33432 62.218006 10.168192 4294967295
308.33664 61.736107 10.796616 4294967295
308.37347 63.670162 9.6941128 4294967295
308.39868 63.193554 11.019371 4294967295
308.43948 64.165375 11.152626 4294967295
308.44626 65.609825 9.6911125 4294967295
308.44629 65.129257 10.247286 4294967295
308.47345 66.097092 9.9641933 4294967295
308.48999 66.581642 9.911047 4294967295
308.52167 67.070511 10.321838 4294967295
308.54367 68.036377 9.881916 4294967295
308.56165 67.562134 10.982298 4294967295
308.57648 68.526047 10.325136 4294967295
308.60699 56.378906 10.507271 4294967295
308.61057 55.89397 11.169136 4294967295
308.61462 69.01783 10.930235 4294967295
308.62717 56.864182 10.565334 4294967295
308.63403 69.503639 10.965733 4294967295
308.64291 69.985733 10.68154 4294967295
308.64331 57.349323 10.503304 4294967295
308.64771 70.466087 10.272951 4294967295
308.68127 57.835716 11.101036 4294967295
308.68314 70.957764 10.794453 4294967295
308.70178 71.443283 10.807144 4294967295
308.70236 58.321365 11.18709 4294967295
308.71008 58.805973 10.868481 4294967295
308.72437 59.774303 10.196005 4294967295
308.73288 59.291771 11.006563 4294967295
308.73792 60.258842 10.055559 4294967295
308.80142 60.74979 11.425119 4294967295
308.80942 61.233902 11.114405 4294967295
308.828 61.71941 11.125372 4294967295
308.84085 62.203979 10.962976 4294967295
308.87241 62.691727 11.364666 4294967295
308.87869 63.656765 10.451893 4294967295
308.88123 64.138634 9.9786682 4294967295
308.88232 63.175709 11.112642 4294967295
308.93326 64.63121 10.997946 4294967295
308.94278 65.114563 10.734329 4294967295
308.96472 65.600777 10.846025 4294967295
308.9769 66.084579 10.664646 4294967295
308.98102 66.566025 10.239388 4294967295
309.04132 67.063004 11.504765 4294967295
309.04904 68.025444 10.64044 4294967295
309.06305 67.549637 11.60943 4294967295
309.07904 68.514442 10.993551 4294967295
309.08884 68.997063 10.739676 4294967295
309.09518 55.875908 11.290155 4294967295
309.10745 56.846031 10.563889 4294967295
309.11389 69.484695 10.944458 4294967295
309.1188 56.361526 11.450563 4294967295
309.13229 70.448898 10.401569 4294967295
309.13257 57.33157 10.769545 4294967295
309.13477 57.815926 10.287794 4294967295
309.15436 58.301132 10.329588 4294967295
309.17108 58.786133 10.284199 4294967295
309.17142 71.42028 10.480829 4294967295
309.21307 71.91481 11.182863 4294967295
309.21411 59.273567 11.026958 4294967295
309.25537 59.761383 11.715097 4294967295
309.26733 60.246315 11.527054 4294967295
309.28247 61.214493 10.888086 4294967295
309.31705 62.667011 10.287329 4294967295
309.32391 61.703369 11.58238 4294967295
309.32745 62.186573 11.143051 4294967295
309.33484 63.152042 10.274496 4294967295
309.37677 63.64183 10.980267 4294967295
309.39841 64.609322 10.540056 4294967295
309.41141 64.130646 11.470377 4294967295
309.43201 65.579025 10.45299 4294967295
309.48431 66.553619 10.925333 4294967295
309.51141 67.041435 11.187958 4294967295
309.52664 68.005951 10.556387 4294967295
309.53299 67.527863 11.287575 4294967295
309.58374 56.343025 10.98391 4294967295
309.58719 69.463577 10.730457 4294967295
309.59857 57.312737 10.341095 4294967295
309.60718 56.82856 11.138895 4294967295
309.63434 58.282913 10.322329 4294967295
309.63809 70.918007 10.616499 4294967295
309.64264 69.961754 11.834118 4294967295
309.64386 70.44136 11.328695 4294967295
309.67221 71.409309 11.087622 4294967295
309.68213 58.770401 11.197922 4294967295
309.6889 71.894127 11.042358 4294967295
309.70343 59.739708 10.748079 4294967295
309.75101 60.228355 11.616148 4294967295
309.75214 61.194668 10.569752 4294967295
309.77246 60.714363 11.710346 4294967295
309.78799 61.68251 11.09108 4294967295
309.79016 62.165325 10.615721 4294967295
309.81113 62.651001 10.69648 4294967295
309.86407 64.106377 10.644043 4294967295
309.86649 63.625183 11.253191 4294967295
309.87354 63.14436 11.999205 4294967295
309.89795 64.595016 11.105326 4294967295
309.9328 65.565437 11.057215 4294967295
309.93628 65.085022 11.696447 4294967295
309.97357 66.537354 11.183334 4294967295
309.98337 67.500587 10.398842 4294967295
309.99921 67.024803 11.399977 4294967295
310.02222 67.991867 11.004761 4294967295
310.05399 68.481415 11.402903 4294967295
310.06427 56.324898 10.986418 4294967295
310.08701 56.810387 11.117617 4294967295
310.08939 68.97242 11.905735 4294967295
310.10071 69.455826 11.70104 4294967295
310.13025 69.945335 12.031866 4294967295
310.13116 70.424988 11.524939 4294967295
310.16229 70.91526 11.902248 4294967295
310.16644 59.236267 10.773527 4294967295
310.17068 71.39727 11.613455 4294967295
310.1795 58.753487 11.689621 4294967295
310.18356 71.880783 11.455118 4294967295
310.19708 60.206108 10.602961 4294967295
310.21027 59.724125 11.521034 4294967295
310.26151 60.697067 11.953222 4294967295
310.27225 61.181763 11.733591 4294967295
310.28503 61.666573 11.572784 4294967295
310.28931 62.149929 11.166582 4294967295
310.3428 63.123817 11.661539 4294967295
310.35696 63.608646 11.542654 4294967295
310.35858 64.090813 11.057907 4294967295
310.38937 64.578865 11.422653 4294967295
310.43118 66.032188 11.046894 4294967295
310.46561 66.521759 11.516949 4294967295
310.47836 67.005821 11.358852 4294967295
310.49249 67.97023 10.709227 4294967295
310.51465 67.496399 11.883162 4294967295
310.52417 68.459564 11.099989 4294967295
310.53152 56.306484 10.603432 4294967295
310.5531 56.791759 10.699858 4294967295
310.56912 68.953377 11.87413 4294967295
310.58209 69.43734 11.720476 4294967295
310.59985 57.762733 10.998882 4294967295
310.60428 69.924294 11.834652 4294967295
310.60504 58.247196 10.620537 4294967295
310.60754 57.278568 11.750881 4294967295
310.61716 70.887123 11.149515 4294967295
310.64838 58.734337 11.348343 4294967295
310.65799 71.38092 11.804535 4294967295
310.66977 71.864113 11.617584 4294967295
310.71597 60.675491 11.192432 4294967295
310.7312 61.160484 11.105238 4294967295
310.7489 61.645771 11.089071 4294967295
310.77002 62.131577 11.171932 4294967295
310.81543 63.103958 11.429401 4294967295
310.83911 63.590477 11.586252 4294967295
310.84122 64.072784 11.120596 4294967295
310.87042 64.560486 11.438 4294967295
310.8959 65.52887 11.119085 4294967295
310.92627 66.017235 11.468678 4294967295
310.97977 67.473427 11.433382 4294967295
310.98193 66.993385 12.019764 4294967295
311.01486 68.443977 11.392668 4294967295
311.01617 67.964165 11.954384 4294967295
311.03622 68.930435 11.482924 4294967295
311.04068 56.288971 11.434155 4294967295
311.07169 69.421501 11.976185 4294967295
311.07455 69.902077 11.535192 4294967295
311.08795 70.864929 10.873453 4294967295
311.09833 70.389519 11.694012 4294967295
311.12717 58.231735 11.82184 4294967295
311.1358 71.839775 11.19899 4294967295
311.14453 71.364281 11.972195 4294967295
311.14633 58.717422 11.847113 4294967295
311.1684 59.203392 11.955751 4294967295
311.23624 61.145397 11.807108 4294967295
311.25912 62.114529 11.418867 4294967295
311.29367 63.085129 11.364706 4294967295
311.33548 63.574974 12.035574 4294967295
311.35229 64.06041 11.995853 4294967295
311.35504 64.542847 11.553362 4294967295
311.38617 65.031197 11.919865 4294967295
311.3996 65.515747 11.783707 4294967295
311.44925 66.97123 11.638651 4294967295
311.4765 67.459251 11.894041 4294967295
311.49872 68.426315 11.487801 4294967295
311.51416 56.270695 11.233795 4294967295
311.52994 68.915802 11.856522 4294967295
311.55045 69.881805 11.402798 4294967295
311.56802 57.242168 11.726225 4294967295
311.5914 70.375 12.045547 4294967295
311.59335 70.85498 11.584803 4294967295
311.61136 58.213737 11.920567 4294967295
311.6196 71.82222 11.293131 4294967295
311.64191 59.184509 11.752329 4294967295
311.65619 59.669693 11.639231 4294967295
311.68039 60.155861 11.807562 4294967295
311.72073 61.127552 11.916929 4294967295
311.73813 61.613071 11.892994 4294967295
311.74988 62.09771 11.709475 4294967295
311.76993 62.583557 11.760155 4294967295
311.8764 65.496338 11.675489 4294967295
311.93881 67.435638 11.376999 4294967295
312.0434 69.867149 11.752726 4294967295
312.04443 57.223824 11.610468 4294967295
312.0639 70.353477 11.815863 4294967295
312.11313 71.808243 11.66118 4294967295
312.11835 59.165882 11.636208 4294967295
312.13684 59.651413 11.642365 4294967295
312.28784 63.536415 11.783743 4294967295
312.29495 64.019821 11.471704 4294967295
312.36954 65.480644 12.025442 4294967295
312.38882 65.966553 12.054541 4294967295
312.42844 67.419495 11.633202 4294967295
312.45294 67.906746 11.807459 4294967295
312.48663 68.877052 11.729128 4294967295
312.53619 70.33197 11.585533 4294967295
312.54352 57.691139 11.619263 4294967295
312.55173 70.816528 11.510536 4294967295
312.58533 71.307434 11.936274 4294967295
312.59335 58.663067 11.989752 4294967295
312.70465 61.577049 12.038784 4294967295
312.71606 62.061691 11.850311 4294967295
312.79132 64.004402 11.912308 4294967295
313.0007 56.702423 11.982328 4294967295
313.00983 69.83139 11.898996 4294967295
313.10382 72.260361 11.973442 4294967295
313.27264 63.986073 11.933336 4294967295
313.43762 68.356522 11.952614 4294967295
309.87115 37.363564 12.099667 4294967295
310.06519 29.571526 12.255545 4294967295
310.08209 30.05814 12.214222 4294967295
310.28381 35.401093 12.24161 4294967295
310.52252 29.072037 12.101473 4294967295
310.59146 30.520939 12.512999 4294967295
310.73804 34.407555 12.527592 4294967295
310.77951 35.871151 12.143017 4294967295
311.14725 32.446312 12.564476 4294967295
311.26102 35.853561 12.164553 4294967295
311.28568 36.336483 12.347202 4294967295
311.33313 37.796741 12.138365 4294967295
311.56177 30.978104 12.236507 4294967295
311.60596 31.945438 12.453936 4294967295
311.72586 34.855389 12.746563 4294967295
311.75046 35.832485 12.408836 4294967295
311.81067 37.287567 12.564215 4294967295
311.85785 38.255135 12.863911 4294967295
311.97852 29.012978 12.48984 4294967295
312.02942 30.472488 12.381514 4294967295
312.09015 31.430948 13.061499 4294967295
312.09784 31.922548 12.763363 4294967295
312.1561 33.873226 12.350115 4294967295
312.19284 34.844585 12.356634 4294967295
312.19733 34.348137 12.993351 4294967295
312.21078 35.330448 12.348606 4294967295
312.22061 35.819866 12.112881 4294967295
312.24301 36.303749 12.228075 4294967295
312.29291 37.762707 12.093105 4294967295
312.33829 38.237976 12.849083 4294967295
312.4729 29.484468 12.360388 4294967295
312.47635 28.986013 12.963589 4294967295
312.49023 29.970707 12.334351 4294967295
312.5267 30.446314 12.840572 4294967295
312.56772 31.415699 12.966251 4294967295
312.58286 31.903288 12.879032 4294967295
312.60541 32.882107 12.490824 4294967295
312.64456 33.852364 12.564569 4294967295
312.65802 34.340408 12.430967 4294967295
312.65805 33.351082 13.444071 4294967295
312.67831 34.825218 12.487576 4294967295
312.69446 35.311928 12.42885 4294967295
312.73215 35.789223 12.967886 4294967295
312.73636 36.281128 12.578333 4294967295
312.74246 36.771927 12.242563 4294967295
312.76855 37.254463 12.45842 4294967295
312.95325 28.971401 12.852654 4294967295
312.95477 29.466824 12.392277 4294967295
312.98483 29.94593 12.716574 4294967295
313.0401 31.898411 12.229521 4294967295
313.04358 31.401318 12.82633 4294967295
313.09833 32.363846 13.327257 4294967295
313.11258 33.841225 12.215048 4294967295
313.12729 33.339653 13.119013 4294967295
313.16519 35.29908 12.156178 4294967295
313.17584 34.306091 13.447496 4294967295
313.17682 34.799988 12.975023 4294967295
313.23291 35.763474 13.509142 4294967295
313.23367 36.256927 13.031124 4294967295
313.23581 36.749458 12.589872 4294967295
313.24692 37.238083 12.393847 4294967295
313.25455 37.727882 12.104687 4294967295
313.31638 38.197124 13.295063 4294967295
313.42017 28.962448 12.473642 4294967295
313.45071 29.937162 12.312386 4294967295
313.47055 29.430008 13.348639 4294967295
313.48721 30.41293 12.807306 4294967295
313.5322 30.884544 13.534025 4294967295
313.53433 31.379086 13.095461 4294967295
313.5463 32.363266 12.429533 4294967295
313.55194 31.86536 13.078306 4294967295
313.59613 32.833511 13.286518 4294967295
313.62674 33.808353 13.125511 4294967295
313.63574 33.309311 13.866678 4294967295
313.64673 35.281425 12.182997 4294967295
313.64844 34.292747 13.219007 4294967295
313.67117 34.776756 13.340015 4294967295
313.69357 36.248337 12.463379 4294967295
313.69684 35.753487 13.045654 4294967295
313.76471 38.19191 12.411034 4294967295
313.77063 37.696972 13.064737 4294967295
313.91507 29.433441 12.365129 4294967295
313.92819 28.929905 13.210699 4294967295
313.94989 29.909988 12.811956 4294967295
313.97412 30.392601 12.972572 4294967295
313.99573 31.372074 12.571854 4294967295
314.00821 30.870142 13.398546 4294967295
314.04602 32.336723 12.941689 4294967295
314.06073 31.834171 13.827845 4294967295
314.06393 32.822762 12.932674 4294967295
314.09134 33.798729 12.688385 4294967295
314.11603 33.292595 13.841261 4294967295
314.16415 34.75425 13.660866 4294967295
314.1723 35.244759 13.390806 4294967295
314.17273 36.231693 12.422846 4294967295
314.18427 35.733475 13.221043 4294967295
314.2309 37.194622 13.002041 4294967295
314.23965 36.697899 13.726702 4294967295
314.26968 38.165592 13.062468 4294967295
314.42084 29.402496 13.037683 4294967295
314.46313 29.875338 13.677855 4294967295
314.47128 30.366882 13.407656 4294967295
314.48645 30.854527 13.325483 4294967295
314.50317 31.341312 13.285006 4294967295
314.50705 31.83453 12.901188 4294967295
314.54437 32.805801 12.923492 4294967295
314.56421 32.30127 13.936516 4294967295
314.59161 33.278046 13.693571 4294967295
314.59863 33.769371 13.394018 4294967295
314.599 34.263412 12.919395 4294967295
314.64578 34.736801 13.674919 4294967295
314.66873 35.220924 13.800007 4294967295
314.6701 36.207611 12.867167 4294967295
314.67215 35.713303 13.406067 4294967295
314.72931 36.6772 13.953327 4294967295
314.73785 37.167217 13.694855 4294967295
314.7525 37.654724 13.599226 4294967295
314.75632 38.146107 13.216516 4294967295
314.86786 28.908325 12.628153 4294967295
314.89279 29.390373 12.804325 4294967295
314.94513 29.857807 13.703497 4294967295
314.96783 30.341591 13.82057 4294967295
314.97672 30.83263 13.572815 4294967295
314.98898 31.816833 12.933451 4294967295
315.02863 32.292267 13.496908 4294967295
315.06033 33.266632 13.368948 4294967295
315.08072 32.762238 14.386456 4294967295
315.08545 33.749508 13.549437 4294967295
315.09787 34.238174 13.395945 4294967295
315.11624 35.217899 12.918699 4294967295
315.12833 34.718895 13.716347 4294967295
315.14767 35.698273 13.265013 4294967295
315.19791 36.171356 14.103725 4294967295
315.20535 36.661896 13.819452 4294967295
315.22421 37.14785 13.834986 4294967295
315.23087 37.638351 13.530481 4294967295
315.27396 38.115448 14.180424 4294967295
315.36316 28.883228 13.012667 4294967295
315.44232 30.327988 13.649538 4294967295
315.44888 29.828688 14.29682 4294967295
315.49426 30.796837 14.527159 4294967295
315.50439 31.287357 14.314804 4294967295
315.50763 31.781097 13.922804 4294967295
315.52914 32.760571 13.531042 4294967295
315.53006 32.265289 14.030878 4294967295
315.58908 33.722103 14.140659 4294967295
315.59146 34.215382 13.726576 4294967295
315.60532 34.703407 13.611328 4294967295
315.65091 35.671841 13.847336 4294967295
315.68683 36.644417 13.831028 4294967295
315.69101 36.149307 14.4139 4294967295
315.74518 37.608704 14.397091 4294967295
315.90283 28.833908 14.538429 4294967295
315.91324 29.324558 14.334953 4294967295
315.9538 30.79081 13.965868 4294967295
316.00391 31.261164 14.787748 4294967295
316.01389 31.751717 14.57366 4294967295
316.04749 33.220688 14.0264 4294967295
316.0574 32.721336 14.752428 4294967295
316.07202 33.704098 14.188274 4294967295
316.09915 34.680698 13.943701 4294967295
316.10284 34.184921 14.510555 4294967295
316.17151 37.118729 13.456139 4294967295
316.20511 37.599121 13.850109 4294967295
316.21298 36.609695 14.993324 4294967295
316.24277 38.078396 14.347725 4294967295
316.37378 28.82254 14.274494 4294967295
316.38043 29.315022 13.977224 4294967295
316.38477 29.80851 13.619619 4294967295
316.41681 30.287457 13.972639 4294967295
316.45837 31.257326 14.100952 4294967295
316.46857 30.756771 14.829847 4294967295
316.4892 31.73749 14.421398 4294967295
316.50952 32.717697 14.006653 4294967295
316.52417 32.215935 14.848328 4294967295
316.535 33.694954 13.724796 4294967295
316.55222 33.192825 14.630642 4294967295
316.59525 34.162876 14.795719 4294967295
316.61191 34.650074 14.753267 4294967295
316.62021 35.140648 14.49968 4294967295
316.63718 36.12109 14.000282 4294967295
316.65463 36.607571 13.980158 4294967295
316.73849 37.562813 15.183599 4294967295
316.74854 38.052345 14.974802 4294967295
316.85928 28.803205 14.385908 4294967295
316.8894 29.283249 14.686623 4294967295
316.92621 30.255966 14.693264 4294967295
316.92963 30.749813 14.316517 4294967295
316.93143 29.757366 15.288187 4294967295
316.98477 32.20853 14.323402 4294967295
317.03455 32.680367 15.120794 4294967295
309.96283 39.792103 12.112934 4294967295
310.08267 55.839966 12.060726 4294967295
310.47934 40.746429 12.087469 4294967295
310.5162 41.717739 12.098549 4294967295
310.53329 42.203815 12.064501 4294967295
310.59064 43.660248 12.138222 4294967295
310.6145 44.144512 12.302473 4294967295
310.89014 51.4314 12.353256 4294967295
310.92831 52.402935 12.400593 4294967295
311.01483 54.832214 12.262915 4294967295
311.02374 42.183357 12.342314 4294967295
311.05783 43.155632 12.272367 4294967295
311.06021 55.803883 12.517929 4294967295
311.19467 46.554184 12.531162 4294967295
311.23071 47.526016 12.517578 4294967295
311.24344 48.01281 12.359585 4294967295
311.29642 49.470467 12.308004 4294967295
311.40039 39.249222 12.494282 4294967295
311.42566 39.732555 12.694197 4294967295
311.53647 43.13866 12.211269 4294967295
311.70175 47.510002 12.238562 4294967295
311.75143 48.967941 12.095339 4294967295
311.77307 49.453175 12.190544 4294967295
311.81693 49.935757 12.913027 4294967295
311.8342 50.42186 12.885389 4294967295
311.84824 50.908272 12.766237 4294967295
311.86243 51.88192 12.136723 4294967295
311.86264 51.394562 12.657206 4294967295
311.88422 52.367378 12.236734 4294967295
311.90756 39.714787 12.72142 4294967295
311.93216 53.338326 12.558861 4294967295
311.93234 40.690475 12.390116 4294967295
311.94623 53.824333 12.440575 4294967295
311.97699 54.796043 12.278496 4294967295
312.01627 42.630432 12.697309 4294967295
312.06448 43.599129 13.024513 4294967295
312.11108 45.549034 12.283691 4294967295
312.22037 47.974716 12.786375 4294967295
312.24521 48.459621 12.971622 4294967295
312.2811 49.919926 12.442833 4294967295
312.30923 50.404625 12.719103 4294967295
312.34906 51.863503 12.302189 4294967295
312.36279 38.721584 13.023115 4294967295
312.36292 52.349541 12.178715 4294967295
312.39606 53.321079 12.085697 4294967295
312.43173 40.666904 12.909224 4294967295
312.44595 41.154133 12.796724 4294967295
312.47794 41.635857 13.177853 4294967295
312.48462 54.777618 13.026249 4294967295
312.48932 55.263672 12.648085 4294967295
312.49402 42.122551 13.117521 4294967295
312.49615 42.613159 12.669279 4294967295
312.52081 55.74966 13.015997 4294967295
312.5235 43.587288 12.414425 4294967295
312.5603 44.06839 12.929132 4294967295
312.5809 44.553795 12.993141 4294967295
312.6015 45.039238 13.058998 4294967295
312.60406 45.528679 12.623331 4294967295
312.65851 47.475304 12.109186 4294967295
312.66544 46.984985 12.805853 4294967295
312.71628 48.931805 12.192539 4294967295
312.76562 49.413387 13.05175 4294967295
312.79462 49.898094 13.348261 4294967295
312.83353 38.707962 12.740612 4294967295
312.83655 51.845024 12.488266 4294967295
312.85477 39.192764 12.822634 4294967295
312.86475 52.330151 12.762569 4294967295
312.88147 52.816139 12.719761 4294967295
312.8931 39.671707 13.376589 4294967295
312.89676 53.788643 12.135706 4294967295
312.91565 41.140167 12.487572 4294967295
312.9166 40.64817 13.016508 4294967295
312.94592 54.273552 12.985786 4294967295
312.96536 42.107841 12.851065 4294967295
312.96854 55.245571 12.604013 4294967295
312.97537 43.08683 12.122164 4294967295
312.98877 55.731422 12.658028 4294967295
313.00275 42.588371 13.377512 4294967295
313.02057 43.565456 12.862875 4294967295
313.06573 45.515156 12.096956 4294967295
313.07217 44.533695 13.276943 4294967295
313.11804 46.483307 12.530264 4294967295
313.11938 46.972206 12.068056 4294967295
313.13846 45.989563 13.591335 4294967295
313.14532 47.456467 12.279348 4294967295
313.23636 49.396873 12.771107 4294967295
313.24832 50.371315 12.099815 4294967295
313.25366 49.88287 12.74519 4294967295
313.29886 51.341324 12.48354 4294967295
313.31747 50.851913 13.490332 4294967295
313.32397 38.68708 13.002705 4294967295
313.32907 39.17767 12.644709 4294967295
313.34692 51.824783 13.296774 4294967295
313.37 52.310558 13.426901 4294967295
313.38336 53.283878 12.79545 4294967295
313.38348 39.651085 13.62995 4294967295
313.40085 41.121288 12.609884 4294967295
313.40375 53.769699 12.854769 4294967295
313.41403 40.625389 13.46697 4294967295
313.42761 54.741703 12.508879 4294967295
