# .PCD v0.7 - Point Cloud Data file format
VERSION 0.7
FIELDS x y z rgb
SIZE 4 4 4 4
TYPE F F F U
COUNT 1 1 1 1
WIDTH 1121
HEIGHT 1
VIEWPOINT 0 0 0 1 0 0 0
POINTS 1121
DATA ascii
115.63005 -70.612 -62.220413 4294967295
115.63901 -61.200333 -63.217487 4294967295
115.65205 -62.994465 -63.856216 4294967295
115.6582 -58.476387 -62.5578 4294967295
115.68137 -58.910751 -62.871536 4294967295
115.69917 -68.301613 -62.080635 4294967295
115.70714 -68.745918 -62.277119 4294967295
115.71204 -69.192596 -62.449863 4294967295
115.71568 -57.529743 -62.732731 4294967295
115.72607 -57.973824 -62.94762 4294967295
115.73051 -67.825249 -62.188213 4294967295
115.78073 -57.02964 -63.100861 4294967295
115.81171 -66.85788 -62.546555 4294967295
115.84466 -56.530647 -63.460392 4294967295
115.86944 -66.360626 -62.858498 4294967295
115.91188 -64.523109 -62.647366 4294967295
115.91316 -65.424026 -62.927063 4294967295
115.92194 -63.161556 -62.32029 4294967295
115.93858 -65.854515 -63.258629 4294967295
115.97172 -71.631088 -61.50486 4294967295
115.98903 -63.560211 -62.974812 4294967295
116.0156 -63.990288 -63.315456 4294967295
116.05205 -60.803707 -62.65295 4294967295
116.06856 -59.88797 -62.51075 4294967295
116.06992 -60.338524 -62.656357 4294967295
116.08084 -59.426964 -62.470776 4294967295
116.08353 -69.735245 -61.830761 4294967295
116.09512 -58.512596 -62.311123 4294967295
116.10361 -62.117699 -63.457443 4294967295
116.11033 -71.064636 -62.444237 4294967295
116.13765 -57.124886 -62.235294 4294967295
116.15011 -58.019478 -62.602341 4294967295
116.16186 -61.17062 -63.63879 4294967295
116.18617 -58.895687 -63.152191 4294967295
116.21101 -69.179543 -62.684242 4294967295
116.21542 -67.37323 -62.177498 4294967295
116.21826 -57.516769 -62.995686 4294967295
116.22618 -68.71656 -62.666801 4294967295
116.246 -68.249794 -62.685333 4294967295
116.27717 -66.421555 -62.386116 4294967295
116.28751 -65.511276 -62.195679 4294967295
116.30205 -66.852287 -62.714546 4294967295
116.31138 -56.544209 -63.447666 4294967295
116.35287 -65.909874 -62.838482 4294967295
116.36729 -64.094528 -62.409035 4294967295
116.38193 -64.984985 -62.793419 4294967295
116.3941 -71.231262 -61.005886 4294967295
116.4374 -71.645668 -61.478371 4294967295
116.43964 -64.488251 -63.106228 4294967295
116.4482 -60.871674 -62.089355 4294967295
116.4557 -60.414219 -62.012184 4294967295
116.45586 -63.573608 -62.961582 4294967295
116.4688 -63.112415 -62.926697 4294967295
116.47667 -61.301277 -62.446117 4294967295
116.48253 -59.941975 -62.085117 4294967295
116.50175 -70.690529 -61.707478 4294967295
116.55103 -58.534592 -62.210999 4294967295
116.58231 -69.271683 -61.927132 4294967295
116.58662 -70.169266 -62.232063 4294967295
116.61286 -68.795792 -62.02914 4294967295
116.62694 -57.121967 -62.394669 4294967295
116.6381 -58.017258 -62.752647 4294967295
116.65596 -59.358318 -63.298031 4294967295
116.65858 -58.904938 -63.182938 4294967295
116.66112 -67.403938 -61.997536 4294967295
116.70108 -57.518375 -63.106995 4294967295
116.70525 -68.269295 -62.612495 4294967295
116.74432 -56.58284 -63.172298 4294967295
116.80051 -65.487823 -62.53994 4294967295
116.82337 -66.821472 -63.124969 4294967295
116.82757 -66.367523 -63.021996 4294967295
116.8718 -64.979942 -62.959373 4294967295
116.89256 -71.669083 -61.369976 4294967295
116.90982 -70.753265 -61.232353 4294967295
116.91911 -63.138786 -62.785046 4294967295
116.922 -61.331539 -62.263988 4294967295
116.92567 -70.289246 -61.219879 4294967295
116.93689 -62.673767 -62.787712 4294967295
116.94601 -64.470078 -63.401695 4294967295
116.94846 -60.408062 -62.198456 4294967295
116.95924 -62.20517 -62.826 4294967295
116.96101 -59.946815 -62.160297 4294967295
116.96413 -63.554237 -63.271591 4294967295
116.99074 -71.135971 -61.999752 4294967295
117.01691 -69.31189 -61.659676 4294967295
117.02441 -58.543396 -62.246807 4294967295
117.03439 -58.987534 -62.460758 4294967295
117.04438 -59.431519 -62.674583 4294967295
117.05085 -56.263565 -61.772762 4294967295
117.0694 -69.718933 -62.20536 4294967295
117.07976 -68.809212 -62.014065 4294967295
117.08557 -57.593708 -62.452042 4294967295
117.08623 -67.902412 -61.792236 4294967295
117.09222 -57.136879 -62.367851 4294967295
117.10732 -58.029068 -62.757706 4294967295
117.13156 -56.65564 -62.538795 4294967295
117.13412 -68.313828 -62.302299 4294967295
117.169 -66.482353 -62.030083 4294967295
117.24025 -65.973877 -62.450371 4294967295
117.2534 -66.864571 -62.82534 4294967295
117.31918 -64.107079 -62.52235 4294967295
117.32608 -64.552498 -62.712437 4294967295
117.35363 -65.431839 -63.199966 4294967295
117.3654 -61.363373 -62.065975 4294967295
117.36906 -71.674507 -61.428177 4294967295
117.37079 -71.222519 -61.305199 4294967295
117.37272 -64.965919 -63.213058 4294967295
117.37525 -63.611614 -62.824398 4294967295
117.37572 -60.903866 -62.010246 4294967295
117.39195 -60.439758 -62.000797 4294967295
117.40819 -59.072098 -61.718521 4294967295
117.43974 -62.658867 -63.056061 4294967295
117.44116 -63.10862 -63.203384 4294967295
117.44829 -59.94482 -62.305149 4294967295
117.4697 -57.669701 -61.790375 4294967295
117.47137 -69.786392 -61.682755 4294967295
117.4724 -70.236076 -61.827419 4294967295
117.4747 -62.180496 -63.193207 4294967295
117.48456 -61.721836 -63.133968 4294967295
117.49867 -59.454681 -62.562859 4294967295
117.51553 -69.299034 -61.892006 4294967295
117.54218 -68.375671 -61.827549 4294967295
117.5994 -58.023571 -62.941959 4294967295
117.60347 -57.117294 -62.701103 4294967295
117.61497 -58.463192 -63.200256 4294967295
117.6638 -66.923843 -62.37048 4294967295
117.68804 -67.354607 -62.696896 4294967295
117.70019 -66.443573 -62.518917 4294967295
117.74033 -65.058853 -62.423813 4294967295
117.77549 -63.677895 -62.289452 4294967295
117.77634 -71.287933 -60.806763 4294967295
117.80261 -64.107254 -62.638763 4294967295
117.80426 -61.850307 -61.968151 4294967295
117.81435 -60.939476 -61.773689 4294967295
117.82651 -64.538948 -62.96262 4294967295
117.83967 -62.273827 -62.382629 4294967295
117.85687 -71.670258 -61.575928 4294967295
117.86952 -63.152328 -62.890057 4294967295
117.87543 -61.343369 -62.389671 4294967295
117.90838 -59.5121 -62.10096 4294967295
117.91811 -58.601265 -61.903595 4294967295
117.92532 -69.810669 -61.565521 4294967295
117.93819 -60.392036 -62.608494 4294967295
117.93881 -57.229858 -61.655338 4294967295
117.93981 -70.699432 -61.953125 4294967295
117.96352 -68.877571 -61.591461 4294967295
117.96633 -70.226768 -62.024498 4294967295
117.96635 -59.918972 -62.692711 4294967295
117.97176 -69.321327 -61.793194 4294967295
118.01965 -58.975365 -62.837498 4294967295
118.01966 -68.380371 -61.895596 4294967295
118.03784 -67.914711 -61.901409 4294967295
118.04554 -57.601204 -62.630318 4294967295
118.07056 -67.437126 -62.02137 4294967295
118.07971 -66.978897 -61.956306 4294967295
118.17169 -66.453079 -62.542152 4294967295
118.185 -65.090126 -62.235737 4294967295
118.1897 -65.987816 -62.546757 4294967295
118.2441 -71.751495 -60.932796 4294967295
118.26762 -62.317986 -62.062721 4294967295
118.27126 -65.4711 -63.050941 4294967295
118.27267 -61.411346 -61.82803 4294967295
118.27717 -64.56517 -62.823399 4294967295
118.28163 -63.660057 -62.584343 4294967295
118.28696 -70.81395 -60.995579 4294967295
118.29706 -64.098526 -62.842785 4294967295
118.29954 -59.584061 -61.490475 4294967295
118.30843 -60.028904 -61.697784 4294967295
118.34274 -71.217209 -61.572231 4294967295
118.34394 -63.159615 -62.93742 4294967295
118.35303 -61.799622 -62.597565 4294967295
118.36269 -60.438396 -62.262058 4294967295
118.37685 -59.072926 -61.961815 4294967295
118.39529 -62.668129 -63.204361 4294967295
118.42137 -58.135532 -62.037796 4294967295
118.43239 -69.790428 -61.866211 4294967295
118.46574 -69.312096 -61.991501 4294967295
118.46949 -68.407928 -61.74638 4294967295
118.47202 -57.645359 -62.299393 4294967295
118.47845 -68.851028 -61.95443 4294967295
118.48733 -58.536804 -62.694519 4294967295
118.53738 -67.901131 -62.143948 4294967295
118.55525 -66.985214 -62.009937 4294967295
118.604 -66.043945 -62.11937 4294967295
118.66839 -66.44194 -62.764481 4294967295
118.71887 -65.499886 -62.88773 4294967295
118.72281 -62.340767 -61.956291 4294967295
118.73245 -64.587746 -62.720032 4294967295
118.73409 -65.037033 -62.870399 4294967295
118.777 -64.101265 -62.934017 4294967295
118.78211 -57.326069 -60.909161 4294967295
118.80693 -60.920891 -62.207371 4294967295
118.80793 -62.72435 -62.765602 4294967295
118.81792 -63.617847 -63.119419 4294967295
118.8339 -60.448544 -62.282745 4294967295
118.87486 -70.724945 -61.934265 4294967295
118.89449 -69.357376 -61.676037 4294967295
118.90562 -59.941555 -62.71146 4294967295
118.91224 -70.243095 -62.091797 4294967295
118.92221 -69.784462 -62.032913 4294967295
118.93959 -59.464069 -62.842087 4294967295
118.94482 -59.008804 -62.74575 4294967295
118.95257 -68.40789 -61.85939 4294967295
118.96029 -58.545601 -62.73037 4294967295
118.98756 -67.928299 -61.998138 4294967295
119.00655 -68.813217 -62.423828 4294967295
119.03246 -66.990097 -62.077518 4294967295
119.09969 -64.681564 -61.919643 4294967295
119.13654 -65.553101 -62.487106 4294967295
119.17093 -61.917942 -61.655365 4294967295
119.17309 -65.072815 -62.63834 4294967295
119.18742 -57.839191 -60.541786 4294967295
119.20968 -71.75145 -61.150032 4294967295
119.21793 -63.233849 -62.441444 4294967295
119.22745 -58.260696 -60.997414 4294967295
119.23373 -62.319386 -62.290581 4294967295
119.23893 -61.413029 -62.055748 4294967295
119.24238 -63.665016 -62.772987 4294967295
119.24551 -64.113113 -62.935726 4294967295
119.25064 -71.26609 -61.336296 4294967295
119.27554 -59.127338 -61.655033 4294967295
119.27682 -70.793449 -61.405621 4294967295
119.29626 -69.876137 -61.283108 4294967295
119.30334 -70.32058 -61.477489 4294967295
119.30927 -62.710167 -63.026733 4294967295
119.31676 -59.998314 -62.258003 4294967295
119.32449 -60.44352 -62.457336 4294967295
119.34949 -59.521599 -62.379185 4294967295
119.36104 -58.609894 -62.194397 4294967295
119.40828 -68.881004 -61.894733 4294967295
119.43128 -67.510361 -61.662186 4294967295
119.44093 -68.403305 -62.01532 4294967295
119.48664 -66.563339 -61.824703 4294967295
119.51604 -66.989616 -62.196369 4294967295
119.54664 -65.612762 -62.024063 4294967295
119.56208 -66.050728 -62.284962 4294967295
119.59406 -64.672699 -62.123795 4294967295
119.6045 -64.213463 -62.06818 4294967295
119.6233 -71.810707 -60.710293 4294967295
119.6335 -65.091293 -62.575081 4294967295
119.6908 -60.535782 -61.645634 4294967295
119.69206 -61.88855 -62.071346 4294967295
119.69926 -71.295166 -61.175304 4294967295
119.70602 -63.230152 -62.597511 4294967295
119.71493 -63.673656 -62.806549 4294967295
119.73328 -58.244717 -61.290104 4294967295
119.73996 -61.399567 -62.313354 4294967295
119.74704 -62.746582 -62.784866 4294967295
119.77328 -70.781609 -61.625164 4294967295
119.80265 -70.306381 -61.720055 4294967295
119.8075 -59.541969 -62.296032 4294967295
119.81767 -60.887302 -62.792267 4294967295
119.81848 -59.984615 -62.521797 4294967295
119.82211 -69.389351 -61.597412 4294967295
119.82771 -69.834908 -61.780655 4294967295
119.83247 -59.071301 -62.355904 4294967295
119.83333 -57.716255 -61.946922 4294967295
119.83556 -58.617546 -62.241989 4294967295
119.8716 -68.897301 -61.852402 4294967295
119.92455 -68.40255 -62.134903 4294967295
119.94711 -67.93338 -62.175735 4294967295
119.98001 -66.55484 -62.021355 4294967295
120.00602 -67.434021 -62.505737 4294967295
120.01872 -66.072411 -62.190777 4294967295
120.06689 -65.131844 -62.296711 4294967295
120.09698 -63.304512 -61.981022 4294967295
120.10259 -62.398014 -61.747868 4294967295
120.11449 -64.642479 -62.536911 4294967295
120.11865 -71.799759 -60.91988 4294967295
120.12038 -71.347931 -60.794453 4294967295
120.17518 -60.986923 -61.909409 4294967295
120.18287 -63.685963 -62.804016 4294967295
120.2021 -59.611839 -61.70705 4294967295
120.2084 -61.862667 -62.452095 4294967295
120.21333 -62.76025 -62.769115 4294967295
120.21696 -69.914207 -61.147251 4294967295
120.23508 -58.683231 -61.691906 4294967295
120.23901 -61.38747 -62.557167 4294967295
120.246 -70.789917 -61.657238 4294967295
120.25391 -70.333023 -61.581249 4294967295
120.25569 -60.472343 -62.412346 4294967295
120.27795 -59.101395 -62.17289 4294967295
120.28154 -60.000992 -62.47937 4294967295
120.34235 -68.457024 -61.730328 4294967295
120.35332 -69.348221 -62.096092 4294967295
120.38056 -68.875069 -62.174385 4294967295
120.39671 -67.961075 -62.024963 4294967295
120.41541 -67.044739 -61.895893 4294967295
120.42187 -67.489731 -62.086647 4294967295
120.43212 -66.580391 -61.890198 4294967295
120.45592 -65.659607 -61.801739 4294967295
120.52235 -66.055336 -62.471451 4294967295
120.53034 -65.147903 -62.256947 4294967295
120.56905 -63.313736 -62.009117 4294967295
120.58908 -58.332684 -60.634933 4294967295
120.59229 -63.745689 -62.334038 4294967295
120.59592 -64.193314 -62.502365 4294967295
120.6106 -58.767857 -60.946762 4294967295
120.616 -62.8251 -62.244957 4294967295
120.62158 -60.114052 -61.45322 4294967295
120.62457 -61.465439 -61.895454 4294967295
120.63776 -71.768074 -61.32111 4294967295
120.64075 -64.607185 -62.999626 4294967295
120.64426 -59.644829 -61.495033 4294967295
120.64758 -61.898094 -62.218792 4294967295
120.65279 -60.991943 -61.981743 4294967295
120.70678 -59.144569 -61.855713 4294967295
120.71048 -70.80526 -61.623871 4294967295
120.71302 -70.352974 -61.504608 4294967295
120.74226 -60.470192 -62.557781 4294967295
120.74613 -68.97403 -61.350822 4294967295
120.78646 -69.390053 -61.813194 4294967295
120.83878 -68.445412 -61.952942 4294967295
120.86398 -67.523697 -61.875629 4294967295
120.90764 -67.03688 -62.085548 4294967295
120.93497 -66.563812 -62.164818 4294967295
120.95365 -66.097939 -62.174873 4294967295
120.99638 -64.711334 -62.098286 4294967295
121.01295 -63.796513 -61.951637 4294967295
121.03283 -65.131874 -62.529999 4294967295
121.03362 -65.581512 -62.675919 4294967295
121.04361 -71.384148 -60.676254 4294967295
121.06985 -60.142395 -61.28907 4294967295
121.09798 -59.668831 -61.374886 4294967295
121.10235 -61.019184 -61.829613 4294967295
121.10345 -63.272427 -62.537407 4294967295
121.11507 -61.460072 -62.071526 4294967295
121.12627 -62.803402 -62.580673 4294967295
121.12634 -71.762566 -61.480209 4294967295
121.15055 -70.391487 -61.254654 4294967295
121.15875 -62.326641 -62.701385 4294967295
121.17526 -58.254055 -61.575237 4294967295
121.17957 -60.506893 -62.309326 4294967295
121.18529 -59.149044 -61.935558 4294967295
121.21043 -69.439865 -61.455261 4294967295
121.23939 -68.064354 -61.267635 4294967295
121.26694 -58.107269 -58.398804 4294967295
121.28101 -68.479485 -61.742031 4294967295
121.34263 -67.527077 -61.956932 4294967295
121.38221 -67.043648 -62.134865 4294967295
121.39601 -66.581856 -62.105778 4294967295
121.44965 -65.636681 -62.256683 4294967295
121.45356 -66.083694 -62.428185 4294967295
121.50536 -62.436802 -61.723412 4294967295
121.52838 -64.220726 -62.469288 4294967295
121.53391 -60.158329 -61.25145 4294967295
121.54394 -64.658295 -62.734482 4294967295
121.54686 -65.106087 -62.89798 4294967295
121.55408 -63.298813 -62.395721 4294967295
121.56952 -63.736706 -62.659946 4294967295
121.58412 -58.312908 -61.093899 4294967295
121.58993 -61.016171 -61.983032 4294967295
121.59344 -69.975296 -60.906006 4294967295
121.59642 -59.657654 -61.61422 4294967295
121.60304 -71.317337 -61.404778 4294967295
121.6039 -70.866615 -61.27121 4294967295
121.63313 -60.530834 -62.1903 4294967295
121.63923 -69.485771 -61.134247 4294967295
121.67192 -70.357887 -61.678596 4294967295
121.68761 -58.683575 -62.067654 4294967295
121.70165 -59.123714 -62.321083 4294967295
121.71523 -58.136395 -58.224571 4294967295
121.74017 -68.04908 -61.526016 4294967295
121.75085 -68.9403 -61.893024 4294967295
121.8046 -68.444572 -62.185635 4294967295
121.82932 -66.623146 -61.822987 4294967295
121.83738 -67.516777 -62.168919 4294967295
121.90856 -66.106689 -62.321285 4294967295
121.91538 -67.001091 -62.657276 4294967295
121.94125 -64.278259 -62.022633 4294967295
121.94888 -65.622955 -62.505894 4294967295
121.97309 -64.702446 -62.420082 4294967295
121.97649 -65.149872 -62.588078 4294967295
121.99236 -63.33532 -62.153797 4294967295
122.02914 -61.953491 -62.028587 4294967295
122.04015 -61.493805 -61.976837 4294967295
122.04482 -58.331524 -61.028637 4294967295
122.05775 -63.732311 -62.821903 4294967295
122.05827 -59.675209 -61.559891 4294967295
122.05971 -61.027245 -61.993935 4294967295
122.0611 -70.888321 -61.178444 4294967295
122.06802 -71.782066 -61.516144 4294967295
122.07249 -62.819599 -62.659733 4294967295
122.09689 -70.407303 -61.326691 4294967295
122.10191 -60.09174 -62.053211 4294967295
122.11713 -71.289482 -61.77203 4294967295
122.13525 -58.712124 -61.900135 4294967295
122.17135 -69.893089 -61.787437 4294967295
122.20962 -69.410316 -61.955803 4294967295
122.21976 -68.051598 -61.615082 4294967295
122.22226 -68.499573 -61.776169 4294967295
122.24745 -68.928024 -62.120789 4294967295
122.2921 -67.540169 -62.058979 4294967295
122.34426 -66.145874 -62.058014 4294967295
122.34541 -67.045113 -62.349171 4294967295
122.3696 -66.574753 -62.403847 4294967295
122.41538 -65.636314 -62.492336 4294967295
122.43304 -65.171494 -62.49416 4294967295
122.44189 -64.713966 -62.424824 4294967295
122.44286 -62.460648 -61.727238 4294967295
122.45818 -62.898872 -61.992462 4294967295
122.48142 -71.392204 -60.927959 4294967295
122.48731 -71.83696 -61.117058 4294967295
122.4951 -58.358318 -60.878883 4294967295
122.49635 -70.929161 -60.907597 4294967295
122.50857 -60.153084 -61.553314 4294967295
122.51378 -63.303936 -62.583618 4294967295
122.54158 -61.479332 -62.244358 4294967295
122.54205 -58.7729 -61.400719 4294967295
122.60591 -59.173702 -62.059639 4294967295
122.623 -69.91938 -61.651417 4294967295
122.62514 -59.60944 -62.356613 4294967295
122.68736 -68.964203 -61.890587 4294967295
122.69571 -69.406845 -62.099571 4294967295
122.75221 -67.108948 -61.850967 4294967295
122.75328 -67.558105 -62.001038 4294967295
122.75922 -68.45282 -62.331959 4294967295
122.77931 -66.18576 -61.787941 4294967295
122.85067 -65.225563 -62.084206 4294967295
122.90302 -65.631973 -62.650421 4294967295
122.90765 -63.376965 -61.980694 4294967295
122.94961 -62.892082 -62.179993 4294967295
122.96347 -61.078133 -61.726147 4294967295
122.97304 -61.971889 -62.087143 4294967295
122.97636 -71.380959 -61.141037 4294967295
122.97874 -64.218925 -62.840992 4294967295
122.9865 -61.51033 -62.054901 4294967295
122.98854 -63.760735 -62.779049 4294967295
123.01098 -60.138222 -61.828831 4294967295
123.02969 -57.867481 -61.272205 4294967295
123.03259 -71.781258 -61.739883 4294967295
123.03423 -58.315289 -61.450882 4294967295
123.05296 -60.555412 -62.311768 4294967295
123.05414 -69.963516 -61.347973 4294967295
123.06525 -59.644001 -62.128372 4294967295
123.10412 -59.16227 -62.302567 4294967295
123.11461 -70.360756 -61.981499 4294967295
123.1159 -69.0103 -61.566669 4294967295
123.11916 -58.699459 -62.283295 4294967295
123.1755 -68.509171 -61.909748 4294967295
123.19729 -68.040642 -61.945145 4294967295
123.26019 -66.187172 -61.889637 4294967295
123.27684 -66.623177 -62.16713 4294967295
123.37303 -71.905884 -60.696564 4294967295
123.37836 -65.187866 -62.568024 4294967295
123.38864 -65.629166 -62.793633 4294967295
123.39484 -62.923042 -61.992584 4294967295
123.40474 -62.01379 -61.789169 4294967295
123.43404 -63.341171 -62.453968 4294967295
123.44165 -64.23513 -62.799816 4294967295
123.44241 -61.532501 -61.954163 4294967295
123.44421 -60.629509 -61.684685 4294967295
123.44981 -70.938637 -61.038204 4294967295
123.46628 -63.764717 -62.858498 4294967295
123.46838 -61.06081 -62.023754 4294967295
123.49211 -59.689289 -61.790886 4294967295
123.49522 -70.449066 -61.266361 4294967295
123.51526 -69.531845 -61.145256 4294967295
123.52098 -62.369377 -62.87851 4294967295
123.52391 -60.114674 -62.192383 4294967295
123.53742 -69.962471 -61.468452 4294967295
123.55432 -58.737888 -62.01395 4294967295
123.55687 -57.833744 -61.750282 4294967295
123.58264 -69.02359 -61.552841 4294967295
123.58569 -58.262112 -62.127663 4294967295
123.58611 -68.120667 -61.29644 4294967295
123.63712 -67.626938 -61.570549 4294967295
123.68436 -66.686584 -61.671543 4294967295
123.71482 -65.760506 -61.63567 4294967295
123.74918 -66.181625 -62.058632 4294967295
123.85896 -64.739365 -62.528419 4294967295
123.86356 -60.681313 -61.28352 4294967295
123.88075 -64.271164 -62.564186 4294967295
123.88148 -61.117672 -61.572777 4294967295
123.88243 -61.56765 -61.723099 4294967295
123.89034 -59.757717 -61.217209 4294967295
123.8961 -59.301941 -61.121815 4294967295
123.90432 -63.801521 -62.614388 4294967295
123.91511 -63.34248 -62.560192 4294967295
123.91541 -70.503181 -60.870861 4294967295
123.93524 -62.875721 -62.582386 4294967295
123.93732 -71.383423 -61.335556 4294967295
123.9403 -60.168556 -61.768696 4294967295
123.95586 -70.017899 -61.059151 4294967295
123.96629 -61.949753 -62.551353 4294967295
123.98785 -70.889328 -61.606407 4294967295
123.99331 -62.377853 -62.914677 4294967295
123.99541 -58.771755 -61.791744 4294967295
124.00587 -57.410072 -61.449272 4294967295
124.02365 -69.059174 -61.328541 4294967295
124.05198 -68.58474 -61.417782 4294967295
124.05634 -58.272457 -62.147671 4294967295
124.05785 -69.479233 -61.751289 4294967295
124.06815 -68.120865 -61.407349 4294967295
124.16257 -67.589867 -62.038033 4294967295
124.17033 -67.133415 -61.958752 4294967295
124.17401 -66.230347 -61.7033 4294967295
124.19793 -65.76001 -61.756416 4294967295
124.22996 -66.632744 -62.304523 4294967295
124.29774 -65.225807 -62.431702 4294967295
124.29794 -71.940453 -60.593544 4294967295
124.33134 -63.847664 -62.278587 4294967295
124.33454 -64.295059 -62.447708 4294967295
124.3409 -64.73967 -62.642662 4294967295
124.34951 -60.679356 -61.426811 4294967295
124.3639 -59.765888 -61.258656 4294967295
124.36942 -62.915733 -62.305027 4294967295
124.37379 -61.110382 -61.769173 4294967295
124.3786 -63.358276 -62.523247 4294967295
124.39811 -59.287415 -61.396381 4294967295
124.40629 -71.394676 -61.339794 4294967295
124.40729 -61.984009 -62.329891 4294967295
124.41039 -61.531094 -62.21241 4294967295
124.41396 -70.938316 -61.259647 4294967295
124.41961 -70.483673 -61.16291 4294967295
124.44458 -62.403587 -62.778702 4294967295
124.46054 -69.998047 -61.355801 4294967295
124.48008 -58.77095 -61.926189 4294967295
124.51527 -69.050842 -61.518883 4294967295
124.53217 -68.586388 -61.514523 4294967295
124.53455 -57.825897 -62.087193 4294967295
124.53585 -58.275715 -62.241043 4294967295
124.58513 -69.439514 -62.236023 4294967295
124.60887 -67.620567 -61.858376 4294967295
124.64824 -66.237244 -61.752052 4294967295
124.6622 -65.775352 -61.723564 4294967295
124.68089 -65.309479 -61.733871 4294967295
124.74204 -64.807846 -62.093475 4294967295
124.77247 -63.431995 -61.913685 4294967295
124.79198 -62.965519 -61.93079 4294967295
124.82635 -63.837181 -62.50037 4294967295
124.82749 -60.23296 -61.362175 4294967295
124.82956 -60.682076 -61.522697 4294967295
124.83998 -64.275673 -62.755707 4294967295
124.85235 -59.761993 -61.423283 4294967295
124.88091 -71.400879 -61.391064 4294967295
124.8912 -70.492706 -61.188465 4294967295
124.89478 -61.079514 -62.203224 4294967295
124.901 -62.425129 -62.684544 4294967295
124.90119 -59.271809 -61.681892 4294967295
124.90649 -61.970505 -62.586349 4294967295
124.94125 -57.886974 -61.581154 4294967295
124.9518 -58.329563 -61.811634 4294967295
124.9592 -69.983208 -61.605209 4294967295
124.97223 -58.764053 -62.123466 4294967295
125.03095 -69.470779 -62.052856 4294967295
125.07572 -66.733955 -61.559761 4294967295
125.089 -68.071762 -62.100391 4294967295
125.09375 -68.517128 -62.283234 4294967295
125.13978 -67.578316 -62.375393 4294967295
125.16788 -64.855537 -61.744801 4294967295
125.18079 -67.093452 -62.56987 4294967295
125.18818 -66.18795 -62.34351 4294967295
125.19501 -65.28257 -62.112411 4294967295
125.2365 -64.347672 -62.167221 4294967295
125.24198 -63.893051 -62.068657 4294967295
125.24784 -62.987812 -61.829319 4294967295
125.28433 -71.470459 -60.854523 4294967295
125.286 -63.406189 -62.288113 4294967295
125.30603 -60.687611 -61.590103 4294967295
125.30911 -62.486729 -62.191242 4294967295
125.32712 -59.769035 -61.476265 4294967295
125.33792 -60.210991 -61.709549 4294967295
125.34751 -71.863472 -61.520691 4294967295
125.35189 -62.001175 -62.400642 4294967295
125.36046 -70.054085 -61.051331 4294967295
125.36609 -70.948196 -61.386105 4294967295
125.36871 -58.833824 -61.531807 4294967295
125.38154 -61.076351 -62.357727 4294967295
125.39101 -70.476662 -61.447948 4294967295
125.40531 -57.90266 -61.546112 4294967295
125.42267 -69.549706 -61.421394 4294967295
125.42293 -69.099823 -61.279411 4294967295
125.42903 -58.334618 -61.886337 4294967295
125.44293 -59.224789 -62.289234 4294967295
125.46124 -57.407238 -61.864395 4294967295
125.53184 -68.555038 -62.035912 4294967295
125.54882 -67.641205 -61.888111 4294967295
125.56216 -68.07917 -62.14262 4294967295
125.58187 -66.263519 -61.72892 4294967295
125.61267 -65.337395 -61.695335 4294967295
125.62534 -66.675934 -62.232841 4294967295
125.63686 -67.115524 -62.472317 4294967295
125.72007 -63.446648 -62.007332 4294967295
125.72556 -65.690964 -62.77388 4294967295
125.74226 -64.327843 -62.479607 4294967295
125.7578 -62.965015 -62.17551 4294967295
125.76441 -64.758812 -62.807228 4294967295
125.76981 -62.504913 -62.130646 4294967295
125.77041 -71.466484 -61.000137 4294967295
125.79003 -71.898262 -61.307396 4294967295
125.80932 -63.821613 -62.890656 4294967295
125.82646 -59.305363 -61.589157 4294967295
125.83115 -61.103577 -62.205837 4294967295
125.84815 -61.539776 -62.491024 4294967295
125.86234 -60.177353 -62.175526 4294967295
125.87 -60.621429 -62.383354 4294967295
125.88605 -61.958435 -62.949348 4294967295
125.89117 -68.662064 -61.133896 4294967295
125.90094 -70.90062 -61.937954 4294967295
125.90251 -70.000717 -61.661854 4294967295
125.9138 -70.439995 -61.900131 4294967295
125.92134 -69.534698 -61.6735 4294967295
125.93199 -57.41748 -61.886116 4294967295
125.9498 -58.304646 -62.322861 4294967295
125.96992 -58.738945 -62.634121 4294967295
125.98351 -57.827076 -62.457943 4294967295
126.04878 -67.625366 -62.152607 4294967295
126.05627 -67.169395 -62.07003 4294967295
126.05981 -66.716743 -61.954834 4294967295
126.10699 -66.226494 -62.201847 4294967295
126.1648 -65.72731 -62.537247 4294967295
126.17543 -63.919353 -62.046764 4294967295
126.18568 -65.259918 -62.56599 4294967295
126.23563 -64.318237 -62.69162 4294967295
126.26376 -71.455818 -61.207485 4294967295
126.26633 -62.943127 -62.512524 4294967295
126.27018 -59.788181 -61.530476 4294967295
126.28264 -63.379238 -62.792751 4294967295
126.28587 -62.476913 -62.530109 4294967295
126.29181 -70.981377 -61.295891 4294967295
126.31522 -71.858719 -61.780579 4294967295
126.31831 -70.058983 -61.226292 4294967295
126.32228 -61.996685 -62.688 4294967295
126.32849 -61.091499 -62.450092 4294967295
126.34106 -70.488113 -61.560616 4294967295
126.34741 -57.471893 -61.447803 4294967295
126.37428 -60.60371 -62.686066 4294967295
126.37495 -60.153034 -62.546738 4294967295
126.38136 -58.79678 -62.16539 4294967295
126.38632 -69.549278 -61.647202 4294967295
126.38657 -56.989719 -61.628593 4294967295
126.38703 -69.099258 -61.508003 4294967295
126.38875 -61.491692 -63.095787 4294967295
126.3895 -58.339645 -62.088154 4294967295
126.3937 -57.885643 -61.978058 4294967295
126.399 -68.639229 -61.462521 4294967295
126.454 -68.141487 -61.775269 4294967295
126.50263 -66.750488 -61.744843 4294967295
126.50526 -67.197784 -61.911934 4294967295
126.51404 -67.63961 -62.130093 4294967295
126.57895 -66.234947 -62.235474 4294967295
126.60847 -65.760002 -62.33625 4294967295
126.66736 -64.360863 -62.391434 4294967295
126.66953 -63.909286 -62.264351 4294967295
126.7107 -71.486763 -61.02935 4294967295
126.719 -71.029968 -60.953075 4294967295
126.73868 -63.401127 -62.695572 4294967295
126.75636 -71.89473 -61.555901 4294967295
126.75726 -62.036106 -62.414856 4294967295
126.7921 -60.65704 -62.269581 4294967295
126.81129 -70.497993 -61.577976 4294967295
126.81709 -57.933868 -61.605568 4294967295
126.81747 -61.086147 -62.626587 4294967295
126.85253 -70.012009 -61.776745 4294967295
126.86111 -60.150139 -62.700073 4294967295
126.86211 -59.699211 -62.563053 4294967295
126.88477 -67.736519 -61.318115 4294967295
126.89587 -68.176353 -61.556534 4294967295
126.89807 -69.522339 -62.011524 4294967295
126.9024 -57.414642 -62.172356 4294967295
126.9074 -56.959995 -62.06855 4294967295
126.91327 -69.059685 -61.992977 4294967295
126.94058 -56.482838 -62.200256 4294967295
126.97875 -68.552719 -62.394379 4294967295
127.00525 -67.181801 -62.179131 4294967295
127.03544 -66.706161 -62.285851 4294967295
127.03742 -65.805489 -62.011185 4294967295
127.08224 -66.216232 -62.531425 4294967295
127.13452 -65.272415 -62.677315 4294967295
127.15196 -64.358551 -62.531921 4294967295
127.19154 -63.425716 -62.571579 4294967295
127.19501 -62.97308 -62.454922 4294967295
127.22375 -71.458061 -61.403854 4294967295
127.22913 -62.494621 -62.594635 4294967295
127.24387 -71.888824 -61.718307 4294967295
127.24435 -70.091919 -61.138264 4294967295
127.24622 -58.879089 -61.571026 4294967295
127.272 -57.956844 -61.494865 4294967295
127.27776 -70.511215 -61.564293 4294967295
127.28431 -61.998638 -62.910652 4294967295
127.30025 -61.535606 -62.898293 4294967295
127.30299 -60.633617 -62.629799 4294967295
127.30299 -60.183598 -62.484047 4294967295
127.30849 -69.136063 -61.38361 4294967295
127.31402 -69.580444 -61.575951 4294967295
127.31586 -58.371952 -62.008316 4294967295
127.34637 -68.203735 -61.40884 4294967295
127.3597 -59.236862 -62.667164 4294967295
127.36613 -56.979702 -61.991592 4294967295
127.39717 -57.405334 -62.397598 4294967295
127.40643 -59.648579 -63.204269 4294967295
127.41253 -68.594612 -62.109436 4294967295
127.44764 -67.665276 -62.111748 4294967295
127.44993 -56.462105 -62.547729 4294967295
127.47898 -66.739227 -62.082294 4294967295
127.52235 -66.252129 -62.299854 4294967295
127.52241 -64.453789 -61.715813 4294967295
127.53829 -65.788933 -62.287483 4294967295
127.56484 -64.867081 -62.218002 4294967295
127.64907 -63.446407 -62.486275 4294967295
127.67478 -71.93428 -61.406654 4294967295
127.68649 -62.965076 -62.654118 4294967295
127.70961 -59.796051 -61.824379 4294967295
127.7414 -70.07782 -61.380592 4294967295
127.74602 -62.015659 -62.861504 4294967295
127.75023 -59.312355 -62.019272 4294967295
127.75395 -71.413467 -61.925495 4294967295
127.75476 -70.514931 -61.639397 4294967295
127.75858 -61.555458 -62.820881 4294967295
127.78658 -57.931496 -61.885395 4294967295
127.81979 -61.054699 -63.188591 4294967295
127.82013 -68.210594 -61.456287 4294967295
127.83356 -69.097145 -61.862324 4294967295
127.83863 -60.589375 -63.200718 4294967295
127.85049 -67.734421 -61.564957 4294967295
127.87533 -58.759789 -62.923985 4294967295
127.90369 -58.286648 -63.016029 4294967295
127.91055 -56.930531 -62.634628 4294967295
127.95441 -67.193733 -62.292633 4294967295
127.9606 -66.289787 -62.051537 4294967295
127.97736 -66.724442 -62.339088 4294967295
127.97744 -65.376244 -61.900066 4294967295
128.00301 -64.454987 -61.821846 4294967295
128.05023 -64.863914 -62.366028 4294967295
128.05872 -65.755173 -62.730587 4294967295
128.09891 -63.024017 -62.189209 4294967295
128.13698 -62.092293 -62.216511 4294967295
128.16132 -71.480263 -61.415291 4294967295
128.18521 -62.50124 -62.769539 4294967295
128.18544 -61.601738 -62.477993 4294967295
128.21199 -70.536392 -61.548595 4294967295
128.22318 -69.628166 -61.348969 4294967295
128.22652 -61.117565 -62.677372 4294967295
128.2384 -70.063599 -61.624283 4294967295
128.26221 -59.288296 -62.391048 4294967295
128.26237 -59.738182 -62.539246 4294967295
128.29565 -60.610184 -63.113258 4294967295
128.29588 -60.160301 -62.968456 4294967295
128.32442 -56.53574 -62.034264 4294967295
128.32906 -58.783344 -62.807762 4294967295
128.33083 -56.981071 -62.235336 4294967295
128.33591 -68.180115 -61.85886 4294967295
128.3382 -57.425476 -62.444416 4294967295
128.34921 -69.066292 -62.265045 4294967295
128.35635 -67.263573 -61.737343 4294967295
128.36761 -66.804337 -61.685307 4294967295
128.36798 -67.70256 -61.982452 4294967295
128.39871 -57.826485 -63.101624 4294967295
128.42612 -66.303726 -62.032063 4294967295
128.44325 -65.839432 -62.029644 4294967295
128.45604 -64.47982 -61.696239 4294967295
128.47487 -64.913139 -62.002476 4294967295
128.47987 -64.009651 -61.750336 4294967295
128.49158 -65.348076 -62.290527 4294967295
128.55786 -63.493206 -62.261925 4294967295
128.584 -71.084343 -60.883961 4294967295
128.59354 -71.524696 -61.112099 4294967295
128.61258 -62.996971 -62.577263 4294967295
128.63379 -62.529434 -62.609169 4294967295
128.65083 -70.125519 -61.154442 4294967295
128.69142 -61.581596 -62.802021 4294967295
128.69983 -70.530151 -61.716507 4294967295
128.711 -59.766148 -62.37862 4294967295
128.71381 -61.113167 -62.844101 4294967295
128.71927 -69.614738 -61.586121 4294967295
128.73578 -68.252502 -61.283264 4294967295
128.74089 -68.697166 -61.474052 4294967295
128.77451 -69.116127 -61.90609 4294967295
128.77745 -60.610313 -63.235008 4294967295
128.78116 -57.908112 -62.382877 4294967295
128.84438 -66.808464 -61.760063 4294967295
128.84792 -67.703659 -62.085121 4294967295
128.86015 -57.393635 -62.903919 4294967295
128.86549 -67.239029 -62.086464 4294967295
128.88025 -65.878304 -61.768806 4294967295
128.90721 -56.90543 -63.154854 4294967295
128.91891 -65.395195 -61.948685 4294967295
128.94252 -56.426891 -63.306351 4294967295
128.95859 -66.258904 -62.579876 4294967295
128.97888 -63.994877 -62.014065 4294967295
129.00259 -64.423859 -62.362537 4294967295
129.02194 -64.856323 -62.674248 4294967295
129.069 -63.018574 -62.48262 4294967295
129.06966 -63.467415 -62.635803 4294967295
129.08105 -71.518631 -61.276726 4294967295
129.10211 -70.601593 -61.159561 4294967295
129.10963 -62.534462 -62.679604 4294967295
129.12845 -71.026451 -61.531208 4294967295
129.14299 -69.217323 -61.06266 4294967295
129.15015 -61.151524 -62.580143 4294967295
129.16679 -60.687859 -62.573605 4294967295
129.2164 -60.196651 -62.846748 4294967295
129.23689 -67.78566 -61.415997 4294967295
129.25804 -68.664902 -61.891834 4294967295
129.2623 -68.21212 -61.779881 4294967295
129.27237 -57.451008 -62.43499 4294967295
129.28111 -58.343887 -62.805042 4294967295
129.30038 -57.878147 -62.820808 4294967295
129.33171 -66.353958 -61.777592 4294967295
129.35985 -65.430618 -61.72047 4294967295
129.36617 -65.87442 -61.922295 4294967295
129.37073 -67.217636 -62.40517 4294967295
129.37242 -56.469479 -62.989044 4294967295
129.40585 -66.737625 -62.555702 4294967295
129.45998 -64.444756 -62.27552 4294967295
129.50363 -63.957645 -62.498825 4294967295
129.50674 -64.853241 -62.821346 4294967295
129.56578 -70.617348 -61.122231 4294967295
129.56807 -62.554279 -62.602539 4294967295
129.5773 -62.995697 -62.82925 4294967295
129.57971 -70.155693 -61.092396 4294967295
129.58046 -62.094261 -62.559853 4294967295
129.60226 -71.481415 -61.72982 4294967295
129.6088 -61.171169 -62.504547 4294967295
129.61578 -61.614792 -62.712208 4294967295
129.62265 -60.709843 -62.474346 4294967295
129.62416 -71.012711 -61.768044 4294967295
129.65729 -68.738411 -61.307709 4294967295
129.67152 -69.174568 -61.577606 4294967295
129.69412 -69.602936 -61.918701 4294967295
129.73462 -58.81749 -62.834602 4294967295
129.76175 -59.244625 -63.213898 4294967295
129.76622 -59.690384 -63.400204 4294967295
129.76868 -58.339561 -62.97641 4294967295
129.77162 -57.887306 -62.853294 4294967295
129.77673 -68.182137 -62.177444 4294967295
129.77676 -67.733253 -62.029221 4294967295
129.81154 -67.253326 -62.177086 4294967295
129.81305 -56.953556 -62.909584 4294967295
129.82489 -66.343468 -61.993927 4294967295
129.84346 -66.776039 -62.300816 4294967295
129.88467 -56.445358 -63.371719 4294967295
129.89659 -65.8312 -62.456818 4294967295
129.92024 -65.361404 -62.510071 4294967295
129.93021 -64.005196 -62.149334 4294967295
129.93652 -64.898102 -62.500492 4294967295
129.94215 -63.096016 -61.954037 4294967295
129.94266 -63.545044 -62.107002 4294967295
129.97025 -71.13633 -60.727894 4294967295
129.9895 -64.40284 -62.803871 4294967295
130.00612 -71.552124 -61.183395 4294967295
130.07028 -60.738815 -62.304371 4294967295
130.10281 -61.160847 -62.730988 4294967295
130.10616 -60.258911 -62.462074 4294967295
130.10666 -61.606968 -62.912445 4294967295
130.11131 -68.762802 -61.188629 4294967295
130.12085 -69.203171 -61.419109 4294967295
130.14671 -70.077118 -61.938297 4294967295
130.18991 -59.739017 -63.02879 4294967295
130.19025 -69.588882 -62.161507 4294967295
130.19292 -67.791298 -61.588467 4294967295
130.20605 -58.826359 -62.869278 4294967295
130.23866 -66.403214 -61.532555 4294967295
130.25171 -58.33881 -63.110676 4294967295
130.25212 -57.438957 -62.81665 4294967295
130.25253 -57.888428 -62.968994 4294967295
130.2608 -59.23027 -63.485847 4294967295
130.26482 -68.175583 -62.352455 4294967295
130.27408 -65.922653 -61.686485 4294967295
130.28444 -56.512646 -62.795303 4294967295
130.30484 -65.44632 -61.800636 4294967295
130.30844 -66.790237 -62.278698 4294967295
130.32082 -56.932796 -63.255272 4294967295
130.38516 -64.926613 -62.339127 4294967295
130.42633 -63.99242 -62.393356 4294967295
130.45656 -63.516979 -62.503139 4294967295
130.46758 -64.405479 -62.895683 4294967295
130.4705 -63.055702 -62.473423 4294967295
130.47495 -70.66555 -60.891811 4294967295
130.47742 -71.560745 -61.212067 4294967295
130.49817 -62.133274 -62.412048 4294967295
130.5228 -61.213326 -62.324718 4294967295
130.53578 -61.651703 -62.585152 4294967295
130.58543 -70.115402 -61.689926 4294967295
130.59494 -68.760445 -61.32309 4294967295
130.60139 -60.697113 -62.849125 4294967295
130.62383 -59.779263 -62.742981 4294967295
130.64362 -59.313087 -62.763367 4294967295
130.64764 -60.208637 -63.096352 4294967295
130.69054 -58.824268 -63.016537 4294967295
130.70097 -58.365997 -62.956734 4294967295
130.70207 -67.765984 -61.943359 4294967295
130.70616 -67.313454 -61.828964 4294967295
130.70897 -66.861992 -61.703529 4294967295
130.71733 -66.405487 -61.625656 4294967295
130.74025 -57.883789 -63.144402 4294967295
130.7455 -56.980026 -62.890755 4294967295
130.74689 -56.529015 -62.753189 4294967295
130.75142 -57.424911 -63.090782 4294967295
130.78294 -65.898148 -62.039574 4294967295
130.79657 -65.43708 -62.006943 4294967295
130.85753 -63.586842 -61.932098 4294967295
130.89485 -64.901459 -62.701584 4294967295
130.9007 -64.447418 -62.602226 4294967295
130.90601 -71.160255 -60.723568 4294967295
130.90698 -63.094601 -62.207367 4294967295
130.92802 -63.974529 -62.687515 4294967295
130.92982 -62.625538 -62.254074 4294967295
130.94859 -71.569427 -61.239895 4294967295
130.97202 -70.65052 -61.14151 4294967295
130.99652 -62.118793 -62.677696 4294967295
131.02672 -61.643642 -62.787605 4294967295
131.0304 -70.148102 -61.494064 4294967295
131.05115 -61.173512 -62.848022 4294967295
131.07852 -60.700916 -62.93367 4294967295
131.09349 -58.890339 -62.463478 4294967295
131.10754 -58.428864 -62.434608 4294967295
131.11217 -60.223064 -63.073425 4294967295
131.12517 -59.313335 -62.885887 4294967295
131.12646 -67.816895 -61.570995 4294967295
131.13139 -69.158463 -62.063534 4294967295
131.13831 -66.90831 -61.372761 4294967295
131.15173 -59.740341 -63.264008 4294967295
131.15677 -68.238205 -61.982132 4294967295
131.17545 -66.426018 -61.542614 4294967295
131.19022 -57.91037 -62.996284 4294967295
131.20035 -67.301491 -62.057354 4294967295
131.2309 -65.927567 -61.870411 4294967295
131.24669 -56.514679 -63.032928 4294967295
131.27405 -65.440277 -62.09206 4294967295
131.35162 -64.922737 -62.610703 4294967295
131.35986 -64.01767 -62.381542 4294967295
131.3813 -71.613922 -60.936398 4294967295
131.38675 -62.646801 -62.162811 4294967295
131.44008 -63.049614 -62.773033 4294967295
131.44267 -62.149178 -62.495102 4294967295
131.44926 -63.490501 -63.002327 4294967295
131.45102 -71.100479 -61.387962 4294967295
131.46191 -70.193298 -61.180996 4294967295
131.46381 -69.742859 -61.046814 4294967295
131.4711 -61.675461 -62.590092 4294967295
131.50064 -61.200867 -62.694794 4294967295
131.50404 -70.60289 -61.6954 4294967295
131.51868 -60.286816 -62.549946 4294967295
131.53998 -69.224251 -61.554306 4294967295
131.56923 -68.300179 -61.505905 4294967295
131.57092 -59.793098 -62.8507 4294967295
131.57141 -58.444103 -62.403896 4294967295
131.57571 -59.339638 -62.741756 4294967295
131.59305 -67.38092 -61.410553 4294967295
131.59325 -68.726952 -61.864056 4294967295
131.60657 -67.817528 -61.677948 4294967295
131.66302 -58.816757 -63.345306 4294967295
131.66939 -57.463112 -62.949463 4294967295
131.69301 -66.393288 -61.973495 4294967295
131.70401 -56.535141 -62.947891 4294967295
131.71498 -65.475883 -61.862247 4294967295
131.72568 -65.915253 -62.105255 4294967295
131.73669 -57.856552 -63.681 4294967295
131.78465 -56.918121 -63.7948 4294967295
131.81541 -64.937836 -62.580238 4294967295
131.83673 -64.470222 -62.613968 4294967295
131.84116 -64.017464 -62.501747 4294967295
131.89696 -63.519615 -62.833817 4294967295
131.90593 -63.062893 -62.760895 4294967295
131.92824 -62.594509 -62.803371 4294967295
131.94426 -60.784058 -62.339195 4294967295
131.94609 -71.534988 -61.775433 4294967295
131.98796 -61.64481 -63.019089 4294967295
131.9906 -70.148743 -61.708225 4294967295
131.99188 -70.595848 -61.870434 4294967295
131.99449 -62.088089 -63.226177 4294967295
131.99683 -69.24604 -61.460228 4294967295
132.00838 -68.786812 -61.409279 4294967295
132.01248 -61.17469 -63.080597 4294967295
132.03111 -69.662918 -61.908409 4294967295
132.05022 -59.79504 -62.955276 4294967295
132.07959 -57.522892 -62.455681 4294967295
132.0873 -68.266068 -61.942516 4294967295
132.0963 -67.360657 -61.718433 4294967295
132.11925 -58.838104 -63.251793 4294967295
132.14024 -67.769356 -62.250687 4294967295
132.15637 -57.009373 -62.970341 4294967295
132.16228 -57.903362 -63.323261 4294967295
132.18405 -65.935349 -62.026367 4294967295
132.19818 -66.37133 -62.300201 4294967295
132.25546 -56.477818 -63.678505 4294967295
132.28511 -64.947678 -62.601227 4294967295
132.28833 -71.664398 -60.685928 4294967295
132.31406 -64.473305 -62.701324 4294967295
132.33722 -62.657398 -62.297806 4294967295
132.34613 -63.547482 -62.677547 4294967295
132.35123 -62.196075 -62.268311 4294967295
132.35657 -63.08947 -62.617004 4294967295
132.3862 -70.227402 -61.082092 4294967295
132.40005 -61.704586 -62.541191 4294967295
132.43822 -70.627365 -61.6861 4294967295
132.44366 -60.768684 -62.6175 4294967295
132.46744 -68.806602 -61.334 4294967295
132.49339 -60.276859 -62.898384 4294967295
132.50703 -69.666916 -61.981544 4294967295
132.5148 -59.809399 -62.933205 4294967295
132.54329 -68.28846 -61.842392 4294967295
132.54802 -58.882702 -62.919376 4294967295
132.5569 -67.827492 -61.809265 4294967295
132.567 -66.921021 -61.593903 4294967295
132.58058 -66.459953 -61.560543 4294967295
132.58701 -57.501671 -62.804371 4294967295
132.61414 -65.532013 -61.549255 4294967295
132.62383 -67.318031 -62.24012 4294967295
132.63446 -65.962624 -61.877831 4294967295
132.64888 -58.348312 -63.645042 4294967295
132.70302 -65.003685 -62.171581 4294967295
132.72844 -64.532265 -62.241356 4294967295
132.75044 -56.466797 -63.923378 4294967295
132.7764 -71.657166 -60.861305 4294967295
132.82097 -62.655113 -62.44072 4294967295
132.84082 -63.086552 -62.7654 4294967295
132.84518 -71.144112 -61.309418 4294967295
132.85661 -63.521305 -63.054657 4294967295
132.88707 -62.14843 -62.865143 4294967295
132.9055 -70.639351 -61.683632 4294967295
132.91312 -60.778915 -62.637043 4294967295
132.93408 -70.164482 -61.781075 4294967295
132.94943 -60.29855 -62.801811 4294967295
132.95377 -69.697937 -61.800846 4294967295
132.96432 -58.938065 -62.476406 4294967295
132.96758 -69.236855 -61.769306 4294967295
132.99039 -67.870522 -61.512077 4294967295
132.99187 -59.813061 -63.020222 4294967295
132.99385 -59.362228 -62.88578 4294967295
132.99565 -67.417068 -61.405907 4294967295
133.00681 -68.752304 -61.959694 4294967295
133.02638 -66.940384 -61.522152 4294967295
133.04688 -68.26712 -62.157471 4294967295
133.05786 -57.061348 -62.684986 4294967295
133.08217 -58.388931 -63.352562 4294967295
133.11687 -56.562614 -63.048141 4294967295
133.13332 -65.946259 -62.152031 4294967295
133.19162 -65.445183 -62.509377 4294967295
133.21344 -64.977081 -62.547958 4294967295
133.22325 -64.071053 -62.329437 4294967295
133.23434 -64.509834 -62.578545 4294967295
133.30592 -63.549023 -62.899975 4294967295
133.30617 -61.753571 -62.293175 4294967295
133.32961 -63.079479 -62.954941 4294967295
133.33037 -71.587372 -61.615276 4294967295
133.33386 -70.239586 -61.18816 4294967295
133.3383 -71.131866 -61.532162 4294967295
133.34094 -62.172081 -62.749641 4294967295
133.36848 -69.310516 -61.186096 4294967295
133.40121 -60.772953 -62.820152 4294967295
133.40233 -60.322971 -62.677582 4294967295
133.40527 -70.620811 -61.966099 4294967295
133.40552 -69.724396 -61.662979 4294967295
133.43553 -68.35154 -61.468109 4294967295
133.43866 -61.189308 -63.299919 4294967295
133.44121 -68.79467 -61.670509 4294967295
133.46257 -67.878143 -61.552444 4294967295
133.4657 -58.921204 -62.775269 4294967295
133.49623 -59.793186 -63.347012 4294967295
133.50935 -57.985649 -62.852684 4294967295
133.51079 -67.385437 -61.822323 4294967295
133.51228 -59.330494 -63.335358 4294967295
133.5341 -58.413864 -63.221794 4294967295
133.54971 -57.502289 -63.053741 4294967295
133.55408 -66.448959 -61.896461 4294967295
133.55907 -65.995842 -61.787498 4294967295
133.58415 -66.869995 -62.312672 4294967295
133.59872 -64.613899 -61.67696 4294967295
133.6105 -57.001953 -63.433777 4294967295
133.62024 -64.14579 -61.712887 4294967295
133.62868 -56.537521 -63.440575 4294967295
133.64229 -65.472054 -62.364487 4294967295
133.68892 -63.635754 -62.162708 4294967295
133.70554 -64.966644 -62.766506 4294967295
133.73657 -62.246994 -62.122437 4294967295
133.73808 -63.143368 -62.441322 4294967295
133.74005 -62.692841 -62.305779 4294967295
133.80992 -71.139717 -61.567932 4294967295
133.81689 -70.236916 -61.323166 4294967295
133.82573 -69.332054 -61.094437 4294967295
133.82927 -71.56929 -61.890953 4294967295
133.85596 -61.69342 -63.017586 4294967295
133.91994 -68.796036 -61.769501 4294967295
133.93161 -59.832512 -63.070625 4294967295
133.94312 -68.326324 -61.819984 4294967295
133.9455 -67.875801 -61.687843 4294967295
133.97183 -58.900032 -63.118443 4294967295
133.99091 -56.637547 -62.52132 4294967295
134.00757 -57.971458 -63.126701 4294967295
134.03653 -57.49781 -63.228268 4294967295
134.07581 -65.962959 -62.221302 4294967295
134.08397 -65.058578 -61.98674 4294967295
134.09515 -64.599861 -61.931892 4294967295
134.09547 -66.393364 -62.547493 4294967295
134.10103 -56.994301 -63.642174 4294967295
134.15924 -65.438942 -62.80233 4294967295
134.21138 -62.252457 -62.188675 4294967295
134.21571 -63.146126 -62.533432 4294967295
134.23067 -61.786579 -62.205193 4294967295
134.23781 -64.023361 -63.034351 4294967295
134.25989 -71.615974 -61.567169 4294967295
134.29544 -60.832016 -62.469006 4294967295
134.30025 -60.378841 -62.357971 4294967295
134.30209 -62.620964 -63.140785 4294967295
134.30968 -69.776855 -61.391579 4294967295
134.35843 -59.430351 -62.56403 4294967295
134.36572 -70.172127 -62.03949 4294967295
134.40549 -69.238953 -62.083183 4294967295
134.42886 -68.769135 -62.135731 4294967295
134.43044 -58.919399 -63.045189 4294967295
134.43332 -66.972107 -61.560406 4294967295
134.45959 -68.292526 -62.253326 4294967295
134.46452 -67.391747 -61.989391 4294967295
134.46962 -67.835182 -62.188164 4294967295
134.48373 -57.975822 -63.208523 4294967295
134.49956 -56.614944 -62.887684 4294967295
134.50139 -58.409698 -63.517471 4294967295
134.52457 -66.440048 -62.212204 4294967295
134.54358 -57.475998 -63.582771 4294967295
134.55815 -65.064323 -62.047409 4294967295
134.56569 -65.954224 -62.421413 4294967295
134.58899 -64.587929 -62.1661 4294967295
134.59035 -65.483521 -62.485378 4294967295
134.59161 -64.137032 -62.035275 4294967295
134.62692 -63.656723 -62.193405 4294967295
134.63931 -62.748238 -61.995239 4294967295
134.66734 -71.685043 -61.036438 4294967295
134.67509 -63.165073 -62.465244 4294967295
