# .PCD v0.7 - Point Cloud Data file format
VERSION 0.7
FIELDS x y z rgb
SIZE 4 4 4 4
TYPE F F F U
COUNT 1 1 1 1
WIDTH 1121
HEIGHT 1
VIEWPOINT 0 0 0 1 0 0 0
POINTS 1121
DATA ascii
169.81786 -26.781635 -59.435146 4294967295
169.81821 -12.440104 -58.54398 4294967295
169.81825 -25.433002 -58.810722 4294967295
169.82405 -11.983865 -58.404587 4294967295
169.8392 -11.521165 -58.377327 4294967295
169.84137 -24.96426 -58.879395 4294967295
169.86121 -37.035755 -58.96476 4294967295
169.88046 -22.682381 -58.300755 4294967295
169.88048 -23.132645 -58.511002 4294967295
169.88713 -24.027277 -59.011372 4294967295
169.89534 -10.125774 -58.424076 4294967295
169.89809 -36.105892 -58.989361 4294967295
169.93182 -21.290293 -58.289673 4294967295
169.9344 -21.738762 -58.531212 4294967295
169.93913 -35.619884 -59.274376 4294967295
169.94574 -7.3750706 -57.770603 4294967295
169.94617 -36.508202 -59.77916 4294967295
169.94951 -8.2788887 -58.236973 4294967295
169.96791 -8.7196865 -58.669395 4294967295
169.96796 -6.0004683 -57.407219 4294967295
169.96863 -9.6243095 -59.098267 4294967295
169.9696 -22.161127 -59.166233 4294967295
169.98056 -7.8057404 -58.401573 4294967295
169.9875 -4.6266575 -57.011337 4294967295
169.99043 -4.1707144 -56.835667 4294967295
169.99139 -20.342548 -58.588318 4294967295
169.99666 -6.8891897 -58.175262 4294967295
170.00894 -18.525377 -57.958912 4294967295
170.0098 -19.877632 -58.600372 4294967295
170.01006 -5.5204148 -57.705475 4294967295
170.01413 -20.775352 -59.073223 4294967295
170.02814 -5.0554905 -57.713146 4294967295
170.03191 -3.6912935 -57.126259 4294967295
170.0369 -33.738708 -59.614311 4294967295
170.03947 -6.4087625 -58.481922 4294967295
170.04178 -19.402309 -58.776291 4294967295
170.04555 -3.2288091 -57.080486 4294967295
170.05685 -17.135422 -57.905952 4294967295
170.07561 -18.925709 -58.974617 4294967295
170.07986 -31.010775 -58.872131 4294967295
170.08427 -1.8424454 -56.916023 4294967295
170.08517 -18.016706 -58.669533 4294967295
170.09502 -31.445816 -59.265259 4294967295
170.10414 -17.551411 -58.688396 4294967295
170.10518 -33.22871 -60.228668 4294967295
170.10788 -2.2829988 -57.412834 4294967295
170.10957 -30.535923 -59.020668 4294967295
170.11893 -32.320671 -59.974701 4294967295
170.13985 -32.749615 -60.437103 4294967295
170.14084 -29.16221 -58.767433 4294967295
170.14175 -13.910795 -57.457214 4294967295
170.1535 -16.161165 -58.653587 4294967295
170.18346 -14.333073 -58.172832 4294967295
170.19429 -15.22859 -58.72554 4294967295
170.19576 -30.011648 -59.85199 4294967295
170.20461 -13.414095 -58.007149 4294967295
170.20708 -27.308882 -58.725807 4294967295
170.21162 -27.754202 -58.991581 4294967295
170.2155 -28.64875 -59.459587 4294967295
170.23018 -29.533154 -60.057861 4294967295
170.24657 -26.826141 -58.993172 4294967295
170.25557 -14.732889 -59.256233 4294967295
170.25865 -28.16284 -59.771271 4294967295
170.27058 -26.35663 -59.073044 4294967295
170.27104 -25.906845 -58.867893 4294967295
170.27264 -12.914179 -58.620121 4294967295
170.27365 -25.455114 -58.688801 4294967295
170.28073 -24.5497 -58.352776 4294967295
170.30151 -11.085464 -58.125732 4294967295
170.31061 -12.435699 -58.868973 4294967295
170.31454 -24.971615 -58.973091 4294967295
170.31813 -11.978497 -58.749176 4294967295
170.34297 -9.6996613 -57.994736 4294967295
170.34413 -37.032303 -59.177185 4294967295
170.34471 -10.151155 -58.22678 4294967295
170.37379 -11.488091 -59.212528 4294967295
170.39119 -7.4028263 -57.522499 4294967295
170.39513 -35.641808 -59.162457 4294967295
170.39867 -36.085999 -59.416069 4294967295
170.39879 -7.85112 -57.82613 4294967295
170.40086 -36.531216 -59.653736 4294967295
170.40546 -23.548233 -59.441948 4294967295
170.40741 -22.196957 -58.832726 4294967295
170.41011 -8.7495766 -58.386147 4294967295
170.4133 -8.2946491 -58.21376 4294967295
170.41603 -23.989197 -59.780655 4294967295
170.43056 -23.078228 -59.535095 4294967295
170.43451 -9.1860046 -58.893452 4294967295
170.45003 -4.6436105 -56.966637 4294967295
170.45164 -35.141479 -59.636459 4294967295
170.45721 -20.806755 -58.803143 4294967295
170.4574 -21.707066 -59.227684 4294967295
170.46474 -34.234123 -59.373215 4294967295
170.46881 -5.9930658 -57.830032 4294967295
170.4718 -4.1761465 -57.019348 4294967295
170.48073 -6.4388552 -58.186256 4294967295
170.4856 -32.871204 -58.992985 4294967295
170.5011 -19.421028 -58.701851 4294967295
170.50343 -6.8774309 -58.67334 4294967295
170.51292 -33.294292 -59.535522 4294967295
170.52217 -18.503321 -58.534813 4294967295
170.5354 -18.944016 -58.906754 4294967295
170.53871 -5.0423179 -58.255768 4294967295
170.53896 -1.8640509 -56.775749 4294967295
170.54137 -33.715927 -60.091583 4294967295
170.54596 -16.22924 -57.765728 4294967295
170.56558 -17.568556 -58.63903 4294967295
170.56702 -3.2101388 -57.752739 4294967295
170.56937 -31.451126 -59.37579 4294967295
170.57486 -32.342262 -59.864994 4294967295
170.5757 -17.109909 -58.550159 4294967295
170.58412 -18.005474 -59.075508 4294967295
170.58981 -2.7424302 -57.817997 4294967295
170.5948 -29.185808 -58.627731 4294967295
170.59813 -14.384014 -57.552307 4294967295
170.61658 -29.615547 -59.10379 4294967295
170.61938 -3.6321425 -58.601036 4294967295
170.61974 -31.853928 -60.19849 4294967295
170.61984 -15.723375 -58.45179 4294967295
170.62311 -30.954948 -59.817032 4294967295
170.62761 -16.62011 -58.969467 4294967295
170.63449 -2.2617471 -58.149502 4294967295
170.64606 -30.486416 -59.884361 4294967295
170.65007 -27.790928 -58.664501 4294967295
170.66147 -28.678982 -59.226284 4294967295
170.66948 -30.017498 -59.957668 4294967295
170.67577 -15.23112 -58.919914 4294967295
170.68675 -26.4118 -58.475307 4294967295
170.69312 -13.864021 -58.49575 4294967295
170.70549 -12.951521 -58.222427 4294967295
170.70776 -14.756556 -59.097305 4294967295
170.71504 -27.286238 -59.242844 4294967295
170.73279 -11.123485 -57.706451 4294967295
170.7372 -24.571028 -58.241661 4294967295
170.73785 -12.024683 -58.192234 4294967295
170.74344 -13.376482 -58.896065 4294967295
170.74493 -25.913422 -58.971214 4294967295
170.74632 -25.462822 -58.776413 4294967295
170.74791 -26.809254 -59.430962 4294967295
170.7822 -10.184662 -57.883606 4294967295
170.78287 -24.982914 -59.009079 4294967295
170.78697 -9.7287502 -57.729477 4294967295
170.78864 -22.27841 -57.806885 4294967295
170.79654 -22.722374 -58.115654 4294967295
170.80478 -23.615797 -58.640297 4294967295
170.81088 -36.149334 -58.771454 4294967295
170.81836 -8.3490677 -57.474899 4294967295
170.83788 -23.138973 -58.831211 4294967295
170.84538 -37.011139 -59.61525 4294967295
170.8476 -36.56189 -59.430424 4294967295
170.858 -24.021912 -59.499886 4294967295
170.85986 -9.2272243 -58.40519 4294967295
170.88762 -35.182037 -59.281883 4294967295
170.89592 -7.8451748 -58.207718 4294967295
170.89633 -35.62125 -59.600163 4294967295
170.90538 -6.0262489 -57.473209 4294967295
170.91283 -20.828419 -58.683647 4294967295
170.91733 -33.363392 -58.795818 4294967295
170.91869 -34.705479 -59.448452 4294967295
170.92104 -6.4696684 -57.876686 4294967295
170.92671 -4.6517434 -57.095184 4294967295
170.93187 -19.912561 -58.491154 4294967295
170.93205 -7.3687239 -58.436119 4294967295
170.94162 -6.9095941 -58.340176 4294967295
170.95113 -21.248312 -59.362556 4294967295
170.95558 -20.344481 -58.992661 4294967295
170.95688 -5.0866928 -57.676041 4294967295
170.96043 -31.531235 -58.472183 4294967295
170.96109 -33.770973 -59.540993 4294967295
170.97226 -34.208172 -59.889225 4294967295
170.97311 -18.979326 -58.569328 4294967295
170.97867 -32.859257 -59.331322 4294967295
170.98386 -18.520304 -58.487995 4294967295
170.98633 -5.5216274 -58.248268 4294967295
170.99605 -16.255064 -57.573627 4294967295
171.00728 -19.403496 -59.198429 4294967295
171.02419 -4.1376719 -58.072464 4294967295
171.02608 -17.135357 -58.365635 4294967295
171.03438 -18.030964 -58.891979 4294967295
171.03923 -32.356224 -59.857574 4294967295
171.04666 -31.005499 -59.311726 4294967295
171.04709 -3.2162349 -57.926373 4294967295
171.0471 -15.765755 -57.984306 4294967295
171.0481 -2.7617111 -57.725971 4294967295
171.04869 -16.667274 -58.429077 4294967295
171.0527 -2.3048835 -57.569527 4294967295
171.07155 -14.392813 -57.644257 4294967295
171.09207 -17.536526 -59.383507 4294967295
171.10164 -29.163105 -59.132988 4294967295
171.12523 -30.487244 -60.057873 4294967295
171.1297 -29.586916 -59.687965 4294967295
171.13492 -28.236675 -59.114365 4294967295
171.13521 -14.798294 -58.634842 4294967295
171.14175 -15.244834 -58.927666 4294967295
171.1424 -30.023937 -60.055077 4294967295
171.14368 -28.677769 -59.433609 4294967295
171.16037 -27.31694 -58.999908 4294967295
171.17671 -26.404749 -58.77417 4294967295
171.17679 -13.413603 -58.50457 4294967295
171.17767 -12.961168 -58.30246 4294967295
171.17834 -25.95405 -58.581303 4294967295
171.18837 -11.144953 -57.58083 4294967295
171.20107 -10.68367 -57.523003 4294967295
171.21133 -9.7712202 -57.221901 4294967295
171.21358 -12.031952 -58.315613 4294967295
171.21875 -24.571581 -58.436539 4294967295
171.2363 -25.006557 -58.864029 4294967295
171.2421 -10.203068 -57.811798 4294967295
171.24669 -26.794216 -59.84201 4294967295
171.26175 -36.623802 -58.807205 4294967295
171.28381 -11.531029 -58.961533 4294967295
171.2869 -9.2675323 -57.933804 4294967295
171.29494 -23.609346 -58.942444 4294967295
171.31625 -35.677219 -59.047943 4294967295
171.32405 -34.774731 -58.717472 4294967295
171.32681 -6.9762383 -57.354996 4294967295
171.32722 -22.683498 -58.9114 4294967295
171.32831 -23.132368 -59.137756 4294967295
171.33122 -36.11031 -59.444176 4294967295
171.3351 -8.3299389 -58.097202 4294967295
171.33942 -34.31263 -58.69239 4294967295
171.34213 -7.4194613 -57.756416 4294967295
171.3479 -21.766888 -58.738388 4294967295
171.3524 -20.412392 -58.153572 4294967295
171.35724 -35.191128 -59.336529 4294967295
171.36281 -21.304848 -58.70771 4294967295
171.36324 -6.0460286 -57.374115 4294967295
171.36475 -33.841267 -58.789196 4294967295
171.37521 -19.042372 -57.792679 4294967295
171.3801 -33.379169 -58.763992 4294967295
171.39139 -22.18182 -59.483677 4294967295
171.40051 -4.6615891 -57.190029 4294967295
171.40201 -7.8330913 -58.703545 4294967295
171.40331 -4.2060013 -57.010193 4294967295
171.41031 -32.903419 -58.92083 4294967295
171.43225 -18.096596 -58.064701 4294967295
171.43373 -31.985901 -58.781166 4294967295
171.43594 -5.5463834 -58.05204 4294967295
171.44629 -19.437881 -58.877323 4294967295
171.45952 -19.877882 -59.252586 4294967295
171.46732 -18.520538 -58.708084 4294967295
171.47461 -3.708127 -57.671326 4294967295
171.47829 -31.497353 -59.113956 4294967295
171.48665 -32.385643 -59.64291 4294967295
171.48784 -2.3381305 -57.191864 4294967295
171.49083 -1.8820782 -57.014343 4294967295
171.49136 -3.2440467 -57.66317 4294967295
171.49188 -15.343823 -57.513496 4294967295
171.49246 -17.599781 -58.589485 4294967295
171.50934 -29.227329 -58.427441 4294967295
171.50945 -16.684978 -58.370567 4294967295
171.51399 -17.132582 -58.6399 4294967295
171.5163 -28.77236 -58.299107 4294967295
171.51659 -31.0147 -59.370033 4294967295
171.51733 -30.117474 -58.952621 4294967295
171.53671 -30.548492 -59.403519 4294967295
171.5376 -1.3999839 -57.374619 4294967295
171.54755 -16.205376 -58.624321 4294967295
171.54987 -15.752463 -58.43924 4294967295
171.55902 -28.286121 -58.609619 4294967295
171.57628 -14.378777 -58.121937 4294967295
171.58105 -2.7358079 -58.550152 4294967295
171.5952 -27.356827 -58.626171 4294967295
171.62274 -13.441877 -58.264645 4294967295
171.63396 -11.625805 -57.54615 4294967295
171.65085 -12.518188 -58.181976 4294967295
171.65193 -11.160915 -57.552845 4294967295
171.65765 -24.607525 -58.109894 4294967295
171.68958 -26.826778 -59.571205 4294967295
171.7123 -26.35857 -59.636349 4294967295
171.71246 -10.666704 -58.082867 4294967295
171.71983 -24.106142 -58.660038 4294967295
171.72031 -12.017332 -58.821709 4294967295
171.72644 -9.2996454 -57.611912 4294967295
171.72696 -10.20441 -58.046837 4294967295
171.73199 -23.196646 -58.381195 4294967295
171.73698 -36.62751 -58.929062 4294967295
171.74202 -24.98642 -59.360435 4294967295
171.74367 -23.636806 -58.738945 4294967295
171.74548 -37.513348 -59.461327 4294967295
171.76215 -35.261372 -58.596275 4294967295
171.76294 -8.8223791 -57.846539 4294967295
171.76357 -36.154839 -59.041824 4294967295
171.76875 -7.9127789 -57.489056 4294967295
171.77806 -6.5469713 -56.959534 4294967295
171.78177 -35.690208 -59.051575 4294967295
171.78889 -8.352313 -57.9515 4294967295
171.79047 -20.448153 -57.814629 4294967295
171.79634 -22.694206 -58.958733 4294967295
171.8121 -34.766705 -58.996407 4294967295
171.81395 -6.976985 -57.616302 4294967295
171.82253 -5.1577091 -56.862747 4294967295
171.82347 -19.069984 -57.577438 4294967295
171.83681 -21.311852 -58.813957 4294967295
171.84688 -34.28653 -59.210239 4294967295
171.84773 -5.5953226 -57.388252 4294967295
171.84866 -21.752266 -59.173775 4294967295
171.8578 -7.4012718 -58.370724 4294967295
171.85834 -19.493538 -58.221451 4294967295
171.86472 -18.136131 -57.656105 4294967295
171.86888 -20.836193 -58.994301 4294967295
171.87202 -18.581446 -57.960999 4294967295
171.87393 -33.813725 -59.329098 4294967295
171.87415 -32.918133 -58.903263 4294967295
171.87642 -32.468109 -58.716835 4294967295
171.89037 -33.350883 -59.317039 4294967295
171.91071 -4.6485329 -57.734779 4294967295
171.91524 -31.536472 -58.766273 4294967295
171.92047 -31.979786 -59.044765 4294967295
171.9238 -19.892544 -59.24173 4294967295
171.92722 -3.7310009 -57.508438 4294967295
171.94322 -17.625061 -58.408737 4294967295
171.94791 -30.610456 -58.739613 4294967295
171.95665 -30.154222 -58.632812 4294967295
171.95715 -17.163551 -58.365875 4294967295
171.98083 -15.792315 -58.013741 4294967295
171.98766 -14.884332 -57.667797 4294967295
171.98944 -3.2389851 -58.061104 4294967295
172.01642 -15.314597 -58.237545 4294967295
172.01672 -29.203785 -58.944191 4294967295
172.02469 -1.4022102 -57.636047 4294967295
172.03293 -27.394436 -58.285164 4294967295
172.03996 -26.939217 -58.156944 4294967295
172.04793 -16.64406 -59.270348 4294967295
172.05991 -2.2888713 -58.500298 4294967295
172.06105 -28.716167 -59.276146 4294967295
172.06389 -14.376926 -58.393532 4294967295
172.06589 -1.8315697 -58.359417 4294967295
172.06725 -27.81354 -58.923256 4294967295
172.07039 -13.017226 -57.828781 4294967295
172.09138 -28.241079 -59.435425 4294967295
172.09732 -25.092691 -58.005104 4294967295
172.10214 -13.446142 -58.435902 4294967295
172.12277 -26.418926 -58.964172 4294967295
172.1261 -25.517811 -58.575478 4294967295
172.13474 -24.611649 -58.25206 4294967295
172.13995 -13.870216 -59.117306 4294967295
172.14404 -11.609081 -58.092899 4294967295
172.1633 -24.138178 -58.389664 4294967295
172.17307 -37.563019 -58.99894 4294967295
172.18056 -12.486871 -58.973866 4294967295
172.18231 -23.222954 -58.194221 4294967295
172.18272 -11.129994 -58.355423 4294967295
172.18697 -25.91515 -59.541611 4294967295
172.18896 -10.221313 -58.002071 4294967295
172.20299 -37.086998 -59.153721 4294967295
172.21017 -23.649628 -58.753639 4294967295
172.21333 -21.397243 -57.71616 4294967295
172.22652 -10.64756 -58.681393 4294967295
172.23376 -7.4748263 -57.263214 4294967295
172.24615 -21.820948 -58.337303 4294967295
172.24678 -9.277113 -58.286148 4294967295
172.25609 -35.694748 -59.164562 4294967295
172.26114 -22.258699 -58.737934 4294967295
172.26631 -9.716073 -58.742889 4294967295
172.2813 -8.8013868 -58.49778 4294967295
172.28351 -7.8948245 -58.094131 4294967295
172.28577 -5.1741681 -56.827545 4294967295
172.2901 -6.9847612 -57.744553 4294967295
172.29333 -34.764843 -59.194759 4294967295
172.29477 -36.551437 -60.072166 4294967295
172.29587 -36.103638 -59.870995 4294967295
172.30426 -35.201698 -59.54475 4294967295
172.30432 -8.3335209 -58.567059 4294967295
172.31363 -20.416363 -58.525818 4294967295
172.31812 -5.607059 -57.44416 4294967295
172.32137 -33.843616 -59.110863 4294967295
172.33456 -32.936008 -58.843681 4294967295
172.34616 -34.267708 -59.632553 4294967295
172.3492 -19.037155 -58.31942 4294967295
172.3593 -19.479696 -58.659767 4294967295
172.36383 -17.222479 -57.637753 4294967295
172.36703 -19.923817 -58.971138 4294967295
172.37073 -20.820805 -59.447258 4294967295
172.38397 -4.204967 -57.612202 4294967295
172.39017 -18.104084 -58.395657 4294967295
172.39241 -31.539076 -58.913345 4294967295
172.39499 -32.432388 -59.375854 4294967295
172.39696 -33.32555 -59.830566 4294967295
172.40012 -16.743755 -57.871555 4294967295
172.42174 -17.629097 -58.570755 4294967295
172.42502 -15.822519 -57.748329 4294967295
172.42737 -29.265898 -58.268303 4294967295
172.4315 -4.6284652 -58.416824 4294967295
172.43196 -18.522242 -59.128223 4294967295
172.43364 -3.7204685 -58.011719 4294967295
172.47052 -15.337269 -58.0961 4294967295
172.47591 -30.567272 -59.516022 4294967295
172.47939 -28.322468 -58.481049 4294967295
172.48038 -3.2380931 -58.375061 4294967295
172.48334 -2.7827747 -58.195709 4294967295
172.49455 -2.3222938 -58.118996 4294967295
172.50404 -1.862802 -58.020603 4294967295
172.50879 -30.089695 -59.707703 4294967295
172.52664 -14.844407 -58.576004 4294967295
172.5313 -27.828178 -58.908859 4294967295
172.5349 -28.722008 -59.384514 4294967295
172.54666 -12.572045 -57.74408 4294967295
172.5481 -13.022858 -57.978001 4294967295
172.55161 -25.565495 -58.081146 4294967295
172.5551 -27.358704 -58.988136 4294967295
172.57996 -11.192177 -57.508327 4294967295
172.58046 -24.192423 -57.790348 4294967295
172.58994 -25.083544 -58.340656 4294967295
172.6239 -11.61335 -58.27037 4294967295
172.62759 -26.847113 -59.671181 4294967295
172.63928 -10.698513 -58.028908 4294967295
172.63995 -8.8881235 -57.17128 4294967295
172.64185 -24.590368 -58.768456 4294967295
172.64478 -9.7901173 -57.664215 4294967295
172.64989 -37.117973 -58.927559 4294967295
172.65689 -23.678898 -58.523201 4294967295
172.66869 -37.546379 -59.37693 4294967295
172.67752 -9.3152447 -57.85453 4294967295
172.68311 -35.744598 -58.691666 4294967295
172.69025 -10.211052 -58.445488 4294967295
172.71596 -22.281143 -58.607841 4294967295
172.71785 -23.178802 -59.063644 4294967295
172.71994 -22.727554 -58.873558 4294967295
172.72134 -8.3805056 -57.966206 4294967295
172.73521 -7.4658155 -57.705254 4294967295
172.73863 -36.584904 -59.81316 4294967295
172.74144 -35.241512 -59.199993 4294967295
172.7639 -6.5410213 -57.628662 4294967295
172.76559 -5.6334891 -57.215984 4294967295
172.77701 -7.8906875 -58.441467 4294967295
172.78487 -32.963291 -58.658428 4294967295
172.79005 -5.1643815 -57.303665 4294967295
172.79562 -34.742764 -59.656918 4294967295
172.79659 -21.316008 -59.177277 4294967295
172.79842 -32.502884 -58.610451 4294967295
172.80049 -34.291035 -59.501274 4294967295
172.80518 -18.15727 -57.768326 4294967295
172.80786 -21.75646 -59.533588 4294967295
172.81303 -6.0560293 -58.022835 4294967295
172.81541 -4.2412338 -57.185188 4294967295
172.81836 -4.6929302 -57.438835 4294967295
172.83005 -17.236195 -57.644241 4294967295
172.83607 -2.8668585 -56.790901 4294967295
172.83853 -31.570053 -58.676094 4294967295
172.84177 -19.930199 -59.089722 4294967295
172.84271 -33.356773 -59.593597 4294967295
172.84735 -18.57509 -58.509827 4294967295
172.85211 -3.7645922 -57.425072 4294967295
172.85327 -3.3101416 -57.222569 4294967295
172.85423 -19.470272 -59.028225 4294967295
172.86893 -29.749416 -58.187752 4294967295
172.8873 -30.629416 -58.849762 4294967295
172.88823 -31.076572 -59.07785 4294967295
172.89017 -18.991852 -59.258747 4294967295
172.89349 -31.967239 -59.576065 4294967295
172.89706 -15.831886 -57.827766 4294967295
172.90456 -16.728319 -58.354561 4294967295
172.90639 -17.628304 -58.81086 4294967295
172.92293 -16.263462 -58.366623 4294967295
172.94543 -1.8922281 -57.719162 4294967295
172.95035 -29.228012 -58.984573 4294967295
172.9538 -28.776581 -58.810673 4294967295
172.95467 -2.3403735 -58.051224 4294967295
172.96518 -30.110859 -59.602253 4294967295
172.97447 -28.309759 -58.851471 4294967295
172.97577 -14.870653 -58.374058 4294967295
172.99382 -12.599653 -57.513474 4294967295
173.00967 -13.040032 -57.928368 4294967295
173.01758 -27.374697 -58.954624 4294967295
173.04591 -13.46524 -58.597275 4294967295
173.04913 -14.365241 -59.071228 4294967295
173.05513 -25.54669 -58.554947 4294967295
173.05519 -27.790131 -59.640015 4294967295
173.06949 -12.093609 -58.239746 4294967295
173.07904 -23.279129 -57.766899 4294967295
173.08546 -25.071636 -58.716309 4294967295
173.09369 -22.817095 -57.732315 4294967295
173.10216 -8.905117 -57.125267 4294967295
173.10237 -26.403671 -59.577667 4294967295
173.12038 -11.605696 -58.657318 4294967295
173.12111 -24.592247 -58.94355 4294967295
173.12891 -37.564255 -59.317497 4294967295
173.13063 -23.685694 -58.627769 4294967295
173.13486 -9.787715 -57.968681 4294967295
173.14157 -10.235219 -58.270081 4294967295
173.15173 -7.9660072 -57.309155 4294967295
173.15631 -37.090763 -59.442337 4294967295
173.16432 -36.636246 -59.325294 4294967295
173.17285 -9.3093405 -58.22551 4294967295
173.17569 -8.4025908 -57.825966 4294967295
173.18234 -20.494102 -57.751564 4294967295
173.20029 -21.379852 -58.410759 4294967295
173.23665 -4.7378531 -56.844955 4294967295
173.23976 -19.547483 -58.033615 4294967295
173.2428 -21.794901 -59.158875 4294967295
173.24962 -34.766453 -59.521389 4294967295
173.2627 -18.628359 -57.884804 4294967295
173.27313 -31.611767 -58.293289 4294967295
173.27342 -33.402313 -59.166985 4294967295
173.2813 -33.842148 -59.482658 4294967295
173.28929 -32.044731 -58.712845 4294967295
173.29091 -5.1565442 -57.741592 4294967295
173.29112 -34.279896 -59.822449 4294967295
173.29463 -6.0601482 -58.223938 4294967295
173.29814 -18.150003 -58.110344 4294967295
173.30206 -19.948015 -59.029671 4294967295
173.30714 -19.0438 -58.658108 4294967295
173.3093 -2.8771472 -56.881256 4294967295
173.31 -5.5972958 -58.198124 4294967295
173.31125 -17.238338 -57.838524 4294967295
173.32294 -3.7761235 -57.488297 4294967295
173.33148 -3.3171735 -57.377243 4294967295
173.33748 -4.2203741 -57.88834 4294967295
173.35654 -2.39415 -57.254505 4294967295
173.36249 -31.081631 -59.192566 4294967295
173.38129 -15.831989 -58.060669 4294967295
173.40033 -1.4596353 -57.366173 4294967295
173.40747 -30.592678 -59.537594 4294967295
173.41571 -29.241356 -58.987602 4294967295
173.41852 -29.686911 -59.240551 4294967295
173.42082 -16.252878 -58.773331 4294967295
173.43114 -27.882381 -58.527252 4294967295
173.43718 -30.117914 -59.69117 4294967295
173.43904 -15.337448 -58.565693 4294967295
173.43909 -16.68948 -59.219898 4294967295
173.45856 -12.614668 -57.501209 4294967295
173.47827 -27.392227 -58.899311 4294967295
173.49342 -14.845812 -59.028709 4294967295
173.49542 -13.942308 -58.617825 4294967295
173.49606 -13.490578 -58.407753 4294967295
173.50027 -26.026764 -58.520931 4294967295
173.51436 -12.12269 -57.982124 4294967295
173.51932 -14.375683 -59.134911 4294967295
173.54274 -24.643024 -58.398537 4294967295
173.54405 -25.540054 -58.851219 4294967295
173.55995 -10.734615 -57.898476 4294967295
173.56335 -9.8278437 -57.504021 4294967295
173.5722 -10.273932 -57.833679 4294967295
173.57828 -24.16361 -58.625793 4294967295
173.58514 -25.055893 -59.148018 4294967295
173.58578 -22.359116 -57.846241 4294967295
173.58899 -9.3577347 -57.607174 4294967295
173.58928 -11.165789 -58.484726 4294967295
173.59036 -8.4516668 -57.18692 4294967295
173.60828 -7.9867668 -57.193005 4294967295
173.6088 -23.239269 -58.571724 4294967295
173.60939 -38.008354 -59.730385 4294967295
173.62901 -7.5199766 -57.234653 4294967295
173.63722 -35.748161 -58.988792 4294967295
173.64429 -34.84721 -58.640709 4294967295
173.6449 -23.658237 -59.242645 4294967295
173.64658 -37.525276 -59.978355 4294967295
173.65782 -21.400126 -58.313049 4294967295
173.65967 -20.948677 -58.11758 4294967295
173.66125 -35.277958 -59.071854 4294967295
173.66327 -37.062553 -59.969467 4294967295
173.68475 -8.8397465 -58.590317 4294967295
173.69136 -7.0255623 -57.798862 4294967295
173.71527 -32.990147 -58.657646 4294967295
173.7155 -34.331841 -59.315567 4294967295
173.72061 -32.537502 -58.506256 4294967295
173.7216 -5.6469088 -57.52182 4294967295
173.72249 -5.1931505 -57.31382 4294967295
173.72391 -33.87669 -59.202911 4294967295
173.73149 -6.546267 -58.083717 4294967295
173.73187 -4.7337828 -57.212746 4294967295
173.73373 -18.63805 -57.954155 4294967295
173.73537 -20.437414 -58.849167 4294967295
173.74118 -6.0871115 -57.986652 4294967295
173.75021 -3.361346 -56.785782 4294967295
173.75964 -19.967985 -58.93576 4294967295
173.7625 -32.050705 -58.813545 4294967295
173.78627 -16.794264 -57.738602 4294967295
173.79291 -19.0415 -58.916275 4294967295
173.79329 -18.140779 -58.483444 4294967295
173.79683 -1.9706364 -56.714058 4294967295
173.8022 -4.2355871 -57.8778 4294967295
173.8116 -3.776346 -57.776955 4294967295
173.82509 -1.4993072 -56.850338 4294967295
173.82602 -28.855959 -58.079994 4294967295
173.84541 -2.8483121 -57.763935 4294967295
173.84659 -30.181965 -58.995384 4294967295
173.84993 -29.282772 -58.599808 4294967295
173.8553 -31.516911 -59.76049 4294967295
173.86119 -31.064001 -59.616165 4294967295
173.86324 -16.284395 -58.487354 4294967295
173.88315 -2.3714354 -58.019554 4294967295
173.88428 -30.595207 -59.68766 4294967295
173.88556 -29.698566 -59.266502 4294967295
173.89076 -27.90103 -58.456337 4294967295
173.89603 -27.447748 -58.30349 4294967295
173.89786 -15.35648 -58.484795 4294967295
173.89908 -15.806369 -58.71899 4294967295
173.90672 -26.54068 -57.999863 4294967295
173.93265 -13.97731 -58.264973 4294967295
173.94193 -26.958599 -58.662052 4294967295
173.94594 -13.516207 -58.213211 4294967295
173.94847 -14.416637 -58.683556 4294967295
173.95023 -26.053785 -58.328224 4294967295
173.96983 -12.595858 -58.0756 4294967295
173.98332 -10.778791 -57.367416 4294967295
174.00949 -24.655542 -58.416889 4294967295
174.01053 -11.211491 -57.929951 4294967295
174.01279 -23.754141 -58.019608 4294967295
174.01497 -10.304321 -57.546692 4294967295
174.0322 -12.099253 -58.641415 4294967295
174.03291 -38.062737 -59.21106 4294967295
174.03308 -11.647107 -58.43354 4294967295
174.03799 -25.080091 -58.995041 4294967295
174.04758 -24.173935 -58.677158 4294967295
174.04945 -9.8280306 -57.761646 4294967295
174.05403 -25.514977 -59.415955 4294967295
174.05493 -22.819649 -58.111557 4294967295
174.06494 -37.138062 -59.17635 4294967295
174.08647 -35.329865 -58.570408 4294967295
174.08992 -37.559639 -59.709957 4294967295
174.09013 -8.8953753 -57.835205 4294967295
174.09265 -21.439106 -57.928394 4294967295
174.09612 -36.660774 -59.349922 4294967295
174.09688 -9.3429279 -58.140038 4294967295
174.10426 -23.227661 -58.952782 4294967295
174.11302 -20.972473 -57.965534 4294967295
174.11989 -35.744247 -59.210949 4294967295
174.12228 -36.188545 -59.460396 4294967295
174.12622 -22.310677 -58.790916 4294967295
174.13264 -34.838123 -58.933128 4294967295
174.13271 -7.9615369 -57.932884 4294967295
174.13971 -7.5042858 -57.801479 4294967295
174.14836 -21.842876 -58.850601 4294967295
174.15707 -33.473118 -58.5826 4294967295
174.16093 -20.483471 -58.35041 4294967295
174.16902 -34.356087 -59.172218 4294967295
174.17108 -19.124863 -57.818909 4294967295
174.17152 -6.5776896 -57.763119 4294967295
174.18605 -33.892715 -59.167595 4294967295
174.18872 -5.6605711 -57.540253 4294967295
174.19354 -4.2976551 -56.940826 4294967295
174.21062 -5.1932664 -57.596645 4294967295
174.21434 -32.524094 -58.865776 4294967295
174.22247 -32.068924 -58.748981 4294967295
174.22371 -2.9175434 -56.660728 4294967295
174.22449 -19.53229 -58.712868 4294967295
174.22952 -6.0866351 -58.275597 4294967295
174.23677 -32.950222 -59.368317 4294967295
174.24042 -3.3608189 -57.092205 4294967295
174.2469 -31.598509 -58.837402 4294967295
174.24849 -16.36005 -57.476074 4294967295
174.25029 -17.260321 -57.939491 4294967295
174.2514 -31.146622 -58.674561 4294967295
174.25858 -16.803171 -57.823914 4294967295
174.26154 -4.707304 -58.019852 4294967295
174.2749 -3.7924638 -57.748634 4294967295
174.28233 -18.586178 -59.0037 4294967295
174.30818 -28.405964 -58.072159 4294967295
174.30836 -30.646231 -59.173931 4294967295
174.31259 -2.40852 -57.564011 4294967295
174.31418 -28.848959 -58.36813 4294967295
174.32053 -18.10598 -59.266174 4294967295
174.34399 -15.835985 -58.463203 4294967295
174.34657 -15.383219 -58.275646 4294967295
174.34776 -29.266701 -59.012192 4294967295
174.35179 -27.918419 -58.40308 4294967295
174.37274 -29.691765 -59.547867 4294967295
174.3768 -14.007321 -57.997108 4294967295
174.38554 -27.43985 -58.609894 4294967295
174.3893 -14.90004 -58.595592 4294967295
174.39314 -26.984587 -58.485794 4294967295
174.41074 -26.520445 -58.487984 4294967295
174.41197 -26.070602 -58.283241 4294967295
174.41753 -12.171463 -57.630886 4294967295
174.44162 -12.605515 -58.156296 4294967295
174.4487 -14.404581 -59.126854 4294967295
174.45021 -10.792322 -57.382805 4294967295
174.46764 -13.488799 -58.926018 4294967295
174.47656 -9.8693857 -57.275021 4294967295
174.47861 -13.029684 -58.84454 4294967295
174.47908 -25.114532 -58.691998 4294967295
174.48207 -23.764664 -58.068645 4294967295
174.48383 -37.643589 -58.813869 4294967295
174.48523 -25.557951 -58.990162 4294967295
174.4859 -11.670424 -58.275772 4294967295
174.50298 -11.206548 -58.271759 4294967295
174.50568 -10.301025 -57.864609 4294967295
174.50624 -23.294788 -58.154263 4294967295
174.511 -24.638136 -58.875786 4294967295
174.51788 -35.823105 -58.363449 4294967295
174.51939 -36.268478 -58.603027 4294967295
174.52217 -36.712421 -58.858574 4294967295
174.53822 -22.818409 -58.338909 4294967295
174.54245 -8.4665642 -57.447365 4294967295
174.54393 -37.137283 -59.354317 4294967295
174.5484 -24.157204 -59.129013 4294967295
174.57234 -8.8982849 -58.04718 4294967295
174.58115 -35.314362 -58.944328 4294967295
174.58159 -21.433609 -58.226257 4294967295
174.59616 -21.871113 -58.631721 4294967295
174.59778 -34.851315 -58.934586 4294967295
174.59839 -6.6180344 -57.272839 4294967295
174.61519 -20.506399 -58.210918 4294967295
174.62071 -34.382191 -59.004623 4294967295
174.63625 -20.938919 -58.698471 4294967295
174.64186 -18.684273 -57.665268 4294967295
174.64966 -7.4887486 -58.365189 4294967295
174.65564 -32.112423 -58.344086 4294967295
174.65794 -7.0308204 -58.249245 4294967295
174.66054 -7.9335375 -58.723743 4294967295
174.66679 -32.549412 -58.706337 4294967295
174.67293 -33.438026 -59.225334 4294967295
174.67752 -31.196442 -58.179779 4294967295
174.68588 -19.999065 -58.886532 4294967295
174.68971 -5.1990776 -57.768295 4294967295
174.69756 -5.6467943 -58.088848 4294967295
174.70731 -2.9212332 -56.884708 4294967295
174.71513 -2.4625483 -56.762917 4294967295
174.71915 -19.072647 -58.866798 4294967295
174.72577 -18.167284 -58.509083 4294967295
174.72614 -30.255558 -58.354694 4294967295
174.73294 -17.260944 -58.158188 4294967295
174.73407 -19.51041 -59.276768 4294967295
174.73576 -31.589653 -59.139473 4294967295
174.75113 -3.3471124 -57.6632 4294967295
174.75548 -3.7975686 -57.939781 4294967295
174.75713 -29.331017 -58.305977 4294967295
174.75775 -4.7020168 -58.410873 4294967295
174.76184 -17.688606 -58.745979 4294967295
174.769 -1.975328 -57.226097 4294967295
174.77635 -16.326082 -58.266953 4294967295
174.79962 -29.740063 -59.066879 4294967295
174.8119 -28.384909 -58.559578 4294967295
174.82072 -14.9398 -58.167084 4294967295
174.82941 -15.384013 -58.498489 4294967295
174.84045 -14.022856 -57.975136 4294967295
174.85509 -27.449562 -58.665787 4294967295
174.85654 -26.999836 -58.46299 4294967295
174.85681 -14.461619 -58.404221 4294967295
174.86819 -12.648252 -57.663338 4294967295
174.8868 -13.537149 -58.342964 4294967295
174.8902 -26.521488 -58.669815 4294967295
174.89851 -13.077312 -58.270374 4294967295
174.91324 -27.845583 -59.625851 4294967295
174.91849 -26.048044 -58.807938 4294967295
174.93611 -12.14714 -58.30558 4294967295
174.94168 -38.110249 -58.944084 4294967295
174.94769 -11.235704 -58.009979 4294967295
174.95937 -9.4195604 -57.271042 4294967295
174.97038 -11.670855 -58.520195 4294967295
174.97188 -9.8629503 -57.652271 4294967295
174.97987 -23.750731 -58.481758 4294967295
174.98254 -8.4986753 -57.122211 4294967295
174.98726 -8.9478111 -57.404411 4294967295
174.99048 -24.639402 -59.059711 4294967295
175.00302 -21.483921 -57.667877 4294967295
175.00311 -25.077047 -59.441563 4294967295
175.00607 -22.830069 -58.372013 4294967295
175.00711 -36.259331 -58.890976 4294967295
175.01677 -8.022625 -57.336334 4294967295
175.02698 -35.793121 -58.922157 4294967295
175.03577 -23.254063 -58.971527 4294967295
175.04466 -37.560543 -60.032204 4294967295
175.05148 -7.5464292 -57.556416 4294967295
175.0538 -20.992092 -58.09285 4294967295
175.05887 -35.315155 -59.106575 4294967295
175.05995 -22.335413 -58.836327 4294967295
175.06905 -33.964638 -58.571236 4294967295
175.07434 -33.512371 -58.416901 4294967295
175.09885 -21.853638 -59.110027 4294967295
175.10201 -6.6071796 -57.756538 4294967295
175.1178 -34.364334 -59.413788 4294967295
175.13535 -6.132297 -57.959572 4294967295
175.1387 -32.108974 -58.571602 4294967295
175.1459 -20.017113 -58.822815 4294967295
175.15198 -32.990799 -59.184544 4294967295
175.16597 -4.3007002 -57.461067 4294967295
175.18062 -18.189552 -58.37751 4294967295
175.18364 -19.536797 -59.081772 4294967295
175.1839 -18.636986 -58.641453 4294967295
175.19153 -29.820974 -58.13493 4294967295
175.19235 -2.9238217 -57.130638 4294967295
175.19826 -31.605349 -59.10915 4294967295
175.20126 -17.722973 -58.418808 4294967295
175.20911 -31.147806 -59.025345 4294967295
175.2103 -4.7249155 -58.249092 4294967295
175.2195 -3.8131461 -57.922195 4294967295
175.2242 -28.894745 -58.107651 4294967295
175.24409 -30.220169 -59.027664 4294967295
175.2583 -16.777615 -58.70224 4294967295
175.26486 -3.3311541 -58.278934 4294967295
175.27187 -30.641781 -59.604065 4294967295
175.28049 -27.498821 -58.159302 4294967295
175.29503 -14.045233 -57.83709 4294967295
175.29507 -27.933998 -58.56797 4294967295
175.29561 -15.397387 -58.511871 4294967295
175.29826 -14.944674 -58.323322 4294967295
175.30794 -28.370432 -58.954464 4294967295
175.31094 -14.484215 -58.262909 4294967295
175.32762 -1.479084 -58.190639 4294967295
175.33594 -13.563433 -58.137337 4294967295
175.341 -11.754011 -57.311153 4294967295
175.35902 -26.531839 -58.71767 4294967295
175.37021 -26.97016 -59.082848 4294967295
175.37021 -11.281061 -57.461693 4294967295
175.37256 -12.633883 -58.160233 4294967295
175.38651 -12.172333 -58.115776 4294967295
175.39114 -25.157833 -58.460663 4294967295
175.39311 -26.053249 -58.93084 4294967295
175.39806 -23.804867 -57.88134 4294967295
175.40312 -24.698586 -58.391235 4294967295
175.41237 -10.798904 -57.778397 4294967295
175.41483 -13.053671 -58.923088 4294967295
175.42709 -24.228909 -58.475403 4294967295
175.43787 -37.645699 -59.121086 4294967295
175.45825 -37.179031 -59.159096 4294967295
175.46893 -10.306744 -58.279118 4294967295
175.48462 -35.813633 -58.828732 4294967295
175.48502 -22.383007 -58.325214 4294967295
175.48671 -23.27984 -58.792351 4294967295
175.49138 -21.029015 -57.737991 4294967295
175.49319 -38.035595 -60.050407 4294967295
175.4938 -7.5768137 -57.259399 4294967295
175.50111 -22.818562 -58.753983 4294967295
175.50142 -9.8320065 -58.472061 4294967295
175.50334 -9.378912 -58.273888 4294967295
175.51105 -7.1124792 -57.257084 4294967295
175.51115 -35.340839 -58.945679 4294967295
175.51271 -33.998787 -58.297146 4294967295
175.52539 -34.880211 -58.904877 4294967295
175.5314 -33.533554 -58.313461 4294967295
175.53502 -36.209953 -59.695812 4294967295
175.53714 -21.889841 -58.769703 4294967295
175.54216 -20.537247 -58.165291 4294967295
175.5455 -5.2778745 -56.80497 4294967295
175.54749 -8.444334 -58.393135 4294967295
175.54865 -7.9915032 -58.185097 4294967295
175.55855 -6.6277571 -57.642349 4294967295
175.56038 -8.8871698 -58.781319 4294967295
175.57045 -34.38945 -59.259109 4294967295
175.5715 -5.7136636 -57.361847 4294967295
175.57436 -19.161251 -57.908401 4294967295
175.58038 -4.348597 -56.80484 4294967295
175.5891 -20.048973 -58.543266 4294967295
175.59613 -18.693584 -57.964062 4294967295
175.59877 -17.790867 -57.551514 4294967295
175.60089 -32.572403 -58.757729 4294967295
175.60242 -19.58839 -58.490768 4294967295
175.60403 -6.1446719 -58.002151 4294967295
175.6088 -3.8768637 -56.946018 4294967295
175.62779 -2.5040724 -56.518501 4294967295
175.64583 -32.976315 -59.555859 4294967295
175.64935 -31.631832 -58.932655 4294967295
175.65881 -31.175552 -58.830936 4294967295
175.66019 -16.390766 -57.668819 4294967295
175.66426 -32.064835 -59.346703 4294967295
175.67876 -3.3786936 -57.620075 4294967295
175.68896 -2.0120025 -57.080002 4294967295
175.68907 -16.818657 -58.262623 4294967295
175.69536 -18.163921 -59.013084 4294967295
175.69698 -15.911464 -57.917305 4294967295
175.70085 -17.259611 -58.63707 4294967295
175.72957 -28.423553 -58.39875 4294967295
175.73936 -15.42802 -58.237907 4294967295
175.74345 -27.514502 -58.13028 4294967295
175.74947 -14.969598 -58.143623 4294967295
175.7531 -27.954018 -58.477444 4294967295
175.76418 -29.734921 -59.512375 4294967295
175.77106 -1.5074 -57.910339 4294967295
175.8008 -13.578005 -58.132057 4294967295
175.83118 -26.539148 -58.809265 4294967295
175.83696 -14.001564 -58.820152 4294967295
175.84526 -12.191438 -58.032307 4294967295
175.85367 -25.173838 -58.427513 4294967295
175.85576 -13.085867 -58.614544 4294967295
175.8571 -23.824121 -57.800293 4294967295
175.86903 -37.246811 -58.464859 4294967295
175.88603 -24.696829 -58.619614 4294967295
175.89467 -26.034401 -59.401421 4294967295
175.90234 -25.579414 -59.276558 4294967295
175.90561 -38.547569 -59.605095 4294967295
175.90733 -23.331734 -58.22226 4294967295
175.91141 -11.240414 -58.434765 4294967295
175.9301 -10.775511 -58.451332 4294967295
175.94044 -38.066265 -59.829613 4294967295
175.94221 -7.6031675 -57.038124 4294967295
175.95052 -37.610355 -59.735321 4294967295
175.9514 -36.717594 -59.299816 4294967295
175.95155 -34.484821 -58.182976 4294967295
175.96074 -35.815765 -58.972488 4294967295
175.96251 -9.8493004 -58.420151 4294967295
175.96387 -22.834318 -58.725113 4294967295
175.97437 -9.3892307 -58.3489 4294967295
175.9848 -8.93013 -58.259003 4294967295
175.99533 -36.227451 -59.640915 4294967295
176.02185 -34.862411 -59.310783 4294967295
176.02272 -7.9998889 -58.298954 4294967295
176.02734 -19.635267 -57.973892 4294967295
176.02826 -33.069126 -58.497639 4294967295
176.0285 -8.4477453 -58.597504 4294967295
176.03848 -21.87303 -59.237469 4294967295
176.05444 -5.7166839 -57.585781 4294967295
176.06215 -32.589363 -58.710106 4294967295
176.06252 -20.505482 -58.874947 4294967295
176.07013 -33.922089 -59.484375 4294967295
176.07542 -6.6074715 -58.305054 4294967295
176.07776 -5.2484651 -57.661667 4294967295
176.08304 -7.0544319 -58.62711 4294967295
176.0887 -20.034468 -58.987995 4294967295
176.09674 -3.8771658 -57.232662 4294967295
176.09912 -4.7815742 -57.71283 4294967295
176.10216 -18.674627 -58.488922 4294967295
176.10435 -17.322622 -57.843803 4294967295
176.1075 -18.220423 -58.333248 4294967295
176.10953 -19.118378 -58.808075 4294967295
176.11731 -33.429626 -59.868 4294967295
176.1196 -3.4092252 -57.302711 4294967295
176.12469 -16.405613 -57.657188 4294967295
176.12787 -4.3099279 -57.858635 4294967295
176.13124 -16.850945 -57.965988 4294967295
176.13834 -2.9439719 -57.319519 4294967295
176.14122 -31.172501 -59.055946 4294967295
176.14752 -1.5775733 -56.763111 4294967295
176.16187 -31.599972 -59.545906 4294967295
176.1624 -29.810337 -58.656387 4294967295
176.16342 -32.045338 -59.789917 4294967295
176.16367 -2.4745564 -57.421349 4294967295
176.17029 -2.0169511 -57.282124 4294967295
176.17445 -29.351484 -58.587193 4294967295
176.17609 -28.454185 -58.159119 4294967295
176.2 -30.669847 -59.589039 4294967295
176.20436 -15.442339 -58.235451 4294967295
176.20892 -28.87188 -58.807076 4294967295
176.20999 -30.213287 -59.493893 4294967295
176.22876 -15.873754 -58.774712 4294967295
176.23582 -14.066051 -57.967091 4294967295
176.23595 -13.163823 -57.518951 4294967295
176.23994 -14.964314 -58.469818 4294967295
176.2442 -27.047739 -58.364143 4294967295
176.2625 -27.927187 -59.049259 4294967295
176.27484 -12.683493 -57.796314 4294967295
176.27832 -11.778154 -57.391159 4294967295
176.29001 -38.643307 -58.569984 4294967295
176.29189 -27.452635 -59.203842 4294967295
176.29417 -10.863217 -57.14547 4294967295
176.29744 -26.551626 -58.826576 4294967295
176.30101 -38.186012 -58.487511 4294967295
176.30743 -24.748861 -58.056557 4294967295
176.31261 -11.301475 -57.608849 4294967295
176.33295 -12.189157 -58.321819 4294967295
176.33546 -10.381543 -57.454147 4294967295
176.34702 -26.059116 -59.241982 4294967295
176.36757 -24.247494 -58.608402 4294967295
176.37431 -25.138515 -59.145145 4294967295
176.38077 -23.787296 -58.553951 4294967295
176.38914 -36.758068 -58.951424 4294967295
176.41922 -34.942444 -58.440254 4294967295
176.42772 -8.960289 -57.971256 4294967295
176.42853 -22.399445 -58.496334 4294967295
176.43915 -9.8554564 -58.569351 4294967295
176.43962 -21.491619 -58.189842 4294967295
176.44028 -34.47493 -58.48764 4294967295
176.45514 -36.245502 -59.579201 4294967295
176.45906 -22.822191 -59.11615 4294967295
176.46266 -21.0229 -58.262329 4294967295
176.47476 -35.779808 -59.608192 4294967295
176.48477 -19.655708 -57.872509 4294967295
176.4879 -35.32061 -59.553009 4294967295
176.49562 -6.2002125 -57.497169 4294967295
176.49886 -20.543251 -58.505234 4294967295
176.50121 -8.4568501 -58.696655 4294967295
176.52243 -19.17498 -58.134666 4294967295
176.52713 -33.496357 -59.160728 4294967295
176.53262 -20.065765 -58.717201 4294967295
176.53514 -6.625741 -58.234627 4294967295
176.5397 -33.930565 -59.548378 4294967295
176.54289 -33.034332 -59.139534 4294967295
176.56424 -18.691086 -58.450302 4294967295
176.56773 -17.338245 -57.819042 4294967295
176.57309 -32.111511 -59.079849 4294967295
176.58521 -16.874012 -57.819893 4294967295
176.59335 -17.767799 -58.37672 4294967295
176.59404 -4.7767057 -58.09528 4294967295
176.60074 -32.531616 -59.662895 4294967295
176.60757 -31.1845 -59.075821 4294967295
176.61603 -1.5906448 -56.798958 4294967295
176.61932 -29.831409 -58.552231 4294967295
176.63039 -3.8475285 -58.115013 4294967295
176.63313 -16.385771 -58.215199 4294967295
176.63609 -18.183109 -59.15551 4294967295
176.64522 -3.3851032 -58.081757 4294967295
176.64554 -2.9319766 -57.859932 4294967295
176.65042 -30.696735 -59.405731 4294967295
176.66869 -28.442484 -58.51495 4294967295
176.67651 -14.549904 -57.874474 4294967295
176.6779 -15.449977 -58.34433 4294967295
176.6787 -28.880926 -58.870438 4294967295
176.67892 -29.32823 -59.098862 4294967295
176.68417 -15.895369 -58.651314 4294967295
176.68515 -2.0005927 -57.921822 4294967295
176.69612 -2.4466958 -58.289936 4294967295
176.70511 -14.978419 -58.471268 4294967295
176.70839 -27.510269 -58.578308 4294967295
176.70973 -27.956905 -58.821712 4294967295
176.7252 -27.04694 -58.570877 4294967295
176.75691 -26.122026 -58.530552 4294967295
176.75749 -24.775972 -57.860405 4294967295
176.75932 -13.134377 -58.271118 4294967295
176.76303 -12.680664 -58.093018 4294967295
176.77211 -14.025986 -58.888744 4294967295
176.77495 -38.635761 -58.829239 4294967295
176.78053 -38.184223 -58.675743 4294967295
176.78725 -11.760357 -57.95562 4294967295
176.79134 -24.297419 -58.073601 4294967295
176.80507 -10.844523 -57.734512 4294967295
176.80641 -12.197244 -58.43047 4294967295
176.81296 -11.290147 -58.063183 4294967295
176.82635 -9.022027 -57.10545 4294967295
176.83995 -37.677322 -59.221306 4294967295
176.84145 -22.907131 -58.045574 4294967295
176.84175 -10.366348 -57.984859 4294967295
176.86147 -22.440821 -58.079693 4294967295
176.86349 -37.207489 -59.300858 4294967295
176.8687 -9.4437571 -57.882408 4294967295
176.88345 -21.074158 -57.686569 4294967295
176.88347 -23.319593 -58.817947 4294967295
176.88797 -34.952026 -58.488979 4294967295
176.88992 -8.0730143 -57.478828 4294967295
176.8959 -21.96224 -58.301048 4294967295
176.90767 -35.378742 -58.970947 4294967295
176.91359 -7.1521101 -57.33326 4294967295
176.92877 -36.695259 -59.923054 4294967295
176.94214 -5.7749882 -57.024696 4294967295
176.94923 -6.6752553 -57.570442 4294967295
176.95358 -8.4801779 -58.533295 4294967295
176.95529 -33.545589 -58.685501 4294967295
176.95551 -20.564198 -58.396564 4294967295
176.95699 -35.775291 -59.837524 4294967295
176.9604 -33.093819 -58.525539 4294967295
176.96136 -21.457544 -58.9254 4294967295
176.96358 -7.5696449 -58.210106 4294967295
176.97415 -5.300736 -57.214493 4294967295
176.98552 -19.190689 -58.107727 4294967295
177.00497 -31.709621 -58.426125 4294967295
177.00859 -19.621193 -58.634495 4294967295
177.01889 -33.929497 -59.738358 4294967295
177.0204 -34.374134 -59.983971 4294967295
177.03304 -3.903161 -57.300507 4294967295
177.036 -18.699585 -58.538254 4294967295
177.04103 -32.121834 -59.121536 4294967295
177.04359 -2.5367055 -56.75647 4294967295
177.05251 -17.786648 -58.299843 4294967295
177.05855 -17.3318 -58.151947 4294967295
177.0593 -30.76329 -58.679901 4294967295
177.06221 -4.3367825 -57.90765 4294967295
177.06554 -4.7871618 -58.177471 4294967295
177.06718 -18.22451 -58.717583 4294967295
177.08105 -31.189594 -59.189644 4294967295
177.08774 -30.289032 -58.823784 4294967295
177.08835 -1.601275 -56.885471 4294967295
177.08946 -16.857002 -58.327736 4294967295
177.09734 -3.4083099 -57.911301 4294967295
177.11653 -29.814585 -58.971935 4294967295
177.13739 -16.36883 -58.72538 4294967295
177.13828 -15.467818 -58.283165 4294967295
177.15109 -2.9207282 -58.385056 4294967295
177.1644 -15.897463 -58.85038 4294967295
177.16873 -28.423555 -58.971939 4294967295
177.18166 -27.068356 -58.460007 4294967295
177.18294 -29.304991 -59.610207 4294967295
177.19536 -28.846193 -59.545513 4294967295
177.2009 -25.257809 -57.80262 4294967295
177.21637 -25.692423 -58.231712 4294967295
177.22357 -27.477814 -59.233269 4294967295
177.22859 -14.046633 -58.779724 4294967295
177.23654 -26.122477 -58.721951 4294967295
177.23924 -38.649445 -58.822445 4294967295
177.24069 -24.7738 -58.094772 4294967295
177.24416 -26.563559 -59.04808 4294967295
177.2547 -24.31278 -58.050308 4294967295
177.26183 -13.120268 -58.759258 4294967295
177.27682 -11.30547 -58.046234 4294967295
177.29971 -10.837371 -58.117859 4294967295
177.30104 -22.925791 -57.97319 4294967295
177.30516 -10.382055 -57.961441 4294967295
177.31387 -37.235287 -59.115227 4294967295
177.32765 -9.0109701 -57.572834 4294967295
177.33017 -35.434547 -58.419174 4294967295
177.33167 -23.796505 -58.827583 4294967295
177.34314 -9.9030762 -58.230186 4294967295
177.34769 -8.0928822 -57.37925 4294967295
177.34827 -38.090794 -60.017654 4294967295
177.35048 -23.331537 -58.845978 4294967295
177.3587 -6.7283015 -56.839455 4294967295
177.36301 -7.630034 -57.351471 4294967295
177.37482 -36.281509 -59.456734 4294967295
177.37537 -6.2642775 -56.829472 4294967295
177.37723 -37.615612 -60.168732 4294967295
177.38113 -20.611305 -57.881943 4294967295
177.38174 -8.5207434 -58.051964 4294967295
177.38525 -36.716564 -59.819679 4294967295
177.3938 -9.4151859 -58.664612 4294967295
177.39537 -20.14987 -57.840408 4294967295
177.39696 -21.496342 -58.543846 4294967295
177.39842 -33.13364 -58.173679 4294967295
177.40671 -22.385597 -59.12595 4294967295
177.41165 -21.034788 -58.508392 4294967295
177.41774 -33.561371 -58.653713 4294967295
177.43901 -34.433014 -59.386566 4294967295
177.44418 -32.195068 -58.316711 4294967295
177.47159 -5.746264 -57.860588 4294967295
177.47269 -32.614128 -58.91713 4294967295
177.47824 -33.947884 -59.671776 4294967295
177.48267 -3.9282701 -57.093224 4294967295
177.49724 -19.166128 -58.717346 4294967295
177.50694 -2.5529568 -56.726059 4294967295
177.50725 -3.4591577 -57.18679 4294967295
177.51596 -5.2639737 -58.21339 4294967295
177.51656 -18.251236 -58.514618 4294967295
177.53548 -4.3461213 -58.012871 4294967295
177.53793 -31.657345 -59.315411 4294967295
177.54135 -29.865934 -58.449162 4294967295
177.54745 -16.426678 -58.007568 4294967295
177.55069 -17.773767 -58.733795 4294967295
177.57587 -1.6021991 -57.172787 4294967295
177.57895 -16.851479 -58.647903 4294967295
177.57906 -30.724245 -59.39827 4294967295
177.58047 -28.486549 -58.27774 4294967295
177.58054 -15.049505 -57.756485 4294967295
