# .PCD v0.7 - Point Cloud Data file format
VERSION 0.7
FIELDS x y z rgb
SIZE 4 4 4 4
TYPE F F F U
COUNT 1 1 1 1
WIDTH 1147
HEIGHT 1
VIEWPOINT 0 0 0 1 0 0 0
POINTS 1147
DATA ascii
359.25168 91.938087 -40.273155 4294967295
359.31619 92.876678 -39.88649 4294967295
359.35641 93.349487 -39.589149 4294967295
359.37665 94.270294 -39.77956 4294967295
359.43457 88.165672 -42.016594 4294967295
359.4613 87.261948 -41.216618 4294967295
359.50317 88.646744 -41.351036 4294967295
359.54144 95.7099 -38.314308 4294967295
359.58212 94.814308 -37.329639 4294967295
359.59094 95.274963 -37.441513 4294967295
359.60294 90.053047 -40.733398 4294967295
359.61194 96.197449 -37.623005 4294967295
359.70166 92.828918 -40.807716 4294967295
359.76379 97.17897 -36.100891 4294967295
359.87149 94.267487 -39.282928 4294967295
359.94998 87.254616 -40.792755 4294967295
359.95306 94.758423 -38.451221 4294967295
359.98364 87.723297 -40.582375 4294967295
360.0278 104.41503 -30.102993 4294967295
360.11139 90.967056 -40.506897 4294967295
360.1376 91.889847 -40.618515 4294967295
360.14584 91.43679 -40.286839 4294967295
360.15036 104.93843 -28.733463 4294967295
360.15207 97.128433 -37.003002 4294967295
360.18546 96.68663 -36.344131 4294967295
360.20129 93.283722 -40.470329 4294967295
360.2041 104.24573 -33.788467 4294967295
360.22922 97.62014 -36.229778 4294967295
360.26105 98.091507 -36.044426 4294967295
360.37088 95.179062 -39.180878 4294967295
360.38739 93.816704 -38.293262 4294967295
360.39764 87.233086 -40.901295 4294967295
360.40381 88.605408 -41.493679 4294967295
360.47327 95.67952 -38.085472 4294967295
360.47498 104.12762 -36.216484 4294967295
360.4809 103.21909 -35.68832 4294967295
360.49109 89.09346 -40.59425 4294967295
360.5213 96.15699 -37.690849 4294967295
360.55469 97.084686 -37.71067 4294967295
360.55859 90.031715 -40.174072 4294967295
360.63495 98.033852 -37.126358 4294967295
360.73407 92.382896 -39.038086 4294967295
360.75336 99.001785 -36.050648 4294967295
360.80145 93.78006 -38.844418 4294967295
360.83273 94.249557 -38.666847 4294967295
360.90799 102.2718 -35.635811 4294967295
360.93463 89.070213 -40.755066 4294967295
360.94916 103.20493 -35.556515 4294967295
360.97601 89.998581 -40.670933 4294967295
361.00223 96.604858 -37.610672 4294967295
361.04996 104.6255 -34.935146 4294967295
361.05704 97.542236 -37.355793 4294967295
361.14105 98.949867 -36.950478 4294967295
361.14948 98.497345 -36.618546 4294967295
361.15387 92.349442 -39.509869 4294967295
361.16278 93.722008 -40.064606 4294967295
361.25952 94.21814 -39.05051 4294967295
361.27863 99.927605 -35.635101 4294967295
361.3024 95.604965 -39.170948 4294967295
361.30591 88.108185 -41.391396 4294967295
361.31769 100.85953 -35.583054 4294967295
361.31879 96.068092 -39.184448 4294967295
361.33514 101.3245 -35.583298 4294967295
361.35733 103.16015 -36.194267 4294967295
361.37201 89.044823 -40.992008 4294967295
361.41574 102.27729 -34.999325 4294967295
361.43521 96.575119 -37.920681 4294967295
361.43857 89.982224 -40.588276 4294967295
361.47046 90.907127 -40.625694 4294967295
361.47098 103.67437 -34.963768 4294967295
361.47833 104.13432 -35.093868 4294967295
361.48972 105.05222 -35.395443 4294967295
361.49368 91.828629 -40.772778 4294967295
361.52271 97.52684 -37.249577 4294967295
361.5412 92.303406 -40.389629 4294967295
361.63879 93.254852 -39.591343 4294967295
361.65073 98.498154 -36.061996 4294967295
361.65753 94.631035 -40.017982 4294967295
361.66705 100.7878 -36.967529 4294967295
361.78717 101.75861 -35.882187 4294967295
361.82782 95.615356 -38.295906 4294967295
361.86972 88.584145 -40.240562 4294967295
361.88446 89.50312 -40.495712 4294967295
361.9118 90.88282 -40.811203 4294967295
361.92557 96.113899 -37.275948 4294967295
362.10651 99.391304 -36.530693 4294967295
362.13983 94.166718 -39.467373 4294967295
362.14957 99.867935 -36.205662 4294967295
362.19763 95.103195 -39.177139 4294967295
362.20001 101.71723 -36.452858 4294967295
362.22604 88.073883 -41.280685 4294967295
362.25348 96.039291 -38.911453 4294967295
362.25531 102.20057 -35.972813 4294967295
362.26825 87.6315 -40.527943 4294967295
362.33389 103.60828 -35.642067 4294967295
362.34076 89.941154 -40.711338 4294967295
362.35251 89.488716 -40.343651 4294967295
362.35361 96.995224 -38.086494 4294967295
362.35782 96.540657 -37.812878 4294967295
362.3656 103.16816 -35.018284 4294967295
362.37726 104.08652 -35.313576 4294967295
362.38937 105.00465 -35.603275 4294967295
362.42188 97.93811 -37.665154 4294967295
362.42719 91.342888 -40.280315 4294967295
362.44235 92.261414 -40.528038 4294967295
362.44443 92.718361 -40.721733 4294967295
362.44818 97.493431 -37.111599 4294967295
362.46628 90.900948 -39.567856 4294967295
362.491 98.882065 -37.23254 4294967295
362.49591 93.194878 -40.292072 4294967295
362.59137 94.601967 -39.747768 4294967295
362.63168 100.77306 -36.338192 4294967295
362.69342 88.972427 -41.571083 4294967295
362.70331 88.519371 -41.228046 4294967295
362.79086 104.04436 -35.873714 4294967295
362.94812 99.319046 -37.453354 4294967295
362.98898 92.277649 -39.390347 4294967295
363.03986 100.7303 -36.959003 4294967295
363.08298 102.11891 -37.075481 4294967295
363.08328 101.66319 -36.852303 4294967295
363.14496 101.23674 -35.858036 4294967295
363.15466 88.499199 -41.28175 4294967295
363.1561 103.06664 -36.595886 4294967295
363.19424 96.469177 -38.784409 4294967295
363.21048 96.019821 -38.362793 4294967295
363.21448 104.91877 -36.739876 4294967295
363.22903 89.895164 -41.005238 4294967295
363.24527 96.947411 -38.364143 4294967295
363.25397 88.990639 -40.257767 4294967295
363.25775 104.48546 -35.978477 4294967295
363.28427 90.371788 -40.532162 4294967295
363.29822 104.05017 -35.251152 4294967295
363.31781 91.297195 -40.548264 4294967295
363.33853 98.357231 -37.851685 4294967295
363.37305 91.774529 -40.075813 4294967295
363.37653 93.144684 -40.684589 4294967295
363.37741 92.688911 -40.456165 4294967295
363.40546 100.21195 -37.887363 4294967295
363.41415 93.615646 -40.432114 4294967295
363.41968 98.850128 -37.054543 4294967295
363.43207 99.312134 -37.117996 4294967295
363.49664 100.71078 -36.965549 4294967295
363.53455 101.18492 -36.709751 4294967295
363.55099 95.039597 -39.376778 4294967295
363.55386 103.01764 -37.341305 4294967295
363.57071 102.57028 -36.912746 4294967295
363.60315 88.934601 -41.586945 4294967295
363.78629 92.195755 -40.823925 4294967295
363.96274 95.002289 -39.930153 4294967295
363.98068 102.52781 -37.500927 4294967295
364.09442 102.12722 -35.869419 4294967295
364.12973 97.352844 -38.939209 4294967295
364.15646 90.319939 -41.021542 4294967295
364.16986 89.411476 -40.424854 4294967295
364.17496 103.99159 -35.737667 4294967295
364.18314 89.872955 -40.475918 4294967295
364.21518 97.846298 -38.095776 4294967295
364.22974 98.764908 -38.348232 4294967295
364.2323 91.717003 -40.729137 4294967295
364.25665 99.232994 -38.230736 4294967295
364.28467 98.333282 -37.451141 4294967295
364.29834 92.198349 -40.127739 4294967295
364.30151 91.286324 -39.657475 4294967295
364.34705 100.64226 -37.759617 4294967295
364.34848 93.586708 -40.153881 4294967295
364.37259 99.741982 -37.01001 4294967295
364.38879 92.689583 -39.224026 4294967295
364.40192 93.151299 -39.278061 4294967295
364.42227 102.50097 -37.691814 4294967295
364.42636 100.22307 -36.560844 4294967295
364.45474 102.06098 -37.074078 4294967295
364.45575 94.998413 -39.473644 4294967295
364.46246 102.97618 -37.410213 4294967295
364.46255 101.60875 -36.761375 4294967295
364.47791 95.919746 -39.630672 4294967295
364.49924 101.16996 -36.090717 4294967295
364.50955 88.439148 -41.427429 4294967295
364.55771 96.409393 -38.860447 4294967295
364.58151 97.331741 -38.99691 4294967295
364.5907 104.86256 -36.68811 4294967295
364.6098 103.50472 -35.803905 4294967295
364.78131 91.276237 -39.366051 4294967295
364.79004 93.105957 -40.116337 4294967295
364.80908 100.16946 -37.480515 4294967295
365.05722 88.451782 -40.295616 4294967295
365.08798 98.246323 -38.809574 4294967295
365.16388 91.686867 -40.481789 4294967295
365.17325 92.602951 -40.793293 4294967295
365.18164 90.780144 -39.837456 4294967295
365.19669 100.11844 -38.331226 4294967295
365.20358 99.209702 -37.818562 4294967295
365.21979 92.164276 -40.009502 4294967295
365.26779 101.51858 -38.100422 4294967295
365.27505 93.098312 -39.759468 4294967295
365.29697 94.475685 -40.131092 4294967295
365.29742 101.07673 -37.523533 4294967295
365.31241 93.56926 -39.516003 4294967295
365.3262 102.45755 -37.812714 4294967295
365.34518 102.92226 -37.793743 4294967295
365.34521 95.407242 -39.966709 4294967295
365.35275 102.0146 -37.273014 4294967295
365.36533 94.95932 -39.507809 4294967295
365.39655 103.85832 -37.591946 4294967295
365.40488 95.887802 -39.450542 4294967295
365.43668 88.407341 -41.227493 4294967295
365.46759 104.34918 -36.935238 4294967295
365.46838 96.826553 -39.099232 4294967295
365.48593 97.290024 -39.09787 4294967295
365.49185 89.339561 -40.978806 4294967295
365.52209 88.893188 -40.397171 4294967295
365.54529 98.683426 -39.011826 4294967295
365.54718 90.27224 -40.728401 4294967295
365.54971 104.84612 -36.143288 4294967295
365.707 92.157143 -39.628311 4294967295
365.74994 100.59945 -37.363651 4294967295
365.9567 87.495987 -40.019104 4294967295
365.99686 96.837906 -38.220299 4294967295
366.03928 98.224815 -38.34127 4294967295
366.20044 101.94468 -38.07795 4294967295
366.2048 93.980095 -39.96674 4294967295
366.22333 101.04382 -37.375446 4294967295
366.25354 94.911774 -39.798256 4294967295
366.3222 96.307945 -39.59903 4294967295
366.34042 95.859337 -39.167366 4294967295
366.34439 88.368958 -41.265202 4294967295
366.34921 102.92712 -36.694626 4294967295
366.37378 88.835548 -41.120014 4294967295
366.37955 87.923744 -40.629326 4294967295
366.40045 97.252708 -39.073395 4294967295
366.46973 98.194412 -38.656353 4294967295
366.48322 89.329727 -40.006714 4294967295
366.4917 90.246468 -40.325569 4294967295
366.51202 98.668861 -38.355347 4294967295
366.5394 99.136932 -38.234966 4294967295
366.55688 92.096382 -40.379234 4294967295
366.57394 100.06422 -38.239052 4294967295
366.6282 93.036011 -39.938251 4294967295
366.65741 101.01403 -37.651802 4294967295
366.72162 94.44136 -39.441097 4294967295
366.73956 102.87579 -37.501541 4294967295
366.79343 87.434486 -40.921982 4294967295
366.82254 104.73837 -37.34272 4294967295
366.84506 95.860107 -38.58194 4294967295
366.90723 97.254967 -38.463161 4294967295
366.91138 90.215103 -40.75806 4294967295
366.99823 91.615829 -40.341591 4294967295
367.06671 91.183868 -39.308216 4294967295
367.12659 93.033218 -39.426605 4294967295
367.17929 103.30382 -37.917011 4294967295
367.23792 95.359039 -39.135731 4294967295
367.24725 104.24769 -37.519039 4294967295
367.26074 96.280769 -39.279911 4294967295
367.30219 103.81885 -36.648743 4294967295
367.3125 88.807564 -40.784412 4294967295
367.33292 87.900223 -40.12233 4294967295
367.37918 97.242393 -38.276531 4294967295
367.3877 90.660233 -40.717445 4294967295
367.39954 90.207748 -40.366825 4294967295
367.40857 89.753998 -40.050159 4294967295
367.41092 91.125015 -40.647762 4294967295
367.42227 98.173279 -38.177464 4294967295
367.44791 99.096634 -38.288422 4294967295
367.45322 92.05323 -40.557869 4294967295
367.49933 100.03136 -38.089928 4294967295
367.52209 91.62175 -39.524323 4294967295
367.54672 99.596283 -37.312439 4294967295
367.54688 93.000893 -39.853615 4294967295
367.58694 100.98285 -37.458607 4294967295
367.58707 101.43887 -37.666016 4294967295
367.59161 94.38707 -39.943619 4294967295
367.65302 94.867416 -39.417786 4294967295
367.65305 102.83705 -37.502605 4294967295
367.69608 87.39463 -41.018837 4294967295
367.78067 97.656441 -39.140293 4294967295
367.80414 96.753876 -38.443993 4294967295
368.09286 93.472626 -38.986446 4294967295
368.13641 87.371246 -41.196857 4294967295
368.14209 96.230263 -39.644566 4294967295
368.18237 103.76376 -37.052452 4294967295
368.22153 104.69408 -37.00211 4294967295
368.24292 97.183861 -38.859577 4294967295
368.24432 87.862923 -40.121296 4294967295
368.24973 98.098747 -39.193348 4294967295
368.25128 104.25288 -36.439213 4294967295
368.30237 89.253548 -40.052219 4294967295
368.30463 96.75296 -37.918232 4294967295
368.32339 98.586136 -38.525032 4294967295
368.34518 88.810616 -39.33688 4294967295
368.35995 90.64418 -39.988602 4294967295
368.36032 99.058121 -38.292912 4294967295
368.41125 91.575996 -39.792805 4294967295
368.41129 92.94558 -40.412281 4294967295
368.43991 91.129295 -39.246227 4294967295
368.47388 92.055428 -39.256752 4294967295
368.49402 100.48537 -37.325779 4294967295
368.50357 100.9458 -37.419754 4294967295
368.53873 102.78537 -37.831028 4294967295
368.55203 93.45488 -38.949482 4294967295
368.55869 103.25038 -37.80077 4294967295
368.56781 94.374191 -39.175896 4294967295
368.58029 95.74807 -39.647072 4294967295
368.61877 95.307076 -38.98481 4294967295
368.62674 96.22287 -39.303471 4294967295
368.62781 102.3711 -36.566441 4294967295
368.85516 99.967766 -38.249722 4294967295
368.89014 92.478882 -39.93084 4294967295
368.93726 93.865768 -39.991219 4294967295
368.93823 100.91666 -37.679832 4294967295
368.97269 101.38823 -37.478333 4294967295
368.99881 102.31199 -37.582355 4294967295
369.06989 96.654755 -39.659119 4294967295
369.07333 88.256226 -41.29327 4294967295
369.17633 97.154419 -38.609688 4294967295
369.1792 88.747658 -40.252342 4294967295
369.20541 97.622742 -38.47192 4294967295
369.21945 89.675102 -40.187733 4294967295
369.22937 90.592133 -40.480625 4294967295
369.23911 99.005257 -38.691517 4294967295
369.23917 98.093086 -38.280205 4294967295
369.27283 89.235855 -39.354897 4294967295
369.29456 91.071602 -39.918995 4294967295
369.30597 99.490135 -38.109203 4294967295
369.32855 90.169273 -39.109222 4294967295
369.33331 92.911934 -40.2817 4294967295
369.35028 91.548141 -39.468468 4294967295
369.3587 100.42535 -37.898766 4294967295
369.36758 99.973137 -37.589127 4294967295
369.39066 92.019516 -39.19862 4294967295
369.4447 101.8319 -37.502567 4294967295
369.46014 102.29485 -37.526497 4294967295
369.4642 94.786781 -39.562557 4294967295
369.48648 103.21861 -37.62693 4294967295
369.51614 96.175873 -39.565659 4294967295
369.54626 104.1582 -37.333908 4294967295
369.58041 95.288506 -38.40197 4294967295
369.6355 97.592819 -38.778442 4294967295
369.77249 99.931435 -38.193863 4294967295
369.82596 101.77847 -38.384075 4294967295
369.96918 95.699608 -39.393314 4294967295
369.99133 94.338554 -38.523617 4294967295
370.05759 103.25279 -36.284618 4294967295
370.05872 96.191444 -38.550522 4294967295
370.08841 98.028542 -39.01828 4294967295
370.18674 98.98204 -38.277294 4294967295
370.20947 90.578392 -39.671558 4294967295
370.21277 90.122421 -39.430344 4294967295
370.22562 99.910889 -38.230045 4294967295
370.30042 92.437996 -39.424126 4294967295
370.31186 102.22828 -38.241192 4294967295
370.3353 101.32723 -37.560986 4294967295
370.34094 92.909531 -39.154625 4294967295
370.36435 94.288147 -39.490833 4294967295
370.39417 103.63304 -37.891586 4294967295
370.41672 102.7321 -37.221676 4294967295
370.4343 104.10748 -37.627064 4294967295
370.45065 103.20374 -37.029209 4294967295
370.46338 95.239136 -38.743488 4294967295
370.47318 87.297127 -40.486217 4294967295
370.48453 96.1604 -38.902725 4294967295
370.49673 104.59281 -37.102737 4294967295
370.50586 88.67878 -40.712296 4294967295
370.51208 97.084038 -38.987175 4294967295
370.51398 88.22435 -40.416138 4294967295
370.52289 105.06102 -37.001171 4294967295
370.5506 96.643188 -38.336697 4294967295
370.55072 89.15033 -40.393803 4294967295
370.60452 98.490601 -38.520233 4294967295
370.60635 90.996239 -40.555641 4294967295
370.63351 97.589882 -37.777866 4294967295
370.70505 92.400803 -40.016495 4294967295
370.71387 98.992874 -37.452309 4294967295
370.74435 92.87159 -39.762493 4294967295
370.77267 100.38725 -37.376778 4294967295
370.82181 94.72628 -39.672184 4294967295
370.99503 95.706177 -38.068546 4294967295
371.01685 97.997192 -38.825085 4294967295
371.04056 87.77079 -39.390495 4294967295
371.1532 91.465927 -39.698189 4294967295
371.19608 98.98455 -37.154102 4294967295
371.19675 90.566658 -38.792908 4294967295
371.20651 91.027313 -38.881325 4294967295
371.21402 100.81758 -37.753876 4294967295
371.23395 93.321709 -39.570789 4294967295
371.26114 92.4179 -38.854164 4294967295
371.28952 101.30701 -37.082287 4294967295
371.31503 94.265038 -39.036221 4294967295
371.31781 102.23197 -37.158676 4294967295
371.33789 87.702805 -41.213604 4294967295
371.34244 103.15511 -37.277481 4294967295
371.354 95.192993 -38.988583 4294967295
371.38217 87.259438 -40.502884 4294967295
371.38953 102.72064 -36.531734 4294967295
371.40833 95.670532 -38.562916 4294967295
371.4166 104.10132 -36.824047 4294967295
371.46573 104.58041 -36.457676 4294967295
371.47382 97.978546 -38.812195 4294967295
371.48749 105.04668 -36.408192 4294967295
371.50089 96.163391 -37.696442 4294967295
371.51028 97.080589 -37.990509 4294967295
371.53799 88.22287 -39.109474 4294967295
371.56555 97.55954 -37.554169 4294967295
371.56848 89.605141 -39.360016 4294967295
371.5882 98.481995 -37.69519 4294967295
371.59039 98.939323 -37.870811 4294967295
371.68784 100.34975 -37.350994 4294967295
371.68796 91.017281 -38.586525 4294967295
371.78983 101.30701 -36.578537 4294967295
371.80725 94.259705 -38.617012 4294967295
371.86847 96.566116 -38.915169 4294967295
371.88855 88.171143 -40.314808 4294967295
371.93033 89.098686 -40.235291 4294967295
371.95602 88.64975 -39.741116 4294967295
371.97168 90.483093 -40.359818 4294967295
372.0416 90.963623 -39.758335 4294967295
372.07724 91.889671 -39.748413 4294967295
372.211 102.6404 -37.585602 4294967295
372.22873 93.314278 -38.612564 4294967295
372.24551 95.14743 -39.217861 4294967295
372.25836 103.1178 -37.242649 4294967295
372.26639 94.241943 -38.580433 4294967295
372.27115 94.7005 -38.725552 4294967295
372.28241 96.074394 -39.194168 4294967295
372.33099 87.233917 -40.063591 4294967295
372.33499 88.149719 -40.415497 4294967295
372.35834 104.07578 -36.4977 4294967295
372.36142 103.62108 -36.262157 4294967295
372.36191 104.53342 -36.656334 4294967295
372.36624 97.020058 -38.633625 4294967295
372.38272 89.079071 -40.267635 4294967295
372.39069 105.00286 -36.526958 4294967295
372.39456 95.661102 -37.712395 4294967295
372.39508 97.487938 -38.503754 4294967295
372.39893 98.401932 -38.857761 4294967295
372.43649 88.638992 -39.455631 4294967295
372.47879 98.891052 -38.144531 4294967295
372.48563 91.397804 -40.086376 4294967295
372.52283 97.996086 -37.243504 4294967295
372.55939 90.965988 -39.046761 4294967295
372.56683 101.20892 -38.134708 4294967295
372.5748 100.30025 -37.645752 4294967295
372.58243 92.801865 -39.578159 4294967295
372.59961 99.397896 -36.963791 4294967295
372.62677 93.274506 -39.271263 4294967295
372.64642 100.78736 -37.027161 4294967295
372.69934 101.72316 -36.821743 4294967295
372.82166 104.51545 -36.621029 4294967295
372.82895 104.97476 -36.736389 4294967295
372.86545 96.104645 -37.74387 4294967295
372.90894 90.454552 -40.053722 4294967295
372.91754 89.543198 -39.560757 4294967295
372.95206 90.011726 -39.366364 4294967295
373.12695 91.90007 -38.171745 4294967295
373.20175 102.18047 -36.498299 4294967295
373.21875 103.1006 -36.701977 4294967295
373.24622 102.65666 -36.191658 4294967295
373.24695 95.60022 -38.392399 4294967295
373.29956 89.043747 -40.194382 4294967295
373.30151 96.077881 -37.971485 4294967295
373.30826 97.450317 -38.48753 4294967295
373.3244 88.13694 -39.51915 4294967295
373.32574 103.60548 -35.685055 4294967295
373.32874 89.967186 -40.257889 4294967295
373.33627 104.0667 -35.764194 4294967295
373.38593 89.528641 -39.414188 4294967295
373.41281 97.9487 -37.500336 4294967295
373.5032 99.355637 -37.069248 4294967295
373.51736 91.85865 -38.912365 4294967295
373.54526 100.74285 -37.18597 4294967295
373.57233 92.334877 -38.488331 4294967295
373.57797 101.21327 -37.013168 4294967295
373.58743 100.30429 -36.510891 4294967295
373.6062 102.59425 -37.285454 4294967295
373.63535 102.15098 -36.75898 4294967295
373.64572 101.69914 -36.444145 4294967295
373.64749 94.190079 -38.42667 4294967295
373.72635 88.101807 -40.121292 4294967295
373.75095 97.426056 -38.635189 4294967295
373.75494 95.143936 -37.606899 4294967295
373.78461 104.95574 -36.255817 4294967295
373.80405 98.359932 -38.429611 4294967295
373.94385 91.829826 -39.240177 4294967295
373.94641 101.15617 -38.003708 4294967295
373.96371 90.464638 -38.428577 4294967295
373.96832 90.923668 -38.572601 4294967295
374.00336 93.678154 -39.354053 4294967295
374.1102 95.087341 -38.740555 4294967295
374.12329 93.26403 -37.809372 4294967295
374.16473 104.44496 -36.919933 4294967295
374.25812 96.970589 -37.861691 4294967295
374.2583 89.935989 -40.040482 4294967295
374.26343 89.48053 -39.788254 4294967295
374.26962 104.94949 -35.936298 4294967295
374.28452 88.572403 -39.16111 4294967295
374.31189 97.905182 -37.649174 4294967295
374.33725 90.875999 -39.5457 4294967295
374.34427 98.374802 -37.481689 4294967295
374.37665 90.431793 -38.908993 4294967295
374.37769 91.803619 -39.482788 4294967295
374.38522 99.304657 -37.413078 4294967295
374.41815 100.68753 -37.631165 4294967295
374.43127 100.23673 -37.288261 4294967295
374.44611 101.15564 -37.513046 4294967295
374.45361 92.743752 -39.022255 4294967295
374.46622 93.661896 -39.27124 4294967295
374.48978 92.29921 -38.421642 4294967295
374.50354 102.09283 -37.26033 4294967295
374.51904 94.594429 -39.069626 4294967295
374.56119 103.03051 -37.004509 4294967295
374.60803 94.169952 -37.878216 4294967295
374.61453 88.057755 -40.367783 4294967295
374.61893 103.96858 -36.74894 4294967295
374.63266 95.09314 -37.992973 4294967295
374.63589 96.008057 -38.346554 4294967295
374.76202 89.475632 -39.303101 4294967295
374.88382 90.887421 -38.526775 4294967295
374.95673 100.24644 -36.514557 4294967295
375.02753 102.103 -36.503128 4294967295
375.03424 101.64937 -36.233414 4294967295
375.09601 87.58976 -39.879288 4294967295
375.10809 104.42013 -36.577808 4294967295
375.11035 97.365814 -38.720901 4294967295
375.12885 95.54612 -37.738258 4294967295
375.13708 95.092087 -37.45179 4294967295
375.254 99.704865 -38.091335 4294967295
375.28415 99.260849 -37.561924 4294967295
375.29324 90.853378 -39.040993 4294967295
375.34326 100.19816 -37.291817 4294967295
375.35941 91.332657 -38.499138 4294967295
375.40259 93.176239 -38.793564 4294967295
375.43619 92.730812 -38.226532 4294967295
375.43875 101.60778 -36.811775 4294967295
375.44363 93.647713 -38.531387 4294967295
375.45468 101.15806 -36.440311 4294967295
375.46677 102.53255 -36.888691 4294967295
375.48639 94.120026 -38.249851 4294967295
375.50943 102.09471 -36.22007 4294967295
375.56842 88.03376 -39.880379 4294967295
375.57007 103.03431 -35.934082 4294967295
375.57037 95.064713 -37.704399 4294967295
375.58383 96.440514 -38.135677 4294967295
375.61151 95.537048 -37.441601 4294967295
375.61319 104.879 -36.231106 4294967295
375.63785 88.969856 -39.496712 4294967295
375.64938 96.922386 -37.601524 4294967295
375.66183 97.840698 -37.850536 4294967295
375.6806 98.304718 -37.8354 4294967295
375.70023 89.904297 -39.191204 4294967295
375.72961 98.780869 -37.485252 4294967295
375.91479 93.177132 -38.166378 4294967295
376.04675 88.02211 -39.623749 4294967295
376.22217 100.14599 -37.659081 4294967295
376.22379 90.364815 -38.631031 4294967295
376.22421 97.863258 -36.674133 4294967295
376.25214 91.28891 -38.702869 4294967295
376.2709 98.795776 -36.543961 4294967295
376.27118 90.837715 -38.300945 4294967295
376.302 100.6355 -36.970669 4294967295
376.30258 93.134636 -38.914299 4294967295
376.31683 92.225235 -38.373653 4294967295
376.35089 102.02541 -37.008503 4294967295
376.40781 101.13644 -35.996246 4294967295
376.41739 94.089119 -38.034138 4294967295
376.42999 102.97229 -36.521351 4294967295
376.43927 87.984695 -40.311459 4294967295
376.44733 95.014053 -38.087986 4294967295
376.48505 96.855225 -38.439754 4294967295
376.50696 95.949944 -37.815849 4294967295
376.55283 104.3959 -35.744843 4294967295
376.63373 89.416489 -38.74873 4294967295
376.64343 88.961761 -38.451042 4294967295
376.66705 98.295876 -37.013596 4294967295
376.68994 99.218559 -37.145374 4294967295
376.72864 92.648682 -39.045292 4294967295
376.73157 91.277992 -38.439602 4294967295
376.77512 101.07982 -36.976231 4294967295
376.89865 102.04522 -36.002384 4294967295
376.96896 89.360413 -40.063137 4294967295
376.98163 95.023544 -37.226685 4294967295
376.99545 97.313675 -38.030289 4294967295
377.02536 88.462914 -39.065506 4294967295
377.16284 91.251228 -38.704857 4294967295
377.24054 100.60786 -36.683239 4294967295
377.24323 101.06554 -36.845425 4294967295
377.28058 92.662666 -37.98978 4294967295
377.28912 94.494194 -38.657173 4294967295
377.30789 101.54922 -36.328697 4294967295
377.34171 102.02019 -36.149754 4294967295
377.35446 94.060287 -37.75362 4294967295
377.36237 94.977432 -38.0476 4294967295
377.38013 103.4063 -36.301888 4294967295
377.39478 88.418419 -40.000599 4294967295
377.42963 87.513702 -39.242207 4294967295
377.43365 95.460388 -37.459866 4294967295
377.45819 96.383591 -37.572914 4294967295
377.47675 104.81824 -35.818649 4294967295
377.49597 89.821365 -39.467682 4294967295
377.49954 104.372 -35.37838 4294967295
377.51871 97.320381 -37.293182 4294967295
377.53915 98.241982 -37.450294 4294967295
377.56964 91.673683 -39.422874 4294967295
377.62329 90.776619 -38.459949 4294967295
377.62744 99.190338 -36.868134 4294967295
377.69763 100.13223 -36.483547 4294967295
377.71298 93.55027 -38.621513 4294967295
377.78397 102.90782 -36.683693 4294967295
377.7991 103.37067 -36.708511 4294967295
377.88586 96.354103 -37.878727 4294967295
377.94513 88.428345 -38.96479 4294967295
377.95401 96.836517 -37.327454 4294967295
377.96304 90.720787 -39.714149 4294967295
378.0777 92.129448 -39.037609 4294967295
378.10944 93.054161 -39.071117 4294967295
378.13861 99.193001 -36.269943 4294967295
378.23486 94.011551 -38.090141 4294967295
378.24036 102.8886 -36.680584 4294967295
378.24384 102.43367 -36.453724 4294967295
378.2713 94.938637 -38.072632 4294967295
378.27228 101.53224 -35.766937 4294967295
378.32919 96.330505 -38.011688 4294967295
378.35156 87.937538 -39.303593 4294967295
378.35638 103.85176 -35.801052 4294967295
378.37073 95.888779 -37.373768 4294967295
378.37564 103.40348 -35.403545 4294967295
378.38586 89.320335 -39.497452 4294967295
378.41382 104.79012 -35.557301 4294967295
378.4357 98.197891 -37.613533 4294967295
378.46021 97.750465 -37.160286 4294967295
378.50311 99.137619 -37.261917 4294967295
378.53604 90.282021 -38.251575 4294967295
378.56247 91.205658 -38.342175 4294967295
378.57159 92.580612 -38.807713 4294967295
378.57556 92.124725 -38.576996 4294967295
378.57809 98.710106 -36.262726 4294967295
378.63715 100.1047 -36.190479 4294967295
378.64954 101.48008 -36.622372 4294967295
378.6528 93.065224 -38.119495 4294967295
378.7222 93.546288 -37.558987 4294967295
378.74487 87.443352 -39.780827 4294967295
378.7713 94.935478 -37.593353 4294967295
378.78198 103.36244 -35.945835 4294967295
378.8443 97.247314 -37.745502 4294967295
378.84464 104.75928 -35.834503 4294967295
378.9447 90.706055 -38.941624 4294967295
379.04141 100.52132 -36.937737 4294967295
379.04474 93.024849 -38.802338 4294967295
379.22702 88.347603 -39.861019 4294967295
379.25006 95.381927 -37.532936 4294967295
379.25659 103.35091 -35.749454 4294967295
379.2861 96.309227 -37.520157 4294967295
379.30243 88.827484 -39.239635 4294967295
379.31488 97.233826 -37.585304 4294967295
379.32217 89.748352 -39.400497 4294967295
379.3298 90.665138 -39.69194 4294967295
379.33673 87.922119 -38.498367 4294967295
379.34027 104.75719 -35.412838 4294967295
379.38199 98.629784 -37.426666 4294967295
379.39862 99.54953 -37.622028 4294967295
379.41144 90.233437 -38.631161 4294967295
379.41705 99.100166 -37.237385 4294967295
379.44534 91.159111 -38.640961 4294967295
379.45572 98.201225 -36.448727 4294967295
379.45837 100.48639 -37.354916 4294967295
379.48663 93.001518 -38.944435 4294967295
379.48727 91.630028 -38.378929 4294967295
379.49405 100.95731 -37.159676 4294967295
379.50031 92.548958 -38.612274 4294967295
379.50098 92.091911 -38.418396 4294967295
379.56937 93.486595 -38.246094 4294967295
379.57269 93.94487 -38.396904 4294967295
379.59958 101.45712 -36.216354 4294967295
379.60507 101.91609 -36.34444 4294967295
379.61856 94.874931 -38.278481 4294967295
379.6965 102.41103 -35.551937 4294967295
379.71997 104.24763 -36.048275 4294967295
379.73904 103.34268 -35.470379 4294967295
379.85181 89.752487 -38.604073 4294967295
379.97937 100.03654 -36.472416 4294967295
379.99722 99.586586 -36.095573 4294967295
380.06708 102.81232 -36.65337 4294967295
380.13861 87.395828 -39.46904 4294967295
380.1998 96.729019 -37.680359 4294967295
380.21188 97.190384 -37.736832 4294967295
380.27023 104.26902 -35.0457 4294967295
380.276 90.181747 -39.118088 4294967295
380.29944 89.731445 -38.684349 4294967295
380.30161 98.137817 -37.153286 4294967295
380.33514 91.11499 -38.859505 4294967295
380.37656 99.080421 -36.727261 4294967295
380.37909 92.043655 -38.763168 4294967295
380.3923 90.67543 -38.06826 4294967295
380.40137 92.965271 -38.895981 4294967295
380.43158 100.92928 -36.884274 4294967295
380.44061 99.562393 -36.231361 4294967295
380.4462 100.47846 -36.543041 4294967295
380.45227 92.524918 -38.170784 4294967295
380.46182 91.612915 -37.699318 4294967295
380.51288 93.459846 -37.897923 4294967295
380.53296 101.42717 -35.99165 4294967295
380.56659 95.307144 -38.066734 4294967295
380.56747 102.35498 -35.995857 4294967295
380.60297 94.862762 -37.496456 4294967295
380.60547 87.838272 -39.525284 4294967295
380.65494 103.76197 -35.623093 4294967295
380.65903 96.711304 -37.641304 4294967295
380.69855 97.182808 -37.407063 4294967295
380.72437 96.277893 -36.764034 4294967295
380.76849 89.259186 -38.352749 4294967295
380.8688 100.90257 -37.080929 4294967295
380.92346 93.883011 -38.555317 4294967295
380.96713 102.76872 -36.778145 4294967295
381.03964 87.356155 -39.559452 4294967295
381.14798 95.78994 -36.919861 4294967295
381.14999 97.619102 -37.635147 4294967295
381.16931 88.308762 -38.558815 4294967295
381.24127 97.195786 -36.487213 4294967295
381.25082 91.079147 -38.800877 4294967295
381.28644 99.498253 -36.931118 4294967295
381.29675 98.588242 -36.454433 4294967295
381.29739 99.95929 -36.999393 4294967295
381.32294 91.559402 -38.224339 4294967295
381.32968 92.933578 -38.703415 4294967295
381.34653 92.024445 -38.159405 4294967295
381.3696 101.35804 -36.789223 4294967295
381.38824 93.867355 -38.453987 4294967295
381.3974 102.28239 -36.864071 4294967295
381.39859 93.413658 -38.161503 4294967295
381.45428 103.21886 -36.632286 4294967295
381.48471 102.77507 -36.127789 4294967295
381.48911 94.358871 -37.576015 4294967295
381.53223 103.70824 -35.994823 4294967295
381.54953 96.208832 -37.673092 4294967295
381.55261 95.295547 -37.274204 4294967295
381.56604 88.730827 -39.35474 4294967295
381.5954 97.139404 -37.557617 4294967295
381.63782 104.66668 -35.250347 4294967295
381.66687 89.218178 -38.478962 4294967295
381.68961 90.597916 -38.788094 4294967295
381.70847 98.095337 -36.73539 4294967295
381.73703 98.563179 -36.618565 4294967295
381.80331 99.502693 -36.288326 4294967295
381.80844 100.41859 -36.601162 4294967295
381.92822 95.248688 -38.111542 4294967295
381.96262 87.78035 -39.599354 4294967295
382.01373 103.24285 -35.544907 4294967295
382.05353 89.17926 -39.194218 4294967295
382.1463 90.122147 -38.58794 4294967295
382.22949 99.015022 -36.417332 4294967295
382.26901 92.448082 -38.215694 4294967295
382.28052 91.536636 -37.731365 4294967295
382.28754 99.951508 -36.17485 4294967295
382.32098 93.837067 -38.21867 4294967295
382.32785 101.79494 -36.483356 4294967295
382.3418 94.301262 -38.182907 4294967295
382.39398 102.27856 -35.974091 4294967295
382.43304 95.246918 -37.594265 4294967295
382.43982 95.706444 -37.705627 4294967295
382.45316 104.12971 -36.08519 4294967295
382.4686 96.63073 -37.768326 4294967295
382.48697 88.696808 -39.234718 4294967295
382.49298 103.23307 -35.304523 4294967295
382.50598 97.101166 -37.560356 4294967295
382.52295 90.079727 -39.404182 4294967295
382.53262 89.625244 -39.121967 4294967295
382.55444 98.032784 -37.418682 4294967295
382.59268 104.64589 -34.809772 4294967295
382.67126 92.412209 -38.765968 4294967295
382.68918 92.87516 -38.76062 4294967295
382.69437 98.999252 -36.323608 4294967295
382.74887 94.266083 -38.683002 4294967295
382.76645 101.76871 -36.662781 4294967295
382.88565 94.769699 -37.44175 4294967295
382.91299 97.064621 -38.062908 4294967295
382.92038 102.28786 -35.241306 4294967295
382.97723 96.630737 -37.214642 4294967295
383.0452 90.538818 -38.883324 4294967295
383.10529 90.099358 -38.079952 4294967295
383.11288 98.966011 -36.711006 4294967295
383.17117 100.35912 -36.648922 4294967295
383.26898 100.85432 -35.814785 4294967295
383.27512 94.271133 -37.943962 4294967295
383.3103 87.719971 -39.764751 4294967295
383.32315 102.24689 -35.79591 4294967295
383.34848 95.210564 -37.54549 4294967295
383.3494 104.08433 -36.247726 4294967295
383.36035 94.757278 -37.241905 4294967295
383.3696 103.63625 -35.857235 4294967295
383.36978 96.132294 -37.685299 4294967295
383.40189 88.203362 -38.9981 4294967295
383.40262 87.287811 -38.630924 4294967295
383.41223 103.19714 -35.234188 4294967295
383.41296 97.061691 -37.598991 4294967295
383.4408 89.129875 -38.955742 4294967295
383.45065 96.61808 -37.028694 4294967295
383.45111 104.58388 -35.374489 4294967295
383.48654 88.685349 -38.303082 4294967295
383.50861 98.010498 -36.970196 4294967295
383.51273 89.608658 -38.392361 4294967295
383.52914 98.932068 -37.11808 4294967295
383.53937 90.074318 -38.297123 4294967295
383.5423 90.990402 -38.626167 4294967295
383.62787 91.931992 -38.102642 4294967295
383.66754 92.859581 -38.052353 4294967295
383.71848 101.28951 -36.062626 4294967295
383.76797 95.179314 -37.914742 4294967295
383.83737 88.636856 -39.375248 4294967295
383.84076 97.032768 -37.882568 4294967295
383.95322 90.04332 -38.720066 4294967295
384.01974 98.468964 -36.57674 4294967295
384.02481 91.89492 -38.700554 4294967295
384.0481 90.98719 -38.102142 4294967295
384.15289 102.17523 -36.642281 4294967295
384.19733 92.864723 -37.284271 4294967295
384.30286 103.60632 -35.637703 4294967295
384.30719 104.06482 -35.772678 4294967295
384.314 95.648735 -37.160202 4294967295
384.33023 88.629089 -38.982864 4294967295
384.33444 90.002747 -39.474506 4294967295
384.3555 89.093994 -38.90202 4294967295
384.36945 104.54761 -35.311867 4294967295
384.37585 97.956314 -37.419346 4294967295
384.37955 97.500656 -37.203026 4294967295
384.45761 99.357193 -37.116833 4294967295
384.45947 105.04253 -34.565826 4294967295
384.46735 91.414955 -38.647663 4294967295
384.48145 99.82299 -37.051384 4294967295
384.48657 90.963348 -38.271893 4294967295
384.49521 91.880981 -38.540367 4294967295
384.55524 100.30804 -36.473087 4294967295
384.56076 93.730858 -38.582073 4294967295
384.60547 94.202698 -38.302532 4294967295
384.60785 102.15568 -36.648777 4294967295
384.61423 101.24471 -36.226326 4294967295
384.6918 95.145973 -37.7756 4294967295
384.73547 96.075249 -37.685078 4294967295
384.76868 102.6771 -35.179123 4294967295
384.78796 96.550697 -37.326305 4294967295
384.79459 103.60165 -35.271496 4294967295
384.8511 104.99568 -35.229145 4294967295
384.89645 89.558014 -38.198376 4294967295
384.96442 99.357285 -36.591354 4294967295
384.97604 90.497223 -37.741478 4294967295
384.98126 100.73425 -36.953598 4294967295
385.11819 102.61493 -36.267586 4294967295
385.15118 94.671173 -37.554409 4294967295
385.15536 101.71596 -35.531799 4294967295
385.20636 96.9757 -37.879642 4294967295
333.18304 122.17421 -34.757153 4294967295
333.31863 107.02756 -38.848618 4294967295
333.35135 117.37785 -36.892056 4294967295
333.36679 107.968 -38.609108 4294967295
333.39755 109.3454 -39.002823 4294967295
333.43304 117.90453 -35.721706 4294967295
333.45837 110.29671 -38.5336 4294967295
333.50461 119.77075 -35.694881 4294967295
333.5448 120.25924 -35.28265 4294967295
333.56598 121.17817 -35.534615 4294967295
333.58078 112.20224 -37.580315 4294967295
333.66156 122.17186 -34.434326 4294967295
333.66504 114.07671 -37.321785 4294967295
333.71811 106.96141 -39.928864 4294967295
333.73395 115.48828 -37.024086 4294967295
333.8797 118.77016 -36.604282 4294967295
333.97141 111.67336 -38.508881 4294967295
333.98477 112.58487 -38.898903 4294967295
334.00018 120.68311 -35.692284 4294967295
334.02652 112.17055 -37.831017 4294967295
334.04135 121.17271 -35.264713 4294967295
334.05374 122.08263 -35.675106 4294967295
334.06158 113.55131 -38.145042 4294967295
334.09012 114.47602 -38.260956 4294967295
334.11185 122.58986 -34.941795 4294967295
334.11243 114.04595 -37.543568 4294967295
334.1265 105.0985 -39.576702 4294967295
334.12939 105.55215 -39.838837 4294967295
334.15134 106.47124 -40.072166 4294967295
334.16849 114.99571 -37.164165 4294967295
334.18869 116.3629 -37.745861 4294967295
334.19675 106.05463 -38.942204 4294967295
334.20779 107.41693 -39.685825 4294967295
334.23062 106.98353 -38.962093 4294967295
334.27356 108.3706 -39.132637 4294967295
334.29703 117.81125 -36.742123 4294967295
334.33063 118.74149 -36.76683 4294967295
334.35785 118.31787 -35.962803 4294967295
334.44556 119.74989 -35.331543 4294967295
334.47949 120.68139 -35.35218 4294967295
334.57834 105.52532 -40.013538 4294967295
334.6875 116.37862 -37.043728 4294967295
334.75308 117.33806 -36.497829 4294967295
334.836 110.23754 -38.534225 4294967295
334.96353 112.14617 -37.509258 4294967295
334.9809 113.51211 -38.134018 4294967295
334.99194 121.16112 -34.737316 4294967295
335.02466 122.54082 -35.092258 4294967295
335.05035 114.02244 -37.210896 4294967295
335.05508 122.12193 -34.237282 4294967295
335.06592 105.9789 -39.809181 4294967295
335.08408 115.4024 -37.543362 4294967295
335.11502 106.46733 -39.248905 4294967295
335.14255 107.39108 -39.380039 4294967295
335.17133 108.3156 -39.48893 4294967295
335.17502 107.86742 -39.113804 4294967295
335.21451 116.4193 -35.850372 4294967295
335.24478 117.79692 -36.245865 4294967295
335.25211 109.28138 -38.677612 4294967295
335.26758 118.71734 -36.461788 4294967295
335.32367 110.69184 -38.339195 4294967295
335.32626 119.22197 -35.732334 4294967295
335.35901 112.07275 -38.64164 4294967295
335.36386 111.1756 -37.93811 4294967295
335.36722 120.15981 -35.628513 4294967295
335.37515 121.06586 -36.108307 4294967295
335.41174 111.66605 -37.400585 4294967295
335.41193 120.65213 -35.146748 4294967295
335.47073 113.06788 -37.286247 4294967295
335.51712 115.35906 -38.010658 4294967295
335.61307 116.79393 -37.244713 4294967295
335.72742 110.17652 -39.006298 4294967295
335.74387 109.73875 -38.410397 4294967295
335.85413 120.16493 -35.159222 4294967295
335.86337 112.09058 -37.846756 4294967295
336.01263 105.96169 -39.293625 4294967295
336.01797 114.92527 -36.976578 4294967295
336.0347 115.84032 -37.296463 4294967295
336.03986 114.49367 -36.286621 4294967295
336.05585 107.34871 -39.454185 4294967295
336.06787 116.31967 -37.023045 4294967295
336.0896 108.27699 -39.475071 4294967295
336.1351 117.27993 -36.458664 4294967295
336.13773 109.21655 -39.244286 4294967295
336.14539 118.18884 -36.891773 4294967295
336.16455 108.78637 -38.470623 4294967295
336.21005 110.62664 -38.896942 4294967295
336.21457 110.17937 -38.513382 4294967295
336.22656 118.7132 -35.778095 4294967295
336.23761 119.17328 -35.890705 4294967295
336.30896 112.51006 -38.390881 4294967295
336.31293 120.59288 -35.493317 4294967295
336.31714 111.1642 -37.333401 4294967295
336.34024 113.43696 -38.455647 4294967295
336.35831 121.53519 -35.312359 4294967295
336.44568 122.51861 -34.400532 4294967295
336.52982 108.24325 -39.794685 4294967295
336.55087 115.86999 -36.31176 4294967295
336.56894 116.33632 -36.30162 4294967295
336.62616 118.18799 -36.524731 4294967295
336.65213 117.31116 -35.464779 4294967295
336.6889 109.72047 -37.945148 4294967295
336.70959 118.71405 -35.380356 4294967295
336.75702 111.12857 -37.674301 4294967295
336.76321 119.66374 -35.05698 4294967295
336.87573 113.03025 -36.830376 4294967295
336.88199 122.47476 -34.821873 4294967295
336.93777 106.83167 -39.763996 4294967295
337.009 115.84847 -36.342094 4294967295
337.02881 108.25449 -39.096561 4294967295
337.03574 116.32233 -36.183121 4294967295
337.06674 117.25048 -36.25209 4294967295
337.09091 116.8215 -35.53204 4294967295
337.10208 109.66486 -38.737686 4294967295
337.10501 110.11823 -38.988384 4294967295
337.11169 118.19112 -36.081017 4294967295
337.11835 109.22614 -38.156429 4294967295
337.12448 117.75243 -35.557255 4294967295
337.18622 111.08477 -38.191525 4294967295
337.19568 119.16774 -35.236469 4294967295
337.22153 112.46584 -38.487225 4294967295
337.27719 121.49306 -35.341915 4294967295
337.2916 112.97425 -37.582317 4294967295
337.32431 113.4522 -37.321224 4294967295
337.32715 114.35583 -37.873074 4294967295
337.35284 122.91398 -34.943996 4294967295
337.3815 105.8979 -39.418175 4294967295
337.38724 122.49755 -34.050137 4294967295
337.39658 115.31573 -37.281788 4294967295
337.40167 114.86954 -36.894245 4294967295
337.41565 106.37466 -39.131489 4294967295
337.44482 107.29971 -39.230385 4294967295
337.47525 107.77402 -39.008724 4294967295
337.4765 116.73608 -36.810551 4294967295
337.53458 108.72205 -38.591484 4294967295
337.60248 118.19872 -35.551342 4294967295
337.61224 110.13641 -38.159775 4294967295
337.72778 121.01405 -35.206314 4294967295
337.81473 121.9957 -34.318844 4294967295
337.84961 106.78889 -39.850224 4294967295
337.9433 108.66444 -39.444458 4294967295
337.99545 109.15545 -38.854362 4294967295
337.99948 117.67225 -36.327869 4294967295
338.02777 110.08289 -38.899723 4294967295
338.05286 119.0703 -36.313404 4294967295
338.07379 110.57001 -38.41386 4294967295
338.07919 118.64389 -35.566456 4294967295
338.08136 111.47809 -38.878712 4294967295
338.13098 111.06628 -37.739197 4294967295
338.13425 119.59421 -35.225861 4294967295
338.15976 111.99171 -37.844292 4294967295
338.16931 120.07644 -34.927811 4294967295
338.21658 112.48861 -37.177544 4294967295
338.22617 113.3986 -37.607899 4294967295
338.2485 121.50025 -34.475574 4294967295
338.25836 121.95949 -34.606121 4294967295
338.28021 122.43005 -34.532318 4294967295
338.28506 105.39712 -39.352318 4294967295
338.31018 114.36994 -36.77697 4294967295
338.32864 115.28705 -37.057484 4294967295
338.33936 106.79214 -39.319794 4294967295
338.34808 116.2046 -37.320938 4294967295
338.37411 107.72114 -39.322025 4294967295
338.38535 108.18106 -39.427231 4294967295
338.39508 115.79427 -36.227921 4294967295
338.41119 116.70943 -36.54874 4294967295
338.46576 118.10825 -36.513378 4294967295
338.48099 109.15608 -38.402523 4294967295
338.60486 111.05803 -37.491814 4294967295
338.63394 121.41031 -35.742283 4294967295
338.67807 120.5509 -34.404728 4294967295
338.71014 122.38101 -35.047352 4294967295
338.74164 106.28035 -39.971226 4294967295
338.76584 105.39329 -38.97752 4294967295
338.87924 117.14718 -36.701389 4294967295
338.89532 108.19955 -38.563427 4294967295
338.93411 116.74384 -35.483448 4294967295
339.00748 119.06139 -35.722561 4294967295
339.00772 110.99438 -38.437061 4294967295
339.05368 120.0034 -35.535118 4294967295
339.09052 120.48701 -35.210445 4294967295
339.12866 113.34597 -37.874851 4294967295
339.14786 121.4399 -34.836563 4294967295
339.18301 114.74282 -37.843311 4294967295
339.1936 122.38246 -34.657543 4294967295
339.19568 121.93437 -34.327568 4294967295
339.20117 105.80974 -39.658886 4294967295
339.20996 105.36369 -39.21994 4294967295
339.21152 106.26906 -39.777592 4294967295
339.21271 113.86541 -36.760216 4294967295
339.24014 114.33907 -36.594662 4294967295
339.24567 122.88133 -34.078552 4294967295
339.28027 115.72545 -36.80164 4294967295
339.28149 115.27557 -36.488449 4294967295
339.29614 107.2337 -38.947411 4294967295
339.31482 108.60263 -39.510246 4294967295
339.33505 116.67337 -36.471008 4294967295
339.34064 107.71802 -38.497204 4294967295
339.36441 108.18749 -38.392109 4294967295
339.37552 109.09943 -38.789013 4294967295
339.38611 118.06901 -36.495239 4294967295
339.39975 117.17963 -35.681679 4294967295
339.42352 110.0388 -38.57164 4294967295
339.43643 109.59692 -38.06493 4294967295
339.44925 110.96128 -38.725082 4294967295
339.46494 118.58861 -35.470253 4294967295
339.51947 120.43869 -35.729771 4294967295
339.61191 121.42314 -34.772781 4294967295
339.65186 114.28009 -37.389805 4294967295
339.69113 113.8609 -36.444771 4294967295
339.72916 106.29144 -38.792549 4294967295
339.86734 117.16617 -35.553757 4294967295
339.99472 111.45995 -37.577778 4294967295
340.00647 111.92065 -37.672611 4294967295
340.02866 112.84076 -37.884541 4294967295
340.03586 121.36986 -35.374092 4294967295
340.04312 120.92624 -34.962963 4294967295
340.05402 113.31212 -37.753849 4294967295
340.05493 112.41013 -37.160927 4294967295
340.08313 114.23757 -37.850788 4294967295
340.1066 122.33494 -34.782192 4294967295
340.11362 113.81111 -37.058292 4294967295
340.11896 105.77155 -39.639805 4294967295
340.13831 114.73346 -37.228069 4294967295
340.19656 106.27802 -38.648567 4294967295
340.21027 115.69476 -36.617718 4294967295
340.22198 115.25331 -36.134731 4294967295
340.2236 107.65401 -39.06591 4294967295
340.23453 116.16595 -36.506184 4294967295
340.23572 107.21054 -38.57832 4294967295
340.27322 108.59393 -38.823162 4294967295
340.28482 117.11012 -36.253807 4294967295
340.32632 109.08484 -38.237759 4294967295
340.35562 118.07231 -35.663486 4294967295
340.37643 109.57403 -37.700462 4294967295
340.37973 118.54395 -35.555157 4294967295
340.39905 119.01148 -35.524868 4294967295
340.41397 110.50618 -37.658047 4294967295
340.47311 111.45502 -37.260357 4294967295
340.62045 122.36386 -33.899078 4294967295
340.65411 114.75951 -36.299026 4294967295
340.67276 116.12833 -36.854252 4294967295
340.92352 110.97661 -37.117783 4294967295
340.93295 119.5067 -34.599342 4294967295
341.01288 113.30464 -37.08699 4294967295
341.01584 121.38342 -34.390232 4294967295
341.0376 114.22707 -37.254429 4294967295
341.04254 122.30862 -34.526627 4294967295
341.07144 105.75725 -39.053234 4294967295
341.08502 106.21909 -39.116554 4294967295
341.09631 107.13147 -39.501404 4294967295
341.11194 114.73821 -36.326698 4294967295
341.13312 108.06159 -39.469986 4294967295
341.13733 115.66158 -36.483257 4294967295
341.18176 117.05149 -36.61483 4294967295
341.20349 117.52055 -36.5462 4294967295
341.22272 116.63457 -35.662258 4294967295
341.2359 108.58758 -38.082424 4294967295
341.24564 118.00703 -36.144909 4294967295
341.24951 109.50172 -38.429802 4294967295
341.28424 109.97928 -38.149193 4294967295
341.32358 119.42614 -35.731373 4294967295
341.34912 119.89908 -35.599922 4294967295
341.36441 112.29815 -38.266304 4294967295
341.42978 112.80023 -37.489048 4294967295
341.44363 113.71384 -37.831722 4294967295
341.46722 121.80582 -34.819481 4294967295
341.47107 122.25961 -35.042309 4294967295
341.59262 106.68606 -38.603153 4294967295
341.69269 116.62303 -35.496239 4294967295
341.7196 110.39414 -38.808807 4294967295
341.72284 109.49277 -38.192425 4294967295
341.74286 117.56756 -35.251122 4294967295
341.74817 118.02325 -35.44875 4294967295
341.83212 110.92986 -37.274136 4294967295
341.83618 120.35334 -35.441807 4294967295
341.91263 105.21479 -39.988831 4294967295
342.02222 106.64661 -39.068272 4294967295
342.03375 114.70068 -36.279781 4294967295
342.04059 115.60909 -36.733299 4294967295
342.05243 107.11996 -38.863087 4294967295
342.07132 108.03775 -39.120953 4294967295
342.07321 115.18389 -35.926067 4294967295
342.08548 116.54804 -36.574615 4294967295
342.14511 109.44669 -38.777119 4294967295
342.15384 117.95779 -36.319588 4294967295
342.16617 117.06574 -35.557884 4294967295
342.20187 109.03547 -37.58448 4294967295
342.20224 110.39226 -38.42091 4294967295
342.20557 109.9427 -38.087475 4294967295
342.2074 118.90472 -36.021286 4294967295
342.23651 111.32123 -38.431675 4294967295
342.26602 118.50336 -34.796551 4294967295
342.27457 120.31458 -35.785316 4294967295
342.28262 119.87081 -35.374969 4294967295
342.31796 119.45023 -34.523975 4294967295
342.32895 112.29449 -37.509636 4294967295
342.33282 120.81601 -35.130718 4294967295
342.37592 121.3046 -34.720112 4294967295
342.39212 113.69813 -37.338219 4294967295
342.40329 114.15834 -37.439133 4294967295
