# .PCD v0.7 - Point Cloud Data file format
VERSION 0.7
FIELDS x y z rgb
SIZE 4 4 4 4
TYPE F F F U
COUNT 1 1 1 1
WIDTH 1148
HEIGHT 1
VIEWPOINT 0 0 0 1 0 0 0
POINTS 1148
DATA ascii
306.83444 41.898556 -40.860771 4294967295
306.84116 41.424778 -40.124783 4294967295
306.84909 42.364697 -40.94709 4294967295
306.8595 32.153435 -42.93779 4294967295
306.87335 32.619881 -43.046665 4294967295
306.88565 33.087116 -43.202034 4294967295
306.9061 22.903078 -44.878494 4294967295
306.91629 23.372536 -45.09713 4294967295
306.93106 33.5359 -42.35527 4294967295
306.95422 33.997402 -42.182392 4294967295
306.95837 23.816303 -44.351318 4294967295
306.97205 24.283073 -44.46526 4294967295
306.97958 34.457882 -41.943417 4294967295
306.98911 24.747105 -44.476238 4294967295
307.0015 35.393974 -42.336773 4294967295
307.01569 35.86021 -42.436523 4294967295
307.0213 25.199564 -44.030083 4294967295
307.05188 25.653614 -43.633751 4294967295
307.05246 36.315456 -41.852051 4294967295
307.05615 37.259354 -42.795963 4294967295
307.06387 26.121714 -43.797752 4294967295
307.09882 37.712532 -42.034298 4294967295
307.11298 27.51601 -43.89468 4294967295
307.117 27.036655 -43.246784 4294967295
307.13712 38.168209 -41.405663 4294967295
307.14844 38.635761 -41.590878 4294967295
307.15274 27.96454 -43.221874 4294967295
307.16367 28.909029 -43.944115 4294967295
307.16495 28.432327 -43.379463 4294967295
307.17929 39.567192 -41.71455 4294967295
307.22433 29.82032 -43.16748 4294967295
307.23108 30.291348 -43.489708 4294967295
307.23318 40.961189 -41.669044 4294967295
307.23807 30.761946 -43.802917 4294967295
307.25256 40.482529 -40.560635 4294967295
307.25958 31.223492 -43.681206 4294967295
307.28574 41.413734 -40.612919 4294967295
307.30237 41.879303 -40.639179 4294967295
307.31454 42.346321 -40.79924 4294967295
307.32715 32.132507 -42.699501 4294967295
307.35403 33.06588 -42.94009 4294967295
307.37494 23.356857 -45.104588 4294967295
307.38037 22.87476 -44.421638 4294967295
307.39334 33.518246 -42.284798 4294967295
307.39725 33.990128 -42.691242 4294967295
307.40207 34.461208 -43.070183 4294967295
307.41348 23.803617 -44.47319 4294967295
307.431 24.26726 -44.469864 4294967295
307.44064 35.387966 -42.960178 4294967295
307.45715 24.724277 -44.20866 4294967295
307.46024 34.904617 -41.850483 4294967295
307.46704 35.847923 -42.691975 4294967295
307.52774 36.764805 -41.920647 4294967295
307.53381 26.574615 -44.00198 4294967295
307.54874 37.227966 -41.816322 4294967295
307.55429 27.036396 -43.912201 4294967295
307.57068 37.690777 -41.682648 4294967295
307.58212 27.969082 -44.120728 4294967295
307.59955 27.480972 -43.083244 4294967295
307.60721 38.147415 -41.113434 4294967295
307.61615 38.616051 -41.36832 4294967295
307.63208 29.362219 -44.191139 4294967295
307.63959 28.406046 -42.929829 4294967295
307.65982 39.542526 -41.107887 4294967295
307.66003 28.868382 -42.840176 4294967295
307.67496 29.809872 -43.435806 4294967295
307.68491 40.004688 -40.882099 4294967295
307.70731 40.468018 -40.735718 4294967295
307.71188 41.408981 -41.638374 4294967295
307.71506 40.936722 -41.025013 4294967295
307.73587 30.722151 -42.660995 4294967295
307.74365 31.667032 -43.466881 4294967295
307.77637 41.858063 -40.24136 4294967295
307.78647 32.116486 -42.713402 4294967295
307.79016 42.324654 -40.350235 4294967295
307.82568 23.347376 -45.342793 4294967295
307.8327 22.864311 -44.620358 4294967295
307.83423 33.985855 -43.366985 4294967295
307.84351 33.033054 -42.057583 4294967295
307.84692 23.80777 -45.230438 4294967295
307.875 34.437897 -42.675529 4294967295
307.88196 24.257591 -44.709637 4294967295
307.90604 24.716156 -44.513302 4294967295
307.90839 34.894276 -42.205563 4294967295
307.91962 35.361961 -42.389305 4294967295
307.92764 25.17672 -44.38961 4294967295
307.96713 35.811958 -41.500298 4294967295
307.97076 36.756161 -42.425564 4294967295
307.9776 26.569614 -44.458908 4294967295
307.9826 37.223206 -42.591049 4294967295
307.98526 36.276527 -41.479836 4294967295
307.9957 27.032841 -44.438065 4294967295
307.99744 26.078928 -43.360088 4294967295
308.01932 27.492298 -44.255669 4294967295
308.02322 38.149715 -42.423084 4294967295
308.04077 37.669876 -41.389061 4294967295
308.06104 27.939663 -43.541245 4294967295
308.07846 38.598618 -41.309025 4294967295
308.08246 28.876593 -43.936623 4294967295
308.08417 39.068298 -41.654694 4294967295
308.0885 28.397041 -43.245148 4294967295
308.10858 39.53043 -41.450844 4294967295
308.11615 29.330084 -43.458992 4294967295
308.13272 29.794743 -43.484764 4294967295
308.14917 39.986576 -40.770004 4294967295
308.1669 30.248466 -42.992203 4294967295
308.18118 40.91798 -40.856567 4294967295
308.1813 30.714621 -43.082481 4294967295
308.19522 41.384312 -40.958546 4294967295
308.19754 31.179586 -43.117744 4294967295
308.21613 32.11739 -43.596363 4294967295
308.25925 41.833923 -39.5891 4294967295
308.28287 32.553818 -42.150013 4294967295
308.29056 23.326668 -45.162933 4294967295
308.29495 33.0214 -42.308727 4294967295
308.32162 33.954842 -42.55032 4294967295
308.32761 33.477795 -41.863037 4294967295
308.35831 34.409412 -41.986599 4294967295
308.36276 35.353714 -42.877869 4294967295
308.36887 24.697315 -44.400997 4294967295
308.37155 24.218292 -43.81469 4294967295
308.38196 25.16427 -44.528641 4294967295
308.41779 35.800068 -41.780033 4294967295
308.43292 26.080065 -44.058872 4294967295
308.43509 25.601931 -43.486137 4294967295
308.44238 36.734287 -42.081066 4294967295
308.47772 27.000872 -43.769035 4294967295
308.48715 27.470284 -44.001766 4294967295
308.48904 37.658512 -41.739334 4294967295
308.49719 37.18235 -40.991249 4294967295
308.53265 27.915365 -43.185078 4294967295
308.54272 39.052315 -41.700481 4294967295
308.55515 28.376228 -43.037945 4294967295
308.55582 38.57502 -40.810699 4294967295
308.59454 39.503838 -40.700199 4294967295
308.60068 29.297976 -42.72887 4294967295
308.60492 30.245472 -43.619678 4294967295
308.60782 29.768764 -43.028191 4294967295
308.61826 40.909508 -41.537563 4294967295
308.62842 40.434601 -40.73251 4294967295
308.63376 30.702648 -43.288296 4294967295
308.65851 41.3666 -40.874077 4294967295
308.66299 31.159876 -42.946918 4294967295
308.69852 41.824303 -40.219353 4294967295
308.70825 32.082565 -42.645737 4294967295
308.73984 42.282104 -39.527134 4294967295
308.74133 32.538307 -42.192379 4294967295
308.7569 33.003902 -42.246765 4294967295
308.76443 33.473747 -42.535114 4294967295
308.78668 34.409069 -42.90115 4294967295
308.79456 23.752827 -44.357384 4294967295
308.80011 33.928719 -42.00713 4294967295
308.83771 34.856686 -41.92944 4294967295
308.83887 24.196285 -43.582088 4294967295
308.84918 35.324272 -42.102463 4294967295
308.85327 24.662521 -43.66843 4294967295
308.8555 25.137634 -44.107628 4294967295
308.8613 25.609837 -44.443836 4294967295
308.87064 36.259731 -42.492065 4294967295
308.88501 26.069038 -44.261421 4294967295
308.90601 36.716125 -41.974937 4294967295
308.9278 37.651073 -42.353928 4294967295
308.93063 26.98917 -43.952091 4294967295
308.94565 37.171036 -41.334492 4294967295
308.97891 27.908028 -43.565926 4294967295
309.00165 38.564335 -41.231499 4294967295
309.00226 38.091843 -40.709698 4294967295
309.02689 28.827675 -43.188267 4294967295
309.04007 29.29454 -43.311729 4294967295
309.04395 39.491428 -41.019627 4294967295
309.06595 30.228231 -43.570354 4294967295
309.07196 29.749748 -42.896332 4294967295
309.09225 39.945011 -40.130913 4294967295
309.0936 30.686186 -43.276821 4294967295
309.10272 40.412933 -40.33379 4294967295
309.11688 31.621101 -43.610687 4294967295
309.12256 31.143623 -42.947018 4294967295
309.15366 32.074276 -43.055672 4294967295
309.1759 41.802082 -39.737122 4294967295
309.17996 32.533638 -42.801723 4294967295
309.18137 42.271408 -40.083305 4294967295
309.20233 22.822338 -44.825996 4294967295
309.21329 33.463089 -42.845509 4294967295
309.22009 32.985775 -42.151375 4294967295
309.24677 33.919155 -42.386826 4294967295
309.24777 24.217953 -45.020634 4294967295
309.27222 34.852787 -42.658287 4294967295
309.27408 34.3787 -42.105743 4294967295
309.27585 23.720028 -43.720623 4294967295
309.27823 35.322655 -42.985363 4294967295
309.30923 35.780525 -42.596123 4294967295
309.33063 25.110054 -43.649822 4294967295
309.34824 36.235092 -41.982273 4294967295
309.35052 26.048496 -44.077194 4294967295
309.37274 36.696579 -41.780502 4294967295
309.38327 26.977531 -44.137249 4294967295
309.38818 26.498331 -43.49995 4294967295
309.40363 37.155464 -41.397541 4294967295
309.40503 37.627151 -41.856724 4294967295
309.41263 27.433369 -43.798309 4294967295
309.43689 28.368027 -44.100128 4294967295
309.44739 38.081554 -41.145203 4294967295
309.47293 38.543289 -40.915428 4294967295
309.4884 39.00914 -40.973274 4294967295
309.49939 29.753164 -43.809277 4294967295
309.49991 29.278111 -43.299522 4294967295
309.51682 39.941612 -41.159378 4294967295
309.52127 39.468327 -40.533211 4294967295
309.54971 40.401073 -40.71994 4294967295
309.5528 30.670082 -43.282742 4294967295
309.56943 31.13467 -43.305923 4294967295
309.58224 40.861019 -40.291843 4294967295
309.586 41.801689 -41.179115 4294967295
309.60074 32.064873 -43.408054 4294967295
309.61185 41.322269 -39.947124 4294967295
309.62747 32.523899 -43.144833 4294967295
309.64801 42.252762 -39.913082 4294967295
309.66141 22.806263 -44.81818 4294967295
309.66199 32.978966 -42.659859 4294967295
309.6752 33.445518 -42.779373 4294967295
309.71054 33.90073 -42.272823 4294967295
309.71542 24.195431 -44.768101 4294967295
309.72418 34.367142 -42.381111 4294967295
309.72604 23.710892 -43.975971 4294967295
309.75101 35.299923 -42.610153 4294967295
309.75949 34.82291 -41.875664 4294967295
309.77765 25.102825 -43.994476 4294967295
309.78656 35.75589 -42.098042 4294967295
309.79416 36.224937 -42.377159 4294967295
309.83057 26.493856 -43.977692 4294967295
309.84537 37.618816 -42.409218 4294967295
309.86108 37.140068 -41.471958 4294967295
309.86359 26.947197 -43.53759 4294967295
309.88531 38.074074 -41.773533 4294967295
309.89099 27.404606 -43.256725 4294967295
309.91199 27.86643 -43.157925 4294967295
309.92023 38.531864 -41.282761 4294967295
309.93289 38.998608 -41.417686 4294967295
309.94696 29.269503 -43.644646 4294967295
309.94711 39.464661 -41.508709 4294967295
309.95203 29.740942 -43.993099 4294967295
309.98682 30.194481 -43.506123 4294967295
310.01276 39.911949 -40.15295 4294967295
310.01312 30.653301 -43.255486 4294967295
310.02777 40.849442 -40.714523 4294967295
310.03 40.377361 -40.15876 4294967295
310.03552 31.58849 -43.60603 4294967295
310.04294 41.315323 -40.78001 4294967295
310.05722 32.050133 -43.487 4294967295
310.06567 31.097351 -42.268837 4294967295
310.0853 41.772453 -40.079567 4294967295
310.1203 32.963303 -42.694874 4294967295
310.1496 22.767845 -43.992916 4294967295
310.15521 33.418652 -42.206795 4294967295
310.17969 23.222115 -43.639389 4294967295
310.19345 33.872673 -41.62373 4294967295
310.20715 24.15539 -43.846123 4294967295
310.20929 35.2841 -42.646759 4294967295
310.2294 24.615757 -43.711056 4294967295
310.24139 35.741726 -42.237625 4294967295
310.25806 36.20657 -42.259327 4294967295
310.2674 25.541386 -43.624084 4294967295
310.30298 26.468807 -43.605198 4294967295
310.30435 37.130703 -41.941101 4294967295
310.32834 26.927475 -43.383663 4294967295
310.36829 27.852264 -43.24181 4294967295
310.38159 38.042828 -40.760303 4294967295
310.39142 38.982597 -41.461517 4294967295
310.39706 38.508698 -40.816551 4294967295
310.42197 28.768816 -42.719902 4294967295
310.43781 29.234051 -42.763199 4294967295
310.44385 39.905899 -40.973808 4294967295
310.45212 30.174711 -43.336777 4294967295
310.46564 29.692142 -42.47554 4294967295
310.47797 30.633919 -43.102909 4294967295
310.48267 40.36343 -40.378914 4294967295
310.49359 40.830872 -40.560852 4294967295
310.53308 32.024826 -43.025311 4294967295
310.53311 42.230286 -40.920403 4294967295
310.53372 31.076414 -42.038754 4294967295
310.53546 31.54966 -42.4743 4294967295
310.53699 41.758518 -40.326859 4294967295
310.53845 41.287064 -39.799191 4294967295
310.58755 22.76796 -44.577171 4294967295
310.59558 32.465019 -41.774166 4294967295
310.61084 23.227114 -44.414345 4294967295
310.61298 32.929726 -41.776627 4294967295
310.63004 33.394596 -41.788094 4294967295
310.63913 23.682758 -44.11459 4294967295
310.65259 34.329933 -42.130394 4294967295
310.66534 24.616348 -44.352539 4294967295
310.67068 24.136261 -43.724037 4294967295
310.68854 35.258507 -42.102512 4294967295
310.69415 35.728424 -42.42989 4294967295
310.69824 34.780998 -41.348969 4294967295
310.71289 25.05884 -43.520496 4294967295
310.72855 25.524025 -43.569218 4294967295
310.75076 25.984722 -43.437717 4294967295
310.78052 37.107288 -41.490318 4294967295
310.78091 36.634769 -40.995686 4294967295
310.78284 26.438894 -43.032494 4294967295
310.80173 26.902107 -42.993267 4294967295
310.80737 37.568199 -41.230907 4294967295
310.81839 27.842037 -43.496189 4294967295
310.83847 38.027607 -40.854076 4294967295
310.84082 28.777618 -43.838982 4294967295
310.86295 28.289043 -42.74852 4294967295
310.89914 29.216778 -42.712494 4294967295
310.91641 29.681154 -42.717426 4294967295
310.9187 39.412434 -40.086826 4294967295
310.9303 40.351162 -40.730843 4294967295
310.93774 30.143173 -42.6106 4294967295
310.94092 30.615631 -43.003361 4294967295
310.96802 31.074394 -42.738148 4294967295
310.98624 41.745289 -40.635368 4294967295
310.98697 41.274269 -40.133327 4294967295
310.99039 31.535934 -42.601597 4294967295
311.00177 32.003544 -42.76997 4294967295
311.05472 32.449078 -41.793728 4294967295
311.06299 33.391815 -42.526093 4294967295
311.0744 32.912575 -41.733524 4294967295
311.07977 23.203768 -44.137466 4294967295
311.10117 23.664585 -44.029274 4294967295
311.11038 34.314476 -42.183403 4294967295
311.12173 24.126081 -43.943417 4294967295
311.13043 24.595993 -44.181381 4294967295
311.13947 34.773445 -41.864037 4294967295
311.16635 25.046824 -43.675835 4294967295
311.17297 25.518097 -43.971287 4294967295
311.17969 35.700291 -41.720192 4294967295
311.19684 25.977547 -43.796356 4294967295
311.20227 36.162704 -41.580429 4294967295
311.21088 26.443624 -43.888996 4294967295
311.23148 37.566292 -42.213493 4294967295
311.24683 37.0881 -41.315948 4294967295
311.25339 26.891064 -43.203602 4294967295
311.25729 27.363806 -43.573311 4294967295
311.28348 38.017063 -41.269207 4294967295
311.29303 28.765635 -44.024696 4294967295
311.30151 28.285866 -43.318695 4294967295
311.30496 27.808666 -42.747776 4294967295
311.31564 38.476215 -40.866932 4294967295
311.3309 38.942055 -40.92836 4294967295
311.34457 29.683331 -43.570221 4294967295
311.3519 39.405746 -40.832886 4294967295
311.36798 39.871235 -40.869278 4294967295
311.37469 30.139936 -43.224186 4294967295
311.38287 30.609249 -43.477581 4294967295
311.39413 40.333267 -40.633419 4294967295
311.40784 40.799603 -40.736538 4294967295
311.41391 41.268322 -41.047768 4294967295
311.43246 31.529167 -43.077259 4294967295
311.43716 31.052773 -42.474144 4294967295
311.45526 42.196239 -40.872353 4294967295
311.47754 41.718903 -39.790028 4294967295
311.49115 31.971312 -41.955406 4294967295
311.49274 32.444118 -42.385818 4294967295
311.51019 23.20871 -44.909065 4294967295
311.52286 33.848152 -42.989796 4294967295
311.55185 23.654629 -44.252869 4294967295
311.55615 33.358635 -41.612331 4294967295
311.60532 34.7542 -41.699921 4294967295
311.61386 35.695278 -42.415169 4294967295
311.61429 35.222725 -41.929611 4294967295
311.61566 24.561611 -43.46714 4294967295
311.61725 25.036474 -43.896828 4294967295
311.66013 25.483032 -43.209419 4294967295
311.66556 26.430412 -44.004768 4294967295
311.67206 36.61412 -41.784172 4294967295
311.67322 36.141388 -41.279743 4294967295
311.70126 37.073868 -41.466137 4294967295
311.71524 26.873314 -43.132317 4294967295
311.72803 27.34034 -43.258636 4294967295
311.75241 38.468575 -41.499939 4294967295
311.7576 37.994957 -40.888184 4294967295
311.77313 38.932098 -41.412102 4294967295
311.82458 29.655029 -43.007454 4294967295
311.82678 39.855068 -40.906937 4294967295
311.83585 30.122646 -43.172394 4294967295
311.8432 30.592363 -43.445164 4294967295
311.85629 31.05868 -43.561375 4294967295
311.86176 40.784973 -40.905819 4294967295
311.87735 40.308788 -40.014046 4294967295
311.90363 41.242176 -40.248798 4294967295
311.92633 42.176254 -40.579033 4294967295
311.94757 41.699249 -39.5354 4294967295
311.95981 32.423927 -42.183723 4294967295
311.98062 23.184231 -44.590248 4294967295
311.98898 32.882446 -41.869255 4294967295
312.01428 33.343147 -41.659531 4294967295
312.01764 23.633747 -44.065536 4294967295
312.02765 34.282639 -42.237625 4294967295
312.04385 24.091238 -43.829277 4294967295
312.05865 35.213242 -42.341751 4294967295
312.05997 34.740166 -41.838291 4294967295
312.07587 24.544924 -43.438549 4294967295
312.08044 25.017605 -43.78252 4294967295
312.09506 25.483315 -43.859127 4294967295
312.11484 26.420624 -44.261692 4294967295
312.12137 35.657608 -41.128063 4294967295
312.13184 36.59763 -41.784866 4294967295
312.13882 36.122467 -41.128681 4294967295
312.14435 37.06424 -41.915882 4294967295
312.17743 37.522537 -41.497665 4294967295
312.17813 26.854923 -43.034748 4294967295
312.18457 27.325895 -43.327763 4294967295
312.20517 27.787926 -43.243862 4294967295
312.20816 28.260712 -43.63026 4294967295
312.23056 38.916393 -41.478046 4294967295
312.23209 38.444496 -40.970154 4294967295
312.23596 29.192562 -43.818771 4294967295
312.24518 39.382133 -41.554531 4294967295
312.25095 28.709454 -42.953438 4294967295
312.255 29.655422 -43.775959 4294967295
312.3045 30.101112 -42.920368 4294967295
312.33417 30.558498 -42.595642 4294967295
312.3382 40.762959 -40.469761 4294967295
312.34042 40.291222 -39.943981 4294967295
312.36484 31.015556 -42.242672 4294967295
312.38608 31.477932 -42.141266 4294967295
312.38849 41.217716 -39.594112 4294967295
312.39798 41.6856 -39.807163 4294967295
312.4108 31.938587 -41.948555 4294967295
312.42532 32.877811 -42.490284 4294967295
312.43713 32.398556 -41.71254 4294967295
312.45883 23.630306 -44.533459 4294967295
312.4606 33.333378 -42.016655 4294967295
312.46136 23.152477 -44.002438 4294967295
312.47635 24.093714 -44.530491 4294967295
312.49326 33.790565 -41.612728 4294967295
312.5098 24.546207 -44.105202 4294967295
312.54785 35.655815 -42.017021 4294967295
312.54953 34.710049 -41.045216 4294967295
312.55136 25.46904 -43.927166 4294967295
312.55289 35.181255 -41.420761 4294967295
312.57391 36.116627 -41.789139 4294967295
312.59601 37.050991 -42.129154 4294967295
312.62021 36.569168 -41.023624 4294967295
312.62076 27.324123 -43.935799 4294967295
312.62247 37.511871 -41.890923 4294967295
312.62607 26.846024 -43.334084 4294967295
312.63013 27.792749 -44.148258 4294967295
312.65817 37.969357 -41.406811 4294967295
312.6702 28.242783 -43.55011 4294967295
312.68811 38.429405 -41.076424 4294967295
312.70908 29.168192 -43.444126 4294967295
312.72253 38.888084 -40.62833 4294967295
312.7348 39.354961 -40.766628 4294967295
312.7637 30.084957 -42.922359 4294967295
312.76404 40.286808 -40.916889 4294967295
312.7883 40.749538 -40.738125 4294967295
312.79868 30.539442 -42.459442 4294967295
312.81155 41.212715 -40.585514 4294967295
312.83197 30.995207 -42.041439 4294967295
312.8465 41.672478 -40.1241 4294967295
312.85083 31.458933 -42.005039 4294967295
312.8876 32.386917 -41.955681 4294967295
312.92102 32.843506 -41.536194 4294967295
312.93213 23.604115 -44.146862 4294967295
312.93655 23.124985 -43.572754 4294967295
312.93918 34.253368 -42.435989 4294967295
312.9473 33.303871 -41.303871 4294967295
312.95395 24.064697 -44.031372 4294967295
312.96243 33.769726 -41.36544 4294967295
312.966 24.532005 -44.172516 4294967295
312.992 35.174007 -41.964554 4294967295
313.00696 25.455187 -44.011993 4294967295
313.02896 25.915897 -43.892311 4294967295
313.05182 36.092438 -41.310902 4294967295
313.06116 36.560532 -41.523972 4294967295
313.09213 26.825584 -43.150768 4294967295
313.09851 27.770836 -43.89613 4294967295
313.10474 27.292549 -43.276505 4294967295
313.10504 37.957764 -41.747406 4294967295
313.11276 37.483303 -41.086224 4294967295
313.12158 28.231201 -43.748932 4294967295
313.17264 28.675301 -42.869202 4294967295
313.1857 29.615831 -43.43948 4294967295
313.20377 29.131557 -42.512005 4294967295
313.21872 30.071102 -43.032806 4294967295
313.22507 39.798943 -40.432938 4294967295
313.23035 40.26807 -40.75322 4294967295
313.24911 31.001575 -43.149158 4294967295
313.25146 40.731846 -40.656372 4294967295
313.25287 30.526047 -42.595169 4294967295
313.28406 31.456444 -42.693127 4294967295
313.29004 41.660759 -40.562237 4294967295
313.30917 42.12532 -40.519543 4294967295
313.33698 32.375755 -42.223038 4294967295
313.34747 32.843529 -42.403664 4294967295
313.38278 33.299217 -41.937649 4294967295
313.39984 33.763893 -41.948994 4294967295
313.40009 23.105869 -43.453369 4294967295
313.41522 24.047081 -43.966663 4294967295
313.41745 34.228291 -41.944679 4294967295
313.42029 23.567818 -43.381439 4294967295
313.42496 34.697243 -42.203411 4294967295
313.43295 24.985748 -44.411728 4294967295
313.45679 25.44504 -44.244411 4294967295
313.47311 25.909298 -44.273033 4294967295
313.47482 35.147346 -41.359959 4294967295
313.50522 36.550468 -41.932697 4294967295
313.52847 26.348883 -43.287518 4294967295
313.53543 26.819336 -43.560215 4294967295
313.56192 27.277637 -43.325775 4294967295
313.58911 27.735695 -43.07283 4294967295
313.59848 37.928406 -40.869625 4294967295
313.61047 28.197384 -42.970787 4294967295
313.62305 38.861919 -41.139713 4294967295
313.64108 29.127934 -43.082191 4294967295
313.64319 39.325779 -41.070496 4294967295
313.64438 28.651905 -42.544712 4294967295
313.66058 30.064373 -43.479012 4294967295
313.67346 29.583565 -42.694016 4294967295
313.685 39.782364 -40.439018 4294967295
313.6889 40.251865 -40.790039 4294967295
313.69128 30.521082 -43.135742 4294967295
313.71313 30.982742 -43.021725 4294967295
313.72806 40.709919 -40.229141 4294967295
313.75537 31.907093 -42.832935 4294967295
313.78348 42.104496 -40.152267 4294967295
313.8017 32.356815 -42.085949 4294967295
313.83826 33.284817 -42.043251 4294967295
313.85614 34.221428 -42.48288 4294967295
313.86377 23.086697 -43.331512 4294967295
313.86673 24.036037 -44.152203 4294967295
313.86832 33.743343 -41.71788 4294967295
313.90723 24.484241 -43.558681 4294967295
313.90732 24.959431 -44.005234 4294967295
313.91547 34.666969 -41.402985 4294967295
313.92175 35.13652 -41.691338 4294967295
313.92596 35.606705 -42.031769 4294967295
313.95569 36.066025 -41.716389 4294967295
313.96921 25.869499 -43.310028 4294967295
313.97729 26.339237 -43.550034 4294967295
314.00256 36.990383 -41.408775 4294967295
314.00696 36.51685 -40.846245 4294967295
314.00839 27.269142 -43.647381 4294967295
314.01273 26.791965 -43.087173 4294967295
314.03961 27.724707 -43.293118 4294967295
314.04626 37.444931 -40.733711 4294967295
314.05627 28.189053 -43.312492 4294967295
314.06595 37.909031 -40.677322 4294967295
314.07355 38.377594 -40.931755 4294967295
314.10861 28.632912 -42.417393 4294967295
314.11426 29.577625 -43.167618 4294967295
314.11691 39.304367 -40.714218 4294967295
314.13516 39.769051 -40.694843 4294967295
314.15408 40.233532 -40.658566 4294967295
314.16425 30.970692 -43.226601 4294967295
314.16565 30.023098 -42.296947 4294967295
314.16846 30.49522 -42.672684 4294967295
314.20688 41.158001 -40.200542 4294967295
314.21216 31.891998 -42.892811 4294967295
314.24152 42.08836 -40.208195 4294967295
314.24646 41.616631 -39.634068 4294967295
314.27463 32.333878 -41.742157 4294967295
314.2886 32.800064 -41.831009 4294967295
314.29044 33.271927 -42.230061 4294967295
314.30789 33.736259 -42.230915 4294967295
314.31146 23.078583 -43.61871 4294967295
314.31784 34.203953 -42.420826 4294967295
314.32196 24.022419 -44.239414 4294967295
314.32819 23.542809 -43.63623 4294967295
314.36136 34.656677 -41.756226 4294967295
314.37421 24.462955 -43.352165 4294967295
314.37695 25.411234 -44.170307 4294967295
314.37946 35.120911 -41.740303 4294967295
314.3847 24.931322 -43.528751 4294967295
314.38849 35.58897 -41.954269 4294967295
314.41516 36.049614 -41.719944 4294967295
314.43307 26.325134 -43.628574 4294967295
314.44254 26.793751 -43.831692 4294967295
314.4631 36.973541 -41.38776 4294967295
314.49792 27.708992 -43.30909 4294967295
314.51199 37.426193 -40.587799 4294967295
314.52429 28.641602 -43.525772 4294967295
314.52823 28.165426 -42.982449 4294967295
314.53455 38.360603 -40.903309 4294967295
314.54062 37.887001 -40.303623 4294967295
314.57355 39.288895 -40.799908 4294967295
314.57468 29.086979 -42.688881 4294967295
314.57568 29.560108 -43.105228 4294967295
314.57849 39.757927 -41.117897 4294967295
314.60172 30.019463 -42.888531 4294967295
314.6394 40.679344 -40.458965 4294967295
314.6615 41.14296 -40.34137 4294967295
314.67334 31.401756 -42.39814 4294967295
314.68112 30.924438 -41.758938 4294967295
314.71085 41.598709 -39.531788 4294967295
314.71912 32.324913 -42.122833 4294967295
314.72995 23.090277 -44.636883 4294967295
314.75519 33.253044 -42.092842 4294967295
314.76404 23.54237 -44.21545 4294967295
314.79242 34.180717 -42.034595 4294967295
314.80212 24.942026 -44.573322 4294967295
314.83051 34.636063 -41.513603 4294967295
314.83374 24.446613 -43.336918 4294967295
314.85559 35.097363 -41.320484 4294967295
314.86026 25.379564 -43.545845 4294967295
314.89536 26.306984 -43.541275 4294967295
314.8985 36.495106 -41.559505 4294967295
314.90137 36.965359 -41.928829 4294967295
314.91168 27.245522 -44.007866 4294967295
314.93396 37.424026 -41.545555 4294967295
314.94919 27.69738 -43.501896 4294967295
314.96988 28.159271 -43.418972 4294967295
314.97537 28.629841 -43.720325 4294967295
314.99011 37.874344 -40.57119 4294967295
314.99701 38.34309 -40.838226 4294967295
315.01901 38.806343 -40.723347 4294967295
315.03146 29.545675 -43.18573 4294967295
315.04141 29.06661 -42.497501 4294967295
315.06442 40.203247 -40.899433 4294967295
315.07651 29.99485 -42.492077 4294967295
315.09283 40.664692 -40.624622 4294967295
315.10153 41.13224 -40.844761 4294967295
315.11609 31.393829 -42.813404 4294967295
315.11771 30.919994 -42.335468 4294967295
315.15488 32.320042 -42.715061 4294967295
315.15811 41.585762 -39.861759 4294967295
315.16376 31.842937 -42.054356 4294967295
315.16534 42.05386 -40.119549 4294967295
315.19897 23.0672 -44.370678 4294967295
315.20416 33.241539 -42.354099 4294967295
315.23257 23.519819 -43.966007 4294967295
315.23846 34.17028 -42.369637 4294967295
315.24255 33.696255 -41.829498 4294967295
315.25751 24.453405 -44.21357 4294967295
315.28113 24.912916 -44.057949 4294967295
315.28922 34.620026 -41.535305 4294967295
315.29059 35.091423 -41.938587 4294967295
315.30203 25.374283 -43.971191 4294967295
315.33533 25.828075 -43.575901 4294967295
315.34109 35.542099 -41.111404 4294967295
315.35654 36.479225 -41.598106 4294967295
315.35693 36.007465 -41.151379 4294967295
315.35779 26.288719 -43.44928 4294967295
315.37659 36.94276 -41.533813 4294967295
315.39828 27.21298 -43.30896 4294967295
315.42166 27.673386 -43.160862 4294967295
315.43005 38.336037 -41.506901 4294967295
315.43427 28.613609 -43.715343 4294967295
315.43488 28.139683 -43.26638 4294967295
315.43774 37.390915 -40.442295 4294967295
315.44073 37.861168 -40.803257 4294967295
315.4668 29.06901 -43.339439 4294967295
315.48242 38.788513 -40.634682 4294967295
315.50064 39.253178 -40.617031 4294967295
315.51178 29.517984 -42.653278 4294967295
315.53369 39.713005 -40.228554 4294967295
315.53491 40.653473 -41.068569 4294967295
315.54688 40.179424 -40.335419 4294967295
315.54694 29.972731 -42.213554 4294967295
315.55472 30.442022 -42.454334 4294967295
315.57706 41.110886 -40.454754 4294967295
315.59476 41.575798 -40.448833 4294967295
315.60272 31.363789 -42.127171 4294967295
315.60873 31.833717 -42.412605 4294967295
315.61456 42.040134 -40.391445 4294967295
315.65445 32.757004 -42.143696 4294967295
315.66528 33.224327 -42.307091 4294967295
315.68088 33.689392 -42.352875 4294967295
315.68106 23.035452 -43.784683 4294967295
315.69553 34.154839 -42.422478 4294967295
315.71759 23.486439 -43.311504 4294967295
315.73996 24.422089 -43.620533 4294967295
315.75412 34.601307 -41.402489 4294967295
315.77371 25.35017 -43.647678 4294967295
315.77478 35.064541 -41.323013 4294967295
315.77847 35.534824 -41.664494 4294967295
315.77866 24.872349 -43.094536 4294967295
315.78854 26.289604 -44.142334 4294967295
315.79031 36.00156 -41.803944 4294967295
315.82822 36.45797 -41.296974 4294967295
315.86542 36.915066 -40.809006 4294967295
315.88931 27.652275 -42.94458 4294967295
315.89536 37.846508 -40.932789 4294967295
315.90952 28.58832 -43.306309 4294967295
315.91235 38.311443 -40.944382 4294967295
315.92377 38.778278 -41.093704 4294967295
315.95694 29.035831 -42.566677 4294967295
315.97168 39.703491 -40.773087 4294967295
315.98175 39.229473 -40.091999 4294967295
315.98557 30.440372 -43.151783 4294967295
315.98618 29.493652 -42.27676 4294967295
316.00937 29.954861 -42.135082 4294967295
316.01456 30.898411 -42.866688 4294967295
316.02475 40.15715 -39.894779 4294967295
316.03668 40.624016 -40.032131 4294967295
316.04474 41.091904 -40.264019 4294967295
316.05219 41.559792 -40.511696 4294967295
316.05664 31.350203 -42.260101 4294967295
316.06351 31.819569 -42.520378 4294967295
316.10703 32.271282 -41.878494 4294967295
316.10779 23.0408 -44.567265 4294967295
316.12769 42.478893 -39.511955 4294967295
316.12994 23.501009 -44.451366 4294967295
316.15726 33.193043 -41.501461 4294967295
316.15912 34.136532 -42.313652 4294967295
316.18201 34.598434 -42.181225 4294967295
316.19931 24.405737 -43.604446 4294967295
316.20279 23.928555 -43.092003 4294967295
316.21667 35.055511 -41.75853 4294967295
316.22717 35.522758 -41.928593 4294967295
316.23621 24.857203 -43.126442 4294967295
316.23843 25.804779 -43.926941 4294967295
316.2724 36.447475 -41.675835 4294967295
316.27875 26.254658 -43.366112 4294967295
316.28519 26.724876 -43.634678 4294967295
316.29797 35.965885 -40.619896 4294967295
316.30356 36.906734 -41.339275 4294967295
316.32886 27.173367 -42.991905 4294967295
316.34653 37.833031 -41.142551 4294967295
316.37283 28.096138 -42.769867 4294967295
316.38901 38.28894 -40.529675 4294967295
316.39697 39.227673 -41.190315 4294967295
316.40726 28.55085 -42.355782 4294967295
316.41095 29.022411 -42.690624 4294967295
316.41403 39.69244 -41.199566 4294967295
316.42291 29.489351 -42.824409 4294967295
316.42603 38.747196 -40.050812 4294967295
316.44196 29.952532 -42.786514 4294967295
316.46225 30.415054 -42.715794 4294967295
316.48212 40.141331 -39.96183 4294967295
316.49146 40.608925 -40.161758 4294967295
316.49216 31.345556 -42.83675 4294967295
316.50137 41.07618 -40.34639 4294967295
316.53113 41.537682 -40.045883 4294967295
316.53607 31.796812 -42.192116 4294967295
316.55841 42.000107 -39.80719 4294967295
316.56287 32.256649 -41.964523 4294967295
316.56946 23.022705 -44.484821 4294967295
316.60034 42.458862 -39.21048 4294967295
316.60175 23.950964 -44.546288 4294967295
316.6214 23.463577 -43.645397 4294967295
316.62982 24.407539 -44.28746 4294967295
316.64569 24.871922 -44.325962 4294967295
316.64767 34.107445 -41.599194 4294967295
316.69464 25.315994 -43.559361 4294967295
316.72141 35.492207 -41.07983 4294967295
316.72678 35.961639 -41.373329 4294967295
316.7312 25.76816 -43.095276 4294967295
316.73752 26.712536 -43.788307 4294967295
316.741 26.236538 -43.280167 4294967295
316.76147 27.172379 -43.629585 4294967295
316.77924 36.412724 -40.523327 4294967295
316.79236 27.62846 -43.303734 4294967295
316.80991 37.815125 -41.050579 4294967295
316.83212 38.748775 -41.359379 4294967295
316.83917 28.075979 -42.592545 4294967295
316.8436 28.547108 -42.907036 4294967295
316.84897 38.272331 -40.528137 4294967295
316.849 29.017464 -43.19783 4294967295
316.85248 39.212387 -41.288654 4294967295
316.89038 39.670479 -40.79398 4294967295
316.91901 40.601929 -40.946404 4294967295
316.92041 29.926283 -42.314095 4294967295
316.92398 40.130276 -40.402241 4294967295
316.93976 30.389469 -42.267437 4294967295
316.96664 41.057922 -40.21674 4294967295
316.98022 30.842247 -41.711399 4294967295
316.9845 31.313057 -42.029961 4294967295
317.00128 41.518124 -39.80143 4294967295
317.01944 32.241589 -42.028355 4294967295
317.02237 31.767609 -41.537361 4294967295
317.03 41.98024 -39.529171 4294967295
317.03473 42.448849 -39.837341 4294967295
317.0567 32.696793 -41.550449 4294967295
317.07001 22.97917 -43.465408 4294967295
317.07596 23.450283 -43.742752 4294967295
317.08856 33.154823 -41.203979 4294967295
317.08975 33.626549 -41.595737 4294967295
317.10941 34.090061 -41.543156 4294967295
317.11456 23.900429 -43.232845 4294967295
317.14032 25.307865 -43.870625 4294967295
317.1445 35.490383 -41.958977 4294967295
317.15637 24.823727 -43.06572 4294967295
317.17245 35.007446 -40.864933 4294967295
317.17709 35.948769 -41.594746 4294967295
317.1926 26.224724 -43.452305 4294967295
317.20828 36.407974 -41.264088 4294967295
317.23865 27.619308 -43.601772 4294967295
317.25412 28.084017 -43.64819 4294967295
317.25668 37.332237 -40.939846 4294967295
317.29767 29.00667 -43.439949 4294967295
317.30939 38.726231 -40.931442 4294967295
317.31873 38.252323 -40.288269 4294967295
317.33493 29.460064 -42.964741 4294967295
317.35687 29.921646 -42.856243 4294967295
317.35986 39.180214 -40.138809 4294967295
317.36548 39.648987 -40.424286 4294967295
317.40134 30.372032 -42.208839 4294967295
317.41278 40.57513 -40.128181 4294967295
317.42575 30.832794 -42.042084 4294967295
317.42932 41.040417 -40.150154 4294967295
317.43036 31.303249 -42.349915 4294967295
317.45197 41.503986 -40.025623 4294967295
317.45374 31.764584 -42.208332 4294967295
317.47702 41.967022 -39.844921 4294967295
317.4859 42.43438 -40.051033 4294967295
317.4888 32.220581 -41.785587 4294967295
317.50101 32.68734 -41.912342 4294967295
317.51575 33.152832 -41.976284 4294967295
317.51831 23.444729 -44.128597 4294967295
317.54321 33.612755 -41.736694 4294967295
317.54419 22.95323 -43.094563 4294967295
317.55374 34.080074 -41.902348 4294967295
317.55627 23.89521 -43.638302 4294967295
317.57797 34.541553 -41.740036 4294967295
317.57977 25.303318 -44.32362 4294967295
317.59515 24.819986 -43.542877 4294967295
317.61526 34.997856 -41.266544 4294967295
317.63321 35.462223 -41.25518 4294967295
317.65448 36.396515 -41.580547 4294967295
317.66925 26.672035 -43.437214 4294967295
317.67169 25.72261 -42.549084 4294967295
317.67477 35.917431 -40.680492 4294967295
317.67963 27.139717 -43.60619 4294967295
317.68286 36.856911 -41.319984 4294967295
317.72134 37.313889 -40.819965 4294967295
317.73398 37.780304 -40.934258 4294967295
317.73669 27.581383 -42.66264 4294967295
317.75269 28.51947 -43.112068 4294967295
317.76611 28.038857 -42.378227 4294967295
317.77219 38.237926 -40.441151 4294967295
317.77936 28.978411 -42.891361 4294967295
317.79218 38.701973 -40.381409 4294967295
317.80731 29.436893 -42.642017 4294967295
317.82172 39.633461 -40.509399 4294967295
317.82214 29.902205 -42.703609 4294967295
317.83707 39.158028 -39.727837 4294967295
317.84259 30.364697 -42.632755 4294967295
317.86499 30.826277 -42.514874 4294967295
317.89291 41.022652 -40.062088 4294967295
317.89899 41.490837 -40.33437 4294967295
317.91434 41.956329 -40.384857 4294967295
317.92374 31.270573 -41.535397 4294967295
317.92944 31.740501 -41.813377 4294967295
317.94141 32.679482 -42.357483 4294967295
317.9534 22.969166 -44.265377 4294967295
317.96158 32.19809 -41.465897 4294967295
317.97342 33.137173 -42.012718 4294967295
317.98251 23.425137 -43.990211 4294967295
317.98672 23.896816 -44.301777 4294967295
318.00812 33.59396 -41.603397 4294967295
318.01837 24.351395 -43.965527 4294967295
318.0213 34.060169 -41.704372 4294967295
318.02353 34.530834 -42.065792 4294967295
318.08368 35.449329 -41.468483 4294967295
318.08926 34.975571 -40.923138 4294967295
318.10352 25.722519 -43.189804 4294967295
318.12094 26.659904 -43.599632 4294967295
318.12747 36.374901 -41.258015 4294967295
318.14362 26.17318 -42.654057 4294967295
318.14523 36.839325 -41.25037 4294967295
318.14844 27.117905 -43.362743 4294967295
318.16666 37.302471 -41.158401 4294967295
318.20667 27.559212 -42.401363 4294967295
318.22171 38.695309 -41.093716 4294967295
318.22855 37.751595 -40.108692 4294967295
318.23074 28.493078 -42.655655 4294967295
318.23785 39.160336 -41.124825 4294967295
318.24399 38.217262 -40.156094 4294967295
318.26306 29.422342 -42.716259 4294967295
318.29562 39.612415 -40.174976 4294967295
318.30536 29.873787 -42.130165 4294967295
318.33606 40.540745 -40.046101 4294967295
318.34186 30.801384 -42.093616 4294967295
318.34235 41.008919 -40.309399 4294967295
318.40814 22.955547 -44.347961 4294967295
318.41113 32.186234 -41.695137 4294967295
318.42429 42.396126 -39.615059 4294967295
318.4462 23.405876 -43.864178 4294967295
318.45193 32.640152 -41.146683 4294967295
318.45703 23.873459 -44.01947 4294967295
318.46658 24.341658 -44.203037 4294967295
318.46844 33.105125 -41.169029 4294967295
318.48633 33.5695 -41.159149 4294967295
318.51038 34.031303 -41.004845 4294967295
318.54819 25.240715 -43.108173 4294967295
318.54938 35.430389 -41.318752 4294967295
318.55023 34.958561 -40.889301 4294967295
318.57257 36.36375 -41.59341 4294967295
318.59259 25.688818 -42.477467 4294967295
318.59778 26.633575 -43.171741 4294967295
318.61044 36.820724 -41.115562 4294967295
318.61761 27.569248 -43.522453 4294967295
318.62 27.094681 -43.059895 4294967295
318.64459 37.279396 -40.725605 4294967295
318.65994 28.019537 -42.940636 4294967295
318.66742 37.742279 -40.599937 4294967295
318.6781 38.679733 -41.166538 4294967295
318.68851 28.477526 -42.680901 4294967295
318.70074 29.416908 -43.209625 4294967295
318.70331 39.141823 -40.984955 4294967295
318.71622 28.93618 -42.442032 4294967295
318.7171 39.607586 -41.070873 4294967295
318.73621 29.871651 -42.788429 4294967295
318.77695 40.059509 -40.080494 4294967295
318.78195 30.321718 -42.128593 4294967295
318.81021 30.780691 -41.876759 4294967295
318.81778 40.987816 -39.943596 4294967295
318.82764 31.244957 -41.877129 4294967295
318.85663 42.38636 -40.261078 4294967295
318.86169 31.701561 -41.490852 4294967295
318.87558 32.167576 -41.573692 4294967295
318.88098 32.637291 -41.85453 4294967295
318.8862 22.927134 -43.886269 4294967295
318.88962 41.908218 -39.083813 4294967295
318.8974 33.102005 -41.878227 4294967295
318.91724 23.382111 -43.569984 4294967295
318.93182 33.559063 -41.483932 4294967295
318.94693 23.838148 -43.284805 4294967295
318.9476 24.311928 -43.672577 4294967295
318.96765 34.015827 -41.055569 4294967295
318.98904 34.478806 -40.964348 4294967295
318.99899 35.417713 -41.54467 4294967295
319.00677 25.22477 -43.109371 4294967295
319.01147 25.695885 -43.405167 4294967295
319.02936 26.159233 -43.39307 4294967295
319.03479 35.875156 -41.118404 4294967295
319.05075 36.340275 -41.153831 4294967295
319.06232 26.614241 -43.034798 4294967295
319.08795 27.546778 -43.247875 4294967295
319.09286 36.795933 -40.582256 4294967295
319.10046 37.264168 -40.811382 4294967295
319.10815 37.73217 -41.037289 4294967295
319.11014 27.06134 -42.33086 4294967295
319.11462 38.200428 -41.292946 4294967295
319.16016 38.655811 -40.641762 4294967295
319.16092 28.927292 -42.769363 4294967295
319.18744 29.859198 -42.962814 4294967295
319.19028 28.439013 -41.68718 4294967295
319.20895 39.581055 -40.320671 4294967295
319.23938 40.042084 -40.020943 4294967295
319.26004 30.296242 -41.687164 4294967295
319.26193 30.767958 -42.046543 4294967295
319.26736 40.504032 -39.777256 4294967295
319.27728 40.971218 -39.952305 4294967295
319.33377 42.365223 -39.858482 4294967295
319.34271 41.423317 -38.843742 4294967295
319.35327 41.89056 -39.003731 4294967295
319.35788 33.085068 -41.845795 4294967295
319.3584 23.376865 -43.966766 4294967295
319.37274 33.550411 -41.905792 4294967295
319.37915 22.889542 -43.087616 4294967295
319.39352 23.829494 -43.559219 4294967295
319.40543 34.008362 -41.554691 4294967295
319.42496 34.471889 -41.507282 4294967295
319.4447 24.272837 -42.783283 4294967295
319.46176 25.210907 -43.192551 4294967295
319.47031 25.67968 -43.396385 4294967295
319.47491 35.394867 -41.16074 4294967295
319.48743 36.3321 -41.675537 4294967295
319.51645 26.127144 -42.736618 4294967295
319.53796 36.784595 -40.915192 4294967295
319.56772 27.045975 -42.360302 4294967295
319.58386 37.239304 -40.261635 4294967295
319.6015 27.501265 -41.985851 4294967295
319.60184 38.174641 -40.651367 4294967295
319.62766 28.907066 -42.585239 4294967295
319.65018 28.42247 -41.669182 4294967295
319.65192 39.569489 -40.704582 4294967295
319.66354 38.625149 -39.635597 4294967295
319.66895 39.094032 -39.913124 4294967295
319.69513 40.496517 -40.514462 4294967295
319.73047 31.219555 -42.228436 4294967295
319.73315 30.74597 -41.767197 4294967295
319.7334 30.273199 -41.361641 4294967295
319.73383 40.015232 -39.226601 4294967295
319.74786 31.683662 -42.229919 4294967295
319.76123 40.947842 -39.398685 4294967295
319.77124 41.884705 -39.971504 4294967295
319.78116 32.612503 -42.265717 4294967295
319.79892 41.407654 -38.935993 4294967295
319.80914 33.072075 -42.024723 4294967295
319.81155 22.889957 -43.685902 4294967295
319.82486 42.340679 -39.143269 4294967295
319.8284 23.353783 -43.698616 4294967295
319.85214 33.997078 -41.839657 4294967295
319.86618 23.804998 -43.234261 4294967295
319.86954 33.518291 -41.043354 4294967295
319.88324 34.455856 -41.527924 4294967295
319.90411 25.204235 -43.560452 4294967295
319.91431 24.250429 -42.534836 4294967295
319.92255 35.382877 -41.427422 4294967295
319.939 25.657898 -43.16375 4294967295
319.93912 34.905197 -40.650623 4294967295
319.98169 35.831722 -40.475685 4294967295
320.00214 26.096077 -42.122704 4294967295
320.01877 26.560633 -42.141712 4294967295
320.02264 37.229988 -40.737415 4294967295
320.02881 36.756943 -40.198761 4294967295
320.04523 27.493267 -42.332474 4294967295
320.05746 28.432928 -42.847439 4294967295
320.06152 27.95787 -42.35815 4294967295
320.06161 38.157978 -40.645058 4294967295
320.0802 38.622314 -40.619251 4294967295
320.10315 39.085335 -40.495544 4294967295
320.12274 29.818077 -42.552963 4294967295
320.13522 28.866335 -41.476242 4294967295
320.14401 29.33498 -41.673286 4294967295
320.14612 30.279163 -42.417522 4294967295
320.15512 40.009869 -40.107395 4294967295
320.19144 30.730122 -41.785877 4294967295
320.19702 40.937778 -39.949734 4294967295
320.23004 40.458511 -38.801334 4294967295
320.23123 31.656366 -41.674389 4294967295
320.23737 31.181274 -41.139416 4294967295
320.25827 32.58831 -41.852295 4294967295
320.26413 32.113827 -41.323875 4294967295
320.26907 42.327835 -39.504547 4294967295
320.28299 22.865984 -43.38797 4294967295
320.32938 24.26022 -43.521687 4294967295
320.34653 33.966377 -41.039406 4294967295
320.35751 23.769424 -42.491455 4294967295
320.37152 24.709396 -42.962608 4294967295
320.37744 34.42556 -40.734203 4294967295
320.38208 34.895168 -41.02446 4294967295
320.41025 25.63472 -42.875072 4294967295
320.4111 35.355312 -40.762352 4294967295
320.41144 26.1075 -43.241772 4294967295
320.45352 26.557732 -42.686153 4294967295
320.46582 36.277435 -40.315281 4294967295
320.46921 27.022511 -42.724915 4294967295
320.48828 36.74049 -40.202808 4294967295
320.53714 28.878801 -42.766159 4294967295
320.54178 27.930679 -41.875076 4294967295
320.59018 39.530464 -40.269218 4294967295
320.59381 38.588612 -39.398434 4294967295
320.59885 39.057587 -39.678459 4294967295
320.60858 39.995026 -40.248852 4294967295
320.61307 29.313904 -41.448483 4294967295
320.61563 30.730059 -42.569092 4294967295
320.62149 30.255112 -42.044346 4294967295
320.62262 40.460815 -40.325523 4294967295
320.6377 29.774786 -41.286617 4294967295
320.67685 40.915615 -39.4972 4294967295
320.67776 32.117455 -42.34721 4294967295
320.68832 31.640966 -41.717884 4294967295
320.70181 31.162642 -41.022137 4294967295
320.70255 41.848213 -39.70536 4294967295
320.7179 32.571716 -41.837276 4294967295
320.72852 41.371742 -38.727161 4294967295
320.74994 22.844866 -43.195221 4294967295
320.7511 33.029308 -41.484402 4294967295
320.76471 33.495216 -41.57021 4294967295
320.76535 42.302139 -38.685921 4294967295
320.76703 33.965588 -41.909756 4294967295
320.77304 24.252869 -43.850246 4294967295
320.80087 34.894333 -41.934067 4294967295
320.80307 23.761295 -42.785526 4294967295
320.80472 24.708019 -43.529591 4294967295
320.84003 25.161394 -43.129272 4294967295
320.84619 35.348007 -41.307957 4294967295
320.8855 35.804398 -40.818645 4294967295
320.88983 25.607021 -42.405334 4294967295
320.90491 36.738987 -41.166088 4294967295
320.93039 26.058258 -41.887363 4294967295
320.95074 37.193768 -40.529358 4294967295
320.96555 27.459696 -42.271976 4294967295
320.97238 26.982777 -41.728203 4294967295
321.01019 27.909706 -41.663124 4294967295
321.03256 38.578651 -39.872253 4294967295
321.04428 28.83861 -41.682503 4294967295
321.04526 39.515167 -40.370079 4294967295
321.04861 39.044052 -39.90472 4294967295
321.05438 29.306412 -41.846233 4294967295
321.06339 30.246899 -42.42384 4294967295
321.0741 29.769482 -41.795116 4294967295
321.1055 30.699459 -41.872772 4294967295
321.12195 40.433052 -39.436527 4294967295
321.14255 40.897331 -39.36676 4294967295
321.14413 31.154057 -41.400856 4294967295
321.15292 31.622208 -41.592854 4294967295
321.15329 41.36425 -39.517395 4294967295
321.16345 32.561127 -42.136513 4294967295
321.18115 22.845509 -43.800632 4294967295
321.1947 41.823311 -38.983635 4294967295
321.20389 23.305695 -43.681843 4294967295
321.2244 33.94986 -41.945118 4294967295
321.23721 23.759768 -43.328438 4294967295
321.24139 42.281502 -38.332455 4294967295
321.24539 34.412598 -41.866089 4294967295
321.2728 24.686489 -43.312389 4294967295
321.3038 25.142429 -43.010845 4294967295
321.31155 34.85817 -40.781734 4294967295
321.3197 25.606968 -43.044678 4294967295
321.33456 35.791668 -41.046837 4294967295
321.3663 26.054756 -42.397388 4294967295
321.40561 26.980293 -42.299599 4294967295
321.41116 26.503994 -41.789127 4294967295
321.42337 36.701962 -39.850243 4294967295
321.43753 27.436741 -41.977921 4294967295
321.44797 37.16449 -39.69133 4294967295
321.44809 38.105675 -40.465263 4294967295
321.4592 37.631561 -39.830231 4294967295
321.46655 38.570065 -40.442661 4294967295
321.51135 28.818462 -41.502274 4294967295
321.52216 29.28595 -41.64946 4294967295
321.53995 39.958218 -39.977036 4294967295
321.5509 30.217243 -41.784668 4294967295
321.5798 31.148304 -41.918758 4294967295
321.58325 40.885777 -39.792328 4294967295
321.58618 30.673275 -41.390759 4294967295
321.59836 40.411789 -39.07037 4294967295
321.60156 41.350533 -39.773926 4294967295
321.63342 31.596512 -41.118732 4294967295
321.63358 32.540047 -41.886898 4294967295
321.66547 32.998207 -41.567451 4294967295
321.66779 41.803291 -38.695 4294967295
321.67245 23.283669 -43.453049 4294967295
321.67538 23.755629 -43.772255 4294967295
321.69373 42.266644 -38.508427 4294967295
321.69992 33.455574 -41.191948 4294967295
321.72131 33.91843 -41.105755 4294967295
321.73938 25.139206 -43.51366 4294967295
273.60187 44.542866 -44.652164 4294967295
273.61914 45.00832 -44.682648 4294967295
273.63065 45.483261 -45.8592 4294967295
273.65039 45.944431 -45.411293 4294967295
273.67279 46.402103 -44.451691 4294967295
273.69098 46.866352 -44.309601 4294967295
273.70468 47.336632 -45.04464 4294967295
273.74127 48.264767 -44.720879 4294967295
273.76303 48.72541 -43.910858 4294967295
273.77948 49.191902 -44.1063 4294967295
273.79819 49.656181 -43.872261 4294967295
273.81378 50.123226 -44.225777 4294967295
273.83386 50.586609 -43.732761 4294967295
273.8512 51.052269 -43.765457 4294967295
273.86935 51.51741 -43.644012 4294967295
273.88657 51.983131 -43.692318 4294967295
273.91022 52.445869 -42.539246 4294967295
273.92618 52.912464 -42.819008 4294967295
273.99344 42.666302 -44.741356 4294967295
274.00714 43.138596 -45.43943 4294967295
274.02896 43.595509 -44.634911 4294967295
274.04034 44.071266 -45.750793 4294967295
274.07819 44.996124 -45.220757 4294967295
274.11267 45.926655 -45.302002 4294967295
274.13202 46.38903 -44.965935 4294967295
274.15454 46.847507 -44.04686 4294967295
274.16998 47.315422 -44.419052 4294967295
274.18738 47.780777 -44.433937 4294967295
274.20453 48.246403 -44.49736 4294967295
274.22153 48.712105 -44.581802 4294967295
