# .PCD v0.7 - Point Cloud Data file format
VERSION 0.7
FIELDS x y z rgb
SIZE 4 4 4 4
TYPE F F F U
COUNT 1 1 1 1
WIDTH 1138
HEIGHT 1
VIEWPOINT 0 0 0 1 0 0 0
POINTS 1138
DATA ascii
170.66901 1.579401 -79.56427 4294967295
170.67133 2.0272369 -79.38765 4294967295
170.67668 3.3707066 -78.838066 4294967295
170.7083 3.8346953 -79.011398 4294967295
170.71371 4.2847261 -78.871536 4294967295
170.72206 2.5016513 -79.789444 4294967295
170.73727 2.9565167 -79.766808 4294967295
170.75812 5.6499267 -78.788513 4294967295
170.78844 7.0082655 -78.536545 4294967295
170.78975 5.2188935 -79.371445 4294967295
170.79051 7.4572001 -78.356392 4294967295
170.79358 7.9067702 -78.188171 4294967295
170.79544 6.1164889 -79.030014 4294967295
170.79735 6.5650182 -78.848282 4294967295
170.80882 8.3623762 -78.165527 4294967295
170.82872 -6.6359105 -79.687012 4294967295
170.83984 -7.9627457 -80.433441 4294967295
170.84186 -7.0722818 -80.048782 4294967295
170.85168 -7.5105448 -80.370628 4294967295
170.85516 -5.2837729 -79.389488 4294967295
170.8757 9.2909937 -78.556244 4294967295
170.88974 -6.1520529 -80.21225 4294967295
170.89601 8.8526354 -79.004799 4294967295
170.89616 10.64584 -78.185844 4294967295
170.90421 -4.3625722 -79.566727 4294967295
170.9073 -5.6960497 -80.217979 4294967295
170.91531 11.552046 -78.004852 4294967295
170.92325 10.209969 -78.715584 4294967295
170.92653 9.7632847 -78.960121 4294967295
170.92693 -3.9031644 -79.634041 4294967295
170.92979 -3.4559023 -79.463493 4294967295
170.93503 -4.7886796 -80.140556 4294967295
170.94786 12.01557 -78.189743 4294967295
170.95914 11.123363 -78.73542 4294967295
170.96027 -2.9918346 -79.623566 4294967295
170.98198 -2.0874031 -79.473709 4294967295
170.99393 -1.1884556 -79.206764 4294967295
170.9995 -2.5226266 -79.888687 4294967295
171.00696 -1.6267619 -79.568054 4294967295
171.05447 -0.2610769 -79.522514 4294967295
171.05939 1.5274 -78.760376 4294967295
171.0614 0.63539499 -79.195061 4294967295
171.08954 0.2051716 -79.737854 4294967295
171.09396 1.9933343 -78.969856 4294967295
171.09819 1.1025681 -79.431091 4294967295
171.14873 2.4701858 -79.421707 4294967295
171.15599 2.9208474 -79.303513 4294967295
171.18318 4.2762432 -79.01355 4294967295
171.18677 3.8311257 -79.262115 4294967295
171.20338 4.7340293 -79.05043 4294967295
171.20441 5.1818151 -78.857132 4294967295
171.20912 3.3963351 -79.735886 4294967295
171.21771 6.0835891 -78.605507 4294967295
171.2468 -7.5652213 -79.626755 4294967295
171.2473 5.6513586 -79.166801 4294967295
171.26678 -7.9967251 -80.072174 4294967295
171.27705 6.5613446 -79.113358 4294967295
171.293 -6.200758 -79.565269 4294967295
171.29506 7.4655509 -78.918091 4294967295
171.29942 -6.64153 -79.848061 4294967295
171.30524 7.023037 -79.246284 4294967295
171.31194 -5.7436609 -79.587173 4294967295
171.32112 8.8219662 -78.613777 4294967295
171.33545 7.9332333 -79.197952 4294967295
171.34483 9.281456 -78.693024 4294967295
171.35092 -4.8288145 -79.64463 4294967295
171.3511 9.7326221 -78.562515 4294967295
171.366 -4.3741598 -79.620285 4294967295
171.37938 10.642561 -78.490578 4294967295
171.38515 -3.9169817 -79.644989 4294967295
171.4008 11.549492 -78.335983 4294967295
171.40366 11.999505 -78.163986 4294967295
171.4324 -3.4426408 -80.007507 4294967295
171.43794 -2.5483787 -79.662636 4294967295
171.44403 -1.6532698 -79.323845 4294967295
171.44724 -0.31303981 -78.74427 4294967295
171.44824 -0.75871658 -78.96254 4294967295
171.45105 11.124063 -79.147537 4294967295
171.45715 -2.9822414 -80.099411 4294967295
171.46811 -2.0846784 -79.819664 4294967295
171.50854 -1.1693244 -79.894897 4294967295
171.55545 0.6416502 -79.63559 4294967295
171.59691 1.1113315 -79.929207 4294967295
171.61516 3.8007717 -78.911148 4294967295
171.62692 2.0206089 -79.878807 4294967295
171.63824 4.7072721 -78.776505 4294967295
171.6438 2.4762926 -79.875999 4294967295
171.70319 5.6357245 -79.147545 4294967295
171.70515 6.0840387 -78.964569 4294967295
171.72214 5.1984968 -79.582985 4294967295
171.73383 -8.0043449 -80.192108 4294967295
171.73781 7.4432278 -78.738632 4294967295
171.73877 6.9960856 -78.957016 4294967295
171.74414 -7.1085787 -79.903824 4294967295
171.7607 -6.6531491 -79.897247 4294967295
171.76778 -6.2038078 -79.776115 4294967295
171.76794 6.563498 -79.51638 4294967295
171.78064 9.2559538 -78.428452 4294967295
171.78653 -5.3019218 -79.589493 4294967295
171.79144 -5.7437887 -79.855362 4294967295
171.80333 -4.8462129 -79.585831 4294967295
171.80722 7.9254069 -79.370659 4294967295
171.80785 9.717165 -78.550659 4294967295
171.81848 10.170433 -78.472023 4294967295
171.81973 10.619389 -78.279938 4294967295
171.82147 11.517398 -77.886368 4294967295
171.83095 -3.4930634 -79.299133 4294967295
171.85832 -4.3666553 -80.043686 4294967295
171.88797 -1.2298341 -78.953743 4294967295
171.89641 -3.0075338 -79.883835 4294967295
171.90678 -2.1102691 -79.595558 4294967295
171.91583 -0.76734781 -79.084244 4294967295
171.92436 -2.5451691 -80.015068 4294967295
171.9417 -1.6437364 -79.811157 4294967295
171.94441 -0.30456689 -79.222916 4294967295
171.94958 1.0373611 -78.663757 4294967295
171.9783 1.9468336 -78.596924 4294967295
172.03217 2.8702106 -78.834541 4294967295
172.04419 1.5373096 -79.602348 4294967295
172.04567 3.7714343 -78.583282 4294967295
172.05519 3.3296351 -78.90612 4294967295
172.05768 2.4376411 -79.351318 4294967295
172.0645 4.2286615 -78.604088 4294967295
172.09349 4.6912565 -78.747849 4294967295
172.13998 5.6101398 -78.896736 4294967295
172.15334 -7.1542349 -79.322151 4294967295
172.17207 -7.5865707 -79.75679 4294967295
172.17276 -6.2518201 -79.142456 4294967295
172.17432 6.0752163 -79.105515 4294967295
172.18411 6.5275841 -79.016891 4294967295
172.19305 -8.0170746 -80.218681 4294967295
172.19571 6.9809227 -78.950058 4294967295
172.20483 7.8807435 -78.644974 4294967295
172.22119 7.4412885 -79.051453 4294967295
172.22131 -6.6651444 -79.93927 4294967295
172.23505 -5.3218203 -79.483208 4294967295
172.23996 -5.7636271 -79.750443 4294967295
172.25821 8.8026638 -78.877487 4294967295
172.25952 -4.861227 -79.572693 4294967295
172.27184 -3.5176611 -79.098732 4294967295
172.27832 -3.9590371 -79.385567 4294967295
172.27872 9.2604961 -78.91864 4294967295
172.29852 -2.6100879 -79.007057 4294967295
172.31482 -4.3813858 -80.036285 4294967295
172.32108 -3.0418603 -79.489281 4294967295
172.32115 11.521536 -78.394051 4294967295
172.32269 10.177476 -79.036957 4294967295
172.32901 11.076748 -78.697433 4294967295
172.32903 11.973694 -78.281326 4294967295
172.33652 10.632053 -78.996902 4294967295
172.35059 -2.1328466 -79.43206 4294967295
172.35719 -1.6831827 -79.304596 4294967295
172.3679 -0.78505331 -79.018608 4294967295
172.41588 -1.202457 -79.810188 4294967295
172.42424 1.4789591 -78.662621 4294967295
172.44441 -0.29417849 -79.741035 4294967295
172.45775 0.15946861 -79.695259 4294967295
172.46803 1.9502087 -78.987556 4294967295
172.48248 0.61971432 -79.788139 4294967295
172.48409 1.0666671 -79.599442 4294967295
172.48941 2.4087048 -79.039413 4294967295
172.49928 3.3075771 -78.742599 4294967295
172.532 3.772264 -78.932518 4294967295
172.54286 4.2250686 -78.856659 4294967295
172.56766 5.1324325 -78.741493 4294967295
172.57686 4.6902523 -79.062286 4294967295
172.59482 -8.0681448 -79.545929 4294967295
172.59969 6.0437365 -78.714577 4294967295
172.60526 6.9415903 -78.364929 4294967295
172.60544 6.4941249 -78.575912 4294967295
172.61806 5.6061006 -79.147263 4294967295
172.63612 -7.1517057 -79.632362 4294967295
172.63823 -7.5948172 -79.866486 4294967295
172.63956 -6.7047997 -79.465691 4294967295
172.64317 7.8561726 -78.409492 4294967295
172.65466 -6.2501841 -79.44133 4294967295
172.66898 7.4215112 -78.93335 4294967295
172.69604 8.7780418 -78.637016 4294967295
172.6972 -5.7778645 -79.751549 4294967295
172.702 -4.4397879 -79.18383 4294967295
172.71288 8.3386106 -79.05143 4294967295
172.71758 9.6844559 -78.481789 4294967295
172.71906 9.2371807 -78.708961 4294967295
172.7265 -4.8693638 -79.691765 4294967295
172.74323 -3.5233769 -79.269409 4294967295
172.74762 -5.300745 -80.157822 4294967295
172.75131 10.596876 -78.475578 4294967295
172.75406 10.15003 -78.71846 4294967295
172.76556 -3.9546745 -79.750931 4294967295
172.76933 -3.0618353 -79.379227 4294967295
172.77628 -2.6120982 -79.25528 4294967295
172.81168 -1.6993775 -79.269768 4294967295
172.83066 11.978697 -78.817665 4294967295
172.83072 -1.2422285 -79.293381 4294967295
172.84229 -0.78953362 -79.225563 4294967295
172.84705 -2.1235192 -79.910652 4294967295
172.85356 0.1091061 -78.945053 4294967295
172.88712 1.4673443 -78.727364 4294967295
172.8929 1.0242796 -79.007507 4294967295
172.91476 0.59074259 -79.484032 4294967295
172.92845 2.3837504 -78.8144 4294967295
172.94968 2.842205 -78.864685 4294967295
172.98582 1.9696231 -79.725456 4294967295
172.99364 5.1008716 -78.355034 4294967295
172.9962 3.3145466 -79.224571 4294967295
172.99661 4.6552753 -78.600838 4294967295
173.02164 4.2218194 -79.116936 4294967295
173.03326 5.5690746 -78.630547 4294967295
173.03462 6.017096 -78.437332 4294967295
173.06129 6.4783683 -78.554573 4294967295
173.07066 -7.6254606 -79.56456 4294967295
173.08141 -8.0626087 -79.905731 4294967295
173.11391 -7.1522946 -79.884773 4294967295
173.12386 -5.3669662 -79.16848 4294967295
173.13391 7.4104223 -79.025002 4294967295
173.13702 8.7549114 -78.433662 4294967295
173.14491 -6.6874313 -80.055099 4294967295
173.15004 -6.2395687 -79.908508 4294967295
173.15298 8.3150558 -78.839088 4294967295
173.16205 -5.7871456 -79.846176 4294967295
173.18159 9.2246485 -78.770172 4294967295
173.18727 -4.8813896 -79.736099 4294967295
173.18883 10.572289 -78.228508 4294967295
173.18933 10.124327 -78.444733 4294967295
173.20886 11.030075 -78.264297 4294967295
173.2122 -3.530479 -79.41272 4294967295
173.2193 11.931892 -77.971611 4294967295
173.22577 -3.0767574 -79.369247 4294967295
173.22589 9.6940079 -79.10376 4294967295
173.22961 -4.4096007 -80.045593 4294967295
173.28148 -1.2606606 -79.21302 4294967295
173.31857 -0.34697199 -79.248207 4294967295
173.33089 0.1062093 -79.189392 4294967295
173.3391 0.5570364 -79.080063 4294967295
173.34866 -0.77481842 -79.827881 4294967295
173.35057 1.4561186 -78.800392 4294967295
173.36584 1.0186405 -79.198395 4294967295
173.38298 2.3674212 -78.778099 4294967295
173.42111 3.7286916 -78.615677 4294967295
173.4312 1.9483237 -79.58107 4294967295
173.44748 2.8500304 -79.360695 4294967295
173.46333 3.3052797 -79.345337 4294967295
173.48778 5.1055737 -78.804016 4294967295
173.50323 -7.6561623 -79.261887 4294967295
173.50613 4.2218409 -79.450905 4294967295
173.50955 -7.2073593 -79.12941 4294967295
173.51852 -8.0902443 -79.660652 4294967295
173.53638 -6.3002081 -79.03833 4294967295
173.53856 -6.7434998 -79.275757 4294967295
173.55318 5.587306 -79.398422 4294967295
173.55624 6.4829526 -79.014763 4294967295
173.57011 6.0431423 -79.396347 4294967295
173.58194 8.2858477 -78.487808 4294967295
173.58334 7.3914771 -78.926979 4294967295
173.6263 -5.3521128 -79.724197 4294967295
173.64037 10.106153 -78.363731 4294967295
173.64082 8.7628651 -79.002701 4294967295
173.65005 -4.8920536 -79.806381 4294967295
173.65694 -3.1074047 -79.047928 4294967295
173.65974 -4.4410357 -79.715057 4294967295
173.67056 9.6728468 -78.947296 4294967295
173.68103 11.470154 -78.231621 4294967295
173.68135 -2.2013526 -78.926651 4294967295
173.71091 -2.6285853 -79.502327 4294967295
173.71242 10.5887 -79.041412 4294967295
173.72743 11.940099 -78.593109 4294967295
173.73399 -0.3863754 -78.731827 4294967295
173.73743 11.048508 -79.138931 4294967295
173.76457 -1.7050228 -79.74231 4294967295
173.79289 -0.79700607 -79.669739 4294967295
173.79703 0.096871898 -79.298737 4294967295
173.80452 0.54718918 -79.180016 4294967295
173.82597 1.005693 -79.233582 4294967295
173.8607 1.4718122 -79.451286 4294967295
173.87097 3.2629981 -78.732292 4294967295
173.89374 3.7222805 -78.802185 4294967295
173.89473 2.3834791 -79.449104 4294967295
173.92831 4.6347513 -78.806442 4294967295
173.94441 6.4319444 -78.158546 4294967295
173.96458 5.5481215 -78.831757 4294967295
173.96721 4.209239 -79.49913 4294967295
173.97012 -8.1081419 -79.593094 4294967295
173.97212 5.1052308 -79.136642 4294967295
174.00929 -7.6374779 -79.865852 4294967295
174.01851 6.023674 -79.287262 4294967295
174.02565 -5.4039106 -79.010193 4294967295
174.03667 6.9272599 -79.088547 4294967295
174.04054 -6.283607 -79.617805 4294967295
174.05002 -4.9432058 -79.099808 4294967295
174.05414 7.3834782 -79.093048 4294967295
174.05852 -6.7160983 -80.051903 4294967295
174.06067 -4.491322 -79.020172 4294967295
174.07236 9.6306715 -78.258614 4294967295
174.08611 8.7418947 -78.85305 4294967295
174.09222 -5.8051729 -80.045685 4294967295
174.09706 8.2999067 -79.200554 4294967295
174.09969 9.1962795 -78.809341 4294967295
174.10802 10.096003 -78.488129 4294967295
174.11583 -4.0111208 -79.491158 4294967295
174.12425 10.551846 -78.477295 4294967295
174.13872 -3.5516226 -79.562874 4294967295
174.14314 -2.6584885 -79.193802 4294967295
174.15816 11.016085 -78.685257 4294967295
174.17671 11.921177 -78.490921 4294967295
174.18031 11.474655 -78.747955 4294967295
174.19064 -2.1837871 -79.570419 4294967295
174.19173 -3.0733278 -80.007675 4294967295
174.21701 -0.38563061 -79.049133 4294967295
174.23326 -0.82156903 -79.462769 4294967295
174.2399 0.0738106 -79.120728 4294967295
174.26781 1.8745527 -78.617706 4294967295
174.29102 0.54979903 -79.542763 4294967295
174.29831 0.99990749 -79.42099 4294967295
174.32181 2.3517156 -79.075531 4294967295
174.33331 3.2510352 -78.793282 4294967295
174.34521 1.4730091 -79.790672 4294967295
174.35362 2.8160272 -79.258186 4294967295
174.39532 5.0720701 -78.713402 4294967295
174.40213 4.6289396 -79.010628 4294967295
174.40752 3.738812 -79.502563 4294967295
174.40816 6.4202871 -78.234245 4294967295
174.40945 5.5266247 -78.676254 4294967295
174.41205 4.1877475 -79.346458 4294967295
174.41545 -8.1303205 -79.447365 4294967295
174.43953 5.9896626 -78.837219 4294967295
174.46565 -7.2078929 -79.646088 4294967295
174.47575 6.902916 -78.862061 4294967295
174.49541 9.1506863 -78.041603 4294967295
174.50061 8.2578058 -78.532433 4294967295
174.50389 -5.8491993 -79.483521 4294967295
174.51399 -6.7312741 -80.034409 4294967295
174.51614 7.3710279 -79.151733 4294967295
174.51709 -5.3959341 -79.434807 4294967295
174.519 -6.2836795 -79.884026 4294967295
174.52115 9.6113415 -78.14875 4294967295
174.53111 7.8259144 -79.124947 4294967295
174.54971 -3.595228 -78.989365 4294967295
174.55124 -4.4842653 -79.434196 4294967295
174.55399 -4.9272547 -79.68103 4294967295
174.56859 10.530467 -78.313133 4294967295
174.57056 8.7405357 -79.190208 4294967295
174.57306 10.084664 -78.581985 4294967295
174.58559 11.434949 -78.098206 4294967295
174.59305 -2.6774752 -79.102966 4294967295
174.60333 11.891646 -78.106125 4294967295
174.60365 12.340261 -77.896439 4294967295
174.61079 -4.0013018 -79.962433 4294967295
174.64328 -0.86457437 -78.876099 4294967295
174.64679 -1.308063 -79.133034 4294967295
174.64796 11.016502 -79.08876 4294967295
174.65182 -2.1956873 -79.621826 4294967295
174.65906 -1.7459764 -79.49884 4294967295
174.70695 -0.38055179 -79.456329 4294967295
174.71516 0.069994003 -79.34552 4294967295
174.7547 0.98487949 -79.41188 4294967295
174.7735 0.55023623 -79.85939 4294967295
174.79198 1.8983798 -79.450226 4294967295
174.79451 1.453949 -79.695114 4294967295
174.80719 2.3531327 -79.426361 4294967295
174.81612 4.1437016 -78.683807 4294967295
174.8456 3.713521 -79.265617 4294967295
174.85779 3.2740536 -79.63105 4294967295
174.8813 -7.694366 -79.343269 4294967295
174.90068 5.5300064 -79.098663 4294967295
174.91806 7.7749138 -78.246262 4294967295
174.93512 6.442091 -79.101334 4294967295
174.94037 -6.3216343 -79.439705 4294967295
174.95186 8.2397251 -78.454849 4294967295
174.95461 6.8993258 -79.131165 4294967295
174.96143 -6.7518444 -79.916702 4294967295
174.96275 -7.1950455 -80.146622 4294967295
174.9646 7.3516107 -79.042274 4294967295
174.9816 8.702322 -78.612656 4294967295
174.98633 -4.512836 -79.159241 4294967295
174.99303 -5.397851 -79.670715 4294967295
175.00058 -3.6136913 -78.909485 4294967295
175.00139 9.6075287 -78.431831 4294967295
175.03157 10.518066 -78.381165 4294967295
175.05447 -2.2439916 -78.941498 4294967295
175.05652 -3.1331069 -79.395126 4294967295
175.0592 10.083719 -78.941429 4294967295
175.06995 12.329138 -78.003906 4294967295
175.07443 -1.3406897 -78.762848 4294967295
175.08463 -2.6703615 -79.532715 4294967295
175.0896 11.441916 -78.679131 4294967295
175.09042 10.994361 -78.903557 4294967295
175.11441 11.901676 -78.77533 4294967295
175.12627 -0.86347151 -79.197708 4294967295
175.14314 0.0379939 -78.980461 4294967295
175.19043 0.95770931 -79.144241 4294967295
175.21579 2.3106241 -78.818604 4294967295
175.25093 4.1164436 -78.400909 4294967295
175.27475 3.2367568 -79.129005 4294967295
175.28033 2.793735 -79.413589 4294967295
175.28448 5.0285401 -78.392128 4294967295
175.29555 3.6947665 -79.175156 4294967295
175.32114 5.9423056 -78.422203 4294967295
175.3259 4.6045113 -79.126678 4294967295
175.33517 5.5029263 -78.813469 4294967295
175.34396 6.401576 -78.494049 4294967295
175.37956 -5.9033141 -79.001076 4294967295
175.38931 -6.3413153 -79.338173 4294967295
175.39769 8.2188454 -78.308693 4294967295
175.39828 -6.7795806 -79.66552 4294967295
175.40828 7.7768884 -78.657089 4294967295
175.4118 7.3315148 -78.916481 4294967295
175.4162 6.8867798 -79.18634 4294967295
175.42203 9.1264286 -78.184113 4294967295
175.43657 -5.4210033 -79.502205 4294967295
175.43803 9.5821981 -78.170105 4294967295
175.46431 -4.5136509 -79.420975 4294967295
175.47836 8.7073383 -79.10778 4294967295
175.49028 -4.0521097 -79.532402 4294967295
175.49475 -2.7143538 -78.943459 4294967295
175.49765 10.955194 -78.274216 4294967295
175.51541 -3.5911994 -79.633354 4294967295
175.52997 10.075365 -79.111313 4294967295
175.53355 11.868553 -78.294922 4294967295
175.53865 -2.24158 -79.280304 4294967295
175.55894 11.432577 -78.830002 4294967295
175.56563 -3.114418 -80.049599 4294967295
175.56961 12.333694 -78.533348 4294967295
175.5714 -1.7759867 -79.477219 4294967295
175.58292 -0.4327507 -78.976326 4294967295
175.59747 -1.3146667 -79.589981 4294967295
175.61177 -0.86063772 -79.554665 4294967295
175.63896 1.8300252 -78.604645 4294967295
175.64241 1.3859563 -78.863541 4294967295
175.66049 0.95076227 -79.306831 4294967295
175.66168 0.0603466 -79.752556 4294967295
175.66911 2.7399588 -78.553246 4294967295
175.68633 2.3036408 -78.985931 4294967295
175.69012 0.52281243 -79.895523 4294967295
175.69334 3.2001534 -78.642746 4294967295
175.73782 3.6716909 -78.987869 4294967295
175.77356 6.3718786 -78.142944 4294967295
175.78491 5.0373311 -78.934402 4294967295
175.78665 4.5917463 -79.172119 4294967295
175.7876 4.1459098 -79.399727 4294967295
175.79651 5.9371524 -78.648697 4294967295
175.80962 6.8382301 -78.38224 4294967295
175.83553 7.2990713 -78.493301 4294967295
175.83748 -6.3615575 -79.226158 4294967295
175.84413 5.5162282 -79.465729 4294967295
175.88089 -5.8881216 -79.558144 4294967295
175.89316 8.6708231 -78.572693 4294967295
175.89493 7.7772059 -79.027184 4294967295
175.90901 10.469656 -77.907402 4294967295
175.91513 -4.9766169 -79.558624 4294967295
175.92198 9.5804291 -78.504379 4294967295
175.92578 10.925901 -77.902893 4294967295
175.92937 -4.5227375 -79.522575 4294967295
175.93877 -5.4053245 -80.072929 4294967295
175.9574 11.389275 -78.086044 4294967295
175.97675 11.846685 -78.11441 4294967295
175.98537 -4.0417504 -80.013863 4294967295
175.98982 -2.7047744 -79.421967 4294967295
175.99045 10.062006 -79.153214 4294967295
176.01151 -3.1357703 -79.912155 4294967295
176.02057 -2.24038 -79.594658 4294967295
176.02298 -1.3486199 -79.192757 4294967295
176.03499 12.322363 -78.634781 4294967295
176.06013 -0.88041538 -79.446182 4294967295
176.06758 -0.4305186 -79.324036 4294967295
176.07394 1.3561835 -78.538628 4294967295
176.09286 0.030262901 -79.427551 4294967295
176.0943 0.92233419 -79.012619 4294967295
176.12637 2.7252231 -78.552025 4294967295
176.15521 2.2957797 -79.134155 4294967295
176.17049 4.5362358 -78.243408 4294967295
176.1732 3.6446443 -78.711792 4294967295
176.1927 1.8718448 -79.825539 4294967295
176.20399 4.1083922 -78.885101 4294967295
176.23782 5.4668589 -78.663315 4294967295
176.26405 5.9278808 -78.778763 4294967295
176.28313 6.3849854 -78.803604 4294967295
176.29117 6.8362117 -78.688644 4294967295
176.32169 -5.4688315 -79.13678 4294967295
176.32358 -5.9119468 -79.377815 4294967295
176.3248 7.7480717 -78.681084 4294967295
176.35492 9.5531693 -78.194046 4294967295
176.38434 9.1205082 -78.785324 4294967295
176.3885 -3.201431 -78.899033 4294967295
176.3891 -4.9796395 -79.775093 4294967295
176.40466 -3.6358595 -79.321655 4294967295
176.41266 10.477307 -78.492546 4294967295
176.41512 -4.0737038 -79.67144 4294967295
176.42122 10.929308 -78.383911 4294967295
176.42581 -4.5111227 -80.024033 4294967295
176.43144 -2.2839448 -79.009979 4294967295
176.44176 11.387171 -78.427505 4294967295
176.44675 11.837564 -78.273323 4294967295
176.47296 12.298122 -78.388893 4294967295
176.47769 -1.3645773 -79.162827 4294967295
176.47816 -2.6991951 -79.820503 4294967295
176.5022 -0.90412432 -79.256966 4294967295
176.51266 -0.45236021 -79.17244 4294967295
176.52649 0.0015259 -79.130913 4294967295
176.52687 1.3389521 -78.482605 4294967295
176.5507 0.46169811 -79.221153 4294967295
176.55457 1.8013358 -78.617416 4294967295
176.56938 0.91849953 -79.241364 4294967295
176.5907 2.2685194 -78.859299 4294967295
176.59976 3.1660833 -78.539108 4294967295
176.63654 4.0797653 -78.571495 4294967295
176.66861 4.9907875 -78.543839 4294967295
176.6714 3.6532383 -79.233559 4294967295
176.67497 2.7633958 -79.714264 4294967295
176.68665 4.5543351 -78.991913 4294967295
176.71809 5.4647112 -78.956711 4294967295
176.72972 5.9176831 -78.886795 4294967295
176.73404 6.8136706 -78.50547 4294967295
176.76967 6.3859878 -79.177887 4294967295
176.78368 8.1811962 -78.483536 4294967295
176.7869 -5.4776506 -79.241066 4294967295
176.80365 7.7445245 -78.95694 4294967295
176.80832 8.6412182 -78.579628 4294967295
176.82355 9.0963745 -78.555634 4294967295
176.82683 -4.562233 -79.314026 4294967295
176.86182 10.010622 -78.607025 4294967295
176.86183 11.354023 -77.951416 4294967295
176.87492 -4.9746451 -80.145287 4294967295
176.88211 -3.6369219 -79.582947 4294967295
176.89281 10.473602 -78.784355 4294967295
176.89906 -1.8466425 -78.925842 4294967295
176.9351 10.941975 -79.105995 4294967295
176.94119 -2.2648997 -79.68232 4294967295
176.94183 11.840579 -78.754745 4294967295
176.94527 12.290128 -78.580101 4294967295
176.95355 -1.3672671 -79.403519 4294967295
176.97922 0.42984819 -78.857124 4294967295
176.99039 -0.89924192 -79.655647 4294967295
177.00299 1.3355832 -78.72364 4294967295
177.02055 -0.43552881 -79.822632 4294967295
177.02078 2.2379875 -78.513168 4294967295
177.05453 0.92085171 -79.601318 4294967295
177.05878 3.1523948 -78.561516 4294967295
177.10361 2.7323446 -79.35405 4294967295
177.10536 1.842062 -79.813957 4294967295
177.11053 4.074522 -78.785858 4294967295
177.1422 4.9851146 -78.753098 4294967295
177.18121 4.5606494 -79.471817 4294967295
177.19759 6.3553796 -78.805222 4294967295
177.21761 5.9197054 -79.280838 4294967295
177.21927 5.4742517 -79.521141 4294967295
177.23102 8.1610909 -78.356384 4294967295
177.24771 7.2758422 -79.00885 4294967295
177.25983 8.6233044 -78.505951 4294967295
177.26324 7.7309499 -78.988998 4294967295
177.29478 9.0885773 -78.734924 4294967295
177.29915 9.5381393 -78.57135 4294967295
177.3027 -3.2302628 -78.898827 4294967295
177.31369 9.9929438 -78.53846 4294967295
177.34596 -4.0910769 -79.892258 4294967295
177.34651 -3.6463516 -79.680069 4294967295
177.34711 -1.8668356 -78.810036 4294967295
177.35344 10.907877 -78.609337 4294967295
177.35976 -2.7485752 -79.411499 4294967295
177.37434 11.813604 -78.438332 4294967295
177.37837 -1.4019423 -78.991875 4294967295
177.37965 10.473377 -79.165703 4294967295
177.39793 -0.053759102 -78.583832 4294967295
177.40623 -0.49407861 -78.910141 4294967295
177.40895 11.382689 -79.102364 4294967295
177.41454 -0.93413877 -79.23645 4294967295
177.41986 12.283325 -78.803108 4294967295
177.4763 0.88507181 -79.151054 4294967295
177.48518 1.3359823 -79.045334 4294967295
177.49695 0.4522438 -79.635956 4294967295
177.50296 1.792264 -79.053978 4294967295
177.52879 2.2532935 -79.166161 4294967295
177.55029 4.9428658 -78.121933 4294967295
177.56558 3.1664538 -79.199158 4294967295
177.58049 4.5133543 -78.730698 4294967295
177.59648 5.4152546 -78.496109 4294967295
177.61429 4.0863757 -79.38575 4294967295
177.63409 5.8826385 -78.760048 4294967295
177.64445 6.7817421 -78.45285 4294967295
177.64632 6.3359737 -78.697189 4294967295
177.66504 8.1339397 -78.056259 4294967295
177.71101 7.2643213 -79.089508 4294967295
177.72495 9.5071297 -78.166489 4294967295
177.74612 8.6235065 -78.880852 4294967295
177.7495 7.7315459 -79.365387 4294967295
177.77507 10.427539 -78.371231 4294967295
177.77893 -3.2321498 -79.146133 4294967295
177.78951 11.77808 -77.894974 4294967295
177.80495 -4.1038828 -79.922417 4294967295
177.81253 -2.7656386 -79.358932 4294967295
177.83005 -0.97464043 -78.70224 4294967295
177.83739 -3.6382816 -80.120102 4294967295
177.83772 12.249371 -78.296432 4294967295
177.85052 -1.4068661 -79.186928 4294967295
177.88002 -2.2775242 -80.008652 4294967295
177.8884 -1.8275876 -79.896332 4294967295
177.90147 -0.48481131 -79.40313 4294967295
177.90587 -0.036945801 -79.239044 4294967295
177.94073 1.7661352 -78.805641 4294967295
177.95114 1.3267941 -79.161331 4294967295
177.95172 0.88171202 -79.389473 4294967295
177.96091 3.1158476 -78.402939 4294967295
177.97264 0.44929081 -79.880363 4294967295
177.9987 4.0301218 -78.448982 4294967295
177.99976 2.2469602 -79.347198 4294967295
178.00829 3.5894752 -78.794556 4294967295
178.02036 2.7047715 -79.392624 4294967295
178.03951 5.392549 -78.31279 4294967295
178.06129 4.958302 -78.815979 4294967295
178.08542 4.5257754 -79.349258 4294967295
178.11127 8.1131268 -77.911911 4294967295
178.14258 5.8962636 -79.425262 4294967295
178.15825 6.7976289 -79.185417 4294967295
178.16011 7.2452331 -78.987961 4294967295
178.17032 9.9335918 -77.789848 4294967295
178.17325 9.4875116 -78.049545 4294967295
178.1739 7.6993508 -78.944954 4294967295
178.19608 8.6048679 -78.78904 4294967295
178.20653 11.295189 -77.593002 4294967295
178.23586 -3.6910486 -79.367752 4294967295
178.24602 10.866969 -78.327377 4294967295
178.24712 10.419987 -78.563568 4294967295
178.27779 -2.7745836 -79.468002 4294967295
178.3129 11.795198 -78.750778 4294967295
178.33443 -1.8488317 -79.759117 4294967295
178.33466 -2.2932107 -79.983505 4294967295
178.34998 -1.3942575 -79.739021 4294967295
178.35077 12.261215 -79.020081 4294967295
178.35828 -0.4993324 -79.403183 4294967295
178.40376 -0.025998101 -79.771416 4294967295
178.41782 1.3181062 -79.288177 4294967295
178.42619 2.2141967 -78.952576 4294967295
178.44196 1.7780824 -79.37941 4294967295
178.44337 0.88843679 -79.841934 4294967295
178.45808 3.5705452 -78.700172 4294967295
178.47437 2.6884503 -79.356262 4294967295
178.50099 4.0413952 -79.035522 4294967295
178.52615 5.8407326 -78.472984 4294967295
178.5361 4.5075288 -79.269638 4294967295
178.54266 6.2964559 -78.464813 4294967295
178.61557 7.2295556 -78.968506 4294967295
178.61806 8.5714836 -78.332397 4294967295
178.62076 7.679039 -78.813309 4294967295
178.67664 9.4963131 -78.649834 4294967295
178.68633 -3.265183 -79.062889 4294967295
178.70094 9.9559879 -78.7435 4294967295
178.71292 -2.8031485 -79.186539 4294967295
178.72522 11.758171 -78.167435 4294967295
178.73108 10.865875 -78.690262 4294967295
178.75169 12.21891 -78.28949 4294967295
178.75543 10.430868 -79.230629 4294967295
178.76157 -0.5475378 -78.705704 4294967295
178.76166 -2.3268249 -79.598763 4294967295
178.78397 -0.97842067 -79.220757 4294967295
178.79254 -0.082919598 -78.886612 4294967295
178.86438 1.297246 -79.154228 4294967295
178.8801 0.41662881 -79.805595 4294967295
178.88907 2.2031054 -79.03009 4294967295
178.89195 1.7593627 -79.291031 4294967295
178.89844 3.9922175 -78.258736 4294967295
178.92509 3.5616684 -78.830544 4294967295
178.93776 3.1232982 -79.219147 4294967295
178.96161 4.9209514 -78.636726 4294967295
178.97334 5.8203516 -78.342773 4294967295
178.99136 4.4919004 -79.249481 4294967295
179.02237 7.6342816 -78.088524 4294967295
179.03198 6.2994781 -78.886078 4294967295
179.05632 7.2058692 -78.756577 4294967295
179.05658 6.7594681 -78.98378 4294967295
179.09132 9.0121155 -78.318993 4294967295
179.12651 8.5836802 -79.003738 4294967295
179.17859 9.5046329 -79.237625 4294967295
179.1788 9.9517078 -79.016525 4294967295
179.19753 -2.3548496 -79.326447 4294967295
179.20471 11.306557 -78.683586 4294967295
179.21219 -1.900743 -79.294395 4294967295
179.24008 11.771538 -78.922836 4294967295
179.24101 -1.4374914 -79.448135 4294967295
179.25182 -0.54101938 -79.141502 4294967295
179.26157 -0.97963291 -79.493698 4294967295
179.26802 12.232709 -79.064995 4294967295
179.27657 -0.080456696 -79.241638 4294967295
179.28989 1.263454 -78.743614 4294967295
179.30122 1.7158637 -78.667839 4294967295
179.3062 0.38308001 -79.405975 4294967295
179.34143 3.9692202 -78.072594 4294967295
179.34862 2.1900783 -79.065224 4294967295
179.38898 3.5510287 -78.921471 4294967295
179.40495 2.6693292 -79.580292 4294967295
179.41631 5.3511143 -78.381287 4294967295
179.41687 4.4590788 -78.838364 4294967295
179.42319 3.125597 -79.595154 4294967295
179.42398 5.8018737 -78.257263 4294967295
179.44576 6.2605953 -78.318665 4294967295
179.51062 7.6362066 -78.496635 4294967295
179.52377 6.7503219 -79.119408 4294967295
179.52419 8.0903149 -78.44986 4294967295
179.54619 9.8904924 -77.838531 4294967295
179.55917 9.449913 -78.234833 4294967295
179.56239 8.5575848 -78.727486 4294967295
179.58618 9.0170403 -78.815567 4294967295
179.62643 10.82635 -78.444359 4294967295
179.67137 -1.9135962 -79.326859 4294967295
179.70677 -1.0014715 -79.342827 4294967295
179.70706 12.208882 -78.830528 4294967295
179.7188 -1.4383154 -79.726219 4294967295
179.76065 1.7027421 -78.700279 4294967295
179.76756 1.2616282 -79.017036 4294967295
179.79523 0.83364302 -79.607056 4294967295
179.79753 2.616179 -78.735352 4294967295
179.80507 2.1752167 -79.060524 4294967295
179.82898 4.4183197 -78.246933 4294967295
179.84348 3.9807529 -78.664444 4294967295
179.85648 5.3266807 -78.158119 4294967295
179.86461 3.1018724 -79.394821 4294967295
179.9016 3.5692639 -79.657234 4294967295
179.90294 6.2457995 -78.319656 4294967295
179.94464 8.0556393 -77.965851 4294967295
179.95343 7.1668978 -78.534805 4294967295
179.96211 7.6182928 -78.423325 4294967295
179.96803 6.7285252 -78.954018 4294967295
179.98006 8.5216408 -78.207932 4294967295
180.02283 9.8855438 -78.09462 4294967295
180.07121 11.252523 -78.055138 4294967295
180.07408 9.4652576 -78.999313 4294967295
180.09799 10.371561 -78.862869 4294967295
180.10339 12.16386 -78.027847 4294967295
180.1069 10.823252 -78.754433 4294967295
180.15028 -0.57971048 -78.941811 4294967295
180.15698 -0.13050219 -78.80426 4294967295
180.22189 0.35546491 -79.437546 4294967295
180.22406 2.5831494 -78.332497 4294967295
180.23003 0.80547142 -79.318756 4294967295
180.28078 1.7269635 -79.538177 4294967295
180.28226 4.8475246 -77.968918 4294967295
180.28745 1.286108 -79.852997 4294967295
180.2979 3.0732036 -79.08519 4294967295
180.29944 3.5196877 -78.878433 4294967295
180.32216 2.1973357 -79.860298 4294967295
180.3485 4.440022 -79.075554 4294967295
180.36401 6.6797028 -78.145576 4294967295
180.36591 6.2343073 -78.39827 4294967295
180.38435 4.015481 -79.778534 4294967295
180.45456 8.9629517 -78.211723 4294967295
180.47362 7.1870012 -79.374756 4294967295
180.47554 8.0807419 -78.945534 4294967295
180.47694 7.6350884 -79.191765 4294967295
180.48096 8.5302658 -78.790314 4294967295
180.50819 9.4383183 -78.697479 4294967295
180.52013 10.338598 -78.401047 4294967295
180.52332 9.8931751 -78.670906 4294967295
180.53635 10.794158 -78.389099 4294967295
180.57761 12.157236 -78.254951 4294967295
180.59999 -0.59878588 -78.847687 4294967295
180.64737 0.76620531 -78.79528 4294967295
180.6519 -0.1207423 -79.311157 4294967295
180.7034 0.35669801 -79.769516 4294967295
180.731 3.4899082 -78.54184 4294967295
180.75323 1.7221756 -79.750259 4294967295
180.76556 2.1747246 -79.686775 4294967295
180.79196 3.0810127 -79.58284 4294967295
180.80206 3.9778023 -79.261421 4294967295
180.80516 4.4252434 -79.074638 4294967295
180.80919 6.2117052 -78.215164 4294967295
180.82812 6.6687937 -78.239418 4294967295
180.83084 4.8859692 -79.189171 4294967295
180.83746 5.3356266 -79.049538 4294967295
180.83891 5.7823992 -78.840218 4294967295
180.88016 7.1442842 -78.70594 4294967295
180.90823 7.6062136 -78.852509 4294967295
180.92981 8.9577465 -78.454933 4294967295
180.94438 8.072443 -79.107147 4294967295
180.96156 8.5281982 -79.108116 4294967295
180.96899 9.425437 -78.750031 4294967295
180.98381 11.221548 -78.032501 4294967295
181.00932 10.787365 -78.603081 4294967295
181.01884 10.345295 -78.959229 4294967295
181.02504 11.689873 -78.355499 4294967295
181.03271 12.141172 -78.229027 4294967295
181.09914 1.6388807 -78.269455 4294967295
181.10864 0.30954361 -79.084114 4294967295
181.15425 0.78327042 -79.466095 4294967295
181.16183 3.4595299 -78.192062 4294967295
181.16544 2.5705338 -78.699188 4294967295
181.17213 -0.094424702 -80.162933 4294967295
181.18474 3.0277305 -78.72879 4294967295
181.2189 1.2686238 -80.102974 4294967295
181.24911 4.8487625 -78.674568 4294967295
181.27365 3.9720211 -79.46254 4294967295
181.30057 5.3245649 -79.13562 4294967295
181.33051 7.1257949 -78.618866 4294967295
181.33798 8.0228977 -78.259659 4294967295
181.35332 6.2465086 -79.384422 4294967295
181.35353 6.6925554 -79.157547 4294967295
181.3792 9.832653 -77.893509 4294967295
181.40088 8.9504194 -78.64505 4294967295
181.40439 7.6131597 -79.381493 4294967295
181.40675 9.4003077 -78.493958 4294967295
181.4738 10.32937 -78.935524 4294967295
181.49864 11.236103 -78.80941 4294967295
181.51869 12.140635 -78.618958 4294967295
181.58794 2.0893812 -78.467735 4294967295
181.59361 2.9838572 -78.083168 4294967295
181.60023 0.31736329 -79.554405 4294967295
181.64142 1.2327795 -79.648712 4294967295
181.64314 0.78926748 -79.902039 4294967295
181.64746 1.6813378 -79.499809 4294967295
181.65907 2.5785193 -79.195778 4294967295
181.66484 3.4726286 -78.812561 4294967295
181.72411 5.7364283 -78.458328 4294967295
181.73587 3.9607253 -79.539513 4294967295
181.73828 4.8530345 -79.11084 4294967295
181.78413 6.6629572 -78.806694 4294967295
181.78723 7.110867 -78.617332 4294967295
181.79279 5.3305469 -79.615662 4294967295
181.82544 7.5785027 -78.902328 4294967295
181.83023 6.243371 -79.659515 4294967295
181.84834 8.9304028 -78.518623 4294967295
181.87288 8.4972687 -79.081207 4294967295
181.87938 9.3937998 -78.707001 4294967295
181.89221 10.294216 -78.417717 4294967295
181.89781 10.744181 -78.262245 4294967295
181.9072 9.8553276 -78.851753 4294967295
181.94336 12.109303 -78.183884 4294967295
181.95767 11.222246 -78.840416 4294967295
182.0378 0.73531669 -79.067688 4294967295
182.05322 2.9707575 -78.118416 4294967295
182.06059 3.4208775 -77.986198 4294967295
182.12094 2.1221867 -79.498924 4294967295
182.14818 2.5839782 -79.63662 4294967295
182.16727 3.9309282 -79.200119 4294967295
182.2032 6.626616 -78.295815 4294967295
182.20413 4.8437686 -79.236671 4294967295
182.20421 5.735137 -78.773613 4294967295
182.26933 6.2186027 -79.425171 4294967295
182.31364 8.4736376 -78.866089 4294967295
182.31393 7.5814619 -79.334389 4294967295
182.35175 9.8338566 -78.686707 4294967295
182.38148 10.743176 -78.626144 4294967295
182.40581 10.309246 -79.18911 4294967295
182.41016 11.205027 -78.783333 4294967295
182.45302 11.674036 -79.133537 4294967295
182.46838 12.128815 -79.110138 4294967295
182.52812 2.5218339 -78.595901 4294967295
182.54985 3.8714318 -78.19278 4294967295
182.55342 3.4280767 -78.474655 4294967295
182.59988 3.0113697 -79.340714 4294967295
182.60297 2.1236196 -79.847916 4294967295
182.62337 5.6983995 -78.261986 4294967295
182.63266 6.5960269 -77.921753 4294967295
182.6796 4.3950634 -79.72773 4294967295
182.69125 4.8472342 -79.653885 4294967295
182.71806 6.1993322 -79.320221 4294967295
182.73749 8.4405756 -78.418312 4294967295
182.75328 7.1110439 -79.33448 4294967295
182.75385 9.3427048 -78.174225 4294967295
182.78993 9.8089237 -78.433662 4294967295
182.8438 10.284379 -78.935844 4294967295
182.88248 11.644993 -78.76329 4294967295
182.88866 11.201365 -79.081589 4294967295
183.01549 2.0814514 -79.249664 4294967295
183.02847 4.3154731 -78.256073 4294967295
183.02882 3.8701692 -78.495544 4294967295
183.04286 2.5434465 -79.390533 4294967295
183.07315 3.0071263 -79.571144 4294967295
183.07652 3.4541225 -79.383095 4294967295
183.10628 5.6989112 -78.61911 4294967295
183.14775 5.2778707 -79.422325 4294967295
183.14896 4.8333263 -79.673134 4294967295
183.18515 6.1907301 -79.466316 4294967295
183.18694 7.5291123 -78.78727 4294967295
183.20721 8.4328547 -78.596054 4294967295
183.21902 6.6559052 -79.69651 4294967295
183.22115 7.9944735 -79.022224 4294967295
183.22577 7.1053872 -79.554901 4294967295
183.23705 9.3421116 -78.535973 4294967295
183.25284 10.243947 -78.282837 4294967295
183.25668 8.9065189 -79.040497 4294967295
183.28021 9.8120403 -78.893761 4294967295
183.31578 11.170912 -78.677689 4294967295
183.31915 11.619579 -78.489037 4294967295
183.32074 10.726824 -78.98114 4294967295
183.34781 12.081376 -78.647705 4294967295
183.42848 3.3749104 -77.945236 4294967295
183.47131 4.2922487 -78.063683 4294967295
183.48743 4.7476487 -78.049789 4294967295
183.50288 2.5310841 -79.440735 4294967295
183.51228 2.9817576 -79.334816 4294967295
183.55373 5.2330484 -78.728256 4294967295
183.55482 6.5711184 -78.035522 4294967295
183.56763 6.1326313 -78.447945 4294967295
183.61005 7.9413824 -78.089264 4294967295
183.65396 8.4123898 -78.459259 4294967295
183.66162 7.0787663 -79.272758 4294967295
183.67661 8.8713074 -78.535553 4294967295
183.70815 10.228135 -78.262177 4294967295
183.72821 9.7924213 -78.775864 4294967295
183.73083 9.3475208 -79.048264 4294967295
183.74596 11.141908 -78.311905 4294967295
183.759 10.702071 -78.728699 4294967295
183.78752 12.057546 -78.413658 4294967295
183.82756 11.63152 -79.203629 4294967295
183.90959 2.9300847 -78.517494 4294967295
183.95087 5.1825786 -77.904198 4294967295
183.95624 3.4042583 -78.926636 4294967295
183.96687 4.3011599 -78.600121 4294967295
183.96736 4.7468858 -78.37001 4294967295
184.00084 3.8768606 -79.307617 4294967295
184.04808 6.5775309 -78.540138 4294967295
184.05731 7.4748197 -78.193764 4294967295
184.07463 7.0388217 -78.671524 4294967295
184.0907 7.9400063 -78.419594 4294967295
184.11305 8.3988075 -78.492355 4294967295
184.14133 9.307189 -78.410202 4294967295
184.17305 9.7710276 -78.613007 4294967295
184.18469 8.8850403 -79.249451 4294967295
184.18701 10.225105 -78.569374 4294967295
184.19051 10.673602 -78.380211 4294967295
184.22742 11.586769 -78.417992 4294967295
184.25534 12.048235 -78.568138 4294967295
184.26811 11.161579 -79.220917 4294967295
184.44392 3.8539391 -79.123077 4294967295
184.47394 4.7625132 -79.065178 4294967295
184.48917 5.6623206 -78.800804 4294967295
184.50381 5.225801 -79.243118 4294967295
184.52153 6.1270423 -79.013481 4294967295
184.53009 6.5776248 -78.894524 4294967295
184.56294 7.488143 -78.875748 4294967295
184.57596 8.8336296 -78.341415 4294967295
184.58209 7.053597 -79.381195 4294967295
184.6066 8.404809 -79.007866 4294967295
184.61191 7.9620123 -79.320496 4294967295
184.62912 10.202219 -78.366989 4294967295
184.63268 9.3114891 -78.894272 4294967295
184.64609 9.76511 -78.842949 4294967295
184.64886 10.659487 -78.403801 4294967295
184.66441 11.1145 -78.382095 4294967295
184.71368 11.587349 -78.831596 4294967295
184.74072 12.048216 -78.970543 4294967295
184.89285 5.6157422 -78.060791 4294967295
184.89404 4.7255368 -78.556999 4294967295
184.93518 5.1958842 -78.893661 4294967295
185.00829 7.0211535 -78.959946 4294967295
185.00874 8.8052206 -78.006279 4294967295
185.02457 6.5852771 -79.427879 4294967295
185.03482 7.4822249 -79.092194 4294967295
185.03864 8.3760252 -78.666191 4294967295
185.07761 7.952538 -79.452614 4294967295
185.07849 9.7368317 -78.505287 4294967295
185.10135 10.642238 -78.345978 4294967295
185.10303 11.089792 -78.129135 4294967295
185.10777 10.199276 -78.676178 4294967295
185.1127 9.3097277 -79.225769 4294967295
185.18866 12.028694 -78.851685 4294967295
185.19717 11.586668 -79.211617 4294967295
185.34969 5.601016 -78.062439 4294967295
185.35649 5.1596904 -78.399353 4294967295
185.37727 4.7272358 -78.933121 4294967295
185.39264 6.0724421 -78.426521 4294967295
185.44853 6.5513105 -78.973831 4294967295
185.45795 7.0023551 -78.865463 4294967295
185.50987 8.3695602 -78.874229 4294967295
185.52902 8.8263359 -78.903107 4294967295
185.53941 10.617096 -78.083855 4294967295
185.5636 10.183924 -78.666992 4294967295
185.57228 11.081531 -78.306427 4294967295
185.58452 9.7493973 -79.203934 4294967295
185.84918 5.6122928 -78.669319 4294967295
185.90324 6.9809432 -78.708443 4294967295
185.93887 7.8930802 -78.728546 4294967295
185.96417 9.6915684 -78.116844 4294967295
186.00259 8.8212328 -79.147499 4294967295
186.03624 11.517073 -78.168159 4294967295
186.04114 10.18063 -78.966721 4294967295
186.04137 9.2889805 -79.455414 4294967295
186.05054 10.631962 -78.857376 4294967295
186.07607 11.092157 -78.977432 4294967295
186.08937 11.99214 -78.680489 4294967295
186.26685 6.0192394 -77.873138 4294967295
186.35657 7.855556 -78.176666 4294967295
186.37589 8.7586975 -77.964058 4294967295
186.37639 7.4215236 -78.703407 4294967295
186.37671 6.531013 -79.195671 4294967295
186.38777 9.2116623 -77.889572 4294967295
186.40274 6.9917879 -79.323174 4294967295
186.42142 9.6769276 -78.125572 4294967295
186.44209 10.134789 -78.176529 4294967295
186.45374 8.3578129 -79.319138 4294967295
186.47684 11.940134 -77.694992 4294967295
186.50331 11.061245 -78.56234 4294967295
186.53242 10.631071 -79.22258 4294967295
186.79024 6.4903903 -78.584419 4294967295
186.79984 7.8328414 -77.986084 4294967295
186.8046 8.2815361 -77.808823 4294967295
186.86578 7.4262905 -79.177498 4294967295
186.92108 11.024973 -78.007393 4294967295
186.93773 9.6958027 -78.983528 4294967295
186.93895 9.2507706 -79.246483 4294967295
186.94067 10.143373 -78.780296 4294967295
186.97089 11.94516 -78.231461 4294967295
187.22794 7.8010664 -77.574936 4294967295
187.24135 6.9177341 -78.262299 4294967295
187.27818 7.3852921 -78.546715 4294967295
187.28601 8.281148 -78.166222 4294967295
187.2998 8.7350311 -78.118423 4294967295
187.33862 10.095463 -77.937744 4294967295
187.35982 9.6613903 -78.490868 4294967295
187.41154 11.028684 -78.497086 4294967295
187.44212 11.938088 -78.444771 4294967295
187.46002 11.501558 -78.950714 4294967295
187.72871 8.2581081 -77.966362 4294967295
187.75845 7.8301425 -78.646065 4294967295
187.77072 9.6203661 -77.830894 4294967295
187.81851 9.2020178 -78.773216 4294967295
187.82413 10.096896 -78.3582 4294967295
187.82607 8.7608805 -79.13118 4294967295
187.83353 10.99452 -77.997551 4294967295
187.84149 11.445349 -77.864899 4294967295
187.88823 11.917425 -78.295639 4294967295
187.88969 10.579874 -79.062645 4294967295
188.21516 9.5983982 -77.653946 4294967295
188.24435 8.7237387 -78.579597 4294967295
188.27766 10.080291 -78.316849 4294967295
188.30319 9.2036724 -79.189476 4294967295
188.3362 10.559443 -78.922318 4294967295
188.34851 11.012249 -78.852699 4294967295
188.35719 11.463083 -78.729675 4294967295
188.37067 11.916651 -78.67675 4294967295
188.67307 8.6925335 -78.175522 4294967295
188.69994 10.045729 -77.816429 4294967295
188.71992 9.6113586 -78.361214 4294967295
188.7283 9.170619 -78.735413 4294967295
188.75294 10.522043 -78.344017 4294967295
188.79582 12.330827 -77.968452 4294967295
188.80626 10.998137 -78.87648 4294967295
188.82098 11.898341 -78.590302 4294967295
189.19073 10.050575 -78.323517 4294967295
189.19795 9.6091003 -78.682747 4294967295
189.23071 10.519342 -78.661644 4294967295
189.2529 12.316078 -77.977814 4294967295
189.25407 11.424338 -78.501419 4294967295
189.27565 11.882435 -78.567863 4294967295
189.63077 10.472034 -77.82782 4294967295
189.63962 10.0313 -78.214012 4294967295
189.64815 10.92804 -77.832077 4294967295
189.6651 11.383797 -77.829758 4294967295
189.69592 12.293601 -77.779152 4294967295
189.71104 11.855755 -78.258751 4294967295
190.12125 10.92259 -78.081802 4294967295
190.15849 11.389761 -78.383255 4294967295
190.20793 11.863557 -78.867378 4294967295
190.22078 12.316612 -78.803841 4294967295
190.56897 10.902622 -77.95314 4294967295
190.62485 11.380545 -78.536789 4294967295
190.65669 12.290302 -78.501785 4294967295
191.05614 11.797173 -77.902863 4294967295
191.0892 12.261927 -78.144585 4294967295
191.55174 12.250463 -78.241913 4294967295
142.0238 12.519871 -78.404854 4294967295
142.49435 12.960022 -78.340042 4294967295
142.50034 12.510241 -78.554413 4294967295
142.92575 12.934984 -78.070808 4294967295
142.92717 13.38748 -77.924294 4294967295
142.99879 12.508215 -78.909149 4294967295
143.34166 13.356711 -77.495026 4294967295
143.35742 12.457998 -77.962532 4294967295
143.43546 13.840354 -78.209946 4294967295
143.44928 12.941368 -78.659492 4294967295
143.49077 14.310713 -78.566124 4294967295
143.84839 13.357154 -77.926849 4294967295
143.84909 14.713928 -77.450829 4294967295
143.85217 13.810488 -77.801567 4294967295
143.86041 12.4576 -78.361122 4294967295
143.93633 12.935418 -78.911316 4294967295
144.32367 14.703268 -77.582184 4294967295
144.36185 12.908352 -78.586975 4294967295
144.36974 12.459538 -78.822388 4294967295
144.37769 13.817204 -78.413239 4294967295
144.40715 15.182837 -78.205864 4294967295
144.4097 13.376364 -78.875565 4294967295
144.7679 12.874481 -78.07708 4294967295
144.78848 12.429955 -78.433075 4294967295
144.79762 14.240341 -77.871399 4294967295
144.79799 13.336621 -78.19886 4294967295
144.8107 15.148977 -77.670456 4294967295
144.87086 14.716729 -78.400764 4294967295
144.92906 15.639647 -78.626114 4294967295
144.93053 16.092129 -78.477859 4294967295
145.21602 12.403355 -78.124466 4294967295
145.24246 14.219879 -77.724388 4294967295
145.26244 13.774673 -78.076385 4294967295
145.27002 15.585609 -77.497322 4294967295
145.27864 13.328438 -78.392311 4294967295
145.31447 12.889286 -78.894386 4294967295
145.31853 14.697315 -78.282433 4294967295
145.32193 15.150412 -78.152023 4294967295
145.36371 16.068153 -78.222687 4294967295
145.4247 16.539732 -78.638191 4294967295
145.68182 14.197543 -77.524651 4294967295
145.72879 15.117508 -77.644623 4294967295
145.7585 14.675327 -78.090744 4294967295
145.76205 13.321299 -78.61409 4294967295
145.77304 12.422342 -79.044792 4294967295
145.78586 16.492836 -77.697319 4294967295
145.82837 15.602282 -78.428665 4294967295
145.82898 16.054483 -78.271294 4294967295
145.897 16.980331 -78.592102 4294967295
146.15051 12.378036 -78.259087 4294967295
146.198 14.201216 -78.057144 4294967295
146.22716 13.307887 -78.663086 4294967295
146.25041 16.478846 -77.737778 4294967295
146.26517 14.675663 -78.534615 4294967295
146.27795 13.776856 -78.984154 4294967295
146.29236 16.040234 -78.302551 4294967295
146.32228 17.406191 -78.096237 4294967295
146.34494 17.865551 -78.148941 4294967295
146.35809 16.965324 -78.602608 4294967295
146.65874 12.380011 -78.720352 4294967295
146.66615 12.83397 -78.62709 4294967295
146.66936 13.738096 -78.328842 4294967295
146.67059 14.190216 -78.176315 4294967295
146.6787 16.000896 -77.595482 4294967295
146.67873 13.289791 -78.583008 4294967295
146.70906 14.654998 -78.380455 4294967295
146.74883 16.475784 -78.103455 4294967295
146.7625 16.932301 -78.069809 4294967295
146.76395 15.576811 -78.577538 4294967295
146.76501 18.290199 -77.599846 4294967295
146.78339 17.843422 -77.941086 4294967295
146.8215 17.403112 -78.471397 4294967295
147.04932 13.243383 -77.724121 4294967295
147.10321 12.810734 -78.407478 4294967295
147.10765 13.715378 -78.120018 4294967295
147.1308 14.626806 -78.01255 4294967295
147.19502 16.908138 -77.804504 4294967295
147.19838 15.553099 -78.332542 4294967295
147.20169 17.362545 -77.703346 4294967295
147.20692 16.007801 -78.249588 4294967295
147.27327 17.837294 -78.227371 4294967295
