# .PCD v0.7 - Point Cloud Data file format
VERSION 0.7
FIELDS x y z rgb
SIZE 4 4 4 4
TYPE F F F U
COUNT 1 1 1 1
WIDTH 1147
HEIGHT 1
VIEWPOINT 0 0 0 1 0 0 0
POINTS 1147
DATA ascii
140.86127 64.433746 -58.110069 4294967295
140.87175 67.237366 -57.231865 4294967295
140.88153 62.565434 -58.948109 4294967295
140.89961 65.832306 -57.979126 4294967295
140.90796 64.897346 -58.381821 4294967295
140.93018 68.16729 -57.450218 4294967295
140.93323 63.495293 -59.104202 4294967295
140.93617 69.570671 -57.017548 4294967295
140.93997 68.634155 -57.378487 4294967295
140.94968 63.960758 -59.09486 4294967295
140.96169 65.360168 -58.719357 4294967295
140.97299 69.098557 -57.523285 4294967295
140.97525 67.695137 -58.03278 4294967295
140.98187 66.759743 -58.41946 4294967295
140.99193 70.500656 -57.21125 4294967295
141.01198 70.030151 -57.560917 4294967295
141.02254 73.308128 -56.518139 4294967295
141.02335 71.433418 -57.178009 4294967295
141.03102 71.900871 -57.08662 4294967295
141.05798 74.240921 -56.522514 4294967295
141.06505 73.770912 -56.751663 4294967295
141.06909 72.364304 -57.278748 4294967295
141.07025 78.465294 -55.166374 4294967295
141.07376 70.958885 -57.810944 4294967295
141.07784 74.706985 -56.544483 4294967295
141.08145 77.053459 -55.761681 4294967295
141.08473 75.644325 -56.282333 4294967295
141.09442 72.829353 -57.3517 4294967295
141.11243 76.109177 -56.377625 4294967295
141.11615 79.867485 -55.104248 4294967295
141.11787 77.986671 -55.774918 4294967295
141.13057 80.805611 -54.911762 4294967295
141.13182 77.514442 -56.068382 4294967295
141.14064 75.166306 -56.967339 4294967295
141.1432 78.921928 -55.684258 4294967295
141.16 81.270233 -55.023186 4294967295
141.1694 80.327415 -55.438499 4294967295
141.18665 81.735359 -55.108391 4294967295
141.2056 79.380165 -56.10371 4294967295
141.25716 64.421188 -57.432522 4294967295
141.31638 62.54966 -58.637508 4294967295
141.33743 63.948498 -58.345001 4294967295
141.35875 67.217766 -57.401703 4294967295
141.37064 67.684372 -57.349403 4294967295
141.39839 66.746552 -57.935513 4294967295
141.40088 65.811768 -58.285187 4294967295
141.40424 63.47739 -59.131638 4294967295
141.43382 69.081444 -57.449902 4294967295
141.44421 68.144768 -57.873745 4294967295
141.44897 68.611977 -57.754917 4294967295
141.4696 69.54541 -57.621174 4294967295
141.47534 71.885979 -56.857014 4294967295
141.47739 72.82309 -56.548855 4294967295
141.48775 73.290497 -56.481979 4294967295
141.50894 72.350082 -57.007889 4294967295
141.54384 77.036316 -55.696114 4294967295
141.55003 74.219254 -56.737843 4294967295
141.55553 78.444 -55.313431 4294967295
141.56667 74.685722 -56.729713 4294967295
141.57042 80.322479 -54.796028 4294967295
141.59106 75.150963 -56.794418 4294967295
141.60208 81.728134 -54.599899 4294967295
141.61954 76.084633 -56.733482 4294967295
141.62323 80.782448 -55.127266 4294967295
141.65137 79.83625 -55.719563 4294967295
141.65857 77.95549 -56.44342 4294967295
141.65924 79.364685 -55.957569 4294967295
141.69839 63.938072 -57.339104 4294967295
141.74919 64.401733 -57.65118 4294967295
141.793 65.800262 -57.570587 4294967295
141.7934 63.464771 -58.392921 4294967295
141.79999 62.997662 -58.618202 4294967295
141.80305 64.864929 -57.992378 4294967295
141.82228 67.668129 -57.189476 4294967295
141.83055 66.731972 -57.594872 4294967295
141.84027 68.134193 -57.194084 4294967295
141.85463 65.328026 -58.312096 4294967295
141.85928 62.52774 -59.337254 4294967295
141.87285 69.534798 -57.007538 4294967295
141.8741 68.598595 -57.347515 4294967295
141.87883 70.470665 -56.735535 4294967295
141.8969 66.258751 -58.380802 4294967295
141.91077 69.998596 -57.199566 4294967295
141.91235 70.934982 -56.886047 4294967295
141.935 71.400566 -56.934357 4294967295
141.9426 75.620728 -55.52615 4294967295
141.96106 71.865662 -57.015079 4294967295
142.00208 74.672638 -56.414516 4294967295
142.00369 76.080322 -55.936169 4294967295
142.02295 77.016281 -55.787975 4294967295
142.02461 74.200203 -56.790787 4294967295
142.02464 76.546371 -55.96846 4294967295
142.02609 81.24823 -54.333885 4294967295
142.0311 75.13726 -56.522667 4294967295
142.0347 72.792679 -57.37838 4294967295
142.05035 78.420929 -55.551659 4294967295
142.06808 80.768929 -54.894283 4294967295
142.06873 78.887543 -55.559792 4294967295
142.07216 81.709503 -54.602623 4294967295
142.11624 77.939156 -56.336372 4294967295
142.1196 80.288177 -55.54427 4294967295
142.1377 79.344475 -56.044098 4294967295
142.14883 79.812302 -55.984261 4294967295
142.17233 62.985802 -57.717274 4294967295
142.17989 66.724907 -56.472366 4294967295
142.21303 63.917194 -57.771408 4294967295
142.22559 65.317963 -57.396221 4294967295
142.23193 63.448978 -58.113472 4294967295
142.24976 64.848801 -57.788052 4294967295
142.25977 67.653282 -56.895039 4294967295
142.26494 68.12075 -56.77924 4294967295
142.26549 65.78212 -57.607189 4294967295
142.26813 68.588516 -56.644501 4294967295
142.27222 64.380058 -58.163605 4294967295
142.27477 62.513073 -58.84457 4294967295
142.29401 69.522171 -56.558815 4294967295
142.34415 67.177452 -57.854218 4294967295
142.35735 70.451462 -56.825993 4294967295
142.37314 71.855026 -56.480179 4294967295
142.39517 69.97876 -57.347092 4294967295
142.39561 72.320732 -56.527275 4294967295
142.41115 71.381538 -57.003464 4294967295
142.43367 72.784233 -56.721252 4294967295
142.43881 75.12867 -55.944653 4294967295
142.47258 73.247475 -56.923119 4294967295
142.4838 76.99939 -55.708214 4294967295
142.48755 73.714043 -56.899452 4294967295
142.50258 81.699203 -54.230759 4294967295
142.50769 76.525703 -56.099068 4294967295
142.51025 74.179466 -56.948746 4294967295
142.51218 74.648071 -56.801865 4294967295
142.53181 80.751595 -54.838638 4294967295
142.53546 76.051666 -56.526451 4294967295
142.55046 79.336838 -55.511219 4294967295
142.56187 78.394745 -55.949776 4294967295
142.57596 80.272278 -55.42128 4294967295
142.59317 65.308189 -56.442024 4294967295
142.6013 79.797096 -55.826332 4294967295
142.62952 62.968792 -57.610523 4294967295
142.63086 62.501808 -57.787987 4294967295
142.666 69.515144 -55.642101 4294967295
142.67136 69.045959 -55.858166 4294967295
142.675 66.236862 -56.884628 4294967295
142.69441 67.170738 -56.737503 4294967295
142.69705 64.832626 -57.588078 4294967295
142.69809 68.574669 -56.276241 4294967295
142.70068 66.702316 -56.962074 4294967295
142.70934 67.637253 -56.713356 4294967295
142.73117 64.362984 -58.075333 4294967295
142.76117 69.972755 -56.376633 4294967295
142.76747 63.893581 -58.58287 4294967295
142.77567 68.098534 -57.174889 4294967295
142.78244 70.907265 -56.246876 4294967295
142.79179 65.759483 -58.152916 4294967295
142.83328 72.306862 -56.231224 4294967295
142.83351 70.432533 -56.89534 4294967295
142.87579 73.70771 -56.136673 4294967295
142.88052 72.769165 -56.512733 4294967295
142.89603 71.829803 -56.990398 4294967295
142.89691 77.460762 -55.010212 4294967295
142.89838 73.235458 -56.516132 4294967295
142.90947 74.171768 -56.289997 4294967295
142.91908 75.108665 -56.049652 4294967295
142.94011 76.044044 -55.917229 4294967295
142.9473 79.332329 -54.823524 4294967295
142.95567 76.980583 -55.73296 4294967295
142.96054 76.510139 -55.945023 4294967295
142.97476 80.738495 -54.585617 4294967295
142.98608 81.206902 -54.526745 4294967295
142.98811 80.265221 -54.878403 4294967295
142.99171 78.85363 -55.410801 4294967295
142.99829 79.792786 -55.141201 4294967295
143.02808 77.907135 -56.087551 4294967295
143.0423 65.291962 -56.254002 4294967295
143.06448 81.661186 -55.104568 4294967295
143.12268 62.482784 -58.009621 4294967295
143.13297 67.623779 -56.284374 4294967295
143.14462 63.415092 -57.886536 4294967295
143.14993 63.88171 -57.771328 4294967295
143.1584 64.348198 -57.685875 4294967295
143.1731 69.492836 -56.001171 4294967295
143.17496 66.216293 -57.180275 4294967295
143.18007 64.813736 -57.725693 4294967295
143.18147 69.960449 -55.914383 4294967295
143.18469 67.15081 -56.941006 4294967295
143.18542 71.835442 -55.28714 4294967295
143.20175 65.746529 -57.600048 4294967295
143.29086 70.415878 -56.78685 4294967295
143.29251 72.758987 -55.971951 4294967295
143.30482 72.288376 -56.255039 4294967295
143.32249 73.69281 -55.924248 4294967295
143.33009 75.569199 -55.331001 4294967295
143.33275 74.629768 -55.689106 4294967295
143.34177 76.506775 -55.108734 4294967295
143.35008 73.219765 -56.352768 4294967295
143.38635 79.319763 -54.532974 4294967295
143.38666 80.260948 -54.202061 4294967295
143.40163 77.906097 -55.178551 4294967295
143.40291 76.966064 -55.523788 4294967295
143.41273 81.197311 -54.116608 4294967295
143.41531 76.024734 -55.974892 4294967295
143.42125 77.43264 -55.531807 4294967295
143.42232 81.666267 -54.041103 4294967295
143.43028 75.083717 -56.449902 4294967295
143.47171 78.833183 -55.512268 4294967295
143.48611 79.770691 -55.316105 4294967295
143.54448 65.271484 -56.569912 4294967295
143.55344 67.14241 -55.989151 4294967295
143.5587 67.610123 -55.872726 4294967295
143.57434 68.545296 -55.688324 4294967295
143.58473 62.465477 -57.950356 4294967295
143.59512 66.202675 -56.719124 4294967295
143.60023 69.479607 -55.601524 4294967295
143.60162 63.398117 -57.778702 4294967295
143.60588 70.416504 -55.321709 4294967295
143.61084 69.009842 -55.869217 4294967295
143.61861 68.072334 -56.276512 4294967295
143.62735 64.330399 -57.691055 4294967295
143.62747 66.667542 -56.860443 4294967295
143.62813 62.92963 -58.197052 4294967295
143.62889 63.863251 -57.872063 4294967295
143.6445 71.818687 -55.188904 4294967295
143.67793 71.345291 -55.674755 4294967295
143.71413 72.278404 -55.68605 4294967295
143.72194 70.870949 -56.260994 4294967295
143.73386 74.152573 -55.206291 4294967295
143.79274 73.674446 -55.935059 4294967295
143.79457 74.612679 -55.618565 4294967295
143.83211 73.199715 -56.477467 4294967295
143.83981 75.074921 -55.88335 4294967295
143.87531 79.297554 -54.717445 4294967295
143.87811 77.416489 -55.413544 4294967295
143.88147 76.476448 -55.779804 4294967295
143.88191 78.355774 -55.115273 4294967295
143.88762 76.00589 -56.00573 4294967295
143.8878 75.536499 -56.174355 4294967295
143.9024 76.942444 -55.812462 4294967295
143.94807 64.323334 -56.28112 4294967295
143.94945 65.726753 -55.792831 4294967295
143.96066 80.221481 -55.198444 4294967295
143.96152 62.453056 -57.077171 4294967295
143.96689 64.789604 -56.293751 4294967295
143.97694 78.80793 -55.855942 4294967295
143.98056 80.68782 -55.221275 4294967295
143.98116 79.747154 -55.56168 4294967295
143.98425 68.533646 -55.121719 4294967295
143.99719 69.93882 -54.743065 4294967295
143.99907 68.063484 -55.430824 4294967295
144.00574 66.657944 -55.996441 4294967295
144.02159 68.998299 -55.311363 4294967295
144.04361 71.340569 -54.684319 4294967295
144.04419 69.46447 -55.360058 4294967295
144.06369 67.120575 -56.382889 4294967295
144.06679 70.868454 -55.073788 4294967295
144.09692 70.395798 -55.529541 4294967295
144.13414 72.266983 -55.215599 4294967295
144.16298 72.732193 -55.324142 4294967295
144.19171 73.197327 -55.431587 4294967295
144.2244 76.479721 -54.570358 4294967295
144.24438 75.536613 -55.097496 4294967295
144.28577 74.121788 -55.997101 4294967295
144.28908 73.652199 -56.196335 4294967295
144.29431 74.589668 -55.911285 4294967295
144.29865 75.058296 -55.785141 4294967295
144.32965 77.871269 -55.075665 4294967295
144.36664 79.274872 -54.926468 4294967295
144.36685 78.334457 -55.264458 4294967295
144.38342 66.180069 -55.288139 4294967295
144.38805 77.390839 -55.803371 4294967295
144.39566 81.151115 -54.532887 4294967295
144.39981 80.209076 -54.908752 4294967295
144.40726 68.520615 -54.676727 4294967295
144.41299 68.988907 -54.563942 4294967295
144.41788 65.241005 -55.954315 4294967295
144.42145 81.61644 -54.611923 4294967295
144.42819 67.11264 -55.381874 4294967295
144.43109 67.580795 -55.241764 4294967295
144.43442 65.707565 -55.945339 4294967295
144.43588 68.048874 -55.119637 4294967295
144.44171 79.730392 -55.478626 4294967295
144.4427 80.670776 -55.152416 4294967295
144.44495 70.392525 -54.366173 4294967295
144.45543 62.43391 -57.319939 4294967295
144.45955 62.900677 -57.191856 4294967295
144.47447 64.768852 -56.664703 4294967295
144.47734 69.91951 -54.845379 4294967295
144.47809 69.4505 -55.020699 4294967295
144.5349 63.829891 -57.579048 4294967295
144.53763 64.296806 -57.437611 4294967295
144.54257 72.257195 -54.630863 4294967295
144.54845 70.848824 -55.191898 4294967295
144.55399 71.317169 -55.076797 4294967295
144.55829 71.785759 -54.949802 4294967295
144.61406 72.716599 -55.149418 4294967295
144.65565 73.179909 -55.380829 4294967295
144.65675 73.649063 -55.223129 4294967295
144.68231 75.993355 -54.626888 4294967295
144.72066 75.047585 -55.332523 4294967295
144.74323 76.452927 -55.044426 4294967295
144.75844 74.572197 -55.864182 4294967295
144.78375 77.385643 -55.097366 4294967295
144.80162 75.503899 -55.942989 4294967295
144.80461 77.851852 -55.129677 4294967295
144.81175 78.32061 -55.029747 4294967295
144.82367 76.90873 -55.649902 4294967295
144.83698 80.197098 -54.598152 4294967295
144.84695 62.887955 -56.412064 4294967295
144.85915 79.722198 -54.98035 4294967295
144.86282 78.781052 -55.353073 4294967295
144.86456 66.161156 -55.40287 4294967295
144.87627 68.971596 -54.503555 4294967295
144.8763 81.130257 -54.639565 4294967295
144.88426 79.247025 -55.390831 4294967295
144.88843 62.418282 -56.97908 4294967295
144.89828 63.352028 -56.737595 4294967295
144.90575 70.844872 -54.112118 4294967295
144.93427 69.902954 -54.724899 4294967295
144.93872 64.283936 -56.790176 4294967295
144.94882 71.308746 -54.358479 4294967295
144.97499 69.429314 -55.286098 4294967295
145.00589 72.709396 -54.402199 4294967295
145.04445 73.643036 -54.435966 4294967295
145.06567 74.109535 -54.471901 4294967295
145.07335 72.230606 -55.221889 4294967295
145.09009 75.045357 -54.369312 4294967295
145.10039 73.165291 -55.144791 4294967295
145.12187 75.98008 -54.337879 4294967295
145.20409 78.316635 -54.285812 4294967295
145.23511 66.15197 -54.449829 4294967295
145.25642 78.7771 -54.622261 4294967295
145.25877 81.60112 -53.628487 4294967295
145.2626 76.895699 -55.358765 4294967295
145.27698 77.832901 -55.159405 4294967295
145.2822 65.211281 -55.243195 4294967295
145.2955 76.420311 -55.845512 4294967295
145.30377 64.74157 -55.620811 4294967295
145.31026 77.356972 -55.649918 4294967295
145.32297 80.645813 -54.58828 4294967295
145.32758 62.869507 -56.526375 4294967295
145.33653 79.702118 -55.058029 4294967295
145.34402 79.230408 -55.299648 4294967295
145.35286 62.400829 -56.939442 4294967295
145.37546 69.88826 -54.451797 4294967295
145.37833 80.164017 -55.292862 4294967295
145.38159 63.333344 -56.879112 4294967295
145.41989 71.759857 -54.203629 4294967295
145.45955 71.285271 -54.757061 4294967295
145.46837 70.815018 -55.01181 4294967295
145.4696 73.16169 -54.176075 4294967295
145.48299 72.690155 -54.475376 4294967295
145.5136 74.564491 -54.092907 4294967295
145.51956 72.215652 -54.998951 4294967295
145.54973 73.619484 -54.782215 4294967295
145.5621 75.496628 -54.22345 4294967295
145.56631 75.026001 -54.433868 4294967295
145.63687 74.075691 -55.457092 4294967295
145.64159 75.9533 -54.824005 4294967295
145.67719 78.297554 -54.319878 4294967295
145.72493 76.878548 -55.292461 4294967295
145.7412 78.755722 -54.770851 4294967295
145.75813 63.321632 -55.987408 4294967295
145.76247 77.341652 -55.486866 4294967295
145.76334 79.221733 -54.815777 4294967295
145.76616 62.853653 -56.23476 4294967295
145.77103 79.69059 -54.720459 4294967295
145.7821 64.255249 -55.880684 4294967295
145.79211 80.627357 -54.585205 4294967295
145.79886 63.786438 -56.21278 4294967295
145.81975 62.383244 -56.923733 4294967295
145.82236 80.15065 -55.04879 4294967295
145.84583 71.747597 -53.779427 4294967295
145.85835 81.554619 -54.888283 4294967295
145.8784 72.212799 -53.925629 4294967295
145.94786 72.672646 -54.430412 4294967295
145.97083 73.138878 -54.483482 4294967295
146.01085 73.602509 -54.702293 4294967295
146.02393 75.479607 -54.147995 4294967295
146.03406 74.068542 -54.757793 4294967295
146.04515 76.41629 -54.013466 4294967295
146.12413 74.523994 -55.463539 4294967295
146.13376 74.991898 -55.386913 4294967295
146.16782 81.099388 -53.500957 4294967295
146.17635 76.86335 -55.119919 4294967295
146.17815 64.242798 -55.171661 4294967295
146.17842 80.626137 -53.775253 4294967295
146.18462 63.774429 -55.404942 4294967295
146.19006 78.27095 -54.742043 4294967295
146.21057 80.148705 -54.259384 4294967295
146.23012 79.203781 -54.790867 4294967295
146.23665 78.732262 -55.025093 4294967295
146.26117 63.301662 -56.320175 4294967295
146.26794 79.666595 -54.988914 4294967295
146.30525 62.364586 -57.089333 4294967295
146.31099 72.199783 -53.563953 4294967295
146.32483 72.667671 -53.528011 4294967295
146.33357 71.727036 -53.955322 4294967295
146.37587 73.130119 -53.855034 4294967295
146.46033 75.466812 -53.824085 4294967295
146.46162 73.587082 -54.521221 4294967295
146.48627 75.93264 -53.906181 4294967295
146.49495 74.051613 -54.675323 4294967295
146.50494 74.989502 -54.431007 4294967295
146.51404 74.51828 -54.690872 4294967295
146.51469 76.397957 -54.012798 4294967295
146.56277 76.859711 -54.311409 4294967295
146.60596 78.26265 -54.219742 4294967295
146.63954 77.786079 -54.719193 4294967295
146.65289 78.72406 -54.507294 4294967295
146.67131 80.60276 -54.002037 4294967295
146.67369 80.131508 -54.196686 4294967295
146.6841 77.307922 -55.325867 4294967295
146.69193 63.286427 -55.949718 4294967295
146.70502 62.350876 -56.419201 4294967295
146.72032 79.181206 -54.995461 4294967295
146.72787 81.532463 -54.212601 4294967295
146.73006 72.18869 -53.067322 4294967295
146.74228 81.058578 -54.524921 4294967295
146.74564 72.656487 -53.048256 4294967295
146.76508 79.642509 -55.261894 4294967295
146.77986 62.813538 -56.979523 4294967295
146.81639 73.116196 -53.569717 4294967295
146.94551 73.566689 -54.663277 4294967295
146.96776 74.972298 -54.366371 4294967295
146.97192 75.441528 -54.235466 4294967295
146.98886 74.029587 -54.916603 4294967295
146.98947 76.848969 -53.892052 4294967295
147.04544 76.368973 -54.612782 4294967295
147.06749 75.895302 -55.000893 4294967295
147.09161 77.770897 -54.550373 4294967295
147.11574 62.336548 -55.851997 4294967295
147.12439 80.116867 -54.012177 4294967295
147.12512 79.175491 -54.363487 4294967295
147.1291 63.270763 -55.639835 4294967295
147.14986 77.290161 -55.293571 4294967295
147.14998 78.700264 -54.779415 4294967295
147.16112 80.579994 -54.200771 4294967295
147.20071 79.630791 -54.933655 4294967295
147.23598 81.034851 -54.764008 4294967295
147.29988 72.15657 -54.049957 4294967295
147.30896 72.624901 -53.967026 4294967295
147.32869 73.561523 -53.816193 4294967295
147.36185 73.086838 -54.31472 4294967295
147.40633 75.429092 -53.890411 4294967295
147.42435 74.486282 -54.412621 4294967295
147.44817 74.952232 -54.474792 4294967295
147.47408 75.887695 -54.385059 4294967295
147.5141 77.290939 -54.261566 4294967295
147.53101 76.817749 -54.600746 4294967295
147.56245 62.320129 -55.634895 4294967295
147.56514 80.575218 -53.555756 4294967295
147.57079 76.340828 -55.164726 4294967295
147.57083 77.750656 -54.647758 4294967295
147.5722 80.102837 -53.798031 4294967295
147.61229 79.62397 -54.366138 4294967295
147.64209 79.147591 -54.832241 4294967295
147.64639 78.206482 -55.219879 4294967295
147.65791 78.674309 -55.160858 4294967295
147.66805 81.495064 -54.224922 4294967295
147.68225 81.96286 -54.192253 4294967295
147.69601 81.01828 -54.673405 4294967295
147.72989 72.613716 -53.487133 4294967295
147.74854 73.550835 -53.325253 4294967295
147.79773 74.48336 -53.464798 4294967295
147.80164 74.012695 -53.676483 4294967295
147.8867 74.938995 -54.170788 4294967295
147.95181 75.398079 -54.640923 4294967295
147.96671 75.865395 -54.615303 4294967295
147.98671 76.801834 -54.466534 4294967295
148.00128 78.209885 -54.091034 4294967295
148.00462 79.150352 -53.777454 4294967295
148.01416 77.266945 -54.564911 4294967295
148.0316 76.323952 -55.083614 4294967295
148.04276 77.731766 -54.674347 4294967295
148.09055 80.544945 -54.107559 4294967295
148.09836 78.661446 -54.878143 4294967295
148.13216 80.065651 -54.692818 4294967295
148.16948 81.469505 -54.542236 4294967295
148.19376 73.536354 -53.082157 4294967295
148.19841 72.595703 -53.476028 4294967295
148.27776 74.46344 -53.56749 4294967295
148.30063 75.870338 -53.272739 4294967295
148.33788 75.393761 -53.816368 4294967295
148.34578 74.922417 -54.068382 4294967295
148.39502 77.264816 -53.687759 4294967295
148.41943 76.319923 -54.27766 4294967295
148.44914 76.784706 -54.398872 4294967295
148.45166 80.549324 -53.031456 4294967295
148.45306 79.606941 -53.393734 4294967295
148.46893 79.132935 -53.72543 4294967295
148.47699 62.286095 -55.405903 4294967295
148.50633 81.951302 -53.051987 4294967295
148.51544 80.064964 -53.839355 4294967295
148.53532 81.473625 -53.514359 4294967295
148.6407 73.051476 -53.029373 4294967295
148.67345 74.457047 -52.831646 4294967295
148.6769 73.986229 -53.040546 4294967295
148.72585 74.918854 -53.178902 4294967295
148.81589 75.374023 -53.901108 4294967295
148.82979 75.841759 -53.865158 4294967295
148.84886 76.308624 -53.880585 4294967295
148.87938 76.773399 -54.010075 4294967295
148.91322 77.707771 -53.998173 4294967295
148.93867 79.585197 -53.55291 4294967295
148.94101 80.055611 -53.401466 4294967295
148.94205 77.232147 -54.459953 4294967295
148.94771 80.996361 -53.118469 4294967295
148.95634 78.640343 -54.07859 4294967295
148.95775 78.169662 -54.267208 4294967295
148.97153 62.266907 -55.661987 4294967295
148.97929 79.106293 -54.132881 4294967295
148.9859 80.517105 -53.674629 4294967295
149.02591 81.450439 -53.723824 4294967295
149.07382 81.91082 -54.027237 4294967295
149.12445 73.031197 -53.169224 4294967295
149.12724 73.971031 -52.846622 4294967295
149.2869 75.825584 -53.741959 4294967295
149.28958 76.765747 -53.418018 4294967295
149.30038 75.353188 -54.052055 4294967295
149.32312 76.289429 -53.928898 4294967295
149.37433 79.573654 -53.213623 4294967295
149.40611 78.155273 -54.058159 4294967295
149.41016 78.624962 -53.92321 4294967295
149.4189 80.506355 -53.308979 4294967295
149.42722 79.09214 -53.91872 4294967295
149.43579 80.973824 -53.302666 4294967295
149.43771 77.208885 -54.725113 4294967295
149.44319 81.443405 -53.200886 4294967295
149.4496 62.248669 -55.755817 4294967295
149.53368 80.011398 -54.634155 4294967295
149.6299 73.947601 -53.17659 4294967295
149.65163 74.414284 -53.218624 4294967295
149.65971 73.472969 -53.651657 4294967295
149.70627 75.345657 -53.415173 4294967295
149.76028 74.866539 -54.133427 4294967295
149.77869 75.803383 -53.966412 4294967295
149.82097 76.266045 -54.215187 4294967295
149.83664 76.73333 -54.196476 4294967295
149.84734 62.235119 -55.044395 4294967295
149.87866 77.665916 -54.266949 4294967295
149.88022 77.195442 -54.458618 4294967295
149.90874 80.012611 -53.688759 4294967295
149.92162 78.127914 -54.522522 4294967295
149.94983 79.06295 -54.454147 4294967295
150.00705 81.403961 -54.148788 4294967295
150.13261 74.39418 -53.333366 4294967295
150.19617 76.26445 -53.267181 4294967295
150.1978 74.853554 -53.813683 4294967295
150.20749 62.691875 -53.772388 4294967295
150.22505 75.78907 -53.735348 4294967295
150.29414 79.069733 -53.194679 4294967295
150.31891 77.182739 -54.151779 4294967295
150.32181 76.712082 -54.35743 4294967295
150.3555 77.64608 -54.344082 4294967295
150.37317 81.879646 -52.930378 4294967295
150.39592 81.403259 -53.337318 4294967295
150.39642 80.932053 -53.519524 4294967295
150.40941 78.105896 -54.711308 4294967295
150.41103 79.987206 -54.020729 4294967295
150.41745 79.515259 -54.262337 4294967295
150.4243 78.573143 -54.684826 4294967295
150.46768 73.456772 -52.328178 4294967295
150.66245 74.836052 -53.766533 4294967295
150.69296 75.300926 -53.898102 4294967295
150.71266 75.76757 -53.920097 4294967295
150.73381 77.174507 -53.60207 4294967295
150.73889 76.703232 -53.83094 4294967295
150.74414 77.643036 -53.529186 4294967295
150.75314 78.111877 -53.44294 4294967295
150.82248 80.923004 -53.079735 4294967295
150.84114 81.390106 -53.091278 4294967295
150.84254 79.035278 -53.993622 4294967295
150.84254 79.505905 -53.815903 4294967295
150.88396 80.438667 -53.880646 4294967295
150.88786 79.967102 -54.097862 4294967295
151.02847 73.894508 -53.073551 4294967295
151.06882 73.418205 -53.661182 4294967295
151.08316 74.825905 -53.272926 4294967295
151.08841 74.354935 -53.504108 4294967295
151.12492 75.289017 -53.519184 4294967295
151.13101 75.758179 -53.402916 4294967295
151.13864 62.656887 -53.696793 4294967295
151.22163 77.152679 -53.789867 4294967295
151.25848 76.675659 -54.342503 4294967295
151.27139 79.495811 -53.40477 4294967295
151.27359 78.083488 -53.961891 4294967295
151.28587 81.848518 -52.659962 4294967295
151.30812 78.547089 -54.134903 4294967295
151.30971 80.429527 -53.43795 4294967295
151.35011 80.891693 -53.670841 4294967295
151.36395 81.359634 -53.633423 4294967295
151.3656 79.9468 -54.185211 4294967295
151.51987 74.813126 -52.938782 4294967295
151.52628 74.341827 -53.183094 4294967295
151.57487 73.864014 -53.85738 4294967295
151.60435 75.268997 -53.621944 4294967295
151.65878 75.729622 -53.998573 4294967295
151.68979 76.664261 -53.957508 4294967295
151.69441 62.633743 -54.579468 4294967295
151.71323 78.070869 -53.660233 4294967295
151.71658 79.011505 -53.336586 4294967295
151.72215 80.8946 -52.677017 4294967295
151.7538 79.474632 -53.537659 4294967295
151.75519 77.122238 -54.4464 4294967295
151.76581 77.590332 -54.375938 4294967295
151.79753 79.936203 -53.80555 4294967295
151.8264 81.342613 -53.563309 4294967295
151.84271 81.81002 -53.551044 4294967295
151.91411 73.396332 -52.706421 4294967295
151.98407 73.855392 -53.243088 4294967295
151.99146 74.79451 -52.959763 4294967295
152.03601 76.197968 -52.877514 4294967295
152.14627 62.617096 -54.405144 4294967295
152.15027 75.707375 -54.227715 4294967295
152.18004 76.642021 -54.173775 4294967295
152.19345 77.57991 -53.952297 4294967295
152.20027 77.108368 -54.201725 4294967295
152.20082 79.460808 -53.309219 4294967295
152.209 78.517723 -53.752441 4294967295
152.22058 79.927536 -53.332191 4294967295
152.24103 78.040947 -54.260536 4294967295
152.2411 78.981766 -53.902008 4294967295
152.24112 80.394081 -53.363178 4294967295
152.24654 81.80645 -52.878899 4294967295
152.25345 80.862419 -53.309723 4294967295
152.28207 81.327118 -53.423691 4294967295
152.35269 73.382965 -52.387669 4294967295
152.42258 74.312332 -52.745632 4294967295
152.44215 72.899117 -53.487392 4294967295
152.51529 75.707458 -53.158138 4294967295
152.54091 74.762741 -53.782177 4294967295
152.54752 76.172043 -53.309425 4294967295
152.57265 77.108284 -53.207237 4294967295
152.57585 76.637222 -53.420597 4294967295
152.58536 77.576439 -53.157791 4294967295
152.61673 62.599285 -54.421341 4294967295
152.7182 81.787369 -52.901215 4294967295
152.71924 80.844666 -53.273129 4294967295
152.7343 78.487991 -54.330425 4294967295
152.73949 80.369247 -53.662292 4294967295
152.76918 79.892105 -54.148663 4294967295
152.77379 81.303497 -53.654774 4294967295
152.83284 72.422928 -52.857483 4294967295
152.83717 73.362427 -52.540352 4294967295
152.86679 73.827942 -52.665138 4294967295
152.9155 74.290222 -52.9869 4294967295
152.91862 74.759949 -52.838181 4294967295
152.98454 75.218903 -53.337952 4294967295
153.0193 76.623665 -53.153996 4294967295
153.05916 63.051208 -53.967514 4294967295
153.08154 78.494164 -53.072594 4294967295
153.12256 76.134521 -54.401878 4294967295
153.13341 79.89608 -53.065331 4294967295
153.13847 77.071617 -54.204311 4294967295
153.14938 77.539696 -54.136036 4294967295
153.15283 79.421051 -53.447342 4294967295
153.15517 78.949844 -53.652679 4294967295
153.16603 62.5765 -55.252174 4294967295
153.17473 81.300423 -52.948692 4294967295
153.20497 80.351532 -53.624256 4294967295
153.20975 77.998055 -54.579056 4294967295
153.22476 81.760223 -53.285027 4294967295
153.22908 80.817101 -53.692432 4294967295
153.26239 72.880875 -52.262398 4294967295
153.33894 72.399292 -53.237175 4294967295
153.37775 73.333046 -53.27607 4294967295
153.39655 74.270035 -53.10778 4294967295
153.41176 74.737648 -53.083725 4294967295
153.44402 75.672615 -53.054688 4294967295
153.49922 75.192726 -53.809044 4294967295
153.5089 63.502945 -53.586342 4294967295
153.55632 76.122597 -54.037987 4294967295
153.57445 80.354874 -52.588844 4294967295
153.58566 62.561886 -54.745632 4294967295
153.58931 79.880478 -52.925316 4294967295
153.59126 77.996994 -53.673454 4294967295
153.60414 76.583817 -54.352348 4294967295
153.61841 80.816399 -52.86335 4294967295
153.6201 78.461693 -53.791092 4294967295
153.62172 63.027187 -54.938118 4294967295
153.63618 77.517853 -54.321484 4294967295
153.67497 81.274841 -53.269207 4294967295
153.76447 72.387672 -52.7822 4294967295
153.81157 73.320435 -52.907372 4294967295
153.82906 72.847771 -53.272049 4294967295
153.90968 74.244514 -53.56382 4294967295
153.91611 75.653809 -53.083588 4294967295
153.94093 74.709198 -53.70686 4294967295
153.96887 75.174339 -53.81562 4294967295
154.01668 63.950573 -53.806923 4294967295
154.0388 78.924278 -53.083622 4294967295
154.03918 76.101746 -54.182983 4294967295
154.07141 78.446869 -53.60627 4294967295
154.08051 76.564072 -54.431129 4294967295
154.10291 63.47625 -54.88752 4294967295
154.10326 77.029747 -54.485695 4294967295
154.1167 77.967361 -54.260891 4294967295
154.11949 80.319733 -53.376846 4294967295
154.11963 77.49662 -54.47403 4294967295
154.13097 79.846382 -53.679317 4294967295
154.13489 63.006462 -55.402901 4294967295
154.13963 81.728561 -53.038437 4294967295
154.15903 71.440529 -52.366669 4294967295
154.16386 81.251801 -53.474083 4294967295
154.2652 73.774879 -52.560036 4294967295
154.28911 72.361221 -53.359406 4294967295
154.31728 73.296463 -53.287476 4294967295
154.32875 74.234604 -53.041157 4294967295
154.34364 75.172554 -52.830315 4294967295
154.35036 74.701118 -53.083813 4294967295
154.42331 75.628708 -53.480114 4294967295
154.43456 77.508354 -52.864487 4294967295
154.46054 63.934696 -53.544197 4294967295
154.49829 64.400063 -53.755901 4294967295
154.50406 76.554207 -53.958443 4294967295
154.51991 63.462204 -54.348362 4294967295
154.52397 79.37336 -53.066597 4294967295
154.53703 80.312622 -52.836311 4294967295
154.53862 77.017792 -54.136597 4294967295
154.55626 80.779518 -52.854057 4294967295
154.56186 78.894623 -53.646751 4294967295
154.56902 81.719299 -52.620136 4294967295
154.58046 62.99028 -55.164551 4294967295
154.58797 79.830505 -53.553425 4294967295
154.64034 81.231567 -53.55125 4294967295
154.64648 62.518646 -56.037868 4294967295
154.66187 72.357567 -52.348412 4294967295
154.66197 71.417641 -52.717243 4294967295
154.79453 73.276978 -53.372307 4294967295
154.80293 73.745522 -53.276791 4294967295
154.81143 72.804611 -53.733498 4294967295
154.82672 74.211571 -53.342541 4294967295
154.85146 74.677399 -53.418373 4294967295
154.89766 75.139397 -53.719406 4294967295
154.90092 76.079063 -53.385941 4294967295
154.92479 64.854187 -53.125778 4294967295
154.98608 76.533409 -54.096287 4294967295
154.9903 79.826523 -52.851608 4294967295
154.99216 80.297241 -52.686813 4294967295
155.01866 79.349472 -53.334198 4294967295
155.02016 77.937416 -53.902328 4294967295
155.0211 62.974442 -54.873314 4294967295
155.04013 78.874252 -53.744232 4294967295
155.04538 64.376007 -54.576782 4294967295
155.04668 78.40242 -53.997009 4294967295
155.06177 77.458961 -54.523582 4294967295
155.07143 70.468277 -52.455795 4294967295
155.07452 81.692261 -53.000252 4294967295
155.08336 80.747948 -53.461811 4294967295
155.08875 63.904827 -55.216431 4294967295
155.10115 81.21492 -53.464607 4294967295
155.10178 70.933891 -52.590828 4294967295
155.10529 63.436089 -55.573738 4294967295
155.1393 69.989777 -53.35479 4294967295
155.14714 71.867058 -52.699364 4294967295
155.16943 71.394089 -53.118652 4294967295
155.20964 72.797401 -52.988377 4294967295
155.2196 73.73587 -52.724052 4294967295
155.28732 73.255013 -53.622311 4294967295
155.34518 76.065323 -53.124039 4294967295
155.35123 74.184036 -53.926643 4294967295
155.37352 75.589935 -53.607746 4294967295
155.40057 74.645386 -54.262081 4294967295
155.40166 75.11496 -54.088898 4294967295
155.42326 66.239944 -52.880398 4294967295
155.43404 76.989227 -53.691742 4294967295
155.43762 78.400017 -53.174858 4294967295
155.45316 79.338402 -52.968864 4294967295
155.45326 77.926224 -53.524876 4294967295
155.46552 65.298676 -53.696293 4294967295
155.48062 66.70311 -53.300808 4294967295
155.48628 80.744385 -52.763599 4294967295
155.48793 80.272858 -52.96608 4294967295
155.48914 62.956745 -54.868778 4294967295
155.49286 77.44799 -54.127686 4294967295
155.50899 64.358627 -54.52459 4294967295
155.51987 81.679291 -52.747936 4294967295
155.55093 78.847031 -54.186157 4294967295
155.56833 69.038292 -53.302044 4294967295
155.57297 69.976334 -52.980694 4294967295
155.59053 62.482773 -56.122475 4294967295
155.59303 63.416954 -55.780098 4294967295
155.62958 70.907677 -53.208717 4294967295
155.65047 71.374275 -53.244328 4294967295
155.66547 71.841705 -53.217598 4294967295
155.66995 72.310745 -53.079777 4294967295
155.77373 72.76445 -53.992424 4294967295
155.79343 74.640213 -53.459358 4294967295
155.79384 75.580421 -53.0928 4294967295
155.82858 75.104073 -53.64629 4294967295
155.88231 78.857498 -52.730278 4294967295
155.90723 77.440369 -53.551514 4294967295
155.91579 66.688644 -52.941895 4294967295
155.92015 77.908241 -53.502899 4294967295
155.92859 65.281364 -53.634819 4294967295
155.93649 76.494308 -54.23262 4294967295
155.94389 62.472393 -54.909336 4294967295
155.9554 65.747383 -53.733273 4294967295
155.95584 81.197113 -52.580559 4294967295
155.97141 63.405682 -54.830223 4294967295
155.97839 79.307907 -53.563194 4294967295
156.00136 80.244484 -53.435097 4294967295
156.002 66.211395 -54.041405 4294967295
156.00522 79.772812 -53.66201 4294967295
156.0135 64.337944 -54.905457 4294967295
156.01414 69.492455 -52.86985 4294967295
156.02917 64.804482 -54.886139 4294967295
156.02968 62.934135 -55.632545 4294967295
156.03117 81.650818 -53.193848 4294967295
156.0789 70.422829 -53.185143 4294967295
156.10237 69.950401 -53.620266 4294967295
156.10916 71.827324 -52.948257 4294967295
156.11316 69.011002 -54.106453 4294967295
156.11711 72.765877 -52.660446 4294967295
156.15549 71.350998 -53.62648 4294967295
156.19984 70.875488 -54.283318 4294967295
156.228 73.687935 -53.466179 4294967295
156.23314 72.278305 -54.079132 4294967295
156.26253 74.621933 -53.460964 4294967295
156.32587 77.902657 -52.829922 4294967295
156.34642 76.016991 -53.794136 4294967295
156.35428 77.426338 -53.318893 4294967295
156.36073 75.54438 -54.132751 4294967295
156.36752 75.073387 -54.391159 4294967295
156.36952 76.95295 -53.667366 4294967295
156.41397 63.389812 -54.555481 4294967295
156.4339 79.292336 -53.42028 4294967295
156.45381 81.643227 -52.699051 4294967295
156.45856 81.170799 -52.936424 4294967295
156.46637 66.662453 -53.809052 4294967295
156.46799 67.130936 -53.639729 4294967295
156.47398 69.006248 -52.957233 4294967295
156.47627 68.536766 -53.168251 4294967295
156.48349 64.787872 -54.736473 4294967295
156.48378 65.255836 -54.553543 4294967295
156.48639 65.723732 -54.395042 4294967295
156.48718 80.222198 -53.614883 4294967295
156.489 78.810028 -54.19355 4294967295
156.49452 79.749847 -53.879482 4294967295
156.49512 64.319099 -55.046429 4294967295
156.50018 80.69014 -53.566628 4294967295
156.50133 62.916187 -55.670586 4294967295
156.53012 69.468483 -53.36869 4294967295
156.53641 66.187126 -54.741104 4294967295
156.55231 70.873642 -53.044891 4294967295
156.59082 71.337723 -53.268791 4294967295
156.60437 72.744865 -52.852608 4294967295
156.61838 69.92617 -54.122803 4294967295
156.65402 71.797958 -53.756096 4294967295
156.71288 73.197411 -53.823448 4294967295
156.71353 72.258385 -54.20414 4294967295
156.7583 73.659584 -54.12149 4294967295
156.78075 76.475388 -53.239052 4294967295
156.80232 76.001083 -53.656456 4294967295
156.8111 75.059578 -54.124302 4294967295
156.81227 74.589653 -54.323761 4294967295
156.8157 77.880035 -53.050903 4294967295
156.86566 77.399513 -53.771938 4294967295
156.88832 81.161423 -52.515373 4294967295
156.89238 78.805435 -53.496029 4294967295
156.89455 79.746521 -53.144508 4294967295
156.90454 64.774101 -54.230644 4294967295
156.92126 78.328865 -53.991951 4294967295
156.92549 79.268982 -53.662796 4294967295
156.95792 66.173843 -54.239883 4294967295
156.96048 62.899094 -55.575897 4294967295
156.97783 66.640198 -54.265785 4294967295
156.9805 65.235489 -54.855576 4294967295
156.98206 64.299812 -55.24588 4294967295
157.0043 63.83057 -55.670364 4294967295
157.01375 68.041901 -54.088326 4294967295
157.01488 62.428425 -56.343292 4294967295
157.01509 63.36248 -55.97242 4294967295
157.02242 70.385941 -53.243889 4294967295
157.04172 71.32222 -53.075298 4294967295
157.06302 67.567856 -54.802589 4294967295
157.07103 69.910233 -53.951706 4294967295
157.0717 68.503754 -54.520943 4294967295
157.12238 69.434746 -54.688698 4294967295
157.12846 72.248451 -53.629112 4294967295
157.12878 70.840492 -54.195316 4294967295
157.14507 72.715446 -53.619511 4294967295
157.16849 73.65107 -53.495045 4294967295
157.18286 73.179024 -53.83699 4294967295
157.18381 71.770775 -54.40963 4294967295
157.20592 74.584457 -53.520699 4294967295
157.25795 75.045197 -53.890846 4294967295
157.29022 76.44931 -53.673637 4294967295
157.29353 78.801392 -52.769035 4294967295
157.30429 75.976578 -54.012405 4294967295
157.30563 78.328018 -53.086899 4294967295
157.31195 75.50528 -54.282387 4294967295
157.32837 81.621284 -52.013336 4294967295
157.33194 80.677429 -52.428566 4294967295
157.33469 77.381096 -53.77478 4294967295
157.35977 81.142349 -52.539185 4294967295
157.37009 79.255775 -53.402828 4294967295
157.37582 80.196259 -53.088249 4294967295
157.3804 77.842133 -54.077702 4294967295
157.38895 65.691269 -54.025154 4294967295
157.40866 62.415485 -55.550621 4294967295
157.42014 79.71553 -53.752186 4294967295
157.43903 62.880672 -55.688721 4294967295
157.44165 66.622795 -54.215172 4294967295
157.44467 68.028275 -53.683464 4294967295
157.44936 68.496613 -53.545609 4294967295
157.45387 67.55851 -53.970348 4294967295
157.4679 67.088463 -54.308899 4294967295
157.46944 63.813049 -55.639984 4294967295
157.48643 64.746635 -55.447308 4294967295
157.50406 69.896912 -53.568844 4294967295
157.50798 63.342953 -56.240982 4294967295
157.52676 66.146149 -55.316887 4294967295
157.56042 68.95192 -54.550938 4294967295
157.58757 70.354759 -54.278526 4294967295
157.58932 73.170906 -53.16711 4294967295
157.59087 73.640579 -52.995232 4294967295
157.59613 70.822586 -54.182381 4294967295
157.59915 72.230011 -53.649826 4294967295
157.61127 69.414124 -54.909424 4294967295
157.68094 72.686707 -54.341515 4294967295
157.69681 74.562347 -53.758518 4294967295
157.71895 76.43866 -53.242378 4294967295
157.72646 74.087532 -54.266159 4294967295
157.76187 77.37104 -53.327354 4294967295
157.76227 75.020554 -54.27491 4294967295
157.76813 75.959167 -53.960804 4294967295
157.76958 76.899139 -53.599167 4294967295
157.77629 79.250946 -52.727219 4294967295
157.77744 77.838387 -53.306332 4294967295
157.79778 78.304771 -53.336731 4294967295
157.80844 80.185974 -52.695988 4294967295
157.80978 79.714592 -52.899597 4294967295
157.81316 80.656136 -52.557892 4294967295
157.83145 78.768265 -53.510925 4294967295
157.85382 81.117966 -52.80722 4294967295
157.87981 62.397598 -55.584675 4294967295
157.88054 81.582916 -52.90667 4294967295
157.91385 66.60453 -54.254997 4294967295
157.92624 62.86166 -55.896378 4294967295
157.92821 63.328693 -55.729343 4294967295
157.93141 68.00824 -53.877903 4294967295
157.93401 65.666237 -54.849575 4294967295
157.9342 66.134262 -54.663216 4294967295
157.97862 67.534348 -54.576057 4294967295
157.98471 68.939392 -54.075207 4294967295
157.99103 64.725739 -55.841316 4294967295
157.99185 68.46981 -54.341324 4294967295
157.99428 65.19294 -55.687775 4294967295
157.99506 64.258057 -56.072906 4294967295
157.99544 69.875862 -53.81324 4294967295
157.99763 69.406601 -54.025734 4294967295
158.00241 70.813301 -53.510178 4294967295
158.00316 70.343941 -53.707359 4294967295
158.08908 72.208595 -53.878906 4294967295
158.09741 74.556038 -53.022476 4294967295
158.09984 73.145973 -53.616692 4294967295
158.11479 73.613205 -53.589218 4294967295
158.1196 72.673256 -54.01944 4294967295
158.159 74.07547 -53.877583 4294967295
158.19119 75.47934 -53.657677 4294967295
158.21475 78.76812 -52.585236 4294967295
158.21655 75.004845 -54.121456 4294967295
158.23322 80.177528 -52.215919 4294967295
158.26001 78.287735 -53.265282 4294967295
158.27211 81.111374 -52.257271 4294967295
158.27467 75.933723 -54.371525 4294967295
158.27467 79.226089 -53.044521 4294967295
158.28041 76.87252 -54.054604 4294967295
158.32457 79.685913 -53.39537 4294967295
158.34854 64.249588 -54.836662 4294967295
158.35643 62.846539 -55.489502 4294967295
158.35667 80.620399 -53.36364 4294967295
158.36232 63.313435 -55.364037 4294967295
158.39108 62.377144 -56.053356 4294967295
158.39546 67.053658 -54.208031 4294967295
158.42265 66.582504 -54.691761 4294967295
158.4317 63.775539 -55.925713 4294967295
158.44957 67.984558 -54.414948 4294967295
158.45534 67.515495 -54.667088 4294967295
158.47398 65.174072 -55.815815 4294967295
158.49722 68.447418 -54.741745 4294967295
158.50659 69.383415 -54.463837 4294967295
158.51265 71.258553 -53.770519 4294967295
158.55402 70.314621 -54.598541 4294967295
158.57796 73.59594 -53.528847 4294967295
158.59306 72.185013 -54.263016 4294967295
158.59561 70.777611 -54.860168 4294967295
158.59795 72.653549 -54.126129 4294967295
158.60947 74.060349 -53.681061 4294967295
158.62257 74.527893 -53.633041 4294967295
158.64798 75.93338 -53.33836 4294967295
158.6628 75.460518 -53.689453 4294967295
158.70381 77.333435 -53.373989 4294967295
158.71643 76.860596 -53.70163 4294967295
158.71809 74.980621 -54.480286 4294967295
158.72334 80.154266 -52.443138 4294967295
158.74451 78.736641 -53.245255 4294967295
158.75925 78.262924 -53.595993 4294967295
158.76505 81.558662 -52.32473 4294967295
158.81779 79.661987 -53.661278 4294967295
158.8212 63.76384 -55.075066 4294967295
158.8244 81.073174 -53.161388 4294967295
158.83316 65.634087 -54.444695 4294967295
158.85025 66.100578 -54.440193 4294967295
158.85065 63.294231 -55.585205 4294967295
158.87086 65.162674 -55.044922 4294967295
158.88454 64.693787 -55.383636 4294967295
158.88594 62.357723 -56.348228 4294967295
158.91507 67.030266 -54.76458 4294967295
158.92216 62.822132 -56.551994 4294967295
158.95607 69.836678 -54.068314 4294967295
158.97298 66.556175 -55.584862 4294967295
158.98871 68.895065 -54.804585 4294967295
159.01454 68.423561 -55.276058 4294967295
159.04295 69.356636 -55.2047 4294967295
159.04387 74.048027 -53.307755 4294967295
159.05656 72.167648 -54.209358 4294967295
159.05669 73.576035 -53.638561 4294967295
159.06807 71.696732 -54.525833 4294967295
159.07791 74.982002 -53.296814 4294967295
159.08092 75.92186 -52.947411 4294967295
159.08517 70.756516 -55.093102 4294967295
159.10274 71.222702 -55.09396 4294967295
159.12587 75.44326 -53.629089 4294967295
159.12743 78.736717 -52.307201 4294967295
159.12967 77.794426 -52.714485 4294967295
159.1304 72.625214 -54.823574 4294967295
159.13239 73.09404 -54.654465 4294967295
159.15112 80.145203 -51.99147 4294967295
159.15309 76.848579 -53.352757 4294967295
159.15764 74.497932 -54.357464 4294967295
159.15927 76.377113 -53.611351 4294967295
159.18944 77.311638 -53.558228 4294967295
159.19774 79.192413 -52.883858 4294967295
159.27161 80.588646 -53.116676 4294967295
159.27831 81.529434 -52.806793 4294967295
159.28539 79.643745 -53.650162 4294967295
159.28967 81.055473 -53.122643 4294967295
159.31076 64.679596 -54.9282 4294967295
159.34428 63.741837 -55.675812 4294967295
159.35756 62.806656 -56.202148 4294967295
159.36852 63.272858 -56.131138 4294967295
159.3934 67.479477 -54.684811 4294967295
159.40305 65.606628 -55.554005 4294967295
159.40837 66.541672 -55.230469 4294967295
159.41776 65.137749 -55.905613 4294967295
159.42361 64.202721 -56.350979 4294967295
159.42889 67.94371 -54.881294 4294967295
159.42978 66.071701 -55.655281 4294967295
159.45168 68.877739 -54.747795 4294967295
159.48291 69.34227 -54.898319 4294967295
159.50381 69.80806 -54.935406 4294967295
159.51727 70.274834 -54.891518 4294967295
159.53201 74.496346 -53.328232 4294967295
159.54544 72.146324 -54.434006 4294967295
159.55022 73.084145 -54.102947 4294967295
159.55362 72.61425 -54.33189 4294967295
159.56741 75.430016 -53.332367 4294967295
159.57018 71.204712 -55.087517 4294967295
159.57365 73.549706 -54.167999 4294967295
159.59143 74.016182 -54.171043 4294967295
159.59221 74.95546 -53.796089 4294967295
159.62158 75.8899 -53.734322 4294967295
159.62747 76.358864 -53.606915 4294967295
159.63098 80.12426 -52.107819 4294967295
159.64032 80.593521 -52.017975 4294967295
159.65637 78.705338 -52.963505 4294967295
159.66199 77.292488 -53.601326 4294967295
159.66501 78.232788 -53.250328 4294967295
159.69296 79.639015 -52.980545 4294967295
159.70367 77.754227 -53.866383 4294967295
159.71503 79.163284 -53.414825 4294967295
159.73267 81.514412 -52.646935 4294967295
159.75989 81.036613 -53.138245 4294967295
159.78549 62.324688 -55.959389 4294967295
159.80977 66.062576 -54.692085 4294967295
159.82178 62.789196 -56.165482 4294967295
159.82213 66.529419 -54.635914 4294967295
159.82396 63.72319 -55.80632 4294967295
159.82526 65.59314 -55.054054 4294967295
159.83817 64.189308 -55.770691 4294967295
159.84348 63.254604 -56.211933 4294967295
159.86418 66.993095 -54.905235 4294967295
159.87083 65.121277 -55.745522 4294967295
159.87811 68.396416 -54.482239 4294967295
159.88739 64.652458 -56.118805 4294967295
159.89377 70.269478 -53.88549 4294967295
159.92387 67.454575 -55.368614 4294967295
159.95277 71.199203 -54.148983 4294967295
159.96631 69.790787 -54.874367 4294967295
159.9812 69.320351 -55.230019 4294967295
159.99469 70.724205 -54.80191 4294967295
160.00606 74.947159 -53.194778 4294967295
160.02396 73.065094 -54.16188 4294967295
160.03624 74.471786 -53.719429 4294967295
160.03664 75.881805 -53.14579 4294967295
160.04643 72.592171 -54.60154 4294967295
160.05138 72.12233 -54.848373 4294967295
160.06224 73.997551 -54.198128 4294967295
160.07454 73.526016 -54.525925 4294967295
160.0847 75.402664 -53.867409 4294967295
160.09897 78.221764 -52.867607 4294967295
160.10056 77.280235 -53.271034 4294967295
160.11342 79.160393 -52.64061 4294967295
160.12129 76.335617 -53.884933 4294967295
160.12883 81.513557 -51.844231 4294967295
160.13686 80.568581 -52.319386 4294967295
160.14163 76.801674 -53.916061 4294967295
160.14458 80.095512 -52.597702 4294967295
160.22792 62.775749 -55.489838 4294967295
160.25974 63.707932 -55.455193 4294967295
160.29716 63.237923 -56.059639 4294967295
160.30069 62.30394 -56.482784 4294967295
160.31995 65.105171 -55.54068 4294967295
160.3405 68.847755 -54.225296 4294967295
160.3508 65.569839 -55.688065 4294967295
160.35652 66.036903 -55.558563 4294967295
160.36267 66.504028 -55.433685 4294967295
160.3654 64.633781 -56.233765 4294967295
160.36711 67.907616 -54.904514 4294967295
160.39496 67.43631 -55.404274 4294967295
160.39983 66.96788 -55.650375 4294967295
160.41444 70.713051 -54.268963 4294967295
160.42831 68.368515 -55.386398 4294967295
160.44043 71.647339 -54.169266 4294967295
160.44539 69.302849 -55.189178 4294967295
160.44716 70.239639 -54.822826 4294967295
160.46332 71.174889 -54.615032 4294967295
160.46693 73.99041 -53.495163 4294967295
160.47784 69.766922 -55.354187 4294967295
160.50591 76.333717 -52.958221 4294967295
160.51048 74.452515 -53.783218 4294967295
160.52086 73.511543 -54.284546 4294967295
160.53526 73.039825 -54.63681 4294967295
160.53586 75.857651 -53.483139 4294967295
160.5715 80.558144 -51.938568 4294967295
160.59491 78.197563 -53.167618 4294967295
160.60753 79.136314 -52.919571 4294967295
160.60872 80.078125 -52.54483 4294967295
160.61105 77.253311 -53.733627 4294967295
160.61975 78.662857 -53.248604 4294967295
160.62711 77.720284 -53.717468 4294967295
160.63855 79.60025 -53.069145 4294967295
160.72772 63.690174 -55.457787 4294967295
160.73083 62.755634 -55.878395 4294967295
160.7552 62.287121 -56.340836 4294967295
160.76276 63.22036 -56.038052 4294967295
