# .PCD v0.7 - Point Cloud Data file format
VERSION 0.7
FIELDS x y z rgb
SIZE 4 4 4 4
TYPE F F F U
COUNT 1 1 1 1
WIDTH 1147
HEIGHT 1
VIEWPOINT 0 0 0 1 0 0 0
POINTS 1147
DATA ascii
195.59966 58.636189 -78.630936 4294967295
195.60561 41.354866 -81.836243 4294967295
195.60562 54.085663 -81.470589 4294967295
195.61064 59.091869 -78.532738 4294967295
195.62108 56.812912 -80.074417 4294967295
195.6545 42.26572 -82.073753 4294967295
195.66263 43.169296 -81.656891 4294967295
195.66396 41.816727 -82.499268 4294967295
195.6799 42.72118 -82.208176 4294967295
195.68854 43.624897 -81.799751 4294967295
195.71362 44.080254 -81.92868 4294967295
195.71434 44.531837 -81.666153 4294967295
195.75504 44.98941 -82.046638 4294967295
195.78967 46.801407 -81.507187 4294967295
195.82195 45.901741 -82.574738 4294967295
195.87024 46.359463 -83.077957 4294967295
195.90025 47.266197 -83.013054 4294967295
195.93484 52.24939 -80.548508 4294967295
195.94121 49.078297 -82.575562 4294967295
195.94872 48.626812 -82.970947 4294967295
195.95404 49.53175 -82.50798 4294967295
195.95407 53.158108 -80.307693 4294967295
195.97113 53.612793 -80.307442 4294967295
195.97382 51.344315 -81.727814 4294967295
195.9765 49.985977 -82.595566 4294967295
195.98012 51.797905 -81.554466 4294967295
195.98419 52.705181 -81.069901 4294967295
196.00027 55.886639 -79.399185 4294967295
196.01297 55.431572 -79.880333 4294967295
196.01822 54.976837 -80.241562 4294967295
196.03009 54.522469 -80.709152 4294967295
196.03487 54.068333 -81.061722 4294967295
196.04411 56.796539 -79.555939 4294967295
196.05159 57.707375 -79.124084 4294967295
196.05956 58.618877 -78.699417 4294967295
196.06464 58.162697 -79.058571 4294967295
196.08705 57.250835 -79.974258 4294967295
196.09709 59.073143 -79.030869 4294967295
196.09897 41.79678 -82.190346 4294967295
196.10364 41.347122 -82.541092 4294967295
196.11441 42.701324 -81.889374 4294967295
196.13617 43.607376 -81.69014 4294967295
196.14333 43.157394 -82.081505 4294967295
196.14423 42.25589 -82.646736 4294967295
196.16226 44.5144 -81.560684 4294967295
196.21504 44.071285 -82.690155 4294967295
196.24449 45.429451 -82.340012 4294967295
196.25352 44.979385 -82.762001 4294967295
196.27046 45.884506 -82.484566 4294967295
196.27594 46.336849 -82.297668 4294967295
196.33252 47.247177 -82.662308 4294967295
196.34972 50.416264 -81.006889 4294967295
196.35759 49.963757 -81.41095 4294967295
196.36365 48.154358 -82.614479 4294967295
196.38293 51.324993 -80.992363 4294967295
196.39403 51.779091 -80.89537 4294967295
196.39955 48.609913 -82.920685 4294967295
196.39958 49.514389 -82.368889 4294967295
196.40274 53.141064 -80.205338 4294967295
196.40355 52.233192 -80.772881 4294967295
196.42465 54.050255 -80.006844 4294967295
196.43069 50.874687 -82.044724 4294967295
196.44661 52.688656 -81.19548 4294967295
196.46281 55.86961 -79.516396 4294967295
196.46774 55.414616 -79.874458 4294967295
196.47153 54.505402 -80.491531 4294967295
196.47217 54.959904 -80.22448 4294967295
196.48701 56.779762 -79.354492 4294967295
196.51001 56.324184 -80.006821 4294967295
196.51573 57.690029 -79.265793 4294967295
196.52522 57.234261 -79.698647 4294967295
196.53876 58.144878 -79.362656 4294967295
196.54137 41.327595 -82.27536 4294967295
196.55888 58.599777 -79.412552 4294967295
196.58598 42.688042 -82.16993 4294967295
196.59499 43.591702 -81.761696 4294967295
196.6017 41.789753 -82.979675 4294967295
196.61443 44.497601 -81.523422 4294967295
196.66568 43.152752 -83.189392 4294967295
196.67088 44.055168 -82.720161 4294967295
196.68391 45.410912 -82.100372 4294967295
196.72261 45.867752 -82.453072 4294967295
196.72406 44.96537 -83.031746 4294967295
196.73004 47.224133 -81.741295 4294967295
196.75958 47.679565 -81.945038 4294967295
196.80545 50.39962 -81.024498 4294967295
196.8055 48.588707 -82.138161 4294967295
196.80811 50.853065 -80.789268 4294967295
196.82181 49.947815 -81.569855 4294967295
196.82999 48.139027 -82.815773 4294967295
196.83992 51.308372 -81.030342 4294967295
196.84561 53.123833 -80.007568 4294967295
196.86206 51.762993 -81.113541 4294967295
196.87149 52.216984 -80.98922 4294967295
196.87871 53.579006 -80.269638 4294967295
196.8992 54.942806 -79.767212 4294967295
196.91426 54.034016 -80.572327 4294967295
196.94551 55.397655 -80.246078 4294967295
196.9473 58.585732 -78.315712 4294967295
196.94742 57.218082 -79.158401 4294967295
196.94992 56.762589 -79.479393 4294967295
196.96056 55.852341 -80.213013 4294967295
196.97804 59.040451 -78.539711 4294967295
196.99281 58.12785 -79.342621 4294967295
196.99985 41.312164 -82.34671 4294967295
197.04022 42.220985 -82.450165 4294967295
197.06537 43.126995 -82.303993 4294967295
197.07956 43.58036 -82.257378 4294967295
197.09827 42.682148 -83.121574 4294967295
197.11717 44.488621 -82.315445 4294967295
197.11998 44.037971 -82.64048 4294967295
197.1264 45.392769 -81.908051 4294967295
197.1709 45.850475 -82.358627 4294967295
197.1721 44.948067 -82.936707 4294967295
197.18253 46.755371 -81.990517 4294967295
197.22673 49.021481 -81.316887 4294967295
197.2272 47.212532 -82.444138 4294967295
197.22948 46.309647 -83.040405 4294967295
197.23868 47.665707 -82.352997 4294967295
197.24557 49.475861 -81.346893 4294967295
197.25294 48.119247 -82.30761 4294967295
197.25458 48.571594 -82.054558 4294967295
197.27322 51.290379 -80.679855 4294967295
197.27589 50.83717 -81.004395 4294967295
197.28807 50.384888 -81.484634 4294967295
197.31253 51.746006 -81.046005 4294967295
197.31696 54.925644 -79.151787 4294967295
197.32945 52.20034 -81.043808 4294967295
197.33914 52.654392 -80.922882 4294967295
197.34006 53.108257 -80.656906 4294967295
197.38051 54.017357 -80.761215 4294967295
197.38969 58.569221 -78.096512 4294967295
197.39351 58.1129 -78.441803 4294967295
197.39445 55.835514 -79.866631 4294967295
197.39894 56.290485 -79.658852 4294967295
197.40263 56.745621 -79.438255 4294967295
197.40462 55.380711 -80.31514 4294967295
197.43869 41.292816 -82.095955 4294967295
197.44968 59.022476 -78.805138 4294967295
197.46451 41.748421 -82.240776 4294967295
197.5041 42.206509 -82.612679 4294967295
197.51636 43.561043 -81.972214 4294967295
197.51718 44.012367 -81.70488 4294967295
197.5761 43.120537 -83.237755 4294967295
197.62057 47.188889 -81.442398 4294967295
197.62144 44.480003 -83.143417 4294967295
197.63034 45.383385 -82.728561 4294967295
197.64874 47.644279 -81.626022 4294967295
197.67027 46.291454 -82.825668 4294967295
197.69411 49.458694 -81.248856 4294967295
197.69446 48.553581 -81.818314 4294967295
197.70029 48.101952 -82.196434 4294967295
197.70815 50.818985 -80.634995 4294967295
197.72043 50.366608 -81.120247 4294967295
197.72113 51.726837 -80.284805 4294967295
197.72449 51.273422 -80.623032 4294967295
197.76912 49.917458 -82.207764 4294967295
197.77252 52.636745 -80.570679 4294967295
197.78807 53.091198 -80.545914 4294967295
197.79028 54.908817 -79.450813 4294967295
197.81279 57.185177 -78.406853 4294967295
197.83136 57.640488 -78.431366 4294967295
197.83727 56.273705 -79.380646 4294967295
197.87531 56.728264 -79.728256 4294967295
197.88359 58.094463 -79.015076 4294967295
197.88399 58.550331 -78.737854 4294967295
197.9044 41.27887 -82.288361 4294967295
197.90721 59.005241 -78.840103 4294967295
197.94379 42.187481 -82.37645 4294967295
197.94693 41.737663 -82.711159 4294967295
197.98135 43.546494 -82.152161 4294967295
198.01862 44.003654 -82.487717 4294967295
198.03911 43.105824 -83.392746 4294967295
198.06497 44.461979 -82.974457 4294967295
198.08174 47.62532 -81.272118 4294967295
198.08508 46.721569 -81.894196 4294967295
198.10593 48.080273 -81.390594 4294967295
198.12662 46.275276 -82.867538 4294967295
198.14255 47.180298 -82.566513 4294967295
198.15288 48.98978 -81.604736 4294967295
198.17554 50.349941 -81.130432 4294967295
198.177 50.803185 -80.871017 4294967295
198.18866 48.540901 -82.483643 4294967295
198.19112 49.898258 -81.67379 4294967295
198.20076 52.618877 -80.129616 4294967295
198.20229 49.446613 -82.143448 4294967295
198.20343 53.98188 -79.319756 4294967295
198.20824 51.711761 -80.823296 4294967295
198.22643 53.527962 -79.988304 4294967295
198.23148 54.891785 -79.217865 4294967295
198.26184 56.257103 -78.86937 4294967295
198.26698 55.801811 -79.240555 4294967295
198.27016 53.075264 -81.002777 4294967295
198.27052 57.623951 -78.157616 4294967295
198.27762 55.346817 -79.703621 4294967295
198.28789 57.167622 -78.733551 4294967295
198.29373 56.711967 -79.116814 4294967295
198.34161 58.077271 -79.060806 4294967295
198.35495 58.988525 -78.712067 4294967295
198.40343 42.622803 -82.186935 4294967295
198.40578 42.17268 -82.510193 4294967295
198.40973 41.723125 -82.860397 4294967295
198.42087 43.076702 -82.193649 4294967295
198.48569 45.794453 -81.568604 4294967295
198.49121 43.990318 -82.79985 4294967295
198.52017 44.445797 -82.999252 4294967295
198.54599 44.900635 -83.1464 4294967295
198.54655 45.3517 -82.871353 4294967295
198.54826 47.158016 -81.76017 4294967295
198.54906 46.706264 -82.058411 4294967295
198.56033 46.256126 -82.532234 4294967295
198.56731 47.612236 -81.793854 4294967295
198.59013 48.066833 -81.89061 4294967295
198.59816 48.519878 -81.739792 4294967295
198.60805 49.425797 -81.334404 4294967295
198.62283 51.239246 -80.43837 4294967295
198.63492 52.601223 -79.782227 4294967295
198.64545 49.881584 -81.675713 4294967295
198.64841 53.964775 -79.149155 4294967295
198.66055 50.78838 -81.357338 4294967295
198.68672 51.696259 -81.224327 4294967295
198.69186 55.329838 -79.018211 4294967295
198.69562 52.150082 -81.087524 4294967295
198.70982 55.784912 -79.032845 4294967295
198.71916 54.875084 -79.764267 4294967295
198.72826 56.695358 -78.768654 4294967295
198.73982 54.420826 -80.39782 4294967295
198.74263 58.518517 -77.859802 4294967295
198.76564 56.239491 -79.684334 4294967295
198.77127 57.605412 -78.917152 4294967295
198.79108 58.972404 -78.387924 4294967295
198.84697 41.703541 -82.583412 4294967295
198.8593 41.255924 -83.07618 4294967295
198.87723 42.159729 -82.805511 4294967295
198.88419 42.611423 -82.636368 4294967295
198.88516 43.062172 -82.366676 4294967295
198.97487 46.234386 -81.87011 4294967295
198.97731 46.686462 -81.623962 4294967295
198.98607 45.784401 -82.345299 4294967295
199.00304 47.141533 -81.770515 4294967295
199.00478 45.335884 -82.946793 4294967295
199.0352 47.597218 -82.025192 4294967295
199.04274 49.860325 -80.715179 4294967295
199.04279 48.954754 -81.291412 4294967295
199.05627 51.674923 -79.792 4294967295
199.06648 50.768402 -80.540298 4294967295
199.06912 48.052891 -82.310013 4294967295
199.0704 48.505074 -82.04435 4294967295
199.07562 51.222378 -80.406799 4294967295
199.08183 49.410828 -81.662506 4294967295
199.08601 53.038437 -79.428947 4294967295
199.11716 52.131744 -80.532364 4294967295
199.11813 54.402847 -79.106049 4294967295
199.1196 52.585606 -80.285118 4294967295
199.13557 55.768101 -78.533966 4294967295
199.14009 55.312874 -78.899567 4294967295
199.14334 53.494434 -80.109756 4294967295
199.14409 56.223457 -78.38887 4294967295
199.16219 54.85807 -79.562195 4294967295
199.16402 57.134438 -78.147858 4294967295
199.16753 57.590263 -77.917336 4294967295
199.18858 58.958328 -77.4048 4294967295
199.20461 58.044975 -78.256203 4294967295
199.22948 58.499969 -78.387993 4294967295
199.30325 41.687729 -82.625168 4294967295
199.32063 42.141411 -82.631142 4294967295
199.38336 44.405853 -82.251831 4294967295
199.39021 42.604858 -83.52005 4294967295
199.39934 43.056694 -83.386658 4294967295
199.41229 43.509308 -83.318306 4294967295
199.422 47.572956 -80.884766 4294967295
199.42523 43.961956 -83.249123 4294967295
199.42828 45.314972 -82.435608 4294967295
199.42862 45.766312 -82.152847 4294967295
199.42986 47.121666 -81.307251 4294967295
199.4563 46.221542 -82.333336 4294967295
199.45993 48.481937 -80.950035 4294967295
199.46895 46.674709 -82.259125 4294967295
199.47974 50.295425 -80.127754 4294967295
199.48865 49.390015 -80.858505 4294967295
199.49629 50.749985 -80.119324 4294967295
199.50705 49.844425 -80.881447 4294967295
199.52252 48.940514 -81.723251 4294967295
199.52536 53.021049 -79.16243 4294967295
199.5296 51.659142 -80.105286 4294967295
199.55055 54.385601 -78.718819 4294967295
199.55588 52.568027 -79.971893 4294967295
199.55684 53.930946 -79.116776 4294967295
199.56578 53.476677 -79.559647 4294967295
199.58281 55.295906 -78.686348 4294967295
199.59076 52.115852 -80.855064 4294967295
199.60703 56.20636 -78.516716 4294967295
199.62006 57.573292 -77.86454 4294967295
199.62291 55.750942 -79.078568 4294967295
199.63092 57.117081 -78.341461 4294967295
199.64941 56.661106 -78.948219 4294967295
199.68063 58.939285 -78.023186 4294967295
199.69206 58.482536 -78.510223 4294967295
199.69978 58.026337 -78.933449 4294967295
199.75267 41.670547 -82.551109 4294967295
199.81848 42.583786 -83.092102 4294967295
199.81879 42.133762 -83.387085 4294967295
199.82097 43.485065 -82.554749 4294967295
199.84415 45.292862 -81.788071 4294967295
199.8476 44.391102 -82.428062 4294967295
199.8479 45.744896 -81.561684 4294967295
199.89217 46.654232 -81.735703 4294967295
199.89473 46.202942 -82.069977 4294967295
199.90796 48.012218 -81.132317 4294967295
199.91302 47.560589 -81.509796 4294967295
199.95201 48.469154 -81.593636 4294967295
199.96169 50.280754 -80.593613 4294967295
199.96417 48.922688 -81.510391 4294967295
199.99211 51.642792 -80.238586 4294967295
200.0242 52.551773 -80.203796 4294967295
200.03308 53.006035 -80.063568 4294967295
200.03922 56.645336 -77.826042 4294967295
200.05038 53.914875 -79.775177 4294967295
200.05608 56.189434 -78.408798 4294967295
200.06039 57.100712 -77.896088 4294967295
200.06792 57.556473 -77.731697 4294967295
200.07156 55.734001 -78.967613 4294967295
200.22922 42.559311 -82.358414 4294967295
200.23584 41.210415 -83.347122 4294967295
200.25012 42.113102 -83.00856 4294967295
200.26363 43.016178 -82.656563 4294967295
200.28015 44.822338 -81.771461 4294967295
200.28647 43.921387 -82.464211 4294967295
200.29646 44.373875 -82.343628 4294967295
200.30872 46.180981 -81.384323 4294967295
200.31126 43.475147 -83.181595 4294967295
200.32599 47.087032 -81.095306 4294967295
200.34435 45.283314 -82.580872 4294967295
200.36952 47.996418 -81.2575 4294967295
200.38089 46.6422 -82.331276 4294967295
200.38496 48.450363 -81.229797 4294967295
200.38533 47.546131 -81.822205 4294967295
200.3869 49.808655 -80.382652 4294967295
200.41331 49.358093 -81.131042 4294967295
200.4142 51.624207 -79.677704 4294967295
200.41484 48.905716 -81.450684 4294967295
200.42679 51.171322 -80.188347 4294967295
200.43477 50.718521 -80.619774 4294967295
200.4375 50.265663 -80.960297 4294967295
200.45995 52.534161 -79.877731 4294967295
200.46194 52.988281 -79.61776 4294967295
200.47032 54.806812 -78.584015 4294967295
200.48317 55.261971 -78.510788 4294967295
200.48471 52.081558 -80.5989 4294967295
200.49457 57.084206 -77.526474 4294967295
200.50349 53.443741 -80.040161 4294967295
200.50372 56.172523 -78.275475 4294967295
200.50673 54.352459 -79.507301 4294967295
200.50728 56.628067 -78.041992 4294967295
200.50928 55.717121 -78.666641 4294967295
200.51675 53.898254 -79.974625 4294967295
200.54839 57.538597 -78.161476 4294967295
200.56673 58.450001 -77.887344 4294967295
200.57024 58.906151 -77.652527 4294967295
200.57352 57.993622 -78.300362 4294967295
200.6566 41.637222 -82.490738 4294967295
200.67526 41.191189 -83.106377 4294967295
200.71356 42.999126 -82.592514 4294967295
200.73396 42.552738 -83.238182 4294967295
200.7524 43.907082 -82.675262 4294967295
200.75909 43.457779 -83.084625 4294967295
200.76166 44.810226 -82.246613 4294967295
200.76791 46.165154 -81.471191 4294967295
200.78546 45.716152 -82.069374 4294967295
200.79831 45.266899 -82.585899 4294967295
200.81682 47.979053 -81.1381 4294967295
200.83743 48.433563 -81.199738 4294967295
200.84576 50.245422 -80.162155 4294967295
200.84752 47.530521 -81.964272 4294967295
200.85168 49.792824 -80.560425 4294967295
200.85385 50.699318 -80.006531 4294967295
200.89114 51.608665 -80.061813 4294967295
200.89153 51.155209 -80.364151 4294967295
200.8956 54.33453 -78.360153 4294967295
200.90965 52.517124 -79.790489 4294967295
200.91765 52.97147 -79.633041 4294967295
200.95337 53.88097 -79.660744 4294967295
200.95355 53.42675 -79.960014 4294967295
200.95547 55.700188 -78.510017 4294967295
200.96222 57.066856 -77.735352 4294967295
200.96861 55.245068 -79.035454 4294967295
200.98151 56.155258 -78.665756 4294967295
200.98798 57.522049 -77.885956 4294967295
200.99168 58.890831 -77.057465 4294967295
200.9926 58.434254 -77.371017 4294967295
200.99559 57.977837 -77.721069 4294967295
201.14893 42.078831 -82.866089 4294967295
201.15883 43.431747 -82.150574 4294967295
201.17094 41.633472 -83.544365 4294967295
201.18788 45.692162 -81.173981 4294967295
201.18855 44.338463 -82.075378 4294967295
201.19118 42.98724 -83.008896 4294967295
201.21042 44.79298 -82.159111 4294967295
201.21725 46.14798 -81.388542 4294967295
201.22992 43.894821 -83.091034 4294967295
201.23831 45.24836 -82.348656 4294967295
201.24612 47.507401 -81.000885 4294967295
201.24794 48.865082 -80.14061 4294967295
201.25098 46.604206 -81.679283 4294967295
201.26833 49.319897 -80.198463 4294967295
201.28191 50.227283 -79.840096 4294967295
201.31203 49.776638 -80.663376 4294967295
201.33211 50.684254 -80.418762 4294967295
201.34279 51.138248 -80.307205 4294967295
201.3625 52.954266 -79.459122 4294967295
201.36702 52.046646 -80.134605 4294967295
201.36732 51.593124 -80.437912 4294967295
201.37662 53.863373 -79.108948 4294967295
201.38304 52.501114 -80.116653 4294967295
201.39107 56.138794 -77.867126 4294967295
201.39737 54.773087 -78.874466 4294967295
201.40048 53.409668 -79.824814 4294967295
201.40109 54.318405 -79.238686 4294967295
201.42717 57.049561 -77.900558 4294967295
201.43933 58.417553 -77.214218 4294967295
201.46046 56.593231 -78.783386 4294967295
201.47992 57.503799 -78.52536 4294967295
201.48532 57.959404 -78.320793 4294967295
201.55836 41.603462 -82.393265 4294967295
201.57692 41.157528 -83.015549 4294967295
201.60976 42.064003 -82.994667 4294967295
201.61955 43.867302 -81.973969 4294967295
201.62527 44.770287 -81.477646 4294967295
201.64601 43.421417 -82.735397 4294967295
201.65169 44.323601 -82.238594 4294967295
201.65184 42.972248 -83.135521 4294967295
201.67755 45.680889 -81.796707 4294967295
201.68459 47.036827 -81.023315 4294967295
201.6955 46.586414 -81.513763 4294967295
201.7155 47.49263 -81.266708 4294967295
201.72408 48.398026 -80.81884 4294967295
201.73996 50.664192 -79.599182 4294967295
201.7518 49.305889 -80.706787 4294967295
201.75822 49.759254 -80.520149 4294967295
201.80104 52.028809 -79.773354 4294967295
201.80357 54.300652 -78.314812 4294967295
201.80994 51.122318 -80.530022 4294967295
201.81068 51.575714 -80.24305 4294967295
201.81749 54.755833 -78.258904 4294967295
201.83487 53.392197 -79.467453 4294967295
201.83633 53.846592 -79.192802 4294967295
201.84097 52.938297 -79.875389 4294967295
201.84737 56.121777 -77.881966 4294967295
201.86255 55.211128 -78.752274 4294967295
201.90022 57.943916 -77.608292 4294967295
201.91011 57.031811 -78.385826 4294967295
201.91455 59.312607 -76.955002 4294967295
201.92723 57.487 -78.386551 4294967295
201.93182 58.85503 -77.562134 4294967295
201.94426 58.398155 -78.083954 4294967295
201.99706 41.584015 -82.129761 4294967295
202.01762 41.138489 -82.791611 4294967295
202.03113 42.491394 -82.130005 4294967295
202.05499 42.046032 -82.850815 4294967295
202.06917 42.94907 -82.500587 4294967295
202.07928 43.401348 -82.378883 4294967295
202.08574 45.206135 -81.291 4294967295
202.10411 43.856304 -82.516327 4294967295
202.10471 44.757957 -81.926125 4294967295
202.10623 46.112244 -81.050751 4294967295
202.11006 44.307976 -82.321014 4294967295
202.12215 46.566208 -81.030853 4294967295
202.13579 47.019897 -80.971039 4294967295
202.13942 45.665585 -81.937584 4294967295
202.15698 48.379128 -80.441498 4294967295
202.16878 48.832958 -80.348724 4294967295
202.17073 47.92828 -80.985924 4294967295
202.17461 47.476662 -81.355675 4294967295
202.20671 49.28928 -80.717484 4294967295
202.22098 49.743286 -80.668655 4294967295
202.22412 52.46447 -78.911469 4294967295
202.2289 51.10326 -79.90303 4294967295
202.2374 50.197506 -80.657295 4294967295
202.25578 51.558399 -80.076851 4294967295
202.26884 52.92046 -79.401436 4294967295
202.27699 55.194073 -78.030968 4294967295
202.29222 56.104889 -77.694794 4294967295
202.29395 53.375473 -79.543762 4294967295
202.29802 54.739143 -78.70784 4294967295
202.34798 57.927128 -77.470413 4294967295
202.36522 57.014782 -78.384216 4294967295
202.38379 59.294632 -77.194901 4294967295
202.48428 41.574825 -82.724403 4294967295
202.48608 42.925697 -81.849976 4294967295
202.49078 43.828049 -81.32872 4294967295
202.49094 42.026127 -82.540436 4294967295
202.51225 41.131233 -83.521797 4294967295
202.51636 42.481304 -82.689606 4294967295
202.5266 44.285225 -81.661972 4294967295
202.52843 43.38414 -82.299454 4294967295
202.57286 46.097515 -81.273148 4294967295
202.57477 45.195141 -81.912704 4294967295
202.59346 45.649147 -81.942245 4294967295
202.59402 46.552078 -81.346634 4294967295
202.60461 48.361778 -80.321815 4294967295
202.60965 48.814941 -80.107567 4294967295
202.62363 47.007679 -81.570152 4294967295
202.62424 47.45956 -81.277779 4294967295
202.62474 50.175449 -79.4646 4294967295
202.62866 49.269588 -80.142113 4294967295
202.64201 49.723717 -80.076187 4294967295
202.65297 50.630985 -79.663574 4294967295
202.6889 51.99411 -79.391098 4294967295
202.68892 52.448086 -79.087013 4294967295
202.70468 53.811836 -78.453804 4294967295
202.7074 51.541458 -80.025269 4294967295
202.70766 51.088104 -80.334122 4294967295
202.71016 54.26675 -78.246277 4294967295
202.73492 53.358181 -79.298431 4294967295
202.73724 55.177132 -78.11969 4294967295
202.75099 54.722187 -78.670723 4294967295
202.75714 55.632362 -78.169968 4294967295
202.76337 56.087711 -77.975876 4294967295
202.77852 56.543056 -77.9412 4294967295
202.77968 56.998783 -77.656158 4294967295
202.78026 57.454735 -77.360367 4294967295
202.80243 58.822933 -76.838875 4294967295
202.939 43.359768 -81.530266 4294967295
202.9408 42.909519 -81.866966 4294967295
202.97049 41.116108 -83.613327 4294967295
202.97798 43.817577 -81.922874 4294967295
202.99197 44.270786 -81.868668 4294967295
203.00276 45.625954 -81.147041 4294967295
203.02811 46.081184 -81.295731 4294967295
203.02811 47.436829 -80.379761 4294967295
203.07814 48.347237 -80.665047 4294967295
203.09102 49.706551 -79.97847 4294967295
203.09126 48.801056 -80.594727 4294967295
203.11674 51.068336 -79.521515 4294967295
203.1266 51.522587 -79.391869 4294967295
203.12663 50.162544 -80.311493 4294967295
203.13188 52.430717 -78.873634 4294967295
203.15929 52.886047 -79.059067 4294967295
203.1765 54.250034 -78.447571 4294967295
203.18529 56.071079 -77.374977 4294967295
203.19083 53.795704 -79.012177 4294967295
203.1969 54.705166 -78.506767 4294967295
203.20146 57.438774 -76.741989 4294967295
203.20833 53.341911 -79.634056 4294967295
203.23825 56.981655 -77.713242 4294967295
203.24309 59.263481 -76.258179 4294967295
203.24858 56.525772 -78.207413 4294967295
203.25438 58.349442 -77.079155 4294967295
203.25684 57.89304 -77.431976 4294967295
203.27313 58.804993 -77.109192 4294967295
203.38068 41.090313 -82.842575 4294967295
203.38295 43.341526 -81.351913 4294967295
203.39655 42.893547 -81.903374 4294967295
203.42729 44.251171 -81.536743 4294967295
203.43983 45.155457 -81.14875 4294967295
203.44984 45.608406 -81.022018 4294967295
203.45274 46.512218 -80.459564 4294967295
203.46051 46.96529 -80.291824 4294967295
203.49135 47.421349 -80.540863 4294967295
203.4929 46.06625 -81.491432 4294967295
203.49371 47.87389 -80.275696 4294967295
203.51868 48.329117 -80.418655 4294967295
203.53476 49.688908 -79.78466 4294967295
203.53871 50.142395 -79.547935 4294967295
203.54538 49.237007 -80.284599 4294967295
203.58043 50.598873 -79.993652 4294967295
203.58153 52.413654 -78.778542 4294967295
203.5928 51.5065 -79.600418 4294967295
203.60033 51.960613 -79.427551 4294967295
203.62383 53.778275 -78.616776 4294967295
203.6329 53.3241 -79.090218 4294967295
203.63567 56.054131 -77.282623 4294967295
203.63857 55.143185 -77.95507 4294967295
203.63969 52.870205 -79.522278 4294967295
203.64954 54.23344 -78.773277 4294967295
203.66138 54.688335 -78.678421 4294967295
203.67259 56.965134 -77.33194 4294967295
203.67793 56.50922 -77.739334 4294967295
203.69319 57.420536 -77.395416 4294967295
203.69763 58.789532 -76.544853 4294967295
203.70227 58.332684 -76.939674 4294967295
203.70476 59.245964 -76.362946 4294967295
203.72565 57.875427 -77.674255 4294967295
203.8557 41.528389 -82.92775 4294967295
203.85788 43.779778 -81.424561 4294967295
203.86484 44.231899 -81.241302 4294967295
203.86716 41.980518 -82.827019 4294967295
203.86746 42.880573 -82.21582 4294967295
203.88913 43.335022 -82.299942 4294967295
203.89003 42.43504 -82.933113 4294967295
203.90884 46.947941 -80.183609 4294967295
203.92032 45.14325 -81.629776 4294967295
203.9223 46.046162 -81.047646 4294967295
203.95596 48.310612 -80.109726 4294967295
203.96931 47.407749 -80.972794 4294967295
203.98203 48.765953 -80.273941 4294967295
203.98654 47.861835 -80.976082 4294967295
203.99095 49.219505 -80.126083 4294967295
204.00177 49.673344 -80.012535 4294967295
204.02487 50.581394 -79.811691 4294967295
204.02737 50.128487 -80.168198 4294967295
204.0392 52.851189 -78.517769 4294967295
204.05247 51.490036 -79.693138 4294967295
204.05525 54.215645 -77.875694 4294967295
204.09138 54.671135 -78.223282 4294967295
204.10071 56.492775 -77.144974 4294967295
204.10237 55.581509 -77.799988 4294967295
204.12 55.12632 -78.433884 4294967295
204.13284 56.036678 -78.044159 4294967295
204.13971 58.773125 -76.294121 4294967295
204.14676 57.859692 -77.049126 4294967295
204.14906 58.315987 -76.778564 4294967295
204.16667 57.402889 -77.725868 4294967295
204.17989 59.227623 -76.716431 4294967295
204.26288 41.952011 -81.777077 4294967295
204.2923 43.759811 -81.069763 4294967295
204.30672 42.861397 -81.955566 4294967295
204.30768 41.511833 -82.904999 4294967295
204.33054 44.217552 -81.457405 4294967295
204.33287 42.416588 -82.74382 4294967295
204.34644 43.319378 -82.370071 4294967295
204.37048 46.028793 -80.941536 4294967295
204.3847 45.579582 -81.513062 4294967295
204.38881 48.744331 -79.403847 4294967295
204.3889 47.839088 -80.030701 4294967295
204.39801 46.484322 -81.133102 4294967295
204.39822 46.936058 -80.825668 4294967295
204.41721 48.294762 -80.236664 4294967295
204.44798 49.203106 -80.175972 4294967295
204.45288 51.016167 -79.013985 4294967295
204.48225 51.471741 -79.239365 4294967295
204.49034 53.743382 -77.820251 4294967295
204.51617 55.109138 -77.352127 4294967295
204.52258 54.198948 -78.098862 4294967295
204.52873 54.654007 -77.897522 4294967295
204.53001 52.835781 -79.176483 4294967295
204.54376 56.47596 -76.916229 4294967295
204.56271 55.56451 -77.893852 4294967295
204.56718 56.019897 -77.66188 4294967295
204.56795 57.843956 -76.416504 4294967295
204.57741 56.931198 -77.220619 4294967295
204.57961 57.387188 -76.946259 4294967295
204.59225 58.756161 -76.233963 4294967295
204.6115 58.298557 -76.903648 4294967295
204.7067 41.483582 -81.909592 4294967295
204.71057 42.384651 -81.354507 4294967295
204.72177 41.93681 -81.873444 4294967295
204.74747 42.842476 -81.719467 4294967295
204.76706 43.296707 -81.766953 4294967295
204.78105 43.749851 -81.711029 4294967295
204.80946 45.107338 -81.29332 4294967295
204.81013 47.366043 -79.735176 4294967295
204.81299 44.206234 -81.985268 4294967295
204.81418 46.914375 -80.123817 4294967295
204.82806 46.464417 -80.694283 4294967295
204.8405 45.563419 -81.550819 4294967295
204.84848 48.728218 -79.498283 4294967295
204.86829 50.089382 -78.918297 4294967295
204.87151 47.825886 -80.552261 4294967295
204.87288 48.278305 -80.262878 4294967295
204.89827 50.545208 -79.156639 4294967295
204.90506 49.639473 -79.912682 4294967295
204.91101 49.187305 -80.337479 4294967295
204.91483 51.907509 -78.516327 4294967295
204.92703 51.454353 -79.057724 4294967295
204.94379 54.181396 -77.471626 4294967295
204.94633 52.363197 -78.783112 4294967295
204.95087 53.271976 -78.235374 4294967295
204.97821 56.459297 -76.525215 4294967295
204.98573 53.727543 -78.564301 4294967295
204.98656 56.003269 -76.997009 4294967295
204.99187 54.637165 -78.045486 4294967295
204.99893 55.547596 -77.543289 4294967295
205.01076 55.092346 -78.079071 4294967295
205.02814 56.914265 -77.133881 4294967295
205.03023 58.739979 -75.902977 4294967295
205.05841 58.281849 -76.743637 4294967295
205.0665 57.825176 -77.210915 4294967295
205.09874 59.192863 -76.85743 4294967295
205.15868 41.466927 -81.880089 4294967295
205.17615 43.27169 -80.942047 4294967295
205.18365 43.723919 -80.76487 4294967295
205.20837 41.927616 -82.484749 4294967295
205.22928 42.831795 -82.241623 4294967295
205.24323 44.185642 -81.553543 4294967295
205.24677 46.894867 -79.721565 4294967295
205.2478 44.637268 -81.322388 4294967295
205.25372 45.992065 -80.484123 4294967295
205.28494 48.256874 -79.480156 4294967295
205.28551 45.54557 -81.389908 4294967295
205.32195 50.52607 -78.581192 4294967295
205.32501 47.357243 -80.858253 4294967295
205.32501 49.166645 -79.590897 4294967295
205.33226 50.980534 -78.455055 4294967295
205.34323 49.621296 -79.612015 4294967295
205.34677 51.889427 -78.089218 4294967295
205.36317 50.076084 -79.665863 4294967295
205.40074 52.800522 -78.458458 4294967295
205.40585 52.346603 -78.871552 4294967295
205.4063 53.255123 -78.243553 4294967295
205.42825 53.710331 -78.334885 4294967295
205.4426 54.165321 -78.283478 4294967295
205.44734 55.98621 -77.096359 4294967295
205.45233 55.075333 -77.827408 4294967295
205.46446 56.441742 -77.096832 4294967295
205.46899 58.266842 -75.902634 4294967295
205.49522 56.896938 -77.352036 4294967295
205.51637 59.17804 -76.14856 4294967295
205.60301 41.448563 -81.708565 4294967295
205.60939 42.350136 -81.192383 4294967295
205.6398 41.906559 -82.077209 4294967295
205.64061 42.806908 -81.457123 4294967295
205.64426 43.708763 -80.888931 4294967295
205.66211 44.613972 -80.585716 4294967295
205.67009 43.263134 -81.689369 4294967295
205.67078 44.164494 -81.065865 4294967295
205.68713 45.972412 -80.097504 4294967295
205.68872 45.069698 -80.764603 4294967295
205.68987 46.876759 -79.51075 4294967295
205.7204 48.238052 -79.124512 4294967295
205.74442 47.336185 -80.212036 4294967295
205.75333 48.694473 -79.421234 4294967295
205.75993 49.601097 -78.905914 4294967295
205.77855 49.149887 -79.574234 4294967295
205.78151 47.792931 -80.58728 4294967295
205.80127 50.511253 -79.040474 4294967295
205.83376 52.782761 -78.048431 4294967295
205.86256 52.329887 -78.909683 4294967295
205.87411 53.693199 -78.164421 4294967295
205.87807 54.603004 -77.596725 4294967295
205.88191 55.969406 -76.704826 4294967295
205.89745 57.337547 -76.031372 4294967295
205.903 54.148525 -78.386299 4294967295
205.90637 55.513645 -77.486206 4294967295
205.93056 56.42453 -77.298401 4294967295
205.94162 58.248932 -76.218811 4294967295
205.97827 59.160507 -76.264473 4294967295
205.97913 58.703686 -76.60321 4294967295
206.06091 41.433258 -81.790672 4294967295
206.07146 41.885475 -81.668297 4294967295
206.09979 42.791683 -81.561081 4294967295
206.11385 42.344543 -82.145287 4294967295
206.11615 43.695778 -81.227936 4294967295
206.11987 43.246017 -81.618217 4294967295
206.14983 45.054436 -80.899918 4294967295
206.15097 46.861115 -79.636978 4294967295
206.15669 45.506794 -80.708191 4294967295
206.16847 45.960056 -80.60939 4294967295
206.19537 48.223793 -79.509232 4294967295
206.19539 47.77137 -79.831253 4294967295
206.19656 47.319351 -80.175003 4294967295
206.21439 50.491226 -78.257523 4294967295
206.24428 48.681812 -80.110031 4294967295
206.24983 50.040756 -79.248978 4294967295
206.27003 52.765125 -77.694542 4294967295
206.27313 51.85675 -78.399529 4294967295
206.27852 51.403229 -78.823883 4294967295
206.3127 52.312851 -78.824242 4294967295
206.31441 53.675907 -77.887726 4294967295
206.33804 55.496719 -77.04071 4294967295
206.34663 55.041344 -77.527344 4294967295
206.35428 55.95224 -77.024345 4294967295
206.35997 56.863976 -76.4841 4294967295
206.36578 58.233295 -75.620483 4294967295
206.38057 57.775963 -76.225945 4294967295
206.39522 57.319126 -76.827972 4294967295
206.51213 41.866318 -81.425079 4294967295
206.54707 44.125889 -80.473724 4294967295
206.55435 43.676411 -80.934372 4294967295
206.5703 43.229019 -81.55928 4294967295
206.57193 42.77916 -81.912338 4294967295
206.58112 45.034157 -80.47274 4294967295
206.58597 46.389751 -79.594437 4294967295
206.58952 45.938457 -79.985107 4294967295
206.593 44.585125 -81.02095 4294967295
206.61314 45.490723 -80.756798 4294967295
206.63046 46.848076 -80.114914 4294967295
206.63208 48.657864 -78.849472 4294967295
206.63728 47.301003 -79.920853 4294967295
206.63834 48.205833 -79.292656 4294967295
206.64555 49.112274 -78.781319 4294967295
206.68823 51.383511 -77.968346 4294967295
206.69872 50.02356 -79.142914 4294967295
206.70535 50.930878 -78.61937 4294967295
206.70847 51.838821 -78.028549 4294967295
206.71909 53.657604 -76.928215 4294967295
206.72469 52.748253 -77.6866 4294967295
206.72664 54.112942 -76.746498 4294967295
206.7368 53.203308 -77.591827 4294967295
206.75124 52.295219 -78.518005 4294967295
206.75145 54.568653 -76.893402 4294967295
206.79663 56.847385 -76.123421 4294967295
206.80783 55.47971 -77.316788 4294967295
206.82439 57.759338 -75.99958 4294967295
206.82594 55.935085 -77.336334 4294967295
206.8454 59.128929 -75.419861 4294967295
206.8474 58.671757 -75.785492 4294967295
206.86182 58.214291 -76.388283 4294967295
206.98502 41.854301 -81.793327 4294967295
206.98721 42.304707 -81.510361 4294967295
206.99811 44.108913 -80.417915 4294967295
207.00607 42.758797 -81.54528 4294967295
207.01357 44.562767 -80.387505 4294967295
207.01482 45.014214 -80.085472 4294967295
207.02101 43.212074 -81.505463 4294967295
207.02921 43.664078 -81.336433 4294967295
207.05138 45.471676 -80.458199 4294967295
207.05394 46.827194 -79.529541 4294967295
207.06845 47.733707 -79.154106 4294967295
207.07077 47.281658 -79.525017 4294967295
207.07663 45.927082 -80.615379 4294967295
207.07864 46.378914 -80.327766 4294967295
207.08746 48.188576 -79.191483 4294967295
207.11014 49.096634 -78.972015 4294967295
207.13351 50.458508 -78.438789 4294967295
207.1543 51.82148 -77.854652 4294967295
207.1546 50.006973 -79.17009 4294967295
207.15578 50.913807 -78.537827 4294967295
207.16235 51.367996 -78.336929 4294967295
207.16296 52.276199 -77.693069 4294967295
207.17851 52.73135 -77.663391 4294967295
207.19279 54.096245 -76.953217 4294967295
207.19334 53.186489 -77.620033 4294967295
207.21768 53.641941 -77.759254 4294967295
207.21835 55.462807 -76.458221 4294967295
207.23456 54.552086 -77.427185 4294967295
207.24207 57.287033 -75.597458 4294967295
207.25653 55.918316 -76.863434 4294967295
207.26593 56.829998 -76.38604 4294967295
207.27141 58.199341 -75.503052 4294967295
207.29135 57.741806 -76.216881 4294967295
207.32817 59.110096 -75.937325 4294967295
207.43927 44.090084 -80.172058 4294967295
207.45041 43.190819 -81.042145 4294967295
207.46439 43.6441 -80.983391 4294967295
207.46663 42.743927 -81.681145 4294967295
207.47336 45.901573 -79.51461 4294967295
207.48676 44.549782 -80.757675 4294967295
207.50023 45.003155 -80.689163 4294967295
207.5188 46.812145 -79.733345 4294967295
207.52071 47.71682 -79.11216 4294967295
207.5387 48.17157 -79.130356 4294967295
207.54239 46.363853 -80.516327 4294967295
207.55479 49.078934 -78.782402 4294967295
207.58696 49.535172 -79.073677 4294967295
207.59651 50.442448 -78.598694 4294967295
207.59694 49.989185 -78.936638 4294967295
207.60023 51.35009 -78.010864 4294967295
207.60435 52.258667 -77.429886 4294967295
207.6331 52.714478 -77.655457 4294967295
207.64983 53.16967 -77.648247 4294967295
207.65463 53.624531 -77.410934 4294967295
207.66635 54.534828 -76.975769 4294967295
207.67151 55.44582 -76.412979 4294967295
207.68651 54.990326 -77.035126 4294967295
207.69275 57.270119 -75.498077 4294967295
207.70386 56.357254 -76.37706 4294967295
207.71843 55.901257 -76.990906 4294967295
207.72383 58.182377 -75.436516 4294967295
207.73264 56.812679 -76.603256 4294967295
207.76161 59.09433 -75.505394 4294967295
207.76254 57.724098 -76.519951 4294967295
207.7695 58.636898 -75.991112 4294967295
207.84988 41.362297 -81.312119 4294967295
207.87608 41.818123 -81.4897 4294967295
207.88377 43.620941 -80.318253 4294967295
207.89682 42.272614 -81.561394 4294967295
207.90715 43.175068 -81.101654 4294967295
207.91788 44.078312 -80.649132 4294967295
207.93329 44.532024 -80.617485 4294967295
207.9397 44.984196 -80.411552 4294967295
207.94534 45.887882 -79.859123 4294967295
207.95982 46.793697 -79.478287 4294967295
207.96233 47.698566 -78.863922 4294967295
207.97171 48.152348 -78.714676 4294967295
207.9751 46.34412 -80.105721 4294967295
207.98955 49.060165 -78.397469 4294967295
207.99632 47.250816 -79.85569 4294967295
208.03325 48.612164 -79.578796 4294967295
208.03539 50.424408 -78.292671 4294967295
208.04277 49.971691 -78.768524 4294967295
208.06636 51.78801 -77.898392 4294967295
208.06915 53.151482 -76.953529 4294967295
208.07169 50.880798 -78.666771 4294967295
208.09166 54.062153 -76.725235 4294967295
208.09895 53.607319 -77.200974 4294967295
208.12271 54.97324 -76.663803 4294967295
208.12961 54.518005 -77.132202 4294967295
208.15955 57.252689 -75.712944 4294967295
208.16949 56.340061 -76.575974 4294967295
208.17561 57.708679 -75.692307 4294967295
208.19659 56.795433 -76.771027 4294967295
208.23093 58.619446 -76.105003 4294967295
208.29359 41.343674 -81.12101 4294967295
208.31995 41.799618 -81.302872 4294967295
208.33916 42.703907 -81.012909 4294967295
208.34956 44.057671 -80.217606 4294967295
208.35629 44.96117 -79.682861 4294967295
208.36543 43.610039 -80.860207 4294967295
208.38205 45.868568 -79.519424 4294967295
208.38907 44.515945 -80.656586 4294967295
208.40404 45.420712 -80.283066 4294967295
208.4041 46.323776 -79.617256 4294967295
208.44881 47.686127 -79.490952 4294967295
208.46361 49.4986 -78.443192 4294967295
208.46558 48.140533 -79.485199 4294967295
208.47408 49.046692 -78.983185 4294967295
208.49416 52.223923 -77.031433 4294967295
208.49565 51.315544 -77.7323 4294967295
208.52928 52.680161 -77.386139 4294967295
208.54645 54.500504 -76.379425 4294967295
208.54834 54.045261 -76.752579 4294967295
208.54906 53.135532 -77.43866 4294967295
208.5746 54.956261 -76.596718 4294967295
208.58849 56.323627 -75.859566 4294967295
208.59441 56.779766 -75.639465 4294967295
208.59772 55.867523 -76.378311 4294967295
208.61252 58.149216 -74.98465 4294967295
208.6138 57.692276 -75.347549 4294967295
208.63278 57.235054 -76.058533 4294967295
208.69246 59.0588 -75.885941 4294967295
208.75163 41.328461 -81.209122 4294967295
208.7666 42.681908 -80.498688 4294967295
208.77457 43.134041 -80.31974 4294967295
208.78348 44.037388 -79.824295 4294967295
208.79871 44.491348 -79.788376 4294967295
208.80116 44.943058 -79.501083 4294967295
208.82349 43.594536 -80.947708 4294967295
208.84105 45.852837 -79.614792 4294967295
208.84914 45.402729 -80.109749 4294967295
208.84946 46.757824 -79.107864 4294967295
208.85944 47.211411 -78.96801 4294967295
208.88513 47.667179 -79.138641 4294967295
208.89597 48.120975 -79.01564 4294967295
208.90187 49.027149 -78.458145 4294967295
208.92699 50.389427 -77.942184 4294967295
208.9334 50.843643 -77.731346 4294967295
208.93806 49.483898 -78.835579 4294967295
208.93814 49.937012 -78.500031 4294967295
208.9436 51.298283 -77.595268 4294967295
208.95485 52.20739 -77.141724 4294967295
208.9807 52.663147 -77.315048 4294967295
208.98138 53.572689 -76.651901 4294967295
209.00087 53.118546 -77.375877 4294967295
209.01448 56.307068 -75.272949 4294967295
209.04471 54.484215 -77.229286 4294967295
209.04625 56.762798 -75.56366 4294967295
209.0463 54.939419 -76.921227 4294967295
209.05971 57.218899 -75.49086 4294967295
209.06848 55.850391 -76.683525 4294967295
209.08627 57.674522 -75.678474 4294967295
209.09579 59.044933 -74.847244 4294967295
209.10342 58.587315 -75.339264 4294967295
209.18913 41.758194 -80.555649 4294967295
209.20364 42.211609 -80.505318 4294967295
209.2222 42.665947 -80.535355 4294967295
209.24352 44.022125 -79.943993 4294967295
209.25192 43.573051 -80.44899 4294967295
209.26001 45.378876 -79.256134 4294967295
209.26082 44.476395 -79.948883 4294967295
209.26176 43.124668 -80.981705 4294967295
209.28687 44.93224 -80.127579 4294967295
209.28825 45.835194 -79.477844 4294967295
209.31288 47.194702 -78.950005 4294967295
209.32874 49.007454 -77.907532 4294967295
209.33548 48.102505 -78.721207 4294967295
209.34164 47.650875 -79.183067 4294967295
209.35327 49.463242 -78.055817 4294967295
209.37962 50.372509 -77.90007 4294967295
209.3978 52.189896 -76.900101 4294967295
209.40495 53.099693 -76.361031 4294967295
209.40517 49.921471 -78.749039 4294967295
209.42053 52.645592 -77.01297 4294967295
209.42827 51.283592 -78.189072 4294967295
209.44492 54.466434 -76.134064 4294967295
209.44579 53.556076 -76.834618 4294967295
209.45427 55.377892 -75.637253 4294967295
209.46785 56.290062 -75.224854 4294967295
209.46828 54.922207 -76.259392 4294967295
209.48608 55.833694 -75.931282 4294967295
209.49991 57.659088 -74.838608 4294967295
209.5228 57.201588 -75.638824 4294967295
209.55029 58.113743 -75.504082 4294967295
209.56963 58.569603 -75.548668 4294967295
209.57195 59.026497 -75.251961 4294967295
209.62486 41.287689 -80.537231 4294967295
209.65639 42.195053 -80.486404 4294967295
209.68304 41.751339 -81.358498 4294967295
209.68494 43.10186 -80.375351 4294967295
209.68634 44.003521 -79.722031 4294967295
209.71426 45.362377 -79.256958 4294967295
209.74864 46.271378 -79.262451 4294967295
209.77039 46.726551 -79.356148 4294967295
209.77367 48.083832 -78.395958 4294967295
209.77586 47.179348 -79.124161 4294967295
209.78937 48.53849 -78.368469 4294967295
209.80226 47.635132 -79.311432 4294967295
209.80707 49.446453 -78.038513 4294967295
209.81079 49.900143 -77.770241 4294967295
209.81149 48.993866 -78.469612 4294967295
209.8508 52.172947 -76.857819 4294967295
209.85088 51.264542 -77.546326 4294967295
209.85794 53.082722 -76.314209 4294967295
209.86026 52.628006 -76.704628 4294967295
209.86053 51.719227 -77.397278 4294967295
209.86517 53.538048 -76.11557 4294967295
209.87001 50.812248 -78.273651 4294967295
209.91786 55.360901 -75.798561 4294967295
209.92162 54.449829 -76.563156 4294967295
209.9238 54.905247 -76.262398 4294967295
209.93973 55.816704 -75.894333 4294967295
209.9433 57.185623 -74.931221 4294967295
209.95706 56.728706 -75.554237 4294967295
209.97108 57.641376 -75.14621 4294967295
209.97113 58.098282 -74.80172 4294967295
209.97194 56.27227 -76.198502 4294967295
209.99661 59.011307 -74.624466 4294967295
210.02417 58.552532 -75.526489 4294967295
210.06949 41.269169 -80.355484 4294967295
210.12473 42.182076 -80.781097 4294967295
210.12938 42.63319 -80.531998 4294967295
210.13622 43.53548 -79.982857 4294967295
210.1376 43.986549 -79.667542 4294967295
210.1562 43.089233 -80.72892 4294967295
210.16977 44.443722 -79.971977 4294967295
210.21056 46.256073 -79.419159 4294967295
210.22543 46.71014 -79.375061 4294967295
210.24948 47.617592 -79.171272 4294967295
210.25139 49.428692 -77.830147 4294967295
210.25352 49.882278 -77.528023 4294967295
210.26004 48.071259 -79.04007 4294967295
210.26416 48.977005 -78.433876 4294967295
210.27374 48.525402 -78.972137 4294967295
210.28447 50.338638 -77.808388 4294967295
210.28596 51.246342 -77.147232 4294967295
210.28809 52.155113 -76.497307 4294967295
210.28947 50.792702 -77.564178 4294967295
210.28949 51.70076 -76.872238 4294967295
210.32765 52.611744 -76.952858 4294967295
210.33081 53.066547 -76.669914 4294967295
210.33786 54.432259 -75.772614 4294967295
210.36191 54.888142 -75.913216 4294967295
210.36421 53.522549 -77.000984 4294967295
210.37062 55.34391 -75.743042 4294967295
210.37379 53.977718 -76.848763 4294967295
210.38741 56.71225 -75.040718 4294967295
210.39731 55.799683 -75.937279 4294967295
210.4068 57.168304 -75.087128 4294967295
210.4151 56.255436 -75.951324 4294967295
210.42038 58.081482 -74.66687 4294967295
210.43378 58.995327 -74.242477 4294967295
210.53856 41.25668 -80.667526 4294967295
210.56401 42.612572 -80.146217 4294967295
210.56842 41.713631 -80.927383 4294967295
210.60358 43.972527 -79.911514 4294967295
210.64015 45.3325 -79.615486 4294967295
210.64062 44.430546 -80.318092 4294967295
210.65442 45.786324 -79.558434 4294967295
210.65724 46.238361 -79.269241 4294967295
210.66107 47.595188 -78.305313 4294967295
210.69321 48.051937 -78.612213 4294967295
210.69328 49.410656 -77.569839 4294967295
210.70195 48.958458 -78.094437 4294967295
210.715 48.507206 -78.708344 4294967295
210.71855 49.86655 -77.736465 4294967295
210.7205 50.774021 -77.079803 4294967295
210.72194 50.320374 -77.45768 4294967295
210.75894 53.048576 -76.119286 4294967295
210.76013 52.593796 -76.492889 4294967295
210.76811 51.231537 -77.702377 4294967295
210.79004 53.504707 -76.405159 4294967295
210.80162 54.415451 -75.942245 4294967295
210.84395 54.871414 -76.458298 4294967295
210.85054 55.326942 -76.243149 4294967295
210.85066 55.782696 -75.895576 4294967295
210.87077 56.694553 -75.606514 4294967295
210.87689 58.521515 -74.328362 4294967295
210.88477 57.150524 -75.542862 4294967295
210.88535 57.607071 -75.203842 4294967295
210.91788 58.062374 -75.51976 4294967295
210.98737 41.68898 -80.222366 4294967295
211.01665 42.595966 -80.124123 4294967295
211.03349 44.402317 -79.073158 4294967295
211.03584 43.951744 -79.470238 4294967295
211.03691 43.050747 -80.189972 4294967295
211.04895 44.85651 -79.040413 4294967295
211.05353 43.504704 -80.181297 4294967295
211.0865 45.766094 -79.110779 4294967295
211.10263 45.317528 -79.79081 4294967295
211.10899 46.673256 -78.87204 4294967295
211.11644 47.578709 -78.324074 4294967295
211.12524 48.032417 -78.154243 4294967295
211.12636 47.127861 -78.877777 4294967295
211.13599 48.486496 -78.024612 4294967295
211.1467 48.940678 -77.894005 4294967295
211.15196 49.394375 -77.651237 4294967295
211.16011 50.302139 -77.116348 4294967295
211.16866 49.849388 -77.642921 4294967295
211.1938 51.666763 -76.754211 4294967295
211.20824 52.122013 -76.699951 4294967295
211.20851 50.75996 -77.759964 4294967295
211.21191 51.213959 -77.478714 4294967295
211.22562 53.487156 -76.000862 4294967295
211.23215 53.032436 -76.487854 4294967295
211.24232 52.578281 -77.049622 4294967295
211.27452 54.398808 -76.303978 4294967295
211.27933 56.678589 -74.637375 4294967295
211.28427 54.854321 -76.152725 4294967295
211.29663 56.22184 -75.348061 4294967295
211.3069 57.591328 -74.499916 4294967295
211.32233 58.504959 -74.110054 4294967295
211.32979 57.133789 -75.325943 4294967295
211.34 58.961369 -74.121536 4294967295
211.354 58.046185 -75.118843 4294967295
211.42409 41.218666 -80.224472 4294967295
211.45456 42.576012 -79.799026 4294967295
211.45596 42.126183 -80.17926 4294967295
211.4772 43.031422 -79.913872 4294967295
211.50818 44.840984 -79.14547 4294967295
211.5136 44.390949 -79.609879 4294967295
211.52315 45.295052 -79.10257 4294967295
211.5643 46.656868 -78.894852 4294967295
211.57643 46.207104 -79.49855 4294967295
211.59213 48.017422 -78.412109 4294967295
211.59665 47.565697 -78.85807 4294967295
211.59743 48.923557 -77.814392 4294967295
211.61618 50.2855 -77.140915 4294967295
211.62065 49.832409 -77.587982 4294967295
211.64116 51.649445 -76.595497 4294967295
211.65599 52.104759 -76.54882 4294967295
211.65948 51.196648 -77.330299 4294967295
211.67555 53.925354 -75.533981 4294967295
211.71655 53.0168 -77.09655 4294967295
211.73373 54.381943 -76.387527 4294967295
211.73854 54.837353 -76.132172 4294967295
211.73891 57.118164 -74.358948 4294967295
211.74121 56.661392 -74.763374 4294967295
211.76109 55.748692 -75.889755 4294967295
211.77228 57.573845 -74.697388 4294967295
211.77431 58.030766 -74.383003 4294967295
211.78789 58.487286 -74.308601 4294967295
211.8632 41.198685 -79.923569 4294967295
211.88029 42.102856 -79.570068 4294967295
211.89908 42.55751 -79.606117 4294967295
211.90727 41.659447 -80.48452 4294967295
211.94476 43.919106 -79.492714 4294967295
211.94928 43.469433 -79.940903 4294967295
