# .PCD v0.7 - Point Cloud Data file format
VERSION 0.7
FIELDS x y z rgb
SIZE 4 4 4 4
TYPE F F F U
COUNT 1 1 1 1
WIDTH 1165
HEIGHT 1
VIEWPOINT 0 0 0 1 0 0 0
POINTS 1165
DATA ascii
316.81436 2.5327902 13.873528 4294967295
316.82446 -11.658261 15.372801 4294967295
316.83636 -9.6310501 13.8193 4294967295
316.83774 -10.143158 14.317671 4294967295
316.83975 1.999423 14.983004 4294967295
316.84473 -11.174348 15.423759 4294967295
316.84549 -10.664196 14.97784 4294967295
316.88596 -9.1860266 14.613729 4294967295
316.88739 -8.1681528 13.723497 4294967295
316.92032 -7.7008791 14.094482 4294967295
316.95944 -6.7318692 14.15938 4294967295
316.96722 -7.2510533 14.819794 4294967295
316.97928 -6.2477083 14.199722 4294967295
317.02518 -5.7957296 14.899122 4294967295
317.073 -5.3455153 15.646032 4294967295
317.08417 -4.3414001 15.00313 4294967295
317.09009 -3.8401756 14.69137 4294967295
317.11258 -3.358798 14.797375 4294967295
317.12384 -2.864171 14.620504 4294967295
317.13971 -2.3750334 14.55941 4294967295
317.19882 -1.4282322 15.128092 4294967295
317.22632 0.061774299 14.439514 4294967295
317.22763 -13.101077 14.784731 4294967295
317.24692 0.54549599 14.497393 4294967295
317.24905 -13.642536 15.784716 4294967295
317.27917 1.5227118 14.389135 4294967295
317.28763 -10.627545 13.994276 4294967295
317.29208 -11.654922 15.02636 4294967295
317.29373 -11.146218 14.607824 4294967295
317.30359 0.9897871 15.464108 4294967295
317.32327 1.9812422 15.03867 4294967295
317.34171 2.4675417 15.043097 4294967295
317.35153 2.9629622 14.829828 4294967295
317.36496 -10.219258 15.478924 4294967295
317.38806 3.4303265 15.288925 4294967295
317.47665 -5.7747679 14.153763 4294967295
317.48264 -6.7999272 15.219416 4294967295
317.49484 -6.305902 15.067352 4294967295
317.52921 -4.8218241 14.554989 4294967295
317.55231 -5.3582921 15.589903 4294967295
317.59097 -4.387466 15.642952 4294967295
317.60678 -2.8819141 14.666645 4294967295
317.6106 -2.3788557 14.304148 4294967295
317.62494 -3.4110136 15.578007 4294967295
317.66965 -1.9393578 15.323854 4294967295
317.69119 -0.94928741 14.947889 4294967295
317.6998 -1.466176 15.618948 4294967295
317.70004 -13.615675 15.02257 4294967295
317.70831 -13.115543 14.772249 4294967295
317.73404 0.0166531 15.10449 4294967295
317.75366 0.50167662 15.137924 4294967295
317.76181 -12.67695 15.651043 4294967295
317.78339 0.97581393 15.422651 4294967295
317.78702 1.4781523 15.057438 4294967295
317.79135 -11.694191 15.475386 4294967295
317.80594 -11.20265 15.382683 4294967295
317.82367 -10.715402 15.369959 4294967295
317.84277 2.9366598 15.079378 4294967295
317.84467 -10.232376 15.437586 4294967295
317.86795 -9.752182 15.560637 4294967295
317.87656 3.4070845 15.466412 4294967295
317.88467 -8.7536268 15.067392 4294967295
317.91119 -8.2775726 15.27203 4294967295
317.96069 -6.8113704 15.139067 4294967295
317.98087 -7.3456755 16.09441 4294967295
317.99719 -5.8383536 15.138058 4294967295
318.03067 -4.8616557 15.060402 4294967295
318.04825 -3.8664556 14.589504 4294967295
318.04865 -5.3917241 15.959709 4294967295
318.08826 -3.4054794 15.128136 4294967295
318.11172 -2.9249926 15.256859 4294967295
318.14566 -2.4562912 15.642937 4294967295
318.15286 -1.957098 15.369774 4294967295
318.15869 -1.4565248 15.061321 4294967295
318.19562 -13.139096 14.925896 4294967295
318.24051 0.47985461 15.276535 4294967295
318.24713 -0.033873599 15.891218 4294967295
318.25537 1.4760199 14.740467 4294967295
318.26025 0.96483332 15.312439 4294967295
318.27133 -12.729858 16.345133 4294967295
318.2821 -11.721841 15.707449 4294967295
318.29285 2.4477215 14.763157 4294967295
318.29822 -10.721786 15.201725 4294967295
318.29996 1.93466 15.389317 4294967295
318.31146 -11.249657 15.979862 4294967295
318.32544 -9.7368565 14.971869 4294967295
318.33807 3.4115572 14.976175 4294967295
318.3399 2.9043865 15.471376 4294967295
318.3447 -8.7421999 14.545013 4294967295
318.36377 -8.2570171 14.565739 4294967295
318.37216 -9.2866554 15.672836 4294967295
318.43964 -7.8423285 15.98361 4294967295
318.44208 -7.3359785 15.592936 4294967295
318.44666 -6.8325286 15.254471 4294967295
318.47406 -5.8485208 15.02968 4294967295
318.50262 -6.3917522 16.182064 4294967295
318.54349 -5.4230428 16.285604 4294967295
318.55734 -4.9309216 16.177341 4294967295
318.55984 -4.4255581 15.789871 4294967295
318.573 -3.4251432 15.215267 4294967295
318.59409 -2.941823 15.283396 4294967295
318.61276 -1.9487123 14.845182 4294967295
318.61496 -2.45823 15.346704 4294967295
318.66284 -13.646467 15.032295 4294967295
318.68735 -1.0179415 15.776346 4294967295
318.69424 -0.51878262 15.497375 4294967295
318.71671 -13.207801 15.904009 4294967295
318.71802 -0.0380936 15.631046 4294967295
318.72552 0.9661026 14.92054 4294967295
318.73959 0.4450264 15.711637 4294967295
318.7438 -12.221819 15.672295 4294967295
318.78421 -10.23332 14.872492 4294967295
318.79547 -11.268164 16.041231 4294967295
318.79636 -10.758916 15.615974 4294967295
318.79868 1.3947382 16.260897 4294967295
318.81274 -9.7599745 15.122196 4294967295
318.83447 2.3693333 16.242109 4294967295
318.84988 2.8592014 16.171129 4294967295
318.86002 3.3543577 15.971527 4294967295
318.87491 -9.3288746 16.193634 4294967295
318.87534 -8.3102913 15.311153 4294967295
318.91 -7.3349786 15.265215 4294967295
318.9108 -7.8449483 15.730463 4294967295
318.95227 -6.8775082 15.849192 4294967295
318.97403 -5.8863931 15.487621 4294967295
318.97607 -6.3974066 15.983236 4294967295
318.99377 -5.401545 15.523285 4294967295
318.9996 -4.9003496 15.21986 4294967295
319.02652 -3.9163327 14.98617 4294967295
319.04028 -4.4399447 15.765696 4294967295
319.10239 -2.9880161 15.940086 4294967295
319.108 -3.5021105 16.522108 4294967295
319.11816 -2.4984722 15.879709 4294967295
319.12946 -2.0039444 15.709356 4294967295
319.1438 -1.5129461 15.614052 4294967295
319.1694 -1.0342932 15.791054 4294967295
319.18369 -13.203739 15.552954 4294967295
319.18539 -0.54511738 15.735495 4294967295
319.21326 0.94338608 15.080498 4294967295
319.21518 0.43547821 15.570316 4294967295
319.21936 -12.740112 15.975121 4294967295
319.25446 1.4058561 15.636209 4294967295
319.25955 -10.750986 15.176886 4294967295
319.27023 -11.274663 15.876829 4294967295
319.28027 -11.798224 16.564547 4294967295
319.3056 2.3642321 15.988237 4294967295
319.33835 2.8363409 16.338051 4294967295
319.34418 3.3357697 16.036726 4294967295
319.34448 -8.3108244 15.01969 4294967295
319.37231 -9.363986 16.576469 4294967295
319.38239 -8.866827 16.377836 4294967295
319.4021 -7.8724422 15.970205 4294967295
319.4191 -6.8754425 15.497145 4294967295
319.42023 -7.3854947 15.96612 4294967295
319.46042 -6.416328 16.053499 4294967295
319.48575 -5.4295735 15.781527 4294967295
319.49442 -4.9317575 15.550058 4294967295
319.54828 -4.4860859 16.406384 4294967295
319.57452 -2.9932108 15.716669 4294967295
319.58047 -4.0150299 16.741032 4294967295
319.58304 -3.5101719 16.361801 4294967295
319.61237 -2.5283117 16.187349 4294967295
319.63504 -1.0328932 15.411724 4294967295
319.64133 -1.5462818 16.002905 4294967295
319.66702 -13.221632 15.603069 4294967295
319.67834 -0.067028001 15.574156 4294967295
319.68777 -0.58337021 16.240269 4294967295
319.69067 -12.742019 15.731079 4294967295
319.70776 -12.253859 15.702793 4294967295
319.72772 0.89279938 15.881142 4294967295
319.73682 1.3890018 15.660906 4294967295
319.74625 0.36727139 16.765747 4294967295
319.78006 2.3554983 15.820498 4294967295
319.78394 -11.331227 16.653337 4294967295
319.78555 -10.823046 16.252115 4294967295
319.80804 -9.8318081 15.914339 4294967295
319.81259 1.8167181 17.040009 4294967295
319.83252 -9.3527584 16.062344 4294967295
319.84219 -8.8554277 15.856169 4294967295
319.85034 3.2953548 16.627058 4294967295
319.88455 -8.3980694 16.432301 4294967295
319.89542 -7.3933678 15.815651 4294967295
319.90079 -7.9086905 16.38328 4294967295
319.92554 -6.9208388 16.099819 4294967295
319.94577 -5.9281425 15.708586 4294967295
319.96451 -6.458426 16.593609 4294967295
319.98825 -5.4695849 16.286444 4294967295
320.02222 -5.0007544 16.660364 4294967295
320.03738 -4.0025311 16.148766 4294967295
320.06329 -3.5243044 16.330967 4294967295
320.08698 -3.0433941 16.458605 4294967295
320.11795 -1.5567713 15.889099 4294967295
320.11984 -2.5725555 16.806351 4294967295
320.12445 -1.0574112 15.607874 4294967295
320.12833 -2.074729 16.571175 4294967295
320.16144 -0.59074402 16.053761 4294967295
320.19556 -12.27746 15.858221 4294967295
320.20084 0.3798714 16.119661 4294967295
320.20438 -13.309938 16.938354 4294967295
320.21167 -12.808578 16.675632 4294967295
320.22537 -0.15203001 17.138504 4294967295
320.23358 0.85167032 16.463951 4294967295
320.24414 -11.829423 16.578451 4294967295
320.27475 -10.338293 16.00028 4294967295
320.28 2.320981 16.261715 4294967295
320.28113 -11.366138 17.022755 4294967295
320.28265 1.8128328 16.760458 4294967295
320.30234 2.8037796 16.358116 4294967295
320.31256 -9.8757172 16.46372 4294967295
320.31372 3.2974873 16.19367 4294967295
320.31812 -9.373209 16.161491 4294967295
320.35513 -8.9092436 16.606165 4294967295
320.37747 -8.4271669 16.701834 4294967295
320.40512 -7.9513764 16.923548 4294967295
320.43317 -6.4587321 16.286489 4294967295
320.46426 -5.9867387 16.589315 4294967295
320.49072 -4.4937725 15.916822 4294967295
320.49329 -5.0042486 16.410656 4294967295
320.54214 -3.5369225 16.267908 4294967295
320.5463 -4.0489011 16.798651 4294967295
320.58932 -2.0680656 16.084547 4294967295
320.60004 -1.5732307 15.906639 4294967295
320.61285 -2.6005363 17.073427 4294967295
320.62579 -1.0944872 16.08255 4294967295
320.67212 -0.1311359 16.311541 4294967295
320.67535 -0.64070231 16.820183 4294967295
320.69653 -13.338594 17.18446 4294967295
320.69937 -12.831633 16.820364 4294967295
320.72235 -11.330514 16.067101 4294967295
320.72595 0.82482719 16.718302 4294967295
320.73114 -11.85148 16.705893 4294967295
320.74454 -10.848651 16.158943 4294967295
320.75455 1.8068867 16.529398 4294967295
320.75534 -10.352676 15.983124 4294967295
320.77716 2.794529 16.200491 4294967295
320.77884 1.2766552 17.533709 4294967295
320.78125 -9.8753119 16.162132 4294967295
320.806 2.260746 17.309988 4294967295
320.81421 -9.4063978 16.507072 4294967295
320.84637 -7.9187441 15.972828 4294967295
320.84726 -8.4283705 16.423471 4294967295
320.87064 -7.439106 16.113314 4294967295
320.93298 -5.9874415 16.287609 4294967295
320.94815 -7.0215259 17.503347 4294967295
320.96924 -6.5374599 17.568274 4294967295
320.96942 -5.5213299 16.713413 4294967295
320.98013 -5.0258141 16.536114 4294967295
321.0174 -4.0526948 16.550295 4294967295
321.04169 -4.5873623 17.549469 4294967295
321.05899 -2.5775928 16.239265 4294967295
321.06943 -3.6029968 17.341537 4294967295
321.10519 -1.6142759 16.464804 4294967295
321.15213 -13.320217 16.572369 4294967295
321.16205 -1.1680498 17.366299 4294967295
321.17639 -0.67665583 17.272955 4294967295
321.19974 0.31132701 16.963047 4294967295
321.20187 -12.873291 17.306734 4294967295
321.21747 0.79900843 16.948843 4294967295
321.22134 1.3006029 16.612156 4294967295
321.24698 1.7801952 16.783752 4294967295
321.25534 -10.900251 16.846287 4294967295
321.26044 -11.41631 17.392015 4294967295
321.27408 -9.9045086 16.428705 4294967295
321.28177 -10.423192 17.035547 4294967295
321.28339 2.2492876 17.206345 4294967295
321.29318 -9.4186792 16.4482 4294967295
321.29733 2.7407255 17.104479 4294967295
321.30423 -8.9231482 16.278795 4294967295
321.30823 3.2350702 16.930891 4294967295
321.32352 -8.4375448 16.30175 4294967295
321.34573 3.7036724 17.378668 4294967295
321.40567 -7.0087667 16.936579 4294967295
321.44128 -6.5416365 17.339563 4294967295
321.47119 -5.0519915 16.757147 4294967295
321.50482 -4.0747638 16.687613 4294967295
321.52347 -4.6027837 17.546696 4294967295
321.55341 -3.6208973 17.390491 4294967295
321.55841 -3.1193047 17.08231 4294967295
321.58231 -2.1315832 16.787085 4294967295
309.66437 6.2448359 12.094048 4294967295
309.88394 12.07249 12.110456 4294967295
310.09811 4.7627077 12.320721 4294967295
310.1434 18.868874 12.2244 4294967295
310.35611 11.560775 12.390631 4294967295
310.56381 4.2573881 12.410843 4294967295
310.6087 5.7261353 12.122692 4294967295
310.67639 7.168582 12.498726 4294967295
310.68051 7.6700087 12.089712 4294967295
310.71652 8.1362162 12.603548 4294967295
310.71753 8.6407442 12.10425 4294967295
310.78995 10.583937 12.087191 4294967295
310.81555 11.062052 12.299448 4294967295
310.9335 13.968321 12.54311 4294967295
310.93658 14.468461 12.105856 4294967295
310.97266 15.4402 12.092026 4294967295
310.97794 14.932637 12.7693 4294967295
310.99625 15.920976 12.246313 4294967295
311.04391 4.2424011 12.388964 4294967295
311.05176 17.377445 12.267374 4294967295
311.1424 19.80653 12.249439 4294967295
311.17645 20.279531 12.701723 4294967295
311.18103 7.6323309 12.656307 4294967295
311.1907 8.12745 12.410957 4294967295
311.21997 9.1066217 12.203592 4294967295
311.25458 9.5751581 12.670824 4294967295
311.27097 10.567465 12.096256 4294967295
311.34787 12.506167 12.206732 4294967295
311.50681 16.881834 12.055666 4294967295
311.51291 16.374603 12.74839 4294967295
311.53027 17.362934 12.203794 4294967295
311.55545 4.6978636 12.743414 4294967295
311.56717 17.832718 12.73245 4294967295
311.57147 5.6926517 12.163139 4294967295
311.59589 6.171401 12.337675 4294967295
311.60117 19.30736 12.143068 4294967295
311.603 18.805019 12.713434 4294967295
311.62436 19.789005 12.283304 4294967295
311.63824 7.1364136 12.502699 4294967295
311.69254 8.0889063 13.005466 4294967295
311.70334 9.0877419 12.278898 4294967295
311.72778 9.5670137 12.45344 4294967295
311.74469 10.054152 12.41494 4294967295
311.78171 11.025096 12.429232 4294967295
311.80038 11.51042 12.440935 4294967295
311.83862 12.480195 12.490259 4294967295
311.90118 13.427057 13.224922 4294967295
311.90579 14.428612 12.32579 4294967295
311.90884 13.923023 12.925659 4294967295
311.91855 14.919309 12.171341 4294967295
311.94754 15.395278 12.473299 4294967295
311.97171 15.875772 12.639565 4294967295
311.98019 3.7330751 12.192595 4294967295
312.03717 4.1741552 13.279865 4294967295
312.05139 17.813416 12.826405 4294967295
312.05591 18.310738 12.441166 4294967295
312.07791 18.793442 12.544897 4294967295
312.08585 6.6509676 12.085089 4294967295
312.10327 6.125988 13.085039 4294967295
312.10873 19.269032 12.897427 4294967295
312.12515 20.256691 12.334675 4294967295
312.12653 7.1122627 12.713589 4294967295
312.14484 7.5980434 12.714563 4294967295
312.1463 8.1016636 12.244314 4294967295
312.15915 8.592967 12.093071 4294967295
312.19791 9.0572681 12.66704 4294967295
312.25461 10.51276 12.720428 4294967295
312.30182 11.473913 13.01918 4294967295
312.30215 11.977244 12.518461 4294967295
312.32742 12.456261 12.714464 4294967295
312.36823 13.423877 12.834471 4294967295
312.39716 14.904835 12.113791 4294967295
312.4375 15.872629 12.220842 4294967295
312.48438 16.834961 12.51034 4294967295
312.50375 4.1747465 12.877674 4294967295
312.53137 17.29641 13.308081 4294967295
312.58456 6.1096592 13.094255 4294967295
312.59103 7.1137657 12.260546 4294967295
312.60464 6.5936432 13.144453 4294967295
312.61517 7.5930996 12.424978 4294967295
312.62677 19.723461 13.421032 4294967295
312.62921 20.721855 12.476583 4294967295
312.6293 20.221834 12.984581 4294967295
312.64597 8.5704107 12.266441 4294967295
312.66385 8.046875 13.267786 4294967295
312.67679 9.0431948 12.612713 4294967295
312.70901 9.5147161 13.000679 4294967295
312.72137 10.006558 12.837336 4294967295
312.75803 10.474174 13.344965 4294967295
312.76627 10.970029 13.068865 4294967295
312.77939 11.461001 12.92551 4294967295
312.82565 12.423508 13.195036 4294967295
312.84781 13.911342 12.295074 4294967295
312.85672 12.897506 13.547968 4294967295
312.85837 13.399014 13.089914 4294967295
312.89191 14.875813 12.505142 4294967295
312.92511 15.348345 12.916792 4294967295
312.94189 15.835561 12.874718 4294967295
312.94376 16.335497 12.424309 4294967295
312.96939 17.315979 12.125629 4294967295
312.97681 16.808609 12.83201 4294967295
313.00937 4.1309128 13.559727 4294967295
313.01157 4.6349726 13.117445 4294967295
313.01593 17.778164 12.903051 4294967295
313.03186 5.1186485 13.173689 4294967295
313.04678 6.1139565 12.580385 4294967295
313.04688 5.6081505 13.084606 4294967295
313.05319 18.248566 13.424252 4294967295
313.06296 19.241955 12.690096 4294967295
313.06744 18.737858 13.31469 4294967295
313.07437 7.0948648 12.335485 4294967295
313.07938 20.229046 12.139141 4294967295
313.09833 6.5640221 13.493555 4294967295
313.10379 19.710064 13.309978 4294967295
313.11154 20.704056 12.520073 4294967295
313.11743 7.5544701 13.015726 4294967295
313.14352 8.0322313 13.230499 4294967295
313.16721 9.0172091 12.879374 4294967295
313.16876 8.5110655 13.421097 4294967295
313.17883 9.5097351 12.697393 4294967295
313.20926 9.9834146 13.030355 4294967295
313.2131 10.483519 12.635077 4294967295
313.22485 10.975576 12.457537 4294967295
313.27283 11.432708 13.269663 4294967295
313.29065 12.422251 12.759022 4294967295
313.32437 12.893708 13.180931 4294967295
313.34662 13.375974 13.29084 4294967295
313.3746 13.853175 13.556068 4294967295
313.38507 14.848456 12.844833 4294967295
313.38834 14.343353 13.431952 4294967295
313.43103 15.812019 13.100679 4294967295
313.47107 16.279373 13.694811 4294967295
313.47495 17.779568 12.309233 4294967295
313.49393 4.6174574 13.157124 4294967295
313.49902 4.1054773 13.792635 4294967295
313.49991 5.1167965 12.823759 4294967295
313.53525 5.5841064 13.287882 4294967295
313.54361 18.224483 13.67947 4294967295
313.55566 6.0677633 13.346846 4294967295
313.55804 6.5706053 12.91564 4294967295
313.56915 20.205435 12.389494 4294967295
313.577 18.698586 14.090645 4294967295
313.57837 7.0543079 12.970657 4294967295
313.57864 19.197977 13.638739 4294967295
313.59033 19.689219 13.459972 4294967295
313.60941 7.5268879 13.317451 4294967295
313.62039 20.666225 13.284891 4294967295
313.62189 8.5233355 12.665031 4294967295
313.64319 7.996911 13.739008 4294967295
313.66678 8.9822979 13.386635 4294967295
313.72241 9.935504 13.905027 4294967295
313.72754 10.434504 13.549454 4294967295
313.75449 11.415832 13.288872 4294967295
313.75974 10.907188 13.926229 4294967295
313.77335 11.90125 13.305025 4294967295
313.81598 13.370234 12.977188 4294967295
313.81619 13.872285 12.489859 4294967295
313.82309 12.861059 13.663034 4294967295
313.88843 14.310138 13.946394 4294967295
313.89075 14.810349 13.515566 4294967295
313.90463 15.801805 12.905708 4294967295
313.91327 15.292719 13.631033 4294967295
313.9584 16.759134 13.369944 4294967295
313.98019 18.243576 12.481995 4294967295
313.98468 5.0965214 12.93203 4294967295
313.99084 4.0777426 14.08157 4294967295
314.00323 4.5704451 13.923145 4294967295
314.00635 17.220787 14.16865 4294967295
314.00909 6.0810213 12.606041 4294967295
314.0278 18.706081 13.271696 4294967295
314.04004 5.542573 13.930157 4294967295
314.05002 19.188972 13.378279 4294967295
314.0773 7.0194283 13.458689 4294967295
314.07965 20.665804 12.702412 4294967295
314.08658 19.660954 13.869791 4294967295
314.10193 7.49895 13.628454 4294967295
314.10721 8.5025873 12.789946 4294967295
314.12686 7.978241 13.807957 4294967295
314.13651 8.977355 13.086168 4294967295
314.15448 9.4635086 13.078758 4294967295
314.17444 9.9477434 13.124027 4294967295
314.21463 10.412489 13.712168 4294967295
314.23022 11.404508 13.150276 4294967295
314.27271 12.370816 13.310282 4294967295
314.28784 12.859622 13.226988 4294967295
314.30035 13.350738 13.072878 4294967295
314.33377 14.325214 12.990072 4294967295
314.34515 13.813059 13.781559 4294967295
314.38556 15.785274 12.910337 4294967295
314.39944 14.76997 14.255928 4294967295
314.40707 15.265439 13.971287 4294967295
314.44211 16.740421 13.443806 4294967295
314.45786 16.225983 14.351883 4294967295
314.47388 17.215454 13.80394 4294967295
314.48312 4.5558796 13.889938 4294967295
314.48361 4.0492144 14.389534 4294967295
314.50125 18.19504 13.559755 4294967295
314.50769 5.5409241 13.571213 4294967295
314.52328 19.178352 13.173807 4294967295
314.55765 18.651327 14.574656 4294967295
314.56067 5.9905138 14.494862 4294967295
314.56958 19.642979 13.919127 4294967295
314.57019 6.4860144 14.262274 4294967295
314.5864 7.9838943 13.235308 4294967295
314.59009 20.127485 13.979572 4294967295
314.61426 8.9642887 13.00481 4294967295
314.62198 8.4525614 13.695032 4294967295
314.69891 9.889514 14.281818 4294967295
314.70691 10.889086 13.525204 4294967295
314.72662 10.366823 14.532404 4294967295
314.77267 11.834202 14.299421 4294967295
314.78506 12.325893 14.1437 4294967295
314.79712 13.320239 13.495539 4294967295
314.83099 13.792518 13.908871 4294967295
314.85004 14.779919 13.445663 4294967295
314.85123 15.280396 12.99444 4294967295
314.85831 14.270861 14.147484 4294967295
314.90936 15.732851 14.04751 4294967295
314.92917 16.718975 13.605902 4294967295
314.93622 16.21199 14.274158 4294967295
314.93958 17.711884 12.916288 4294967295
314.9422 4.0578547 13.791706 4294967295
314.94772 17.204811 13.613415 4294967295
314.96268 4.5415726 13.850552 4294967295
314.96411 18.192734 13.082842 4294967295
314.99741 5.5157776 13.801914 4294967295
315.01306 4.9936304 14.696997 4294967295
315.02966 19.64222 13.366224 4294967295
315.04086 18.63335 14.623775 4294967295
315.04874 6.4727936 14.191191 4294967295
315.05524 19.122797 14.520618 4294967295
315.06284 20.117138 13.758331 4294967295
315.07886 21.104189 13.218384 4294967295
315.09637 20.592075 14.160551 4294967295
315.10709 7.4233313 14.765303 4294967295
315.11673 7.9184446 14.538008 4294967295
315.12686 8.4128933 14.323547 4294967295
315.14517 8.8991756 14.324526 4294967295
315.16446 9.3845177 14.351166 4294967295
315.17148 10.385125 13.574411 4294967295
315.19403 9.8600693 14.647539 4294967295
315.22949 11.840263 13.659023 4294967295
315.25055 12.32379 13.732801 4294967295
315.27905 12.800752 14.001036 4294967295
315.29907 13.787536 13.568291 4294967295
315.31512 13.271274 14.466827 4294967295
315.32474 14.267177 13.762619 4294967295
315.35727 15.242777 13.656857 4294967295
315.37384 14.727104 14.568466 4294967295
315.38062 15.724617 13.790104 4294967295
315.43808 4.0260239 14.180246 4294967295
315.44659 5.027976 13.448246 4294967295
315.44919 4.5198212 13.9944 4294967295
315.46091 17.162638 14.455517 4294967295
315.48132 18.147923 14.034365 4294967295
315.48599 17.643654 14.633186 4294967295
315.50198 5.4752827 14.417381 4294967295
315.51178 20.12409 12.92382 4294967295
315.52194 18.617046 14.616014 4294967295
315.52365 6.4631548 14.028543 4294967295
315.5242 19.115559 14.19944 4294967295
315.53854 20.603704 13.145294 4294967295
315.54861 7.9511843 13.251614 4294967295
315.552 21.093029 13.019302 4294967295
315.55725 6.9338608 14.428337 4294967295
315.55814 7.4375639 13.975216 4294967295
315.59445 8.410099 13.969643 4294967295
315.60809 8.9007139 13.849813 4294967295
315.64331 9.3706522 14.289709 4294967295
315.6644 10.357703 13.887421 4294967295
315.68253 9.8371267 14.83424 4294967295
315.6983 11.332355 13.81941 4294967295
315.70566 11.828318 13.536331 4294967295
315.75281 12.790934 13.811604 4294967295
315.76752 12.275366 14.667114 4294967295
315.78943 13.261017 14.287407 4294967295
315.80997 14.247225 13.87278 4294967295
315.84613 14.718281 14.336487 4294967295
315.9068 16.172468 14.487366 4294967295
315.91434 16.66744 14.209347 4294967295
315.92426 17.160316 13.992535 4294967295
315.9343 3.9940758 14.571285 4294967295
315.94638 5.4972219 13.467678 4294967295
315.95828 4.9798794 14.247087 4294967295
315.97601 17.620375 14.858387 4294967295
315.97678 5.9708223 13.779995 4294967295
315.98135 18.116858 14.523359 4294967295
315.9895 6.4624557 13.637701 4294967295
316.01874 19.088989 14.545053 4294967295
316.02087 18.587135 15.071472 4294967295
316.02536 19.583969 14.244823 4294967295
316.02667 7.4338474 13.654093 4294967295
316.03738 6.9188957 14.401176 4294967295
316.03964 21.071503 13.198164 4294967295
316.0491 20.066292 14.384747 4294967295
316.05359 20.5625 14.02973 4294967295
316.07632 8.3932114 13.991211 4294967295
316.08176 7.8838606 14.602667 4294967295
316.09106 8.8826933 13.901606 4294967295
316.12448 9.3545179 14.290066 4294967295
316.1333 9.8496027 14.047695 4294967295
316.13409 10.351995 13.597151 4294967295
316.17279 10.819283 14.122458 4294967295
316.20337 11.29432 14.439215 4294967295
316.23508 12.271257 14.314684 4294967295
316.24686 11.75806 15.087307 4294967295
316.24979 12.760656 14.222984 4294967295
316.26868 13.246325 14.239882 4294967295
316.28928 13.730592 14.299351 4294967295
316.29077 14.231041 13.868427 4294967295
316.32104 14.707158 14.17544 4294967295
316.34335 15.691154 13.811508 4294967295
316.36758 15.170084 14.900774 4294967295
316.39124 17.154816 13.634151 4294967295
316.39865 16.648476 14.290897 4294967295
316.46036 18.102013 14.467823 4294967295
316.46375 19.099297 13.619303 4294967295
316.491 5.4161911 15.098562 4294967295
316.49911 6.4177418 14.371801 4294967295
316.50079 18.571701 15.033974 4294967295
316.50586 5.9061823 15.011671 4294967295
316.51559 6.9057474 14.327118 4294967295
316.52866 19.551205 14.810724 4294967295
316.53058 20.049454 14.393497 4294967295
316.59097 7.840663 15.31743 4294967295
316.63199 8.8097172 15.43119 4294967295
316.63693 9.8124962 14.623604 4294967295
316.65079 9.2959423 15.443766 4294967295
316.68253 11.782383 13.923727 4294967295
316.68359 11.27892 14.416246 4294967295
316.72592 12.748625 14.09857 4294967295
316.75107 13.228913 14.273302 4294967295
316.79562 13.692943 14.94018 4294967295
316.80872 14.183748 14.809235 4294967295
316.82199 15.175669 14.217113 4294967295
316.8605 15.645561 14.731335 4294967295
316.88809 16.625458 14.503262 4294967295
316.91495 4.4486494 14.570635 4294967295
316.92581 17.096729 14.995764 4294967295
316.92734 17.596062 14.571362 4294967295
316.93344 3.9239836 15.503639 4294967295
316.93994 18.086693 14.427952 4294967295
316.95233 4.915452 15.055016 4294967295
316.95963 5.4130306 14.777946 4294967295
316.9726 19.06216 14.329084 4294967295
316.9736 5.90378 14.6681 4294967295
317.00632 20.036724 14.256996 4294967295
317.01889 20.526989 14.112358 4294967295
317.04105 7.3506336 14.987581 4294967295
317.04453 8.3550482 14.151203 4294967295
317.0567 7.8397093 14.919449 4294967295
317.05844 20.998356 14.651623 4294967295
317.08246 8.8227663 14.647305 4294967295
317.10901 9.3014421 14.855982 4294967295
317.14792 11.277664 13.992191 4294967295
317.22705 12.715083 14.605392 4294967295
317.22748 13.216561 14.156406 4294967295
317.23505 12.205905 15.267626 4294967295
317.26642 14.18691 14.21698 4294967295
317.28513 13.669715 15.147512 4294967295
317.33426 15.134011 15.00383 4294967295
317.35013 16.123358 14.482645 4294967295
317.38522 17.097054 14.446835 4294967295
317.39548 4.4333401 14.555811 4294967295
317.4071 3.9161692 15.306932 4294967295
317.43579 17.558868 15.257139 4294967295
317.45691 5.885704 14.721285 4294967295
317.46484 18.03743 15.526787 4294967295
317.47226 20.030796 13.87995 4294967295
317.47467 18.530397 15.314016 4294967295
317.50507 19.008179 15.618456 4294967295
317.52664 6.8262005 15.552963 4294967295
317.53851 20.483387 15.081097 4294967295
317.53912 20.982063 14.639156 4294967295
317.55362 8.3125048 14.855261 4294967295
317.55472 7.3034735 15.798306 4294967295
317.55969 7.8029461 15.464334 4294967295
317.58688 8.7849731 15.23019 4294967295
317.59943 9.7800007 14.62925 4294967295
317.61932 10.264915 14.668615 4294967295
317.62143 10.765651 14.265034 4294967295
317.65982 11.73643 14.311045 4294967295
317.65991 11.234048 14.769548 4294967295
317.69101 12.211507 14.63389 4294967295
317.70645 13.201971 14.10602 4294967295
317.71893 12.689664 14.873682 4294967295
317.74615 13.670278 14.64102 4294967295
317.77631 14.648114 14.482533 4294967295
317.79327 14.132936 15.359907 4294967295
317.86377 16.582178 14.838919 4294967295
317.87393 16.073574 15.545858 4294967295
317.88385 17.567394 14.429279 4294967295
317.88455 17.0667 14.900864 4294967295
317.93045 4.3628063 15.897261 4294967295
317.93054 18.532478 14.681644 4294967295
317.93442 18.029732 15.231104 4294967295
317.95343 6.3588896 14.649426 4294967295
317.97504 18.99995 15.331671 4294967295
317.98105 19.495289 15.027311 4294967295
317.98206 6.8352575 14.906012 4294967295
317.99426 5.8144751 16.118158 4294967295
318.00345 20.976875 14.22298 4294967295
318.01239 19.972641 15.350533 4294967295
318.03442 20.456661 15.443573 4294967295
318.03647 7.2872257 15.8034 4294967295
318.05167 8.7841682 14.819199 4294967295
318.0658 9.2742996 14.717367 4294967295
318.116 9.7318563 15.507135 4294967295
318.14911 10.708213 15.421831 4294967295
318.15182 10.202872 15.940956 4294967295
318.15933 11.201862 15.222616 4294967295
318.17325 11.692212 15.113379 4294967295
318.21439 12.159214 15.678516 4294967295
318.23355 13.64878 14.796637 4294967295
318.24924 14.137244 14.733309 4294967295
318.25989 13.125235 15.898558 4294967295
318.30685 15.093266 15.251787 4294967295
318.34714 16.063511 15.343222 4294967295
318.35352 15.557577 15.951702 4294967295
318.36255 16.552292 15.272615 4294967295
318.38287 17.537516 14.872461 4294967295
318.38345 17.036865 15.337767 4294967295
318.38696 3.866951 15.730679 4294967295
318.397 18.026974 14.770378 4294967295
318.41022 4.3487062 15.852488 4294967295
318.41449 4.8493977 15.507256 4294967295
318.42572 5.3429575 15.333828 4294967295
318.43628 5.837038 15.14386 4294967295
318.43884 18.496281 15.349586 4294967295
318.45413 6.3239441 15.133234 4294967295
318.45804 19.481728 14.922159 4294967295
318.47952 18.966854 15.900904 4294967295
318.48309 20.961128 14.191227 4294967295
318.49619 7.2917442 15.26787 4294967295
318.5108 6.7738342 16.07658 4294967295
318.51642 19.940281 15.907793 4294967295
318.53275 8.7680798 14.818815 4294967295
318.53275 20.428436 15.85977 4294967295
318.54712 7.7477989 16.069653 4294967295
318.569 8.2313395 16.157644 4294967295
318.62094 11.202661 14.740633 4294967295
318.63245 10.187529 15.917786 4294967295
318.64798 10.676729 15.850258 4294967295
318.65149 11.678547 15.039936 4294967295
318.69974 12.139641 15.774565 4294967295
318.71008 12.633065 15.578556 4294967295
318.72488 13.624111 15.047176 4294967295
318.72678 13.121017 15.540281 4294967295
318.76434 14.093529 15.563837 4294967295
318.77045 15.090795 14.819674 4294967295
318.80099 16.068159 14.672161 4294967295
318.80203 15.566833 15.144524 4294967295
318.84317 17.036583 14.809141 4294967295
318.86584 4.3585024 15.221401 4294967295
318.86975 4.859129 14.87121 4294967295
318.88287 3.8365297 16.083588 4294967295
318.91275 17.985249 15.615343 4294967295
318.91782 5.3165054 15.596375 4294967295
318.92853 5.8104362 15.412325 4294967295
318.95148 18.457253 16.113115 4294967295
318.96265 18.949192 15.938824 4294967295
318.96298 20.44664 14.611956 4294967295
318.96497 6.2796717 15.854572 4294967295
318.96771 19.445225 15.617165 4294967295
318.97391 20.937874 14.432116 4294967295
318.99591 7.2584505 15.716923 4294967295
319.01855 19.90947 16.409803 4294967295
319.0387 7.7224922 16.312477 4294967295
319.04355 8.2217178 15.985615 4294967295
319.04767 8.7213554 15.640858 4294967295
319.06824 9.2059774 15.696148 4294967295
319.1059 10.178396 15.722538 4294967295
319.12811 10.661678 15.818188 4294967295
319.13007 11.162422 15.421219 4294967295
319.15356 12.146528 15.104099 4294967295
319.19717 13.113685 15.27454 4294967295
319.19733 12.611902 15.721624 4294967295
319.20953 13.604991 15.1311 4294967295
319.25366 14.070812 15.757265 4294967295
319.27881 15.053164 15.479891 4294967295
319.30215 15.535861 15.602575 4294967295
319.31439 16.027115 15.456169 4294967295
319.34634 3.8386116 15.64677 4294967295
319.35153 16.499588 15.911015 4294967295
319.35568 4.3340569 15.43062 4294967295
319.36383 4.8305178 15.185461 4294967295
319.40231 17.462715 16.255241 4294967295
319.40903 5.2910128 15.83474 4294967295
319.4216 17.948925 16.278561 4294967295
319.42795 6.2811546 15.408485 4294967295
319.43579 18.438782 16.178698 4294967295
319.43909 19.435589 15.37538 4294967295
319.45584 5.7504463 16.523762 4294967295
319.46317 6.7518587 15.816811 4294967295
319.48508 7.2352028 15.904316 4294967295
319.49203 19.898468 16.211864 4294967295
319.49844 20.39337 15.924875 4294967295
319.51245 8.2170172 15.683094 4294967295
319.52084 7.7059259 16.325356 4294967295
319.54202 20.863379 16.534004 4294967295
319.55371 8.6830835 16.23572 4294967295
319.57516 9.1671629 16.311375 4294967295
319.57718 9.6683731 15.919205 4294967295
319.58203 10.166795 15.595905 4294967295
319.60168 10.652229 15.629223 4294967295
319.63373 11.127197 15.959536 4294967295
319.68048 12.0923 16.20355 4294967295
319.68335 12.591804 15.833351 4294967295
319.6889 13.590136 15.087519 4294967295
319.70926 13.072365 16.015656 4294967295
319.74936 14.544274 15.661606 4294967295
319.75723 15.03898 15.411633 4294967295
319.75934 14.03525 16.339788 4294967295
319.77124 15.528819 15.308306 4294967295
319.84454 4.310729 15.612453 4294967295
319.85553 16.466351 16.451693 4294967295
319.87488 16.952549 16.476616 4294967295
319.88535 4.7755775 16.151274 4294967295
319.91928 5.2474346 16.525177 4294967295
319.92096 17.919687 16.704088 4294967295
319.92325 18.418068 16.320312 4294967295
319.92447 6.7544479 15.337366 4294967295
319.94702 5.7254429 16.751312 4294967295
319.9668 18.887383 16.9249 4294967295
319.98245 20.375053 15.98563 4294967295
319.99496 19.867416 16.721949 4294967295
320.00488 7.1838999 16.8214 4294967295
320.01346 7.679841 16.588451 4294967295
320.02225 8.1753502 16.362167 4294967295
320.02585 20.845295 16.586018 4294967295
320.03537 9.1698503 15.800974 4294967295
320.03687 8.6655302 16.274261 4294967295
320.04224 9.6664667 15.528769 4294967295
320.06918 10.64781 15.299637 4294967295
320.11032 11.115047 15.844507 4294967295
320.12527 12.106299 15.327877 4294967295
320.1304 11.600273 15.886589 4294967295
320.18079 13.06406 15.778917 4294967295
320.18137 12.562016 16.228754 4294967295
320.21005 13.541996 16.04073 4294967295
320.22418 14.532961 15.506937 4294967295
320.23499 14.023567 16.198479 4294967295
320.24976 15.013949 15.68012 4294967295
320.30106 15.475666 16.462868 4294967295
320.32141 15.961036 16.512846 4294967295
320.33405 16.452187 16.378038 4294967295
320.34134 17.447056 15.682663 4294967295
320.36377 3.7532625 16.947441 4294967295
320.37616 17.921967 16.075199 4294967295
320.38568 4.2368841 17.032738 4294967295
320.40759 6.2331228 15.817211 4294967295
320.42456 5.2090244 17.086168 4294967295
320.42682 18.386124 16.842388 4294967295
320.42728 18.885544 16.418972 4294967295
320.4314 5.7069426 16.814569 4294967295
320.46902 7.6872578 15.971249 4294967295
320.47275 19.353975 17.062593 4294967295
320.47632 20.849001 15.847385 4294967295
320.47711 8.1830778 15.729895 4294967295
320.478 7.1756907 16.617388 4294967295
320.48993 20.341198 16.602375 4294967295
320.49344 19.83955 17.119238 4294967295
320.50681 8.6596518 15.999743 4294967295
320.55997 10.623469 15.527876 4294967295
320.60184 11.592222 15.652542 4294967295
320.60416 11.088448 16.138323 4294967295
320.63934 12.063167 16.105469 4294967295
320.68137 12.530805 16.665541 4294967295
320.70883 13.010508 16.881445 4294967295
320.72717 13.998893 16.450712 4294967295
320.75522 14.478315 16.680435 4294967295
320.79785 15.948426 16.391291 4294967295
320.80386 15.443289 16.964102 4294967295
320.80634 16.442482 16.160801 4294967295
320.81903 16.93335 16.028332 4294967295
320.82123 3.7608624 16.376638 4294967295
320.83365 4.2533684 16.238239 4294967295
320.86127 17.403046 16.591368 4294967295
320.87488 18.392921 16.051628 4294967295
320.88654 4.7073507 17.050558 4294967295
320.89615 18.877655 16.121244 4294967295
320.90158 6.2054262 16.115355 4294967295
320.90213 17.874166 17.121445 4294967295
320.90369 19.371712 15.868414 4294967295
320.91684 5.1831913 17.332394 4294967295
320.93469 5.6708899 17.320662 4294967295
320.94708 19.841675 16.458361 4294967295
320.95456 20.335709 16.203922 4294967295
320.95856 6.6569281 17.022738 4294967295
320.97855 7.6460161 16.632479 4294967295
320.98114 8.1468735 16.263834 4294967295
321.00842 9.1285686 16.045546 4294967295
321.03751 9.6060734 16.298246 4294967295
321.14429 11.525949 17.083378 4294967295
321.14792 12.024925 16.741026 4294967295
321.16013 12.516799 16.598915 4294967295
321.16724 13.01261 16.336693 4294967295
321.21036 13.480087 16.916422 4294967295
321.23511 14.964 16.213068 4294967295
321.24881 13.951616 17.38714 4294967295
321.27747 15.432952 16.773296 4294967295
321.32187 4.2309933 16.396408 4294967295
321.32538 16.398788 17.037098 4294967295
321.34402 16.885677 17.044867 4294967295
321.34769 4.7107534 16.571709 4294967295
321.37109 17.866581 16.822502 4294967295
321.38602 5.6830206 16.611195 4294967295
321.41061 18.83868 16.890503 4294967295
321.41449 5.1524773 17.700619 4294967295
321.43994 6.6412153 17.014275 4294967295
321.45505 20.805416 16.22122 4294967295
321.46439 7.6261826 16.731157 4294967295
321.47064 7.1172428 17.301802 4294967295
321.47229 20.295502 17.047014 4294967295
321.49554 9.1074772 16.179878 4294967295
321.50372 8.0947285 17.220047 4294967295
321.51535 8.5876627 17.065588 4294967295
321.5162 9.5922432 16.234686 4294967295
321.55093 10.065239 16.616167 4294967295
321.56747 10.55367 16.574305 4294967295
321.57712 11.047656 16.374657 4294967295
311.67642 21.248215 12.206064 4294967295
311.69379 21.734543 12.181877 4294967295
312.1734 21.219091 12.663757 4294967295
312.64127 21.212292 12.304739 4294967295
312.66925 21.690725 12.572784 4294967295
313.62488 21.661682 12.416235 4294967295
313.64551 21.147175 13.469563 4294967295
314.12 21.634562 12.804544 4294967295
314.6069 21.114334 13.454576 4294967295
315.12372 21.571198 13.917961 4294967295
315.58722 21.566904 13.460905 4294967295
316.58142 21.511133 14.292032 4294967295
317.04367 21.50737 13.816038 4294967295
318.04514 21.447353 14.802162 4294967295
318.5058 21.444313 14.30032 4294967295
319.004 21.416286 14.71981 4294967295
319.55374 21.354696 16.375261 4294967295
320.0062 21.356936 15.679117 4294967295
320.52826 21.314068 16.643827 4294967295
321.00076 21.303234 16.429075 4294967295
321.48804 21.282936 16.562805 4294967295
288.50494 -1.5101032 5.1949883 4278255360
288.51038 -0.9918766 4.4391441 4278255360
288.52466 -0.4979811 4.2107811 4278255360
288.56494 -0.072732903 5.5162563 4278255360
288.57922 0.42139429 5.2878933 4278255360
288.88126 -3.9096885 4.454525 4278255360
288.92145 -3.4867163 5.733963 4278255360
288.94983 -3.0304103 6.3253555 4278255360
288.95135 -2.5010405 5.3584709 4278255360
288.9585 -1.9875021 4.7180634 4278255360
288.98328 -1.5213709 5.1014042 4278255360
289.02658 -1.1035576 6.5550308 4278255360
289.04749 -0.094845802 5.6616287 4278255360
289.04877 -0.62951952 6.7853527 4278255360
289.0722 0.37265491 6.0358639 4278255360
289.35516 -4.4428525 5.1634712 4278255360
289.39636 -4.0214934 6.4713993 4278255360
289.40549 -3.5128078 5.9580135 4278255360
289.41556 -3.0069265 5.495842 4278255360
289.48813 -1.601757 6.516161 4278255360
289.4902 -1.0759296 5.6038971 4278255360
289.51068 -0.59772873 5.7330322 4278255360
289.54636 -0.1577377 6.7200108 4278255360
289.57364 0.30393979 7.2344799 4278255360
289.85031 -4.4993153 6.0154018 4278255360
289.88605 -4.0619407 6.9942932 4278255360
289.90005 -3.5662351 6.7586403 4278255360
289.90945 -3.0586987 6.267519 4278255360
289.94757 -2.6261234 7.3760509 4278255360
290.01242 -0.1378803 5.9255657 4278255360
290.03061 0.34625241 5.9253101 4278255360
290.35413 -4.0448751 6.3137131 4278255360
290.39227 -3.0809436 6.4109573 4278255360
290.83032 -4.0501308 6.1003323 4278255360
290.87134 -3.623641 7.3160839 4278255360
290.88852 -3.1365104 7.2627621 4278255360
291.31564 -4.0785885 6.3721981 4278255360
288.50494 -1.5101032 5.1949883 4278255360
288.51038 -0.9918766 4.4391441 4278255360
288.52466 -0.4979811 4.2107811 4278255360
288.56494 -0.072732903 5.5162563 4278255360
288.57922 0.42139429 5.2878933 4278255360
288.61542 1.389842 5.2749519 4278255360
288.61649 0.85605049 6.4116707 4278255360
288.92145 -3.4867163 5.733963 4278255360
288.94983 -3.0304103 6.3253555 4278255360
288.95135 -2.5010405 5.3584709 4278255360
288.9585 -1.9875021 4.7180634 4278255360
288.98328 -1.5213709 5.1014042 4278255360
289.02658 -1.1035576 6.5550308 4278255360
289.04749 -0.094845802 5.6616287 4278255360
289.04877 -0.62951952 6.7853527 4278255360
289.0722 0.37265491 6.0358639 4278255360
289.08109 0.88040161 5.4992371 4278255360
289.1026 1.3560667 5.6910248 4278255360
289.41556 -3.0069265 5.495842 4278255360
289.48813 -1.601757 6.516161 4278255360
289.4902 -1.0759296 5.6038971 4278255360
289.51068 -0.59772873 5.7330322 4278255360
289.54636 -0.1577377 6.7200108 4278255360
289.57062 0.84122181 6.035244 4278255360
289.57364 0.30393979 7.2344799 4278255360
289.90945 -3.0586987 6.267519 4278255360
289.94757 -2.6261234 7.3760509 4278255360
290.01242 -0.1378803 5.9255657 4278255360
290.03061 0.34625241 5.9253101 4278255360
290.0488 0.83038902 5.9250546 4278255360
290.06699 1.3145256 5.924799 4278255360
290.39227 -3.0809436 6.4109573 4278255360
290.88852 -3.1365104 7.2627621 4278255360
289.51068 -0.59772873 5.7330322 4278255360
289.80652 -5.4473972 5.6019936 4278255360
289.81241 -4.9300213 4.9147491 4278255360
289.85031 -4.4993153 6.0154018 4278255360
289.88605 -4.0619407 6.9942932 4278255360
289.90005 -3.5662351 6.7586403 4278255360
289.90945 -3.0586987 6.267519 4278255360
289.94757 -2.6261234 7.3760509 4278255360
290.28619 -5.4619532 5.5850983 4278255360
290.2916 -4.9439945 4.8853893 4278255360
290.33469 -4.5257883 6.2442818 4278255360
290.35413 -4.0448751 6.3137131 4278255360
290.39227 -3.0809436 6.4109573 4278255360
290.7731 -5.495533 5.9565487 4278255360
290.7832 -4.9904561 5.5247307 4278255360
290.8176 -4.5483356 6.3919067 4278255360
290.83032 -4.0501308 6.1003323 4278255360
290.87134 -3.623641 7.3160839 4278255360
290.88852 -3.1365104 7.2627621 4278255360
291.27893 -5.0462427 6.3555927 4278255360
291.30954 -4.5933981 7.0064621 4278255360
291.31564 -4.0785885 6.3721981 4278255360
291.75012 -5.0394034 5.8978806 4278255360
291.78598 -4.5990415 6.8031864 4278255360
292.7334 -5.1264634 7.0541859 4278255360
293.20847 -5.1295466 6.800621 4278255360
293.71191 -5.1989303 7.9096699 4278255360
289.51068 -0.59772873 5.7330322 4278255360
289.54636 -0.1577377 6.7200108 4278255360
289.57062 0.84122181 6.035244 4278255360
289.57364 0.30393979 7.2344799 4278255360
289.61383 1.7928743 6.4233913 4278255360
289.61713 2.3131542 5.5817928 4278255360
290.01242 -0.1378803 5.9255657 4278255360
290.03061 0.34625241 5.9253101 4278255360
290.0488 0.83038902 5.9250546 4278255360
290.06699 1.3145256 5.924799 4278255360
289.51068 -0.59772873 5.7330322 4278255360
289.54636 -0.1577377 6.7200108 4278255360
289.57062 0.84122181 6.035244 4278255360
289.57364 0.30393979 7.2344799 4278255360
289.61383 1.7928743 6.4233913 4278255360
289.61713 2.3131542 5.5817928 4278255360
289.64929 2.763875 6.3684635 4278255360
290.01242 -0.1378803 5.9255657 4278255360
290.03061 0.34625241 5.9253101 4278255360
290.0488 0.83038902 5.9250546 4278255360
290.06699 1.3145256 5.924799 4278255360
290.6525 3.1613474 7.6862507 4278255360
289.54636 -0.1577377 6.7200108 4278255360
289.57062 0.84122181 6.035244 4278255360
289.57364 0.30393979 7.2344799 4278255360
289.61383 1.7928743 6.4233913 4278255360
289.61713 2.3131542 5.5817928 4278255360
289.64929 2.763875 6.3684635 4278255360
289.68842 3.7261868 6.5208569 4278255360
290.01242 -0.1378803 5.9255657 4278255360
290.03061 0.34625241 5.9253101 4278255360
290.0488 0.83038902 5.9250546 4278255360
290.06699 1.3145256 5.924799 4278255360
290.1825 3.6790581 7.2745991 4278255360
290.6525 3.1613474 7.6862507 4278255360
290.65814 3.6743622 7.007349 4278255360
291.1644 3.602067 8.3658447 4278255360
290.66183 4.1909447 6.2288361 4278255360
291.6525 4.0948143 7.7942162 4278255360
290.72635 -6.4361639 5.4028568 4278255360
290.74756 -5.9603467 5.5661182 4278255360
290.7731 -5.495533 5.9565487 4278255360
290.7832 -4.9904561 5.5247307 4278255360
290.8176 -4.5483356 6.3919067 4278255360
290.83032 -4.0501308 6.1003323 4278255360
290.87134 -3.623641 7.3160839 4278255360
290.88852 -3.1365104 7.2627621 4278255360
291.19855 -6.4314647 5.0002956 4278255360
291.2522 -5.508574 5.9086304 4278255360
291.27893 -5.0462427 6.3555927 4278255360
291.30954 -4.5933981 7.0064621 4278255360
291.31564 -4.0785885 6.3721981 4278255360
291.7189 -6.0203695 6.1592026 4278255360
291.75012 -5.0394034 5.8978806 4278255360
291.78598 -4.5990415 6.8031864 4278255360
292.19751 -6.0323234 6.0900955 4278255360
292.23611 -5.5986018 7.1173553 4278255360
292.69556 -6.0918975 6.9846268 4278255360
292.72012 -5.6228442 7.2977867 4278255360
292.7334 -5.1264634 7.0541859 4278255360
293.17792 -6.1122527 7.0854931 4278255360
293.18683 -5.6057281 6.6348667 4278255360
293.20847 -5.1295466 6.800621 4278255360
293.67465 -6.1663928 7.8694191 4278255360
293.69318 -5.6823788 7.8835697 4278255360
293.71191 -5.1989303 7.9096699 4278255360
294.13989 -6.1464891 7.1559582 4278255360
294.17062 -5.6907902 7.7409821 4278255360
294.66568 -5.7390971 8.4114285 4278255360
295.11218 -6.203764 7.6921387 4278255360
295.14545 -5.7524819 8.3703403 4278255360
295.15863 -5.2567058 8.1457729 4278255360
290.6525 3.1613474 7.6862507 4278255360
290.65814 3.6743622 7.007349 4278255360
291.1644 3.602067 8.3658447 4278255360
290.66183 4.1909447 6.2288361 4278255360
290.68756 4.6587543 6.6313171 4278255360
291.16257 4.6542997 6.3522015 4278255360
291.20325 5.0907965 7.533844 4278255360
291.6525 4.0948143 7.7942162 4278255360
291.66766 4.5860291 7.6368408 4278255360
292.16754 5.0526762 7.691555 4278255360
292.16937 4.5265903 8.7043762 4278255360
292.66583 5.0014496 8.5655518 4278255360
292.6835 5.4875908 8.538208 4278255360
293.15176 4.975565 8.8126659 4278255360
293.65308 5.4407415 8.9136086 4278255360
294.10706 5.4755697 7.6483555 4278255360
294.61627 5.4064598 8.9752369 4278255360
291.7189 -6.0203695 6.1592026 4278255360
291.75012 -5.0394034 5.8978806 4278255360
291.78598 -4.5990415 6.8031864 4278255360
292.19751 -6.0323234 6.0900955 4278255360
292.23611 -5.5986018 7.1173553 4278255360
292.69556 -6.0918975 6.9846268 4278255360
292.72012 -5.6228442 7.2977867 4278255360
292.7334 -5.1264634 7.0541859 4278255360
293.17792 -6.1122527 7.0854931 4278255360
293.18683 -5.6057281 6.6348667 4278255360
293.20847 -5.1295466 6.800621 4278255360
293.67465 -6.1663928 7.8694191 4278255360
293.69318 -5.6823788 7.8835697 4278255360
293.71191 -5.1989303 7.9096699 4278255360
294.13989 -6.1464891 7.1559582 4278255360
294.17062 -5.6907902 7.7409821 4278255360
294.66568 -5.7390971 8.4114285 4278255360
295.11218 -6.203764 7.6921387 4278255360
295.14545 -5.7524819 8.3703403 4278255360
295.15863 -5.2567058 8.1457729 4278255360
295.60959 -5.7321692 7.6428719 4278255360
295.61111 -6.2599998 8.5175934 4278255360
295.65039 -5.2964072 8.6440792 4278255360
296.0647 -6.2169681 7.3376312 4278255360
296.11774 -5.8072429 8.8578701 4278255360
296.11963 -5.2876463 8.1476879 4278255360
291.6525 4.0948143 7.7942162 4278255360
291.66766 4.5860291 7.6368408 4278255360
291.69342 6.099143 6.1504784 4278255360
291.69656 5.5709677 7.2501869 4278255360
292.16754 5.0526762 7.691555 4278255360
292.16937 4.5265903 8.7043762 4278255360
292.17581 5.5575895 7.1875401 4278255360
292.19858 6.0329695 7.418417 4278255360
292.66583 5.0014496 8.5655518 4278255360
292.6835 5.4875908 8.538208 4278255360
292.69473 5.986352 8.1924076 4278255360
293.15176 4.975565 8.8126659 4278255360
293.17764 5.9662123 8.298748 4278255360
293.64261 5.9802227 7.5447388 4278255360
293.65308 5.4407415 8.9136086 4278255360
293.67267 6.4426336 8.1095161 4278255360
294.10706 5.4755697 7.6483555 4278255360
294.11862 5.9725418 7.3374958 4278255360
294.15396 6.4255428 8.1387615 4278255360
294.53549 6.0724583 4.4218292 4278255360
294.61627 5.4064598 8.9752369 4278255360
294.61859 6.4384556 7.4053612 4278255360
294.99075 6.0994663 3.3428631 4278255360
295.45251 5.5985479 3.3971481 4278255360
296.09131 5.8191013 9.5969028 4278255360
296.10175 6.317874 9.2546997 4278255360
292.69556 -6.0918975 6.9846268 4278255360
292.72012 -5.6228442 7.2977867 4278255360
292.7334 -5.1264634 7.0541859 4278255360
293.17792 -6.1122527 7.0854931 4278255360
293.18683 -5.6057281 6.6348667 4278255360
293.20847 -5.1295466 6.800621 4278255360
