# .PCD v0.7 - Point Cloud Data file format
VERSION 0.7
FIELDS x y z rgb
SIZE 4 4 4 4
TYPE F F F U
COUNT 1 1 1 1
WIDTH 1147
HEIGHT 1
VIEWPOINT 0 0 0 1 0 0 0
POINTS 1147
DATA ascii
142.53491 82.000313 -63.190983 4294967295
142.62289 84.31897 -63.20047 4294967295
142.9191 78.728157 -63.563305 4294967295
142.93071 79.659882 -63.345436 4294967295
142.9608 76.854538 -64.609955 4294967295
143.00081 77.313751 -64.822853 4294967295
143.02165 78.242508 -64.692245 4294967295
143.02724 77.775223 -64.908066 4294967295
143.03954 82.441071 -63.387566 4294967295
143.04051 80.105217 -64.215485 4294967295
143.05414 83.372963 -63.197247 4294967295
143.05948 81.502235 -63.903061 4294967295
143.08438 85.237427 -62.826317 4294967295
143.09317 84.299484 -63.237427 4294967295
143.13853 82.886696 -64.156631 4294967295
143.14442 87.095459 -62.736389 4294967295
143.1906 86.147552 -63.500221 4294967295
143.48438 81.492462 -63.514004 4294967295
143.49149 79.15641 -64.402527 4294967295
143.51401 84.759544 -62.642349 4294967295
143.53497 79.614555 -64.649307 4294967295
143.58788 82.404694 -64.163902 4294967295
143.58794 86.614265 -62.683395 4294967295
143.6022 83.803421 -63.806061 4294967295
143.82974 76.36264 -64.181831 4294967295
143.85715 75.425919 -64.770454 4294967295
143.8629 78.222641 -63.83709 4294967295
143.8723 76.821594 -64.420364 4294967295
143.94615 82.87738 -62.976944 4294967295
143.94672 83.812859 -62.651993 4294967295
143.94801 75.876808 -65.466988 4294967295
143.95078 79.606003 -64.176025 4294967295
143.95113 81.473915 -63.519672 4294967295
143.96338 80.070282 -64.130737 4294967295
143.968 81.937614 -63.514572 4294967295
143.98798 80.999077 -64.034126 4294967295
143.99344 85.205956 -62.600044 4294967295
144.00703 84.266754 -63.059624 4294967295
144.03282 82.390823 -63.964935 4294967295
144.08023 86.589073 -62.928768 4294967295
144.26582 78.682999 -63.07132 4294967295
144.27942 77.746758 -63.531647 4294967295
144.28973 76.345436 -64.125992 4294967295
144.2924 79.612099 -62.993019 4294967295
144.35983 79.131966 -63.800789 4294967295
144.38185 76.795753 -64.837013 4294967295
144.50356 85.644829 -62.85017 4294967295
144.51375 83.303619 -63.776527 4294967295
144.51718 87.046249 -62.482231 4294967295
144.82828 80.046997 -63.491943 4294967295
144.86917 78.638687 -64.381073 4294967295
144.88861 81.435928 -63.570251 4294967295
144.89844 81.901093 -63.49789 4294967295
144.91882 83.298981 -63.19379 4294967295
144.92929 83.764267 -63.127384 4294967295
144.93588 84.230499 -63.0242 4294967295
144.99512 85.61998 -63.091835 4294967295
145.03375 86.078369 -63.295174 4294967295
145.15605 76.320229 -63.499794 4294967295
145.16476 77.251945 -63.250061 4294967295
145.22678 78.174133 -63.511089 4294967295
145.23828 79.572754 -63.121143 4294967295
145.26566 80.50164 -63.049877 4294967295
145.27988 75.833076 -64.853111 4294967295
145.34171 80.019089 -63.946457 4294967295
145.35535 84.222984 -62.574837 4294967295
145.41528 85.612755 -62.649261 4294967295
145.42169 80.936317 -64.380737 4294967295
145.45287 86.539787 -62.67598 4294967295
145.65865 76.295761 -63.851753 4294967295
145.7084 77.219803 -63.996113 4294967295
145.78149 81.40744 -63.193356 4294967295
145.85165 79.058708 -64.706131 4294967295
145.85867 81.858047 -63.769699 4294967295
145.8752 80.45369 -64.431023 4294967295
145.8951 84.187035 -63.28249 4294967295
145.89894 86.058006 -62.648605 4294967295
145.92792 85.582626 -63.096008 4294967295
145.93793 86.516312 -62.856949 4294967295
146.09018 77.216682 -63.184574 4294967295
146.13231 75.809967 -64.095192 4294967295
146.16628 79.536903 -63.0798 4294967295
146.20824 77.661797 -64.157364 4294967295
146.22691 82.328552 -62.656799 4294967295
146.23776 81.391106 -63.098507 4294967295
146.24194 79.988739 -63.643295 4294967295
146.25203 79.053108 -64.076759 4294967295
146.26785 78.117104 -64.565567 4294967295
146.31647 83.711288 -63.018631 4294967295
146.52577 75.337624 -63.563507 4294967295
146.55751 75.798637 -63.702774 4294967295
146.6313 77.651405 -63.744194 4294967295
146.71733 76.703323 -64.915436 4294967295
146.76317 84.165184 -62.6609 4294967295
146.99446 75.319 -63.591064 4294967295
147.0854 79.035744 -63.122498 4294967295
147.08626 76.702209 -63.977093 4294967295
147.09096 80.436234 -62.668247 4294967295
147.13278 78.093048 -63.922462 4294967295
147.13341 80.894691 -62.912437 4294967295
147.1358 77.625992 -64.121239 4294967295
147.1741 79.951912 -63.647919 4294967295
147.17438 76.220673 -65.003761 4294967295
147.19894 81.815308 -63.21212 4294967295
147.22519 83.679749 -62.789684 4294967295
147.23134 84.146164 -62.680168 4294967295
147.2787 85.070602 -62.802811 4294967295
147.36346 86.453354 -63.120831 4294967295
147.48543 77.162453 -63.157448 4294967295
147.56323 78.081444 -63.578102 4294967295
147.63303 79.001328 -63.920788 4294967295
147.66702 83.199097 -62.722385 4294967295
147.67932 79.925491 -64.0336 4294967295
147.7668 85.982689 -62.677345 4294967295
147.91447 75.750999 -63.307289 4294967295
147.97458 76.207039 -63.726257 4294967295
147.9984 78.068985 -63.277794 4294967295
148.02681 77.59697 -63.727112 4294967295
148.03178 79.463249 -63.09346 4294967295
148.04552 80.862152 -62.715912 4294967295
148.04742 77.126732 -64.100044 4294967295
148.0724 80.389153 -63.150902 4294967295
148.10786 82.718674 -62.645 4294967295
148.12042 78.512199 -64.304794 4294967295
148.1366 82.244545 -63.098202 4294967295
148.1577 81.772461 -63.476357 4294967295
148.18738 84.103325 -62.913746 4294967295
148.25653 85.958 -62.909626 4294967295
148.29161 86.885208 -62.912666 4294967295
148.55164 78.034058 -64.138832 4294967295
148.56451 78.964661 -63.923393 4294967295
148.61453 80.354759 -63.902634 4294967295
148.65057 83.15007 -63.229481 4294967295
148.69736 85.009735 -63.004578 4294967295
148.88464 75.708054 -63.688042 4294967295
148.89182 76.173126 -63.587246 4294967295
148.92525 78.033348 -63.230312 4294967295
148.95409 78.961472 -63.171532 4294967295
148.9662 76.626244 -64.150894 4294967295
148.96965 77.091904 -64.013168 4294967295
149.02435 81.282593 -63.006737 4294967295
149.05128 79.408775 -63.961327 4294967295
149.07687 79.870262 -64.042694 4294967295
149.07915 82.205177 -63.204826 4294967295
149.08818 83.605911 -62.777702 4294967295
149.3273 77.560326 -62.770012 4294967295
149.38138 75.684532 -63.997059 4294967295
149.45113 79.870834 -63.136452 4294967295
149.50049 82.664482 -62.589912 4294967295
149.53482 83.59201 -62.58543 4294967295
149.59586 84.512932 -62.84668 4294967295
149.88622 76.591797 -64.043266 4294967295
149.89345 79.857368 -62.902405 4294967295
149.89951 77.988586 -63.656303 4294967295
149.91118 77.053497 -64.119057 4294967295
149.91754 75.654182 -64.701454 4294967295
149.93617 78.448067 -63.848576 4294967295
149.96832 79.374969 -63.822586 4294967295
150.02046 83.101044 -62.955383 4294967295
150.0545 82.625572 -63.46891 4294967295
150.08243 84.021492 -63.226959 4294967295
150.09724 86.357697 -62.506233 4294967295
150.27461 76.121056 -63.446918 4294967295
150.32121 77.51207 -63.391548 4294967295
150.38239 79.367172 -63.307976 4294967295
150.41063 81.229813 -62.894402 4294967295
150.41852 77.027527 -64.539276 4294967295
150.7045 75.642754 -63.263046 4294967295
150.89673 82.141754 -62.748772 4294967295
150.89838 81.20652 -63.11525 4294967295
150.91985 80.734642 -63.506012 4294967295
150.95795 83.998123 -62.66497 4294967295
150.96587 83.06076 -63.094719 4294967295
151.20897 77.950699 -62.778278 4294967295
151.21483 78.416527 -62.662033 4294967295
151.21858 77.015335 -63.226158 4294967295
151.22272 75.615425 -63.793564 4294967295
151.32967 79.794136 -63.294678 4294967295
151.3893 83.052338 -62.667759 4294967295
151.62889 76.074066 -63.018456 4294967295
151.65485 77.469368 -62.753139 4294967295
151.74637 79.31897 -62.975822 4294967295
151.74664 80.253281 -62.626205 4294967295
151.89421 84.427834 -62.535233 4294967295
151.93106 83.95079 -63.085903 4294967295
152.07288 76.059769 -62.798466 4294967295
152.12814 75.117371 -63.713387 4294967295
152.17386 77.907616 -63.118103 4294967295
152.18564 75.573471 -64.121094 4294967295
152.1924 79.771889 -62.599487 4294967295
152.20688 79.301697 -62.923615 4294967295
152.22157 76.965424 -63.956848 4294967295
152.23976 81.163704 -62.550529 4294967295
152.26024 80.224594 -63.112892 4294967295
152.29802 81.617996 -62.966507 4294967295
152.31635 83.016418 -62.621979 4294967295
152.31717 82.081024 -62.984608 4294967295
152.37724 84.872925 -62.533665 4294967295
152.59436 78.365189 -62.480682 4294967295
152.6496 76.954208 -63.577133 4294967295
152.65173 76.48745 -63.776505 4294967295
152.68561 80.21492 -62.702412 4294967295
152.76494 82.534309 -62.62466 4294967295
152.99554 75.091972 -63.066292 4294967295
153.04691 76.015686 -63.236271 4294967295
153.06337 77.412407 -62.870697 4294967295
153.116 75.537155 -64.122475 4294967295
153.11629 77.868858 -63.235069 4294967295
153.13141 80.200851 -62.498436 4294967295
153.13773 78.798157 -63.098381 4294967295
153.17987 81.124931 -62.638893 4294967295
153.22925 81.581123 -62.967426 4294967295
153.24919 80.642242 -63.52874 4294967295
153.26385 82.50795 -62.965729 4294967295
153.28537 82.970337 -63.008255 4294967295
153.35013 85.761124 -62.601852 4294967295
153.55904 78.788918 -62.643764 4294967295
153.58575 76.450401 -63.813343 4294967295
153.66391 78.300812 -63.902538 4294967295
153.99184 75.976768 -63.382557 4294967295
154.00636 77.373611 -62.99398 4294967295
154.02769 78.303001 -62.85498 4294967295
154.04839 75.034569 -64.325577 4294967295
154.06277 80.164108 -62.498608 4294967295
154.08527 79.692024 -62.911118 4294967295
154.10101 81.090408 -62.534447 4294967295
154.13441 82.017776 -62.520241 4294967295
154.19884 83.405327 -62.647213 4294967295
154.47313 78.288788 -62.646748 4294967295
154.51495 76.41423 -63.802338 4294967295
154.53648 79.67675 -62.763283 4294967295
154.5545 80.140015 -62.769966 4294967295
154.62935 81.992409 -62.82502 4294967295
154.87897 75.481926 -63.111584 4294967295
154.91748 75.008926 -63.693787 4294967295
154.93365 77.804596 -62.776081 4294967295
154.95726 76.866684 -63.384399 4294967295
154.96046 78.733009 -62.693085 4294967295
155.00491 79.657761 -62.793949 4294967295
155.02066 80.588791 -62.595634 4294967295
155.03439 80.118484 -62.920212 4294967295
155.04524 81.518066 -62.489433 4294967295
155.08957 81.975197 -62.770508 4294967295
155.18672 84.757393 -62.6959 4294967295
155.32574 75.933578 -62.736267 4294967295
155.45036 79.17662 -62.766895 4294967295
155.51736 79.629242 -63.286667 4294967295
155.55347 81.957123 -62.754395 4294967295
155.59331 82.882622 -62.807625 4294967295
155.87251 76.36673 -63.408257 4294967295
155.92491 80.090668 -62.497772 4294967295
155.97227 79.146255 -63.361107 4294967295
155.97556 80.546608 -62.847534 4294967295
156.01128 81.940483 -62.674606 4294967295
156.08571 83.325043 -62.909531 4294967295
156.25648 76.363853 -62.552612 4294967295
156.26399 74.963112 -63.181557 4294967295
156.31767 77.285469 -62.831177 4294967295
156.32471 77.750847 -62.72216 4294967295
156.33797 78.682045 -62.49501 4294967295
156.34502 75.880898 -63.66964 4294967295
156.36255 78.209999 -62.938133 4294967295
156.45444 80.992416 -62.807365 4294967295
156.51184 83.316406 -62.495399 4294967295
156.84058 79.122917 -62.705212 4294967295
156.89818 80.978996 -62.578819 4294967295
156.92398 80.038727 -63.221039 4294967295
156.9285 81.906837 -62.531425 4294967295
157.03638 84.218376 -62.753967 4294967295
157.17529 74.930214 -62.980072 4294967295
157.22847 75.853203 -63.175766 4294967295
157.29337 77.706635 -63.126907 4294967295
157.29948 78.638969 -62.822075 4294967295
157.31229 79.570312 -62.58847 4294967295
157.32091 76.302078 -63.974442 4294967295
157.33679 80.499367 -62.479088 4294967295
157.34543 76.763489 -64.050659 4294967295
157.37471 78.156548 -63.807938 4294967295
157.4352 81.411133 -63.157066 4294967295
157.72765 78.161514 -62.61187 4294967295
157.74503 77.224472 -63.169178 4294967295
157.79585 79.547958 -62.783749 4294967295
157.85492 81.403481 -62.672047 4294967295
158.09869 74.895195 -62.906586 4294967295
158.15581 76.283813 -62.959946 4294967295
158.17957 77.6791 -62.655579 4294967295
158.24905 77.198471 -63.587673 4294967295
158.26672 79.528366 -62.844727 4294967295
158.27837 78.592064 -63.343102 4294967295
158.31459 80.919006 -62.799145 4294967295
158.33463 80.447174 -63.201134 4294967295
158.66992 75.323975 -63.862385 4294967295
158.74567 77.173882 -63.930344 4294967295
158.84335 82.754951 -62.735771 4294967295
159.09698 77.178467 -62.703743 4294967295
159.1113 75.310127 -63.610508 4294967295
159.12021 76.240845 -63.331154 4294967295
159.13245 78.571709 -62.52335 4294967295
159.15067 75.76886 -63.848663 4294967295
159.19563 79.025017 -63.019341 4294967295
159.19748 77.624619 -63.60347 4294967295
159.20453 79.957092 -62.739258 4294967295
159.306 83.204803 -62.520569 4294967295
159.60539 75.286583 -63.929409 4294967295
159.61234 78.083389 -62.872337 4294967295
159.63489 79.479416 -62.550789 4294967295
159.70071 80.398758 -62.88876 4294967295
159.95705 75.755852 -62.507942 4294967295
159.99054 74.816986 -63.252354 4294967295
160.02885 77.608437 -62.532875 4294967295
160.10406 76.193993 -63.922745 4294967295
160.10817 79.459267 -62.639992 4294967295
160.11588 78.056984 -63.293465 4294967295
160.13623 78.986053 -63.136391 4294967295
160.18759 80.37529 -63.12812 4294967295
160.23544 82.700333 -62.701637 4294967295
160.50183 77.121819 -62.810043 4294967295
160.53415 75.250397 -63.925812 4294967295
160.54982 76.645691 -63.526779 4294967295
160.59158 79.9039 -62.651028 4294967295
160.61455 80.833092 -62.521538 4294967295
160.95526 77.105942 -62.683701 4294967295
160.97438 78.035576 -62.511177 4294967295
160.97865 75.236 -63.705894 4294967295
161.00526 76.629341 -63.42551 4294967295
161.10355 80.80896 -62.785969 4294967295
161.14545 82.668518 -62.481514 4294967295
161.39215 76.160141 -62.757736 4294967295
161.46321 78.012222 -62.774879 4294967295
161.47989 77.0755 -63.343948 4294967295
161.54236 79.862396 -62.881767 4294967295
161.55109 80.794739 -62.593842 4294967295
161.56198 79.390953 -63.291542 4294967295
161.96616 77.052849 -63.584362 4294967295
161.98044 79.85025 -62.584576 4294967295
162.02037 80.308083 -62.83569 4294967295
162.29309 74.730293 -63.018436 4294967295
162.29945 75.195343 -62.895496 4294967295
162.34627 76.585426 -62.836403 4294967295
162.78885 76.571732 -62.587955 4294967295
162.7975 77.036644 -62.490181 4294967295
162.87181 78.888161 -62.544312 4294967295
163.21786 75.627556 -62.576271 4294967295
163.27538 76.549118 -62.83252 4294967295
163.29387 75.146736 -63.626915 4294967295
163.33659 77.936127 -62.935165 4294967295
163.34738 77.467201 -63.252102 4294967295
163.3651 78.863441 -62.86488 4294967295
163.71364 76.069756 -62.730377 4294967295
164.16049 75.122368 -62.922546 4294967295
164.25803 77.901329 -62.846664 4294967295
164.26955 78.832504 -62.582859 4294967295
164.33377 80.21875 -62.720421 4294967295
164.57608 74.647263 -62.562302 4294967295
164.59882 75.109276 -62.623241 4294967295
164.67311 76.960327 -62.67823 4294967295
164.72832 77.415199 -63.110138 4294967295
165.09006 76.018768 -62.530212 4294967295
165.21039 79.260292 -62.515617 4294967295
165.55768 75.067299 -62.964359 4294967295
165.6076 76.922783 -62.7397 4294967295
165.69339 78.77076 -62.927517 4294967295
166.04895 75.510124 -63.074249 4294967295
166.06824 76.905411 -62.694847 4294967295
166.46112 75.035995 -62.670052 4294967295
166.55469 76.416092 -63.152046 4294967295
166.65427 80.127556 -62.694519 4294967295
166.98471 75.006332 -63.360138 4294967295
167.0018 76.868011 -62.749058 4294967295
167.09087 79.181793 -62.775215 4294967295
167.4017 75.46376 -62.604065 4294967295
167.41135 75.928253 -62.513435 4294967295
168.00945 79.147614 -62.656078 4294967295
168.82875 76.335197 -62.595093 4294967295
169.29839 76.315872 -62.659275 4294967295
169.32921 77.242332 -62.612793 4294967295
169.74287 74.902916 -63.047661 4294967295
170.22762 76.27935 -62.669876 4294967295
170.71622 77.18895 -62.54557 4294967295
135.26018 88.806244 -62.739777 4294967295
135.27264 89.271805 -62.695869 4294967295
135.3092 90.199951 -62.711159 4294967295
135.41121 93.455765 -62.534592 4294967295
135.80376 87.363441 -63.884502 4294967295
135.81007 91.10997 -62.700829 4294967295
135.87419 93.438011 -62.496342 4294967295
136.1886 88.301567 -62.842216 4294967295
136.22263 89.230171 -62.835068 4294967295
136.37843 93.877625 -62.671463 4294967295
136.66286 89.218323 -62.594269 4294967295
137.07687 87.338425 -62.74308 4294967295
137.08646 88.273193 -62.515877 4294967295
137.14772 88.726265 -62.910614 4294967295
137.18947 90.590347 -62.659512 4294967295
137.29849 93.374443 -62.700539 4294967295
137.59102 89.182304 -62.539516 4294967295
137.67583 90.566269 -62.833832 4294967295
138.03932 87.293999 -63.0005 4294967295
138.05891 89.163284 -62.546906 4294967295
138.13385 91.018799 -62.594952 4294967295
138.51395 88.210251 -62.754597 4294967295
138.58409 90.06665 -62.75922 4294967295
138.64351 90.988129 -62.983303 4294967295
138.95499 87.261063 -62.836246 4294967295
139.02159 89.586906 -62.649658 4294967295
139.04259 88.175735 -63.318176 4294967295
139.42896 88.177551 -62.582672 4294967295
139.53105 89.088158 -63.199184 4294967295
139.54897 91.427216 -62.565708 4294967295
139.86794 87.228806 -62.646137 4294967295
139.88576 88.161392 -62.489853 4294967295
139.91055 87.686546 -62.877899 4294967295
139.99216 90.476967 -62.667877 4294967295
140.0238 91.406082 -62.638878 4294967295
140.40202 88.129929 -62.945511 4294967295
140.43146 87.654053 -63.377754 4294967295
140.88028 89.514015 -62.569118 4294967295
141.35291 89.024918 -62.785522 4294967295
141.36258 88.553802 -63.037209 4294967295
141.40222 90.886627 -62.596703 4294967295
141.73524 87.622429 -62.485901 4294967295
141.84042 89.937927 -62.655457 4294967295
141.88797 90.862396 -62.774517 4294967295
142.26674 88.05542 -62.929527 4294967295
142.3232 88.977409 -63.132584 4294967295
142.84546 91.755623 -62.675682 4294967295
143.17746 88.492378 -62.555428 4294967295
143.20987 88.952347 -62.696957 4294967295
143.21939 87.544518 -63.279442 4294967295
143.74063 90.32196 -62.811111 4294967295
144.2099 90.30233 -62.838234 4294967295
144.62527 89.360306 -62.683395 4294967295
144.6342 87.952408 -63.266933 4294967295
144.64345 88.886711 -63.02306 4294967295
144.69539 91.215752 -62.688381 4294967295
145.06401 87.943344 -62.918606 4294967295
145.10826 89.805611 -62.675804 4294967295
145.10921 88.868073 -63.01828 4294967295
145.48894 87.467163 -62.68837 4294967295
145.5141 87.928947 -62.76292 4294967295
146.01585 87.900734 -63.105366 4294967295
146.05714 90.232185 -62.664288 4294967295
146.06384 89.76152 -62.897038 4294967295
146.93163 88.804733 -62.607246 4294967295
139.79541 86.309708 -62.299343 4294967295
142.59081 86.667648 -62.081409 4294967295
146.26262 86.065331 -61.65453 4294967295
146.27214 85.126007 -62.083969 4294967295
146.29085 86.995483 -61.590664 4294967295
146.77893 86.971191 -61.798813 4294967295
146.81216 86.493996 -62.291298 4294967295
147.17859 85.563812 -61.655807 4294967295
147.23463 86.955338 -61.693092 4294967295
147.5598 81.35231 -62.353943 4294967295
147.58334 82.750488 -62.073448 4294967295
147.65276 85.074821 -61.900902 4294967295
147.7101 86.934296 -61.780327 4294967295
148.09399 83.657692 -62.166534 4294967295
148.14618 85.51783 -61.995319 4294967295
148.54129 84.580177 -61.635666 4294967295
148.65462 85.956825 -62.23912 4294967295
149.02325 85.494705 -61.444202 4294967295
149.05412 84.082031 -62.267616 4294967295
149.0582 86.423035 -61.445423 4294967295
149.09116 85.009178 -62.28997 4294967295
149.10077 85.94339 -62.040035 4294967295
149.12987 86.872787 -61.983685 4294967295
149.87677 81.263199 -62.215435 4294967295
149.91054 81.723366 -62.378922 4294967295
149.92979 83.590515 -61.876205 4294967295
149.96123 84.987648 -61.668766 4294967295
149.97256 84.516479 -61.955772 4294967295
150.0822 86.830109 -62.181942 4294967295
150.40817 85.911247 -61.124802 4294967295
150.42935 86.843391 -60.988029 4294967295
150.48138 85.423721 -62.034081 4294967295
150.90614 85.884354 -61.442009 4294967295
150.97127 84.930801 -62.448761 4294967295
151.276 81.675385 -62.050411 4294967295
151.34497 82.595047 -62.395771 4294967295
151.4675 86.309097 -62.227421 4294967295
151.91499 86.295387 -62.039841 4294967295
152.2403 83.502785 -61.67001 4294967295
152.32312 86.292274 -61.449768 4294967295
152.71899 83.949371 -61.620663 4294967295
152.82387 87.201714 -61.446938 4294967295
153.15149 82.066719 -61.990585 4294967295
153.15887 84.874413 -60.993717 4294967295
153.17859 83.464218 -61.73278 4294967295
153.28084 86.716751 -61.53159 4294967295
153.37032 87.160645 -62.273087 4294967295
153.63092 82.980927 -61.771278 4294967295
153.73378 84.359558 -62.293983 4294967295
153.73531 87.170128 -61.232193 4294967295
153.75117 85.291405 -62.114414 4294967295
154.09335 85.30542 -60.833473 4294967295
154.13737 86.700279 -60.748184 4294967295
154.15591 83.883972 -62.022423 4294967295
154.17062 84.816635 -61.814529 4294967295
154.22987 87.143463 -61.526814 4294967295
154.2702 86.195175 -62.305557 4294967295
154.58496 84.343025 -61.459225 4294967295
155.03496 82.923859 -61.837364 4294967295
155.09863 85.248833 -61.593857 4294967295
155.10361 86.184723 -61.282043 4294967295
155.12657 87.116035 -61.158215 4294967295
155.1711 86.634773 -61.805546 4294967295
155.57556 83.822655 -62.257126 4294967295
155.62653 85.213707 -62.244492 4294967295
155.95454 85.231918 -60.795044 4294967295
156.03601 87.085075 -60.919746 4294967295
156.06717 86.138718 -61.61488 4294967295
156.14484 86.585617 -62.250359 4294967295
156.89955 86.12899 -60.561035 4294967295
156.90593 83.315918 -61.73801 4294967295
156.91452 87.063049 -60.349915 4294967295
156.93539 84.713089 -61.496643 4294967295
156.94446 86.585419 -60.853214 4294967295
156.96942 85.172409 -61.673363 4294967295
157.01099 85.629539 -61.930176 4294967295
157.31969 81.906242 -61.741066 4294967295
157.36523 83.299011 -61.670086 4294967295
157.41455 84.690933 -61.639709 4294967295
157.41519 82.818504 -62.388294 4294967295
157.45532 87.022903 -61.14624 4294967295
157.85423 87.023529 -60.428368 4294967295
158.15964 78.150162 -62.255051 4294967295
158.22755 80.004326 -62.237556 4294967295
158.2561 82.804077 -61.422768 4294967295
158.29887 81.390121 -62.443481 4294967295
158.30107 84.197319 -61.3451 4294967295
158.319 83.256233 -61.912163 4294967295
158.33995 86.061188 -61.014359 4294967295
158.39268 86.983871 -61.207516 4294967295
158.82739 84.162712 -62.000099 4294967295
158.84543 85.562767 -61.631165 4294967295
159.1619 81.369476 -61.712135 4294967295
159.20325 82.295097 -61.783142 4294967295
159.20424 80.891777 -62.359489 4294967295
159.21735 84.632751 -60.992603 4294967295
159.25974 85.089798 -61.263943 4294967295
159.30986 86.481796 -61.241333 4294967295
159.3152 84.138199 -62.243156 4294967295
159.3625 86.935318 -61.624146 4294967295
159.36761 85.996704 -62.057289 4294967295
159.5554 77.628403 -62.442341 4294967295
159.61996 81.820724 -61.442295 4294967295
159.71725 86.47995 -60.606026 4294967295
160.04486 78.538986 -62.328255 4294967295
160.06422 81.339531 -61.39954 4294967295
160.14474 84.128143 -61.138397 4294967295
160.18697 83.18058 -61.981171 4294967295
160.19418 85.520348 -61.108376 4294967295
160.27289 86.904037 -61.398586 4294967295
160.30032 85.958862 -62.080147 4294967295
160.60452 82.706383 -61.647736 4294967295
160.61905 85.982193 -60.468632 4294967295
160.68597 84.557487 -61.778442 4294967295
160.7319 86.418503 -61.518627 4294967295
160.75491 85.474922 -62.154259 4294967295
160.87764 75.721344 -62.402824 4294967295
160.98181 79.435341 -62.018742 4294967295
160.99075 80.368248 -61.733864 4294967295
161.02115 79.893707 -62.260578 4294967295
161.03223 81.761482 -61.615925 4294967295
161.03735 81.292427 -61.864212 4294967295
161.07812 84.090454 -61.162659 4294967295
161.10236 83.147545 -61.813995 4294967295
161.12732 85.951347 -60.937351 4294967295
161.14578 85.477348 -61.333488 4294967295
161.18245 84.998604 -61.930367 4294967295
161.2191 86.862175 -61.566944 4294967295
161.22234 86.392563 -61.794796 4294967295
161.46539 82.219139 -61.066742 4294967295
161.5443 85.946747 -60.397629 4294967295
161.54839 85.476593 -60.6362 4294967295
161.55574 83.600304 -61.489655 4294967295
161.60324 86.867638 -60.665627 4294967295
161.97551 81.2537 -61.949837 4294967295
161.97594 82.18924 -61.567524 4294967295
161.97908 83.12468 -61.215378 4294967295
161.98099 84.998459 -60.461357 4294967295
161.99142 84.526772 -60.771549 4294967295
162.02142 86.393906 -60.330032 4294967295
162.02557 86.861908 -60.182419 4294967295
162.06631 83.569702 -61.993011 4294967295
162.06688 85.442917 -61.22464 4294967295
162.1364 85.891541 -61.805393 4294967295
162.3636 77.98201 -62.448242 4294967295
162.39728 80.778191 -61.659401 4294967295
162.48369 82.15995 -62.042465 4294967295
162.55101 85.418961 -61.434082 4294967295
162.57494 86.34935 -61.312489 4294967295
162.71967 75.652161 -62.202202 4294967295
162.96037 81.670876 -62.367973 4294967295
162.96939 82.13623 -62.274094 4294967295
162.97505 85.412201 -60.970451 4294967295
162.97791 84.005875 -61.588833 4294967295
163.06598 86.32309 -61.601486 4294967295
163.08067 85.850212 -61.962429 4294967295
163.25162 77.02066 -62.369408 4294967295
163.29108 80.282532 -61.443199 4294967295
163.34023 79.336151 -62.388874 4294967295
163.34892 81.67173 -61.507172 4294967295
163.35953 79.798859 -62.410652 4294967295
163.39725 85.406067 -60.482098 4294967295
163.43817 83.520493 -61.72924 4294967295
163.4577 83.047241 -62.145897 4294967295
163.75455 78.39502 -62.210449 4294967295
163.7942 82.126411 -61.084747 4294967295
163.83354 84.458099 -60.54451 4294967295
163.85938 85.857506 -60.245209 4294967295
163.90378 86.782578 -60.354183 4294967295
164.12701 76.061852 -62.147789 4294967295
164.19589 79.316635 -61.547951 4294967295
164.23651 80.709854 -61.416588 4294967295
164.28867 82.568497 -61.218475 4294967295
164.30766 81.15995 -62.028122 4294967295
164.31561 84.434875 -60.732826 4294967295
164.31937 83.965225 -60.973885 4294967295
164.37817 83.012772 -62.039452 4294967295
164.38269 86.759857 -60.505882 4294967295
164.38441 85.352562 -61.120449 4294967295
164.38852 85.820114 -60.969032 4294967295
164.65709 77.89743 -62.098778 4294967295
164.74561 81.148308 -61.720268 4294967295
164.74646 83.020271 -60.934654 4294967295
164.87006 83.922943 -61.950649 4294967295
165.05154 75.559906 -62.288025 4294967295
165.06358 77.424782 -61.629124 4294967295
165.1216 79.748611 -61.297432 4294967295
165.1441 77.87429 -62.353226 4294967295
165.1767 81.606392 -61.131401 4294967295
165.18552 81.136208 -61.432205 4294967295
165.19206 80.199257 -61.90659 4294967295
165.2256 82.061752 -61.493393 4294967295
165.24968 85.803513 -60.170738 4294967295
165.26082 83.456734 -61.29866 4294967295
165.27592 84.389366 -61.072414 4294967295
165.28174 86.263062 -60.339203 4294967295
165.30858 84.848572 -61.247944 4294967295
165.33195 83.905258 -61.916328 4294967295
165.3537 87.179298 -60.766758 4294967295
165.55058 77.868889 -61.682632 4294967295
165.61938 82.061958 -60.671429 4294967295
165.62869 80.655457 -61.380722 4294967295
165.70447 81.571854 -61.853664 4294967295
165.82843 86.688644 -61.076515 4294967295
165.99689 77.854744 -61.467171 4294967295
166.00488 76.452026 -62.162872 4294967295
166.03481 78.780846 -61.50367 4294967295
166.06285 81.112762 -60.82148 4294967295
166.0845 80.171631 -61.475216 4294967295
166.10028 82.039406 -60.85202 4294967295
166.12404 82.969711 -60.724289 4294967295
166.20174 83.885063 -61.221832 4294967295
166.21361 85.756393 -60.552288 4294967295
166.23105 84.81366 -61.158333 4294967295
166.24765 86.215103 -60.74559 4294967295
166.26752 86.67804 -60.774181 4294967295
166.45201 77.371452 -61.554863 4294967295
166.49422 78.296478 -61.641361 4294967295
166.52583 78.7565 -61.806938 4294967295
166.54257 82.495407 -60.382877 4294967295
166.57892 79.211334 -62.222012 4294967295
166.59534 82.949562 -60.79467 4294967295
166.59642 83.886398 -60.401863 4294967295
166.6398 86.688225 -59.690208 4294967295
166.64563 81.999794 -61.785294 4294967295
166.66362 87.150299 -59.7649 4294967295
166.71272 83.385437 -61.959503 4294967295
166.86946 76.429199 -61.407158 4294967295
166.8761 74.561104 -62.295631 4294967295
166.99004 82.481743 -60.173683 4294967295
166.9939 80.139954 -61.235878 4294967295
167.01591 78.265259 -62.305241 4294967295
167.02272 82.941437 -60.352402 4294967295
167.03696 81.064751 -61.33284 4294967295
167.03969 82.000107 -60.957775 4294967295
167.04825 85.278793 -59.632317 4294967295
167.07924 83.394333 -60.810081 4294967295
167.08963 80.583755 -62.1516 4294967295
167.11119 84.322411 -60.777115 4294967295
167.21436 86.166687 -61.170441 4294967295
167.39169 77.332802 -61.671642 4294967295
167.41232 78.729958 -61.301788 4294967295
167.43047 81.064682 -60.493706 4294967295
167.43507 79.659706 -61.160545 4294967295
167.52036 84.789062 -59.913757 4294967295
167.58995 85.237434 -60.528038 4294967295
167.59734 85.704201 -60.410019 4294967295
167.60417 86.171219 -60.285805 4294967295
167.61563 87.106277 -60.010971 4294967295
167.98572 79.620483 -62.171349 4294967295
168.0007 82.423058 -61.117584 4294967295
168.00793 82.889343 -60.997498 4294967295
168.01823 81.014702 -61.94006 4294967295
168.0228 84.75956 -60.35096 4294967295
168.0361 80.542633 -62.355919 4294967295
168.04074 81.94426 -61.795521 4294967295
168.05498 83.812859 -61.142532 4294967295
168.06543 86.153824 -60.238045 4294967295
168.06773 85.684006 -60.471046 4294967295
168.10728 87.079208 -60.3214 4294967295
168.21342 75.451157 -61.219387 4294967295
168.27516 74.972122 -62.155426 4294967295
168.29373 77.302399 -61.346786 4294967295
168.37358 80.556511 -60.850723 4294967295
168.39047 81.020195 -60.844765 4294967295
168.39124 78.681808 -61.883987 4294967295
168.42349 82.416084 -60.617485 4294967295
168.42403 83.35305 -60.211098 4294967295
168.54601 85.661385 -60.626499 4294967295
168.70647 75.894135 -61.347755 4294967295
168.81793 78.672462 -61.43306 4294967295
168.83519 76.800407 -62.465263 4294967295
168.84572 81.472488 -60.521564 4294967295
168.86133 79.129501 -61.742615 4294967295
168.90965 86.143456 -59.208298 4294967295
169.00836 84.237411 -61.216484 4294967295
169.01826 85.640572 -60.712002 4294967295
169.02989 87.044365 -60.227852 4294967295
169.19193 74.938301 -62.010086 4294967295
169.23773 78.197281 -61.103779 4294967295
169.24805 77.72757 -61.434887 4294967295
169.2861 81.460632 -60.22583 4294967295
169.31514 81.921234 -60.365166 4294967295
169.33382 79.109283 -61.836937 4294967295
169.33575 80.51149 -61.236305 4294967295
169.35568 84.253433 -59.808456 4294967295
169.36383 83.313354 -60.323067 4294967295
169.36696 80.971252 -61.401794 4294967295
169.40408 82.365265 -61.221832 4294967295
169.44044 86.573769 -59.781216 4294967295
169.47639 86.093124 -60.421028 4294967295
169.64774 75.388535 -61.697857 4294967295
169.77792 79.563431 -61.382694 4294967295
169.84294 85.635956 -59.443703 4294967295
169.87654 82.812874 -61.105247 4294967295
169.88844 81.405632 -61.875671 4294967295
170.06938 75.846191 -60.970757 4294967295
170.07611 74.911026 -61.471161 4294967295
170.11584 77.705177 -60.6922 4294967295
170.12927 77.234718 -61.064102 4294967295
170.15173 78.631973 -60.705589 4294967295
170.18936 78.155571 -61.369564 4294967295
170.19576 81.89785 -59.766113 4294967295
170.20084 79.555473 -60.878403 4294967295
170.22591 82.826958 -59.70977 4294967295
170.25961 80.944115 -60.958237 4294967295
170.28992 79.066078 -62.163872 4294967295
170.30197 79.997726 -61.889938 4294967295
170.30403 84.211037 -60.023262 4294967295
170.30566 86.087692 -59.200363 4294967295
170.3073 83.741219 -60.273224 4294967295
170.32521 80.459267 -61.960892 4294967295
170.3452 83.261642 -60.942177 4294967295
170.35715 85.133026 -60.244751 4294967295
170.37994 87.003113 -59.67802 4294967295
170.44829 86.511681 -60.716446 4294967295
170.58183 74.884628 -61.969315 4294967295
170.61226 80.01857 -60.019432 4294967295
170.68373 81.404724 -60.25322 4294967295
170.70995 78.124146 -62.048424 4294967295
170.73929 85.609467 -59.024548 4294967295
170.87059 84.162285 -61.255928 4294967295
171.05385 74.86496 -62.062473 4294967295
171.08084 76.259247 -61.756866 4294967295
171.08548 78.594406 -60.754128 4294967295
171.14346 79.515533 -61.037102 4294967295
171.14619 79.047226 -61.282581 4294967295
171.1478 78.112137 -61.725716 4294967295
171.15384 80.448593 -60.739651 4294967295
171.17545 80.910942 -60.79126 4294967295
171.17567 79.975113 -61.217957 4294967295
171.18739 83.249916 -59.875427 4294967295
171.21217 81.837334 -60.814873 4294967295
171.28214 84.628441 -60.394867 4294967295
171.29172 85.563568 -60.086952 4294967295
171.31256 86.026207 -60.129196 4294967295
171.3681 86.946823 -60.382706 4294967295
171.46593 74.390816 -61.636658 4294967295
171.46802 75.323792 -61.23719 4294967295
171.53252 79.048233 -60.323761 4294967295
171.5804 80.90847 -60.057949 4294967295
171.65138 82.294357 -60.288345 4294967295
171.74609 86.487152 -59.528393 4294967295
171.75757 86.953041 -59.455368 4294967295
171.76495 83.667122 -61.041504 4294967295
171.92868 76.707863 -60.547691 4294967295
171.9642 77.167229 -60.770927 4294967295
171.97792 75.762924 -61.580833 4294967295
172.02463 77.620636 -61.300282 4294967295
172.02621 76.219269 -61.961197 4294967295
172.03821 79.019814 -60.825577 4294967295
172.03952 81.828743 -59.556206 4294967295
172.04547 78.083008 -61.343006 4294967295
172.05336 81.356331 -59.941315 4294967295
172.05365 80.41964 -60.373646 4294967295
172.10095 84.62532 -59.025768 4294967295
172.11626 83.213272 -59.858799 4294967295
172.12613 82.741676 -60.194855 4294967295
172.15013 86.018631 -58.988045 4294967295
172.18022 84.13205 -60.218346 4294967295
172.18224 85.538857 -59.59906 4294967295
172.18898 85.067444 -59.897141 4294967295
172.24628 86.457077 -59.960075 4294967295
172.26053 86.92186 -59.921246 4294967295
172.35878 74.828583 -60.978462 4294967295
172.39752 76.688744 -60.597717 4294967295
172.58473 80.383812 -61.192955 4294967295
172.66675 83.169746 -60.917263 4294967295
172.74936 86.425964 -60.432327 4294967295
172.89523 76.195999 -61.223282 4294967295
173.01883 78.035828 -61.895107 4294967295
173.02333 80.840317 -60.654827 4294967295
173.02698 79.903496 -61.132607 4294967295
173.03003 82.24353 -60.088921 4294967295
173.03488 83.179634 -59.716072 4294967295
173.05054 84.113045 -59.477608 4294967295
173.05627 83.642242 -59.765739 4294967295
173.09999 85.03624 -59.66008 4294967295
173.1349 85.963837 -59.661297 4294967295
173.16734 86.892273 -59.631603 4294967295
173.18123 86.418137 -60.022102 4294967295
173.26227 74.797607 -60.6586 4294967295
173.36119 77.579292 -60.591286 4294967295
173.37509 77.10865 -60.981689 4294967295
173.39058 75.704216 -61.82579 4294967295
173.39293 78.974709 -60.335899 4294967295
173.41408 76.165802 -61.902115 4294967295
173.42377 78.499321 -60.938599 4294967295
173.43294 79.900414 -60.401146 4294967295
173.51714 82.687294 -60.149166 4294967295
173.56361 84.548882 -59.859936 4294967295
173.73784 74.777229 -60.795811 4294967295
173.74986 76.176109 -60.292431 4294967295
173.8627 78.487358 -60.617355 4294967295
173.87001 76.616325 -61.581284 4294967295
173.92564 78.939285 -61.189293 4294967295
174.0271 84.999985 -59.622894 4294967295
174.06796 83.580521 -60.793652 4294967295
174.07384 85.92366 -59.773125 4294967295
174.0761 86.862106 -59.363358 4294967295
174.21178 75.691238 -60.476265 4294967295
174.22604 76.155365 -60.436947 4294967295
174.27322 78.950508 -59.715736 4294967295
174.32068 77.068329 -61.191521 4294967295
174.34883 78.463722 -60.88887 4294967295
174.36894 79.861961 -60.484558 4294967295
174.38242 77.988083 -61.531799 4294967295
174.40364 82.194168 -59.824593 4294967295
174.41345 80.786171 -60.607399 4294967295
174.42862 79.378654 -61.457169 4294967295
174.45445 83.116776 -60.027058 4294967295
174.4581 80.306175 -61.390579 4294967295
174.46748 81.239365 -61.070267 4294967295
174.4812 84.515587 -59.705288 4294967295
174.4928 85.920128 -59.191536 4294967295
174.52104 85.441429 -59.769211 4294967295
174.61327 74.285065 -60.337364 4294967295
174.72496 77.531731 -60.210144 4294967295
174.74965 76.123985 -61.183899 4294967295
174.82806 79.377121 -60.635544 4294967295
174.96535 84.021957 -60.170845 4294967295
175.00873 86.354218 -59.616642 4294967295
175.1814 76.113121 -60.769501 4294967295
175.18398 76.579796 -60.581024 4294967295
175.21068 75.639603 -61.363419 4294967295
175.24744 77.032333 -61.167759 4294967295
175.2827 79.829346 -60.288094 4294967295
175.28751 78.424721 -61.013992 4294967295
175.28915 78.891907 -60.813454 4294967295
175.31279 81.225952 -60.006222 4294967295
175.35941 82.149658 -60.157326 4294967295
175.35954 80.744705 -60.824539 4294967295
175.38849 84.016335 -59.640244 4294967295
175.41058 83.071785 -60.366623 4294967295
175.43336 84.940544 -59.769062 4294967295
175.44839 85.404999 -59.738754 4294967295
175.47067 86.806274 -59.356197 4294967295
175.49132 86.329636 -59.842728 4294967295
175.65317 77.963264 -59.973351 4294967295
175.73726 78.877769 -60.604805 4294967295
175.87779 83.990158 -59.95401 4294967295
175.88136 85.39682 -59.329872 4294967295
176.05823 76.088539 -60.101212 4294967295
176.07747 75.149857 -60.795513 4294967295
176.07793 74.682854 -61.025047 4294967295
176.14107 79.343231 -59.600273 4294967295
176.16997 77.46463 -60.867615 4294967295
176.17807 78.397751 -60.524231 4294967295
176.1855 77.928284 -60.84375 4294967295
176.20316 78.859085 -60.623711 4294967295
176.20566 80.262512 -59.984207 4294967295
176.23404 82.128769 -59.453068 4294967295
176.24733 83.062805 -59.175568 4294967295
176.24936 79.782623 -60.770927 4294967295
176.2601 81.184044 -60.237362 4294967295
176.27751 84.461433 -58.891502 4294967295
176.32834 82.569595 -60.444489 4294967295
176.34123 85.849525 -59.039566 4294967295
176.34807 84.908195 -59.577282 4294967295
176.60693 76.518318 -60.963493 4294967295
176.61993 76.048271 -61.356083 4294967295
176.66513 80.713959 -59.69173 4294967295
176.67406 81.64872 -59.356979 4294967295
176.7005 78.832283 -61.049965 4294967295
176.84395 85.348778 -59.754822 4294967295
176.9991 75.582207 -60.479004 4294967295
177.06564 78.371666 -59.988136 4294967295
177.06808 76.03373 -61.149513 4294967295
177.07216 77.434586 -60.524925 4294967295
177.08017 76.965233 -60.854935 4294967295
177.08234 79.303467 -59.752621 4294967295
177.1563 83.032196 -58.903366 4294967295
177.17177 81.620743 -59.784531 4294967295
177.1759 82.557137 -59.385353 4294967295
177.19965 80.67601 -60.600304 4294967295
177.20322 79.739151 -61.099228 4294967295
177.21039 84.423393 -58.927479 4294967295
177.22577 85.357704 -58.673943 4294967295
177.23618 84.884567 -59.036957 4294967295
177.27606 86.280441 -58.875977 4294967295
177.28685 83.929764 -60.151085 4294967295
177.29106 83.459602 -60.432503 4294967295
177.46202 74.630356 -60.914055 4294967295
177.47478 75.561508 -60.62677 4294967295
177.51663 75.085312 -61.399967 4294967295
177.53113 79.289345 -59.545361 4294967295
177.57048 81.152641 -59.149696 4294967295
177.67783 82.058731 -60.09911 4294967295
177.79114 85.305618 -59.989151 4294967295
177.81735 87.174934 -59.420189 4294967295
177.93565 76.478783 -60.125679 4294967295
178.0106 78.331032 -60.196682 4294967295
178.04033 77.855812 -60.815479 4294967295
178.05481 82.066383 -58.947891 4294967295
178.06473 79.252617 -60.450981 4294967295
178.08362 81.120323 -59.784813 4294967295
178.11128 78.772614 -61.291065 4294967295
178.11548 80.174744 -60.661308 4294967295
178.15059 83.444321 -59.521393 4294967295
178.16229 82.971687 -59.904659 4294967295
178.1864 86.720032 -58.387932 4294967295
178.2012 82.491089 -60.645721 4294967295
178.22681 83.889191 -60.296204 4294967295
178.28702 86.215149 -59.943756 4294967295
178.37003 75.532738 -60.18795 4294967295
178.42055 75.054375 -61.083618 4294967295
178.43932 78.790054 -59.495567 4294967295
178.44144 76.45079 -60.671349 4294967295
178.44287 76.917824 -60.46114 4294967295
178.49173 77.840767 -60.64724 4294967295
178.51459 77.367645 -61.178371 4294967295
178.60243 83.899124 -59.121807 4294967295
178.62508 81.079674 -60.801674 4294967295
178.64409 85.294029 -58.982113 4294967295
178.6969 87.155418 -58.758991 4294967295
178.87395 75.505608 -60.712463 4294967295
178.9184 76.429558 -60.841202 4294967295
178.93954 80.167236 -59.275135 4294967295
178.95006 81.1017 -58.952377 4294967295
179.08855 81.998138 -60.331257 4294967295
179.09195 83.872612 -59.451019 4294967295
179.0961 84.810089 -59.042885 4294967295
179.11363 87.154037 -58.117104 4294967295
179.11734 83.395401 -60.020302 4294967295
179.15372 86.199585 -59.11499 4294967295
179.31265 75.49324 -60.37392 4294967295
179.31828 76.426697 -59.985371 4294967295
179.32103 76.893669 -59.789997 4294967295
179.34491 75.018936 -61.035683 4294967295
179.4254 79.206352 -60.022652 4294967295
179.42873 78.737465 -60.299145 4294967295
179.43321 80.140709 -59.662605 4294967295
179.44374 81.074844 -59.338245 4294967295
179.46158 83.415154 -58.413406 4294967295
179.47098 82.942741 -58.771988 4294967295
179.48631 82.468796 -59.209503 4294967295
179.49104 80.592659 -60.202675 4294967295
179.49753 81.527695 -59.824608 4294967295
179.57115 85.727509 -58.714993 4294967295
179.63939 85.234505 -59.861153 4294967295
179.87877 75.91851 -61.506691 4294967295
180.09076 87.099625 -58.748848 4294967295
180.11264 86.621704 -59.277988 4294967295
180.13304 86.14473 -59.787018 4294967295
180.23149 74.524986 -60.713547 4294967295
180.24345 74.989281 -60.640831 4294967295
180.24626 76.390465 -59.975853 4294967295
180.30983 79.650215 -59.191246 4294967295
180.31911 78.711067 -59.785698 4294967295
180.3539 75.897659 -61.660412 4294967295
180.35931 81.510948 -58.919369 4294967295
180.36166 76.829712 -61.29705 4294967295
180.37296 80.100906 -59.808365 4294967295
180.3756 80.568604 -59.609318 4294967295
180.40611 81.028252 -59.786442 4294967295
180.41797 82.900253 -59.006592 4294967295
180.43129 79.148636 -61.064751 4294967295
180.45854 81.949753 -60.024956 4294967295
180.46088 84.294586 -58.881134 4294967295
180.49782 85.691307 -58.674294 4294967295
180.50803 83.809685 -59.753929 4294967295
180.5378 85.207748 -59.450729 4294967295
180.76082 75.425934 -61.127701 4294967295
180.79619 77.286118 -60.665405 4294967295
135.3129 97.716766 -60.265816 4294967295
135.37332 95.345779 -61.578487 4294967295
135.49689 100.9523 -60.816357 4294967295
135.57037 103.28253 -60.694241 4294967295
135.80469 94.867599 -61.410294 4294967295
135.81017 97.688217 -60.525482 4294967295
135.81941 96.744057 -60.919437 4294967295
135.83392 102.86543 -59.022339 4294967295
135.84264 99.090233 -60.348038 4294967295
135.85031 95.793892 -61.506248 4294967295
135.85178 98.145508 -60.741268 4294967295
135.86285 97.20079 -61.151474 4294967295
135.86572 100.49591 -60.08667 4294967295
135.87346 98.609177 -60.779114 4294967295
135.91896 100.94884 -60.406521 4294967295
135.92064 95.302521 -62.289185 4294967295
135.9323 99.531219 -60.993076 4294967295
135.937 103.3 -59.78783 4294967295
135.93948 104.24291 -59.497826 4294967295
135.94984 104.71113 -59.434383 4294967295
135.95914 102.34875 -60.297726 4294967295
135.9648 99.991066 -61.127716 4294967295
136.19131 92.053329 -61.620773 4294967295
136.19624 90.174797 -62.288017 4294967295
136.24554 93.446831 -61.638245 4294967295
136.43314 100.91347 -60.819897 4294967295
136.48897 104.19321 -60.225315 4294967295
136.67368 92.96949 -61.440689 4294967295
136.70346 96.25148 -60.611965 4294967295
136.75775 100.47252 -59.687908 4294967295
136.77805 103.29608 -58.927486 4294967295
136.78598 101.40574 -59.62775 4294967295
136.80493 97.160332 -61.210476 4294967295
136.8257 102.33494 -59.67094 4294967295
136.8338 98.091965 -61.156506 4294967295
136.84094 100.91505 -60.279385 4294967295
136.87357 104.67702 -59.315899 4294967295
136.87917 103.73086 -59.680897 4294967295
136.92258 102.77155 -60.386143 4294967295
137.08063 91.089149 -61.522491 4294967295
137.17392 94.350533 -61.263756 4294967295
137.17479 92.940842 -61.742798 4294967295
137.1967 95.283813 -61.154713 4294967295
137.19788 100.46291 -59.43362 4294967295
137.19923 91.994995 -62.276913 4294967295
137.20708 98.574661 -60.147015 4294967295
137.20882 99.51635 -59.847633 4294967295
137.21776 93.867653 -61.815952 4294967295
137.30771 96.189621 -61.841568 4294967295
137.31113 99.952667 -60.613827 4294967295
137.40091 104.16329 -60.006458 4294967295
137.61221 91.521935 -61.944118 4294967295
137.62921 92.456039 -61.782772 4294967295
137.65666 97.14888 -60.45369 4294967295
137.65987 96.206726 -60.798462 4294967295
137.73921 95.24173 -61.832169 4294967295
137.82344 104.63301 -59.434586 4294967295
137.82535 103.21649 -59.926983 4294967295
137.84769 102.26518 -60.445961 4294967295
137.86238 104.1463 -59.946281 4294967295
138.03635 91.984642 -61.39426 4294967295
138.04764 91.511932 -61.654732 4294967295
138.06885 92.914719 -61.37291 4294967295
138.11545 96.191429 -60.687843 4294967295
138.13907 98.537521 -60.109894 4294967295
138.15729 95.237839 -61.384575 4294967295
138.18188 101.35076 -59.546997 4294967295
138.20232 100.40063 -60.050461 4294967295
138.20941 98.043358 -60.907928 4294967295
138.21072 96.631569 -61.395138 4294967295
138.2141 98.983315 -60.633385 4294967295
138.21973 102.75237 -59.414883 4294967295
138.22543 94.277443 -62.319942 4294967295
138.22855 103.22104 -59.336273 4294967295
138.24066 97.562576 -61.350498 4294967295
138.2971 99.896729 -61.071243 4294967295
138.32892 101.76965 -60.726215 4294967295
138.35117 104.11898 -60.134682 4294967295
138.57796 94.293015 -61.275681 4294967295
138.60269 91.937668 -62.294552 4294967295
138.72054 96.598877 -61.781254 4294967295
138.961 90.072121 -61.937088 4294967295
138.97293 91.007339 -61.727798 4294967295
138.994 91.940308 -61.601974 4294967295
139.00862 95.225594 -60.619953 4294967295
139.01407 94.753624 -60.829254 4294967295
139.04042 92.396515 -61.867096 4294967295
139.07388 99.913063 -59.620228 4294967295
139.07927 95.673866 -61.106743 4294967295
139.08707 102.26691 -58.941044 4294967295
139.09752 96.608734 -60.954716 4294967295
139.1098 92.845818 -62.342102 4294967295
139.11661 98.955994 -60.331215 4294967295
139.12325 103.1977 -58.952576 4294967295
139.14125 98.006088 -60.876221 4294967295
139.14685 105.07811 -58.528294 4294967295
139.1855 97.520958 -61.441013 4294967295
139.20293 101.2817 -60.323105 4294967295
139.20605 100.33823 -60.671318 4294967295
139.51387 98.018509 -60.00351 4294967295
139.53156 97.541756 -60.326256 4294967295
139.53275 99.896965 -59.535404 4294967295
139.57851 94.235008 -61.877987 4294967295
139.60806 101.28484 -59.746532 4294967295
139.64017 104.57652 -58.91748 4294967295
139.64175 98.917221 -60.858189 4294967295
139.68907 102.67011 -60.010208 4294967295
139.71533 103.60374 -59.93074 4294967295
139.83141 89.582489 -61.509178 4294967295
139.89264 91.912735 -61.27076 4294967295
139.94899 97.068268 -60.022923 4294967295
139.95593 94.243317 -61.051273 4294967295
139.95618 93.773247 -61.213982 4294967295
139.95763 93.302933 -61.387985 4294967295
139.98491 96.115326 -60.675728 4294967295
140.00964 95.637123 -61.064262 4294967295
140.03552 105.05782 -58.08165 4294967295
140.04047 92.339592 -62.471558 4294967295
140.04216 101.27767 -59.433605 4294967295
140.04483 97.97821 -60.58498 4294967295
140.05432 99.387802 -60.189903 4294967295
140.06929 100.79639 -59.845062 4294967295
140.08394 104.56647 -58.690536 4294967295
140.10245 102.67091 -59.506653 4294967295
140.10352 98.899948 -60.804733 4294967295
140.1059 98.428413 -60.987469 4294967295
140.13174 102.18837 -59.938385 4294967295
140.16647 103.59061 -59.775673 4294967295
140.19861 104.05026 -59.911461 4294967295
140.32042 89.088745 -61.870628 4294967295
140.34525 91.428413 -61.295464 4294967295
140.43803 99.397652 -59.411259 4294967295
140.53532 96.539894 -61.280567 4294967295
140.53894 94.658646 -61.958641 4294967295
140.57022 97.469154 -61.281063 4294967295
140.57603 101.23454 -60.043114 4294967295
140.62236 104.0477 -59.502056 4294967295
140.62408 104.99138 -59.19421 4294967295
140.8049 90.472748 -61.547585 4294967295
