# .PCD v0.7 - Point Cloud Data file format
VERSION 0.7
FIELDS x y z rgb
SIZE 4 4 4 4
TYPE F F F U
COUNT 1 1 1 1
WIDTH 1120
HEIGHT 1
VIEWPOINT 0 0 0 1 0 0 0
POINTS 1120
DATA ascii
205.35757 -35.495037 -61.936531 4294967295
205.72574 -37.824059 -61.815659 4294967295
206.01382 -29.990763 -61.695923 4294967295
206.05113 -28.188828 -61.084862 4294967295
206.36366 -33.655193 -62.218147 4294967295
206.42233 -32.262169 -62.347763 4294967295
206.54886 -28.590069 -62.11808 4294967295
206.65208 -37.409039 -61.561798 4294967295
206.93896 -30.013603 -61.751644 4294967295
207.22992 -35.070358 -62.148079 4294967295
207.2569 -33.723885 -61.662285 4294967295
207.26247 -34.586494 -62.445095 4294967295
207.41643 -28.255531 -60.717834 4294967295
207.41774 -29.565212 -61.759529 4294967295
207.42451 -27.806631 -60.537254 4294967295
207.48508 -28.596977 -62.399021 4294967295
207.60165 -37.827175 -62.436287 4294967295
207.64359 -36.459557 -62.240913 4294967295
207.90384 -28.232573 -61.230804 4294967295
208.02304 -37.46764 -61.318115 4294967295
208.27049 -31.872662 -62.103424 4294967295
208.28429 -30.980852 -61.690544 4294967295
208.29788 -30.525007 -61.616608 4294967295
208.34961 -30.014124 -62.299042 4294967295
208.38737 -28.214512 -61.674774 4294967295
208.3911 -27.77235 -61.404976 4294967295
208.50307 -37.016888 -61.349953 4294967295
208.509 -37.875481 -62.157547 4294967295
208.53345 -36.535183 -61.610229 4294967295
208.61621 -34.234734 -61.534088 4294967295
208.71689 -32.342712 -62.161819 4294967295
208.78867 -27.43845 -59.786327 4294967295
208.79413 -29.614998 -61.629402 4294967295
209.08762 -34.666504 -62.091663 4294967295
209.24202 -30.083405 -61.715767 4294967295
209.24419 -29.64431 -61.410267 4294967295
209.25641 -30.497911 -62.354141 4294967295
209.27759 -28.28702 -61.035835 4294967295
209.33258 -27.77174 -61.796288 4294967295
209.42073 -37.483814 -61.611389 4294967295
209.44035 -37.885757 -62.3577 4294967295
209.53333 -34.703026 -61.787842 4294967295
209.65814 -31.46957 -61.861649 4294967295
209.6631 -31.026897 -61.610764 4294967295
209.66579 -29.715664 -60.610138 4294967295
209.7225 -27.887352 -60.354233 4294967295
209.74278 -27.421453 -60.41375 4294967295
209.92284 -36.130356 -61.393085 4294967295
209.98105 -34.736736 -61.52079 4294967295
210.16643 -30.541428 -62.125854 4294967295
210.22069 -29.154991 -62.174004 4294967295
210.22597 -27.403431 -60.862427 4294967295
210.24539 -28.24748 -61.971134 4294967295
210.30789 -37.566132 -60.901733 4294967295
210.37152 -36.596588 -61.497799 4294967295
210.39359 -35.694202 -61.239174 4294967295
210.61687 -30.135157 -61.558403 4294967295
210.62552 -30.991865 -62.451317 4294967295
210.64328 -30.53035 -62.460487 4294967295
210.65419 -29.208733 -61.614372 4294967295
210.66081 -27.455231 -60.319366 4294967295
210.67404 -29.614399 -62.381405 4294967295
210.67461 -28.742989 -61.678299 4294967295
210.68217 -26.551044 -60.044006 4294967295
210.70712 -26.951576 -60.918839 4294967295
210.81319 -36.20747 -60.741211 4294967295
210.86066 -36.996632 -62.442307 4294967295
210.91606 -35.175407 -62.156059 4294967295
211.25919 -37.111431 -61.149887 4294967295
211.27446 -36.653488 -61.106987 4294967295
211.36203 -35.645103 -62.213146 4294967295
211.37392 -34.759747 -61.738285 4294967295
211.44781 -32.47414 -61.473427 4294967295
211.45654 -32.89436 -62.018562 4294967295
211.50551 -31.950026 -62.319607 4294967295
211.53888 -29.726494 -61.204395 4294967295
211.58524 -27.04347 -59.994698 4294967295
211.58984 -28.779337 -61.547607 4294967295
211.62166 -28.296459 -61.852562 4294967295
211.63025 -27.412971 -61.304733 4294967295
211.74295 -37.518951 -61.995834 4294967295
211.81238 -34.375462 -60.90564 4294967295
211.89801 -32.937931 -61.615807 4294967295
211.97542 -30.646494 -61.423042 4294967295
211.97771 -29.773693 -60.738419 4294967295
212.04407 -29.23749 -61.776413 4294967295
212.07997 -26.571556 -60.335773 4294967295
212.14873 -37.191486 -60.466393 4294967295
212.22353 -35.336342 -60.583008 4294967295
212.26222 -35.705544 -61.773491 4294967295
212.29611 -34.784649 -61.758335 4294967295
212.33362 -34.290863 -62.187389 4294967295
212.35362 -32.959301 -61.508598 4294967295
212.35626 -32.521526 -61.196278 4294967295
212.40652 -30.706171 -60.791054 4294967295
212.42548 -31.544514 -61.93288 4294967295
212.4828 -30.1532 -62.048401 4294967295
212.49254 -29.269588 -61.517761 4294967295
212.49728 -28.827696 -61.249207 4294967295
212.50668 -29.682119 -62.188721 4294967295
212.55762 -27.431356 -61.42852 4294967295
212.57846 -25.658043 -60.392799 4294967295
212.59006 -26.07674 -61.011692 4294967295
212.63081 -37.169239 -60.915962 4294967295
212.63591 -36.728397 -60.654232 4294967295
212.66585 -36.245895 -60.924522 4294967295
212.67789 -37.521561 -62.294144 4294967295
212.69942 -35.757538 -61.272919 4294967295
212.8439 -32.491753 -61.772636 4294967295
212.8786 -31.135946 -61.402851 4294967295
213.00731 -28.765203 -62.309769 4294967295
213.18407 -23.71604 -62.018211 4294967295
213.2052 -21.066856 -60.228317 4294967295
213.21869 -22.794182 -62.0187 4294967295
213.25882 -21.42812 -61.763451 4294967295
213.25986 -20.553064 -61.036106 4294967295
213.26221 -33.439491 -61.60799 4294967295
213.28178 -33.839901 -62.406147 4294967295
213.31424 -32.48914 -61.985607 4294967295
213.32014 -32.046619 -61.738541 4294967295
213.33357 -31.59181 -61.65493 4294967295
213.36981 -30.667175 -61.69001 4294967295
213.41919 -29.288084 -61.634869 4294967295
213.42308 -28.413582 -60.967266 4294967295
213.43077 -29.703724 -62.261642 4294967295
213.45703 -28.795099 -62.080589 4294967295
213.47267 -27.468061 -61.292202 4294967295
213.54614 -26.052017 -61.761269 4294967295
213.55252 -37.195454 -60.916527 4294967295
213.55853 -25.598433 -61.653812 4294967295
213.56969 -23.839504 -60.388405 4294967295
213.57068 -23.401812 -60.032181 4294967295
213.58566 -36.707188 -61.260796 4294967295
213.58592 -24.687084 -61.496357 4294967295
213.60669 -22.476509 -60.06189 4294967295
213.61736 -35.789772 -61.197342 4294967295
213.67867 -35.254593 -62.156311 4294967295
213.68266 -34.81604 -61.866318 4294967295
213.69151 -34.369175 -61.682079 4294967295
213.74059 -33.855515 -62.375145 4294967295
213.83618 -31.104294 -62.1964 4294967295
213.99258 -26.087002 -61.452843 4294967295
214.03926 -37.594666 -61.86684 4294967295
214.08029 -24.650152 -62.239056 4294967295
214.10016 -23.314976 -61.5345 4294967295
214.12115 -23.719322 -62.376343 4294967295
214.142 -21.946375 -61.312611 4294967295
214.19536 -20.997252 -61.725212 4294967295
214.27 -31.160656 -61.61277 4294967295
214.31667 -28.91873 -60.73201 4294967295
214.31909 -30.64827 -62.314049 4294967295
214.33313 -29.326263 -61.478775 4294967295
214.34492 -29.740822 -62.120632 4294967295
214.35289 -28.427593 -61.149765 4294967295
214.41141 -27.467974 -61.677929 4294967295
214.4268 -37.73539 -60.254299 4294967295
214.43692 -26.994253 -61.859596 4294967295
214.44936 -25.671747 -60.985691 4294967295
214.45636 -26.530005 -61.90741 4294967295
214.49123 -36.760628 -60.914291 4294967295
214.53525 -36.253254 -61.505814 4294967295
214.53745 -24.233683 -61.78698 4294967295
214.54837 -23.346952 -61.261993 4294967295
214.56068 -35.778259 -61.685665 4294967295
214.5687 -23.751913 -62.095928 4294967295
214.57851 -22.43124 -61.162346 4294967295
214.58928 -35.297928 -61.936676 4294967295
214.59299 -34.428604 -61.250893 4294967295
214.6391 -21.471195 -61.738312 4294967295
214.64104 -33.915615 -61.933128 4294967295
214.6674 -20.558281 -61.598686 4294967295
214.67723 -32.991222 -61.968582 4294967295
214.68495 -32.546303 -61.755722 4294967295
214.75368 -30.703375 -61.744717 4294967295
214.92017 -36.829491 -60.2034 4294967295
214.93045 -37.242348 -60.821243 4294967295
214.97533 -35.870834 -60.662407 4294967295
215.06764 -33.554405 -60.791027 4294967295
215.07327 -22.394434 -61.926376 4294967295
215.08014 -33.101273 -60.682583 4294967295
215.09619 -32.642067 -60.654205 4294967295
215.27538 -28.885799 -61.567688 4294967295
215.28705 -27.566713 -60.661903 4294967295
215.2964 -29.284702 -62.428841 4294967295
215.31268 -28.392748 -62.017281 4294967295
215.36775 -37.297058 -60.293365 4294967295
215.38802 -26.539867 -62.155434 4294967295
215.39479 -24.792778 -60.7481 4294967295
215.4178 -36.777725 -61.03154 4294967295
215.43076 -35.893337 -60.542435 4294967295
215.43575 -25.16403 -62.061535 4294967295
215.4959 -23.769093 -62.247746 4294967295
215.5136 -34.455944 -61.239784 4294967295
215.53833 -22.401058 -62.034256 4294967295
215.53876 -33.549889 -61.026405 4294967295
215.56573 -33.935009 -62.026867 4294967295
215.57953 -32.617119 -61.16555 4294967295
215.58568 -21.460575 -62.322689 4294967295
215.61043 -31.268883 -60.688675 4294967295
215.64342 -31.645876 -61.827065 4294967295
215.73434 -28.035372 -60.749683 4294967295
215.81021 -27.047112 -61.685947 4294967295
215.83134 -36.874756 -59.961594 4294967295
215.87724 -25.206776 -61.637039 4294967295
215.96626 -34.91367 -61.45575 4294967295
216.01337 -21.522736 -61.583591 4294967295
216.03342 -33.504372 -61.803753 4294967295
216.09666 -32.533737 -62.457226 4294967295
216.30574 -37.723644 -61.064827 4294967295
216.31523 -26.555908 -62.314636 4294967295
216.31828 -25.684488 -61.591461 4294967295
216.3284 -37.252861 -61.187485 4294967295
216.32968 -36.820625 -60.819771 4294967295
216.33769 -36.376049 -60.606369 4294967295
216.37791 -35.873928 -61.132328 4294967295
216.4324 -34.486149 -61.191017 4294967295
216.46437 -33.568626 -61.129997 4294967295
216.47363 -21.101593 -61.183884 4294967295
216.47453 -33.981647 -61.761978 4294967295
216.49786 -20.630186 -61.343216 4294967295
216.50859 -32.198563 -60.952316 4294967295
216.52545 -31.738144 -60.942162 4294967295
216.53046 -33.023026 -62.252594 4294967295
216.53055 -31.297737 -60.660416 4294967295
216.58817 -30.336506 -61.190773 4294967295
216.60278 -30.743658 -61.926323 4294967295
216.64043 -28.952744 -61.198227 4294967295
216.71794 -37.825237 -59.947578 4294967295
216.7601 -26.160936 -61.563858 4294967295
216.8031 -24.792208 -61.3578 4294967295
216.85922 -22.968397 -61.054035 4294967295
216.89726 -22.475422 -61.53474 4294967295
217.01398 -32.134224 -61.99511 4294967295
217.15225 -27.583948 -61.185898 4294967295
217.24153 -36.434193 -60.19875 4294967295
217.25542 -25.685036 -61.978218 4294967295
217.28763 -24.333975 -61.51852 4294967295
217.29112 -24.761749 -62.004509 4294967295
217.32541 -35.422352 -61.35067 4294967295
217.3302 -35.843224 -61.867256 4294967295
217.34431 -23.377525 -62.03447 4294967295
217.35941 -34.071423 -60.930447 4294967295
217.3627 -22.047007 -61.25021 4294967295
217.37064 -33.190407 -60.382553 4294967295
217.37923 -34.466026 -61.800362 4294967295
217.3893 -21.571718 -61.467884 4294967295
217.39198 -33.583206 -61.288292 4294967295
217.39622 -22.429176 -62.440475 4294967295
217.41164 -32.687496 -60.937416 4294967295
217.47447 -32.146786 -62.005325 4294967295
217.47771 -31.279659 -61.268967 4294967295
217.49538 -30.81802 -61.277649 4294967295
217.49815 -31.674988 -62.155018 4294967295
217.54147 -30.307676 -61.954071 4294967295
217.57817 -29.382639 -62.003479 4294967295
217.60556 -28.041437 -61.426723 4294967295
217.62274 -28.444443 -62.238289 4294967295
217.62984 -27.56889 -61.591087 4294967295
217.63438 -26.69655 -60.88298 4294967295
217.64751 -37.836823 -60.132332 4294967295
217.71056 -24.840773 -61.046494 4294967295
217.71223 -37.287239 -61.250549 4294967295
217.71686 -36.42049 -60.5429 4294967295
217.71957 -25.691994 -62.074768 4294967295
217.73651 -36.813362 -61.414917 4294967295
217.73833 -35.521996 -60.231876 4294967295
217.78447 -22.989044 -61.156799 4294967295
217.9088 -20.625933 -62.051037 4294967295
218.01939 -28.996874 -61.146942 4294967295
218.12117 -27.098434 -61.920502 4294967295
218.14758 -26.622581 -62.137215 4294967295
218.24083 -34.59935 -60.403351 4294967295
218.30016 -22.048153 -61.651173 4294967295
218.31506 -33.175438 -60.934654 4294967295
218.34285 -32.695564 -61.185257 4294967295
218.35945 -31.805492 -60.754738 4294967295
218.37088 -20.63653 -62.101002 4294967295
218.40564 -30.862877 -61.031269 4294967295
218.45966 -29.044827 -60.666664 4294967295
218.46912 -29.459768 -61.307678 4294967295
218.51518 -28.086861 -61.167641 4294967295
218.52592 -28.499903 -61.839485 4294967295
218.5885 -26.667971 -61.681458 4294967295
218.59029 -37.822353 -60.64566 4294967295
218.62265 -26.179131 -62.085316 4294967295
218.63361 -36.454967 -60.438587 4294967295
218.65982 -35.548054 -60.236526 4294967295
218.70129 -24.321096 -62.313042 4294967295
218.7075 -23.445751 -61.630692 4294967295
218.70937 -34.597935 -60.595024 4294967295
218.71567 -35.015423 -61.16354 4294967295
218.75854 -33.21936 -60.528114 4294967295
218.77516 -22.038273 -62.010201 4294967295
218.81361 -20.677227 -61.685966 4294967295
218.83516 -32.221397 -61.540871 4294967295
218.84198 -31.779337 -61.287674 4294967295
218.91756 -30.354828 -61.859245 4294967295
219.04459 -36.990749 -59.65649 4294967295
219.14653 -23.926426 -61.539501 4294967295
219.25546 -21.15325 -61.664375 4294967295
219.30571 -31.786272 -61.374207 4294967295
219.3291 -30.45438 -60.678944 4294967295
219.34653 -31.283113 -61.947392 4294967295
219.39424 -29.908493 -61.846111 4294967295
219.3992 -29.469551 -61.544834 4294967295
219.44052 -28.536221 -61.70874 4294967295
219.45291 -27.221794 -60.743034 4294967295
219.47391 -27.616821 -61.679012 4294967295
219.49661 -37.448887 -59.866253 4294967295
219.51294 -26.687685 -61.787876 4294967295
219.53409 -26.220472 -61.881325 4294967295
219.53542 -25.786732 -61.491249 4294967295
219.539 -36.511147 -60.056351 4294967295
219.59673 -35.116177 -60.197266 4294967295
219.61104 -23.932777 -61.648308 4294967295
219.63737 -23.45713 -61.869942 4294967295
219.66727 -34.554871 -61.503807 4294967295
219.66771 -22.54269 -61.765358 4294967295
219.67381 -33.685463 -60.814507 4294967295
219.6837 -33.238121 -60.632126 4294967295
219.68565 -32.805283 -60.254387 4294967295
219.76476 -30.942316 -60.496582 4294967295
219.79657 -30.455044 -60.853645 4294967295
219.84026 -29.086426 -60.650707 4294967295
219.94983 -26.741009 -61.218781 4294967295
220.01219 -36.927589 -60.796082 4294967295
220.01642 -25.764585 -62.008987 4294967295
220.03453 -36.456799 -60.920616 4294967295
220.07014 -23.515923 -61.198223 4294967295
220.11234 -35.024399 -61.562111 4294967295
220.17419 -32.766438 -60.950333 4294967295
220.18246 -21.16955 -61.838333 4294967295
220.19466 -33.156818 -61.887501 4294967295
220.19891 -20.27718 -61.387817 4294967295
220.32762 -28.19116 -60.460632 4294967295
220.33002 -29.477104 -61.812748 4294967295
220.33855 -29.032087 -61.594879 4294967295
220.3546 -27.712944 -60.7015 4294967295
220.36954 -28.547012 -61.935318 4294967295
220.39104 -27.218304 -61.178707 4294967295
220.41763 -26.310354 -60.978817 4294967295
220.43605 -26.709143 -61.869137 4294967295
220.43806 -37.435402 -60.369781 4294967295
220.4928 -36.473736 -60.872215 4294967295
220.49536 -36.041389 -60.503372 4294967295
220.50056 -35.603634 -60.200714 4294967295
220.54306 -34.666042 -60.397186 4294967295
220.5515 -35.077686 -61.041275 4294967295
220.58807 -34.152008 -61.090946 4294967295
220.59821 -22.12043 -61.599628 4294967295
220.59914 -22.55097 -62.055061 4294967295
220.62411 -21.2131 -61.381882 4294967295
220.63831 -32.772396 -61.048492 4294967295
220.65367 -20.732361 -61.689175 4294967295
220.67514 -20.264927 -61.793396 4294967295
220.71008 -31.781376 -61.980194 4294967295
220.73737 -30.444683 -61.363132 4294967295
220.74031 -30.868198 -61.871315 4294967295
220.92497 -25.81101 -61.730862 4294967295
221.02443 -23.054161 -61.622223 4294967295
221.03491 -33.762928 -60.317802 4294967295
221.0741 -33.260006 -60.871155 4294967295
221.10103 -21.199085 -61.809013 4294967295
221.15184 -31.828506 -61.524818 4294967295
221.26189 -28.193729 -60.804955 4294967295
221.32462 -26.791439 -61.079979 4294967295
221.32526 -27.220291 -61.536186 4294967295
221.34607 -25.892782 -60.744637 4294967295
221.36797 -37.443199 -60.603401 4294967295
221.41063 -36.505047 -60.80809 4294967295
221.41176 -36.929119 -61.278259 4294967295
221.41177 -24.916557 -61.536667 4294967295
221.41879 -25.334763 -62.155708 4294967295
221.43521 -24.014297 -61.252224 4294967295
221.4406 -35.592209 -60.689651 4294967295
221.46042 -23.539919 -61.453602 4294967295
221.46707 -34.258526 -60.040356 4294967295
221.50108 -22.608063 -61.608967 4294967295
221.52795 -33.712955 -61.152359 4294967295
221.53371 -21.689957 -61.558434 4294967295
221.55023 -32.814869 -60.837074 4294967295
221.55228 -22.090292 -62.473907 4294967295
221.56311 -21.209097 -61.867218 4294967295
221.57823 -20.752029 -61.812531 4294967295
221.61246 -31.840473 -61.543495 4294967295
221.61365 -30.981846 -60.688175 4294967295
221.65242 -30.480629 -61.238117 4294967295
221.71165 -29.084623 -61.426041 4294967295
221.71832 -28.643372 -61.153198 4294967295
221.72917 -27.764709 -60.543678 4294967295
221.81908 -26.743271 -61.963249 4294967295
221.84534 -36.569321 -60.154049 4294967295
221.85773 -25.384966 -61.623489 4294967295
221.94781 -34.658821 -61.010017 4294967295
221.97136 -33.331337 -60.277622 4294967295
222.00491 -32.838684 -60.697159 4294967295
222.01414 -20.805756 -61.196861 4294967295
222.08522 -30.54538 -60.535408 4294967295
222.25125 -37.545582 -59.638718 4294967295
222.3414 -24.496212 -61.344624 4294967295
222.34337 -24.922731 -61.845772 4294967295
222.36243 -36.041519 -61.179306 4294967295
222.36293 -23.597488 -61.004852 4294967295
222.3959 -34.269207 -60.248291 4294967295
222.40063 -22.670321 -61.085472 4294967295
222.42831 -34.631203 -61.543312 4294967295
222.45921 -21.707565 -61.710442 4294967295
222.46141 -33.286118 -61.053635 4294967295
222.46832 -33.699173 -61.684269 4294967295
222.46916 -32.843948 -60.804401 4294967295
222.48413 -21.233995 -61.908775 4294967295
222.50374 -20.769508 -61.969456 4294967295
222.50531 -20.335407 -61.559338 4294967295
222.53932 -30.998301 -60.828865 4294967295
222.5815 -30.062019 -61.026588 4294967295
222.61205 -29.147915 -60.920265 4294967295
222.63321 -29.53611 -61.926407 4294967295
222.64746 -27.795721 -60.488091 4294967295
222.71834 -26.807076 -61.43856 4294967295
222.7188 -27.235069 -61.903877 4294967295
222.72839 -37.098675 -59.621231 4294967295
222.76883 -25.427485 -61.401478 4294967295
222.7691 -37.439789 -61.144768 4294967295
222.77188 -36.583584 -60.308174 4294967295
222.82042 -35.632973 -60.674278 4294967295
222.82256 -24.471849 -61.904118 4294967295
222.87337 -33.821518 -60.245396 4294967295
222.8914 -22.630289 -61.895546 4294967295
222.89502 -23.05411 -62.445293 4294967295
222.9265 -32.435699 -60.276833 4294967295
222.99261 -31.024807 -60.650406 4294967295
223.00702 -30.569376 -60.574165 4294967295
223.10341 -28.245682 -60.834671 4294967295
223.13568 -27.756735 -61.230751 4294967295
223.19958 -37.089481 -59.905502 4294967295
223.27484 -35.657818 -60.523827 4294967295
223.32117 -23.126804 -61.562347 4294967295
223.34061 -22.662392 -61.618996 4294967295
223.35858 -33.358276 -60.449295 4294967295
223.36212 -33.77729 -61.003746 4294967295
223.38408 -22.155766 -62.31572 4294967295
223.38571 -32.877563 -60.711166 4294967295
223.4091 -32.404552 -60.872688 4294967295
223.41335 -20.38279 -61.253868 4294967295
223.44876 -31.472809 -61.007416 4294967295
223.50317 -30.51244 -61.53653 4294967295
223.53134 -28.748301 -60.440361 4294967295
223.53944 -29.587955 -61.58107 4294967295
223.58856 -28.211357 -61.507149 4294967295
223.58907 -27.782446 -61.058434 4294967295
223.59464 -27.343735 -60.744186 4294967295
223.63799 -26.834045 -61.440941 4294967295
223.64404 -37.136112 -59.479435 4294967295
223.6687 -36.659264 -59.676704 4294967295
223.67584 -37.493534 -60.796051 4294967295
223.70232 -36.163887 -60.114067 4294967295
223.70627 -35.730511 -59.755016 4294967295
223.71265 -25.410023 -62.051552 4294967295
223.72832 -24.094336 -61.080818 4294967295
223.76212 -34.3386 -59.85965 4294967295
223.84225 -21.741875 -61.817825 4294967295
223.93687 -31.429939 -61.76841 4294967295
224.04012 -27.81283 -60.820129 4294967295
224.12524 -37.529148 -60.511108 4294967295
224.15887 -25.448317 -61.69289 4294967295
224.17227 -24.137161 -60.649902 4294967295
224.19109 -36.116798 -60.888527 4294967295
224.21352 -24.490246 -62.23634 4294967295
224.23627 -35.173027 -61.175247 4294967295
224.25879 -23.121136 -62.057919 4294967295
224.32535 -21.713657 -62.457458 4294967295
224.32719 -32.434746 -60.825241 4294967295
224.33125 -32.000603 -60.465324 4294967295
224.3528 -20.375702 -61.793339 4294967295
224.35622 -31.524202 -60.673615 4294967295
224.38069 -31.048927 -60.868683 4294967295
224.43236 -30.519646 -61.804626 4294967295
224.43478 -30.088612 -61.399551 4294967295
224.46603 -28.746964 -60.836243 4294967295
224.47104 -29.590542 -61.916965 4294967295
224.47726 -29.151821 -61.614933 4294967295
224.5018 -27.822952 -60.868305 4294967295
224.51091 -27.377827 -60.644718 4294967295
224.56055 -26.427353 -61.05542 4294967295
224.60451 -37.077126 -60.564041 4294967295
224.60536 -37.49881 -61.061165 4294967295
224.63144 -36.595501 -60.82827 4294967295
224.63449 -24.146687 -60.711411 4294967295
224.64139 -24.562511 -61.374451 4294967295
224.66937 -23.653381 -61.193207 4294967295
224.68887 -34.776909 -60.504566 4294967295
224.74724 -21.365189 -60.956154 4294967295
224.87082 -31.001045 -61.702198 4294967295
224.9185 -28.775032 -60.632553 4294967295
225.02518 -26.004036 -60.710625 4294967295
225.03345 -26.842892 -61.89592 4294967295
225.05099 -25.526882 -60.946831 4294967295
225.0813 -36.206673 -60.072117 4294967295
225.09953 -35.319458 -59.617432 4294967295
225.10139 -35.739571 -60.149216 4294967295
225.17044 -22.733215 -61.380428 4294967295
225.18732 -34.284344 -61.092468 4294967295
225.19344 -33.847164 -60.782085 4294967295
225.30238 -30.645977 -60.443554 4294967295
225.33829 -30.147327 -60.961258 4294967295
225.37639 -29.644623 -61.54076 4294967295
225.40027 -28.744892 -61.242134 4294967295
225.40161 -29.168161 -61.761803 4294967295
225.45126 -27.791161 -61.699745 4294967295
225.50192 -37.575615 -60.420761 4294967295
225.51167 -25.966139 -61.454956 4294967295
225.52829 -25.506798 -61.436722 4294967295
225.56842 -35.737633 -60.344627 4294967295
225.58247 -36.13028 -61.222557 4294967295
225.60107 -35.243515 -60.774353 4294967295
225.60376 -23.652557 -61.613075 4294967295
225.6087 -24.070999 -62.235188 4294967295
225.62073 -22.764343 -61.118874 4294967295
225.63928 -34.73777 -61.36013 4294967295
225.65747 -33.85144 -60.900536 4294967295
225.66769 -33.405689 -60.701393 4294967295
225.69234 -21.774727 -62.156845 4294967295
225.70175 -32.06041 -60.199574 4294967295
225.7054 -20.893234 -61.553711 4294967295
225.73158 -20.416557 -61.803631 4294967295
225.73592 -32.413353 -61.646523 4294967295
225.75781 -31.093884 -60.803345 4294967295
225.86951 -27.886986 -60.537003 4294967295
225.99812 -36.663132 -60.467838 4294967295
226.07083 -34.81181 -60.566856 4294967295
226.07922 -23.635826 -62.065453 4294967295
226.12219 -22.699345 -62.303383 4294967295
226.16628 -20.475704 -61.101471 4294967295
226.25731 -30.599794 -61.441391 4294967295
226.37885 -26.948982 -60.961445 4294967295
226.42648 -36.746826 -59.566414 4294967295
226.43092 -26.419052 -61.955082 4294967295
226.43491 -25.985016 -61.574905 4294967295
226.43756 -37.144215 -60.378448 4294967295
226.43867 -25.124352 -60.693634 4294967295
226.44003 -37.560463 -60.943958 4294967295
226.44324 -25.542171 -61.318607 4294967295
226.46463 -24.219406 -60.446011 4294967295
226.46628 -36.235458 -60.20977 4294967295
226.47125 -24.633789 -61.130112 4294967295
226.48593 -35.346489 -59.780975 4294967295
226.49992 -23.723835 -60.960705 4294967295
226.51033 -34.869728 -59.984047 4294967295
226.51154 -35.712421 -61.0103 4294967295
226.56 -34.337811 -60.912247 4294967295
226.56459 -33.481369 -60.051003 4294967295
226.60225 -32.552708 -60.138149 4294967295
226.60304 -21.816895 -61.934261 4294967295
226.60686 -32.966469 -60.767441 4294967295
226.61011 -21.375656 -61.641361 4294967295
226.64786 -20.448862 -61.73193 4294967295
226.65247 -32.021366 -61.083847 4294967295
226.66852 -31.563374 -61.047615 4294967295
226.69748 -30.22934 -60.387726 4294967295
226.70514 -30.637688 -61.106491 4294967295
226.7439 -29.707726 -61.22596 4294967295
226.74648 -28.852547 -60.303391 4294967295
226.78653 -29.194536 -61.956215 4294967295
226.92197 -25.517487 -61.874817 4294967295
226.9267 -35.825371 -59.722778 4294967295
226.9744 -34.451263 -59.599133 4294967295
227.04495 -21.863724 -61.431206 4294967295
227.1152 -20.447712 -61.964149 4294967295
227.17552 -30.628052 -61.421326 4294967295
227.24982 -28.350727 -61.066456 4294967295
227.34711 -37.614735 -60.58881 4294967295
227.35617 -26.432398 -62.153084 4294967295
227.39349 -36.666103 -60.933411 4294967295
227.39777 -35.813587 -60.045033 4294967295
227.40479 -24.632359 -61.552406 4294967295
227.4416 -23.706966 -61.618507 4294967295
227.44615 -34.860569 -60.448391 4294967295
227.48816 -23.189156 -62.475861 4294967295
227.48857 -21.908024 -60.966911 4294967295
227.49887 -33.898445 -60.980045 4294967295
227.49899 -22.314968 -61.779839 4294967295
227.51825 -33.433136 -61.041252 4294967295
227.52809 -21.404713 -61.61911 4294967295
227.54704 -32.10173 -60.361832 4294967295
227.55399 -20.927843 -61.871887 4294967295
227.6008 -31.561447 -61.434685 4294967295
227.61163 -30.691675 -60.734955 4294967295
227.64325 -30.200171 -61.157288 4294967295
227.69354 -29.245644 -61.619896 4294967295
227.70215 -28.379358 -60.853943 4294967295
227.71869 -28.768608 -61.851871 4294967295
227.75174 -27.426712 -61.296955 4294967295
227.79248 -26.492956 -61.478615 4294967295
227.80464 -25.191999 -60.303429 4294967295
227.82193 -25.582451 -61.326942 4294967295
227.83369 -36.724148 -60.359863 4294967295
227.83405 -24.706684 -60.661366 4294967295
227.88235 -35.770069 -60.776585 4294967295
227.90297 -22.864037 -60.653156 4294967295
227.90512 -24.138054 -62.254234 4294967295
227.95432 -33.499031 -60.344921 4294967295
228.00055 -20.538757 -60.982452 4294967295
228.01813 -32.512302 -61.213249 4294967295
228.02942 -31.642475 -60.519978 4294967295
228.03056 -32.062531 -61.068298 4294967295
228.14003 -28.862984 -60.722454 4294967295
228.28105 -36.345749 -59.470039 4294967295
228.34967 -23.329809 -60.784016 4294967295
228.35516 -34.910995 -60.135796 4294967295
228.36665 -35.305367 -60.999149 4294967295
228.36731 -24.145279 -62.349289 4294967295
228.38348 -23.687372 -62.316475 4294967295
228.40071 -34.385361 -60.982857 4294967295
228.41193 -33.517147 -60.280983 4294967295
228.43106 -22.315458 -62.188293 4294967295
228.46774 -32.969234 -61.438408 4294967295
228.47337 -20.526741 -61.382759 4294967295
228.48299 -32.513329 -61.377556 4294967295
228.51323 -31.602055 -61.246803 4294967295
228.51326 -31.179817 -60.72673 4294967295
228.5479 -30.258274 -60.727837 4294967295
228.5575 -30.659626 -61.53867 4294967295
228.60027 -29.720882 -61.786095 4294967295
228.60532 -29.287212 -61.416237 4294967295
228.62122 -28.406513 -60.85173 4294967295
228.63326 -27.957066 -60.693306 4294967295
228.64183 -27.514864 -60.429962 4294967295
228.69279 -37.733776 -59.580544 4294967295
228.70192 -26.963367 -61.72364 4294967295
228.71602 -26.509747 -61.627163 4294967295
228.73543 -37.212173 -60.348438 4294967295
228.74055 -25.185328 -60.799194 4294967295
228.74081 -26.033592 -61.854752 4294967295
228.75247 -36.751999 -60.339867 4294967295
228.75688 -35.90134 -59.423332 4294967295
228.771 -24.697464 -61.197929 4294967295
228.77225 -25.543777 -62.283241 4294967295
228.7935 -36.235039 -61.059769 4294967295
228.81071 -34.513351 -59.480019 4294967295
228.86743 -22.374691 -61.500687 4294967295
228.91644 -32.163975 -60.063148 4294967295
228.92769 -20.550436 -61.23024 4294967295
229.04317 -30.192278 -61.818085 4294967295
229.28043 -34.503754 -59.779202 4294967295
229.2932 -22.456539 -60.471561 4294967295
229.36166 -21.04097 -60.981239 4294967295
229.37143 -21.447128 -61.814011 4294967295
229.37381 -33.024597 -61.055489 4294967295
229.37802 -32.17318 -60.118835 4294967295
229.38565 -32.576607 -60.887375 4294967295
229.40149 -20.535522 -61.675171 4294967295
229.40636 -31.265575 -59.925262 4294967295
229.42107 -31.653496 -60.912594 4294967295
229.43925 -30.769331 -60.406433 4294967295
229.51656 -28.908146 -60.656445 4294967295
229.52771 -29.305443 -61.53653 4294967295
229.55571 -27.976629 -60.798599 4294967295
229.59698 -27.463669 -61.54044 4294967295
229.61295 -26.159712 -60.427353 4294967295
229.63176 -37.294594 -59.634808 4294967295
229.65155 -37.664616 -60.7859 4294967295
229.70955 -24.682758 -61.814438 4294967295
229.70958 -35.01004 -59.362381 4294967295
229.71265 -36.260357 -61.072289 4294967295
229.71289 -35.840919 -60.542473 4294967295
229.71452 -23.824129 -60.895432 4294967295
229.77362 -22.427402 -61.119724 4294967295
229.78278 -33.996353 -60.563534 4294967295
229.78377 -34.413605 -61.132767 4294967295
229.78845 -21.546551 -60.504604 4294967295
229.79831 -22.80101 -62.425518 4294967295
229.81566 -33.078896 -60.510265 4294967295
229.91197 -30.752695 -60.816368 4294967295
229.98744 -28.474094 -60.471684 4294967295
230.07159 -26.598249 -60.941483 4294967295
230.1021 -37.699768 -60.507099 4294967295
230.11974 -36.820038 -59.974442 4294967295
230.15672 -24.72176 -61.44239 4294967295
230.17017 -23.421539 -60.233643 4294967295
230.2643 -32.698063 -59.620068 4294967295
230.28313 -21.063007 -61.067223 4294967295
230.36133 -30.789318 -60.499367 4294967295
230.39233 -30.297016 -60.932457 4294967295
230.43073 -29.367149 -61.053558 4294967295
230.47424 -28.42597 -61.336037 4294967295
230.48946 -27.548416 -60.722214 4294967295
230.53291 -26.607456 -61.004082 4294967295
230.5347 -26.181095 -60.511101 4294967295
230.55376 -37.732494 -60.259018 4294967295
230.57191 -25.67672 -61.144157 4294967295
230.57394 -36.846848 -59.799934 4294967295
230.6069 -24.754883 -61.156769 4294967295
230.62688 -23.441486 -60.140816 4294967295
230.63564 -35.43988 -60.11084 4294967295
230.64273 -34.585171 -59.233456 4294967295
230.64511 -23.826103 -61.272598 4294967295
230.64651 -35.831104 -61.008545 4294967295
230.69783 -33.613354 -59.88662 4294967295
230.72107 -22.393917 -62.040947 4294967295
230.72771 -21.956141 -61.701157 4294967295
230.73734 -32.679741 -60.042984 4294967295
230.76324 -21.457729 -62.284134 4294967295
230.76669 -20.176964 -60.73761 4294967295
230.77644 -31.747345 -60.186138 4294967295
230.77647 -20.581669 -61.603073 4294967295
230.79144 -32.131229 -61.219894 4294967295
230.89653 -28.523769 -60.153553 4294967295
230.95084 -27.557438 -60.786388 4294967295
230.96941 -37.857491 -58.845348 4294967295
231.01567 -25.724649 -60.646416 4294967295
231.04054 -36.425205 -59.46413 4294967295
231.07916 -23.894356 -60.462978 4294967295
231.09091 -24.714062 -61.955681 4294967295
231.11815 -34.560219 -59.733406 4294967295
231.1546 -22.885094 -61.780933 4294967295
231.17583 -34.000053 -61.037842 4294967295
231.18571 -33.557678 -60.798431 4294967295
231.19327 -21.532322 -61.354675 4294967295
231.19705 -32.273685 -59.48555 4294967295
231.25444 -20.555901 -62.215508 4294967295
231.34387 -28.986279 -60.318497 4294967295
231.38788 -28.4636 -61.186485 4294967295
231.40056 -27.17178 -59.910957 4294967295
231.4111 -27.568794 -60.817146 4294967295
231.45287 -26.209923 -60.48761 4294967295
231.46722 -25.333817 -59.826935 4294967295
231.46748 -37.356133 -59.520065 4294967295
231.48241 -37.733917 -60.571793 4294967295
231.48466 -25.716648 -60.959801 4294967295
231.51096 -24.391693 -60.124886 4294967295
231.51944 -36.806351 -60.651878 4294967295
231.5676 -35.433949 -60.529404 4294967295
231.60034 -34.517204 -60.469406 4294967295
231.6078 -22.48848 -61.02813 4294967295
231.62531 -21.604076 -60.468979 4294967295
231.63573 -33.593914 -60.494751 4294967295
231.6722 -33.085964 -61.122864 4294967295
231.67668 -31.819794 -59.568668 4294967295
231.69034 -32.205254 -60.583649 4294967295
231.69493 -32.612137 -61.301788 4294967295
231.72421 -31.285698 -60.560131 4294967295
231.74225 -30.823257 -60.584499 4294967295
231.78531 -29.462257 -60.294144 4294967295
231.93472 -26.172117 -61.228531 4294967295
231.98227 -35.978107 -59.623405 4294967295
231.98303 -36.392479 -60.221176 4294967295
231.99808 -24.343521 -61.03698 4294967295
232.0531 -23.377239 -61.71347 4294967295
232.05478 -34.125835 -59.732155 4294967295
232.06023 -22.094234 -60.231163 4294967295
232.09067 -22.450245 -61.812912 4294967295
232.11406 -21.554153 -61.442459 4294967295
232.17232 -20.159552 -61.655045 4294967295
232.22159 -30.787834 -61.250393 4294967295
232.25876 -29.44202 -60.761246 4294967295
232.30434 -28.075348 -60.549984 4294967295
232.38187 -36.980026 -58.771576 4294967295
232.39709 -26.17802 -61.339287 4294967295
232.39731 -37.354961 -59.867725 4294967295
232.40031 -25.750172 -60.868519 4294967295
232.41039 -24.885105 -60.047974 4294967295
232.4183 -36.468765 -59.41188 4294967295
232.44914 -35.972534 -59.864906 4294967295
232.45038 -24.372751 -60.80764 4294967295
232.46457 -23.91922 -60.703667 4294967295
232.46516 -35.514965 -59.822037 4294967295
232.49739 -23.423765 -61.223915 4294967295
232.51295 -34.14283 -59.683029 4294967295
232.51523 -34.553513 -60.340591 4294967295
232.53224 -22.502348 -61.233829 4294967295
232.55084 -33.629524 -60.374878 4294967295
232.58681 -32.704716 -60.420692 4294967295
232.58961 -31.862698 -59.350258 4294967295
232.59879 -21.089071 -61.727867 4294967295
232.60017 -20.663492 -61.192917 4294967295
232.65549 -30.863335 -60.403168 4294967295
232.68584 -30.370548 -60.84346 4294967295
232.70259 -29.074135 -59.657417 4294967295
232.71426 -29.464518 -60.635864 4294967295
232.78964 -27.607399 -60.845295 4294967295
232.84433 -25.799255 -60.354404 4294967295
232.92592 -23.506874 -60.188694 4294967295
232.93756 -35.078922 -59.670525 4294967295
232.95007 -22.608883 -59.833519 4294967295
233.05869 -20.256008 -60.585625 4294967295
233.08426 -32.204437 -61.131332 4294967295
233.0851 -31.785664 -60.570129 4294967295
233.10721 -30.478096 -59.552692 4294967295
233.22794 -27.671347 -60.130909 4294967295
233.27606 -26.298019 -60.001686 4294967295
233.37422 -23.966942 -60.402069 4294967295
233.38094 -35.55014 -59.708252 4294967295
233.38638 -24.358835 -61.415588 4294967295
233.40213 -35.07893 -59.842251 4294967295
233.40331 -34.660568 -59.286652 4294967295
233.40953 -23.464687 -61.022301 4294967295
233.42891 -22.578594 -60.498207 4294967295
233.45772 -34.102184 -60.565765 4294967295
233.46738 -33.661568 -60.302177 4294967295
233.4687 -22.066818 -61.274605 4294967295
233.47305 -32.815056 -59.303059 4294967295
233.47362 -21.634441 -60.847881 4294967295
233.53227 -20.65971 -61.67878 4294967295
233.5544 -20.188725 -61.847069 4294967295
233.55455 -31.356445 -60.325806 4294967295
233.58792 -30.438171 -60.28392 4294967295
233.6265 -29.506863 -60.421829 4294967295
233.65953 -29.007046 -60.967743 4294967295
233.66418 -28.577946 -60.529129 4294967295
233.69287 -28.089254 -60.924881 4294967295
233.7068 -27.637119 -60.807407 4294967295
233.70883 -26.795137 -59.676132 4294967295
233.71194 -27.206238 -60.385941 4294967295
233.74658 -37.474503 -58.850342 4294967295
233.79143 -25.757977 -61.346703 4294967295
233.79846 -36.505119 -59.451759 4294967295
233.82674 -36.01445 -59.834061 4294967295
233.84415 -23.535509 -60.170715 4294967295
233.9281 -22.499794 -61.894318 4294967295
233.96692 -32.323158 -59.895775 4294967295
234.20038 -37.917236 -59.249031 4294967295
234.21538 -26.692945 -61.334167 4294967295
234.22798 -25.825909 -60.559784 4294967295
234.24216 -37.388058 -60.113239 4294967295
234.38318 -21.261349 -59.930038 4294967295
234.38922 -33.26479 -59.806614 4294967295
234.39987 -21.643221 -61.134857 4294967295
234.40453 -20.79126 -60.073471 4294967295
234.40617 -32.804901 -59.794113 4294967295
234.43806 -31.890354 -59.697968 4294967295
234.45245 -31.437174 -59.593834 4294967295
234.50266 -30.058805 -59.533562 4294967295
234.50267 -30.890343 -60.765018 4294967295
234.51643 -30.439005 -60.640076 4294967295
234.5271 -29.579529 -59.787621 4294967295
234.58589 -28.596292 -60.649872 4294967295
234.61826 -28.097572 -61.18811 4294967295
234.6192 -27.678524 -60.604164 4294967295
234.65092 -27.181757 -61.120247 4294967295
234.66286 -26.317383 -60.310181 4294967295
234.66785 -37.908051 -59.530159 4294967295
234.66969 -26.717745 -61.173164 4294967295
234.69453 -25.821173 -60.825394 4294967295
234.7059 -25.375332 -60.612862 4294967295
234.70903 -36.967739 -59.765732 4294967295
234.72833 -35.675766 -58.594856 4294967295
234.7347 -24.468388 -60.405472 4294967295
234.75369 -23.584759 -59.845535 4294967295
234.75653 -35.184437 -58.985756 4294967295
234.78865 -34.682587 -59.518024 4294967295
234.78932 -22.660694 -59.882164 4294967295
234.80185 -22.211197 -59.710663 4294967295
234.80907 -23.032724 -61.212959 4294967295
234.89455 -20.733505 -61.179146 4294967295
234.9364 -30.970673 -59.852566 4294967295
235.01733 -29.51252 -60.902153 4294967295
235.05841 -27.742794 -59.885635 4294967295
235.08884 -26.831837 -59.733845 4294967295
235.13171 -25.471878 -59.405418 4294967295
235.13756 -37.06884 -58.644806 4294967295
235.19229 -36.089554 -59.375923 4294967295
235.22327 -24.409458 -61.474701 4294967295
235.27632 -33.791702 -59.284405 4294967295
235.27777 -34.200699 -59.967503 4294967295
235.28197 -22.59396 -61.09568 4294967295
235.31767 -22.089371 -61.767349 4294967295
235.38791 -31.005074 -59.566158 4294967295
235.41437 -30.519732 -59.901337 4294967295
235.4218 -30.085228 -59.539818 4294967295
235.44434 -29.610455 -59.732033 4294967295
235.47238 -29.121355 -60.125771 4294967295
235.50128 -28.630268 -60.551727 4294967295
235.53131 -27.721128 -60.384007 4294967295
235.57248 -37.565079 -58.36729 4294967295
235.5748 -26.360897 -60.075043 4294967295
235.61266 -25.847923 -60.832008 4294967295
235.62094 -25.410301 -60.500381 4294967295
235.64023 -36.135883 -58.949219 4294967295
235.65022 -24.502531 -60.305103 4294967295
235.66641 -35.649422 -59.277191 4294967295
235.68988 -23.98621 -61.130554 4294967295
235.69128 -23.147408 -59.905487 4294967295
235.7002 -23.543276 -60.872177 4294967295
235.74176 -22.605339 -61.131279 4294967295
235.74226 -22.185989 -60.51078 4294967295
235.75951 -33.326298 -59.519394 4294967295
235.76508 -33.723038 -60.366188 4294967295
235.78656 -32.838367 -59.880306 4294967295
235.78688 -21.240759 -60.882095 4294967295
235.79649 -20.798794 -60.597878 4294967295
235.83595 -31.463011 -59.787315 4294967295
235.98802 -27.325581 -59.651428 4294967295
236.00388 -27.699131 -60.886726 4294967295
236.02446 -26.399185 -59.719551 4294967295
236.04526 -37.540054 -58.850838 4294967295
236.08685 -37.007629 -59.759426 4294967295
236.11317 -24.922806 -61.09523 4294967295
236.16931 -34.304062 -58.958031 4294967295
236.19499 -21.797281 -59.625809 4294967295
236.25087 -20.823803 -60.425198 4294967295
236.25328 -32.418476 -59.511436 4294967295
236.40028 -28.708467 -59.834625 4294967295
236.4108 -28.266008 -59.577332 4294967295
236.41405 -27.84273 -59.045853 4294967295
236.47258 -27.272038 -60.606106 4294967295
236.48607 -26.821659 -60.462154 4294967295
236.5258 -37.490501 -59.645267 4294967295
236.54691 -24.58527 -59.489357 4294967295
236.55054 -36.188412 -58.612392 4294967295
236.55214 -36.593491 -59.33075 4294967295
236.58139 -35.687408 -59.127235 4294967295
236.60616 -24.016808 -61.082573 4294967295
236.62161 -23.561211 -61.013222 4294967295
236.62216 -34.336811 -58.702072 4294967295
236.62761 -34.731621 -59.568806 4294967295
236.64018 -33.873623 -58.728905 4294967295
236.64497 -22.668917 -60.587227 4294967295
236.64694 -23.080486 -61.319515 4294967295
236.69373 -32.897224 -59.450317 4294967295
236.69519 -21.708984 -61.182663 4294967295
236.71216 -20.831999 -60.512115 4294967295
236.72685 -32.391361 -60.053619 4294967295
236.7325 -31.963726 -59.60886 4294967295
236.73705 -20.35289 -60.801498 4294967295
236.75452 -31.489601 -59.789333 4294967295
236.84065 -29.59977 -60.43845 4294967295
236.93938 -27.264248 -60.909672 4294967295
236.98827 -25.476624 -60.130058 4294967295
237.03281 -24.529396 -60.513176 4294967295
237.05386 -23.643543 -59.991104 4294967295
237.11662 -22.649963 -61.079834 4294967295
237.13258 -21.359804 -59.69104 4294967295
208.92731 -14.792912 -62.432335 4294967295
209.7861 -16.216953 -62.217621 4294967295
211.28246 -13.480265 -62.441757 4294967295
211.66754 -14.9064 -61.949097 4294967295
212.00061 -18.155985 -61.813915 4294967295
212.00912 -17.706509 -61.627762 4294967295
212.22922 -12.597603 -62.257591 4294967295
212.83784 -8.9133205 -62.46846 4294967295
212.84793 -19.159395 -60.970604 4294967295
213.18796 -11.700159 -62.329998 4294967295
213.25558 -9.8587685 -62.296135 4294967295
213.33835 -19.569813 -61.986664 4294967295
213.37292 -18.648014 -61.985806 4294967295
213.41586 -5.70611 -62.395508 4294967295
213.47433 -15.885623 -61.933235 4294967295
213.74081 -9.4031305 -62.4618 4294967295
213.88077 -16.847599 -61.509178 4294967295
213.97253 -14.973626 -62.003059 4294967295
214.32831 -17.316814 -61.604042 4294967295
214.44514 -14.971481 -62.274124 4294967295
214.8132 -16.860062 -61.762268 4294967295
214.97391 -13.143392 -62.259483 4294967295
215.3405 -15.033445 -61.710079 4294967295
215.3541 -15.45245 -62.40564 4294967295
215.64447 -18.76067 -61.303684 4294967295
215.69016 -6.2504077 -62.182854 4294967295
215.70325 -17.367775 -61.458965 4294967295
216.10312 -19.648918 -62.052513 4294967295
216.10626 -19.20866 -61.72934 4294967295
216.30647 -13.687764 -61.558758 4294967295
216.37546 -12.720072 -62.347549 4294967295
216.67126 -16.892239 -62.149895 4294967295
216.67732 -16.010859 -61.490311 4294967295
216.70029 -15.541954 -61.621513 4294967295
216.74757 -14.602631 -61.914616 4294967295
217.01886 -19.248142 -61.545502 4294967295
217.13136 -4.9009318 -62.391731 4294967295
217.21237 -14.173422 -61.619102 4294967295
217.45499 -8.5978012 -62.438774 4294967295
217.5955 -16.914242 -62.24736 4294967295
217.66476 -15.071548 -62.249062 4294967295
217.84607 -10.016177 -62.038219 4294967295
217.86552 -9.5526037 -62.089588 4294967295
218.00615 -17.435925 -61.487724 4294967295
218.28951 -10.927629 -62.468044 4294967295
218.37521 -8.187705 -62.03706 4294967295
218.37729 -19.758307 -61.426865 4294967295
218.44775 -17.912735 -61.456825 4294967295
218.47116 -5.8723345 -62.263428 4294967295
218.48332 -16.989466 -61.480194 4294967295
218.50389 -16.523773 -61.558338 4294967295
218.54756 -16.024494 -62.190151 4294967295
218.55305 -3.5747194 -62.153843 4294967295
218.59776 -14.645006 -62.150024 4294967295
219.04456 -15.11363 -62.251495 4294967295
219.14233 -11.921889 -61.686676 4294967295
219.306 -19.338999 -61.209488 4294967295
219.32146 -18.880867 -61.1646 4294967295
219.36273 -18.38319 -61.749016 4294967295
219.37334 -5.9236107 -61.835632 4294967295
219.40373 -5.4463234 -62.15498 4294967295
219.40567 -17.449055 -61.952408 4294967295
219.43869 -16.095024 -61.491905 4294967295
219.47379 -3.6027403 -62.176491 4294967295
219.48 -15.598755 -62.077904 4294967295
219.58662 -12.394699 -61.72477 4294967295
219.70288 -9.6131229 -62.030914 4294967295
219.85432 -17.045715 -61.249031 4294967295
220.02629 -12.873988 -61.650105 4294967295
220.06599 -12.381237 -62.204334 4294967295
220.3187 -17.48737 -61.785233 4294967295
220.36491 -4.1066198 -61.897171 4294967295
220.38362 -15.650993 -61.67868 4294967295
220.42326 -14.722015 -61.804192 4294967295
220.46533 -14.224669 -62.422409 4294967295
220.59106 -10.558646 -62.108147 4294967295
220.69121 -19.3731 -61.328911 4294967295
220.72951 -18.878939 -61.855778 4294967295
220.79018 -17.049522 -61.641579 4294967295
220.89835 -13.843472 -61.316422 4294967295
221.03537 -10.594812 -61.718388 4294967295
221.11473 -8.3010197 -61.537704 4294967295
221.17432 -18.483669 -61.036835 4294967295
221.28569 -16.574326 -62.106281 4294967295
221.35178 -14.736803 -62.028587 4294967295
221.35626 -14.295553 -61.702698 4294967295
221.35771 -2.2881966 -61.998005 4294967295
221.41719 -13.334932 -62.373199 4294967295
221.51163 -10.149709 -61.694733 4294967295
221.55237 -9.2196283 -61.852417 4294967295
221.6301 -19.370174 -61.811794 4294967295
221.65799 -18.459684 -61.640396 4294967295
221.6628 -6.0093722 -61.579849 4294967295
221.66437 -6.4447045 -62.06282 4294967295
221.68265 -17.554085 -61.385681 4294967295
221.73767 -4.158988 -61.72554 4294967295
221.7538 -16.575089 -62.32243 4294967295
221.77747 -15.237251 -61.599037 4294967295
222.07578 -18.974728 -61.000984 4294967295
222.09174 -6.9402761 -61.674736 4294967295
222.12543 -18.461252 -61.83709 4294967295
222.17795 -17.511217 -62.301628 4294967295
222.26552 -2.7707953 -62.144264 4294967295
222.40768 -11.518278 -62.43203 4294967295
222.40791 -10.647762 -61.538063 4294967295
222.44855 -9.7176018 -61.695389 4294967295
222.48692 -8.7908821 -61.793999 4294967295
222.54472 -19.405991 -61.685478 4294967295
222.55212 -7.3904257 -62.141693 4294967295
222.62357 -17.115093 -61.485794 4294967295
222.71986 -15.229517 -62.196037 4294967295
222.75064 -14.314546 -62.096191 4294967295
222.89119 -10.627388 -62.154541 4294967295
223.01183 -19.407524 -61.879623 4294967295
223.03584 -6.4983783 -61.866764 4294967295
223.08911 -17.552021 -62.094116 4294967295
223.21025 -13.895105 -61.639557 4294967295
223.32231 -11.553185 -62.318741 4294967295
223.38901 -9.2801743 -61.793953 4294967295
223.47119 -19.421825 -61.873016 4294967295
223.49371 -18.520973 -61.551685 4294967295
223.52831 -18.031494 -62.012985 4294967295
223.52919 -17.598175 -61.575668 4294967295
223.56984 -4.6635256 -62.005253 4294967295
223.59183 -16.630964 -62.324516 4294967295
223.60556 -3.3035808 -61.573448 4294967295
223.60822 -15.739679 -61.838615 4294967295
223.6244 -14.847996 -61.346474 4294967295
223.64893 -14.375771 -61.539932 4294967295
223.7514 -12.047842 -61.968918 4294967295
223.92975 -7.4350519 -62.115494 4294967295
223.95369 -6.9650955 -62.294868 4294967295
223.96147 -6.0821238 -61.572693 4294967295
223.97398 -5.62815 -61.444099 4294967295
224.02762 -16.684019 -61.687729 4294967295
224.10818 -2.385807 -61.798439 4294967295
224.18558 -12.101519 -61.281338 4294967295
224.20564 -11.636506 -61.356224 4294967295
224.31917 -8.8577223 -61.621384 4294967295
224.3761 -19.47419 -61.486794 4294967295
224.40878 -18.556149 -61.435272 4294967295
224.42744 -5.6515326 -61.272873 4294967295
224.4435 -18.065865 -61.909218 4294967295
224.44574 -17.630856 -61.49939 4294967295
224.47331 -4.7142768 -61.580994 4294967295
224.47862 -16.712425 -61.453018 4294967295
224.57646 -14.39069 -61.763954 4294967295
224.58496 -2.3773165 -62.268677 4294967295
224.66948 -11.644279 -61.469521 4294967295
224.67122 -12.074984 -61.990948 4294967295
224.71417 -11.141107 -62.22039 4294967295
224.79004 -8.8551273 -61.931221 4294967295
224.85425 -7.0204797 -61.795135 4294967295
224.86472 -6.5698781 -61.606804 4294967295
224.88321 -18.974873 -62.317352 4294967295
224.92282 -18.045609 -62.456123 4294967295
224.92522 -5.6116304 -62.320473 4294967295
224.95171 -16.703722 -61.823181 4294967295
224.99895 -14.897934 -61.218147 4294967295
225.02563 -14.421831 -61.476974 4294967295
225.33771 -18.567127 -61.70351 4294967295
225.34048 -6.5605564 -62.057751 4294967295
225.34091 -6.1247149 -61.588432 4294967295
225.35388 -5.6703806 -61.468143 4294967295
225.36678 -18.086109 -62.031242 4294967295
225.39203 -17.611935 -62.25325 4294967295
225.41306 -4.2781801 -61.671036 4294967295
225.47775 -14.880143 -61.751343 4294967295
225.48232 -14.440753 -61.396069 4294967295
225.53743 -13.917742 -62.452965 4294967295
225.57393 -12.129276 -61.54023 4294967295
225.58517 -12.543718 -62.338036 4294967295
225.59755 -11.658611 -61.717072 4294967295
225.64456 -10.284731 -61.580116 4294967295
225.7101 -9.3157139 -62.44915 4294967295
225.71944 -8.4337149 -61.741161 4294967295
225.74608 -7.9590468 -62.003792 4294967295
225.77229 -19.484682 -61.975822 4294967295
225.81161 -17.69532 -61.136112 4294967295
225.86905 -17.164787 -62.266487 4294967295
225.94333 -2.4483767 -61.716064 4294967295
225.99152 -13.508726 -61.820618 4294967295
226.0712 -11.649887 -62.11924 4294967295
226.09445 -10.747289 -61.798088 4294967295
226.33533 -15.875385 -60.989464 4294967295
226.34114 -3.8585238 -61.437759 4294967295
226.34247 -4.7273598 -62.460918 4294967295
226.35161 -16.277756 -61.946705 4294967295
