# .PCD v0.7 - Point Cloud Data file format
VERSION 0.7
FIELDS x y z rgb
SIZE 4 4 4 4
TYPE F F F U
COUNT 1 1 1 1
WIDTH 1147
HEIGHT 1
VIEWPOINT 0 0 0 1 0 0 0
POINTS 1147
DATA ascii
95.887604 81.895622 -68.223763 4294967295
95.895195 83.294449 -67.920242 4294967295
95.899399 78.630531 -69.13179 4294967295
95.899986 77.698944 -69.372002 4294967295
95.90419 76.301865 -69.754906 4294967295
95.944008 76.762321 -69.907524 4294967295
95.952805 87.021332 -67.364685 4294967295
95.953865 79.088905 -69.384087 4294967295
96.032982 84.205086 -68.621681 4294967295
96.096405 69.33654 -69.650955 4294967295
96.191826 70.257797 -70.064102 4294967295
96.248894 77.69622 -68.559357 4294967295
96.330055 80.948189 -68.282906 4294967295
96.362617 73.959152 -70.281509 4294967295
96.385201 73.491913 -70.553635 4294967295
96.413292 76.743942 -69.917084 4294967295
96.605606 69.779884 -69.813995 4294967295
96.650925 75.822838 -68.58107 4294967295
96.693314 74.42128 -69.226959 4294967295
96.714218 77.678345 -68.538544 4294967295
96.715279 78.610321 -68.307983 4294967295
96.72757 74.882774 -69.342369 4294967295
96.730499 80.939957 -67.817383 4294967295
96.741531 77.208939 -68.844032 4294967295
96.761833 76.275063 -69.220322 4294967295
96.767784 71.159241 -70.565643 4294967295
96.779716 84.200058 -67.320732 4294967295
96.792068 73.015442 -70.257385 4294967295
96.792908 87.002007 -66.695885 4294967295
96.797691 72.550133 -70.414352 4294967295
96.797699 82.796249 -67.801071 4294967295
96.805237 70.691444 -70.939758 4294967295
96.812286 79.529068 -68.733711 4294967295
96.816544 80.46077 -68.525024 4294967295
96.870613 85.118629 -67.704903 4294967295
96.876923 79.98587 -69.056969 4294967295
96.877808 86.518906 -67.396767 4294967295
96.895943 83.713684 -68.235634 4294967295
97.158554 72.54287 -69.683388 4294967295
97.20726 85.590523 -66.678726 4294967295
97.209076 76.259415 -69.077606 4294967295
97.235397 82.315926 -67.708199 4294967295
97.264191 78.581024 -68.859848 4294967295
97.323891 86.971802 -67.121269 4294967295
97.360718 81.363464 -68.806824 4294967295
97.417625 85.086327 -68.242966 4294967295
97.53907 71.138535 -69.441452 4294967295
97.587402 73.92437 -69.057648 4294967295
97.621231 76.71386 -68.573647 4294967295
97.63623 69.736061 -70.465805 4294967295
97.64946 72.98745 -69.722458 4294967295
97.661804 79.971054 -68.01593 4294967295
97.670952 82.302673 -67.480568 4294967295
97.67746 71.590271 -70.272331 4294967295
97.681702 77.171967 -68.869858 4294967295
97.694756 86.503647 -66.566109 4294967295
97.699654 72.05275 -70.305573 4294967295
97.704689 76.237839 -69.266739 4294967295
97.721916 84.629234 -67.232597 4294967295
97.734093 75.303589 -69.707489 4294967295
97.735451 74.838257 -69.83606 4294967295
97.750275 85.558723 -67.188248 4294967295
97.777786 73.438812 -70.48468 4294967295
97.785461 79.487152 -68.986015 4294967295
97.78688 86.01944 -67.320465 4294967295
97.804451 80.882553 -68.758102 4294967295
97.810783 86.949738 -67.245422 4294967295
97.81105 84.147003 -67.966049 4294967295
97.834412 83.676331 -68.246552 4294967295
97.87561 85.069534 -68.171143 4294967295
98.028656 71.118561 -69.590622 4294967295
98.063522 75.30172 -68.754059 4294967295
98.079132 77.162811 -68.382553 4294967295
98.12426 78.088806 -68.453979 4294967295
98.134247 78.553482 -68.402977 4294967295
98.192429 83.20932 -67.604874 4294967295
98.26001 79.933846 -68.910843 4294967295
98.584396 79.003799 -68.157486 4294967295
98.589447 81.335182 -67.591011 4294967295
98.595673 77.138351 -68.71611 4294967295
98.59951 78.535591 -68.382172 4294967295
98.611046 75.2742 -69.302528 4294967295
98.622101 73.877373 -69.738846 4294967295
98.628952 76.202888 -69.186264 4294967295
98.654213 70.62159 -70.799286 4294967295
98.657059 71.085648 -70.699211 4294967295
98.657928 80.858223 -68.185181 4294967295
98.66246 83.190559 -67.614838 4294967295
98.666336 77.594864 -69.084511 4294967295
98.672287 72.013062 -70.564819 4294967295
98.681541 80.388412 -68.468727 4294967295
98.681587 85.989868 -67.024567 4294967295
98.704926 84.584167 -67.547531 4294967295
98.723907 83.647156 -67.919785 4294967295
98.747536 85.510773 -67.601799 4294967295
98.768524 79.909592 -69.190521 4294967295
98.768547 82.240173 -68.589722 4294967295
98.773285 85.039215 -67.900581 4294967295
98.800179 84.100983 -68.327461 4294967295
98.81501 82.699051 -68.790962 4294967295
98.921921 71.551537 -69.177544 4294967295
98.955231 74.805023 -68.565964 4294967295
99.050117 72.933594 -69.70443 4294967295
99.080612 82.246613 -67.506599 4294967295
99.125122 86.910843 -66.607491 4294967295
99.154152 78.971252 -68.860802 4294967295
99.208878 78.03228 -69.481094 4294967295
99.427719 70.600349 -69.68174 4294967295
99.462433 69.668221 -70.163528 4294967295
99.469986 71.990639 -69.613571 4294967295
99.556953 86.431442 -66.470558 4294967295
99.587372 85.490952 -66.924805 4294967295
99.587967 82.688622 -67.655586 4294967295
99.597496 76.162445 -69.413788 4294967295
99.600204 83.620247 -67.498703 4294967295
99.609894 72.905937 -70.344025 4294967295
99.611015 80.352661 -68.42083 4294967295
99.615288 85.953255 -66.998055 4294967295
99.657654 84.077385 -67.777557 4294967295
99.687653 79.87532 -69.074646 4294967295
99.704094 86.871475 -67.374229 4294967295
99.857773 71.050644 -69.299194 4294967295
99.869484 69.655479 -69.743187 4294967295
99.903275 78.494583 -67.679085 4294967295
99.910034 70.581085 -69.783806 4294967295
99.951874 81.753304 -67.168877 4294967295
99.966591 71.96978 -69.815002 4294967295
99.974724 73.828682 -69.388062 4294967295
99.979103 79.416458 -67.965462 4294967295
99.989601 86.887222 -66.095627 4294967295
100.00512 75.686249 -69.115845 4294967295
100.00608 73.360245 -69.727371 4294967295
100.01158 78.013702 -68.555466 4294967295
100.02758 85.47744 -66.725632 4294967295
100.03157 80.807732 -67.967644 4294967295
100.03204 85.944077 -66.635216 4294967295
100.07963 77.073303 -69.272034 4294967295
100.09535 83.13044 -67.806046 4294967295
100.33074 74.288391 -68.486534 4294967295
100.33128 75.219543 -68.247437 4294967295
100.36344 72.42379 -69.200111 4294967295
100.41254 70.095512 -70.148811 4294967295
100.44512 71.486046 -70.012825 4294967295
100.59749 86.374977 -67.190247 4294967295
100.6134 83.570282 -68.03231 4294967295
100.63574 84.499908 -67.945282 4294967295
100.78195 72.875999 -68.733635 4294967295
100.83559 73.800766 -68.866013 4294967295
100.84804 73.334167 -69.074791 4294967295
100.86201 78.454903 -67.833275 4294967295
100.87125 79.852554 -67.532257 4294967295
100.87192 75.192757 -68.755402 4294967295
100.87767 71.93618 -69.647079 4294967295
100.89275 77.052757 -68.414391 4294967295
100.89287 70.076462 -70.239441 4294967295
100.90971 82.179886 -67.191971 4294967295
100.91438 77.515755 -68.44413 4294967295
100.92084 72.396606 -69.82782 4294967295
100.92363 76.583069 -68.75251 4294967295
100.94887 84.975731 -66.734062 4294967295
100.9501 83.10704 -67.23127 4294967295
100.97191 76.111465 -69.212624 4294967295
101.04684 80.292793 -68.641922 4294967295
101.06077 85.422905 -67.397629 4294967295
101.10388 81.216248 -68.798363 4294967295
101.27345 78.444481 -67.433807 4294967295
101.30218 74.71357 -68.613129 4294967295
101.34139 71.453835 -69.742165 4294967295
101.34456 70.988899 -69.886269 4294967295
101.35764 81.697891 -67.169556 4294967295
101.38523 86.833229 -66.015999 4294967295
101.40832 75.166443 -69.236717 4294967295
101.41761 78.890457 -68.32518 4294967295
101.42491 85.890564 -66.540688 4294967295
101.45562 84.483192 -67.124596 4294967295
101.46519 82.147392 -67.804024 4294967295
101.5306 84.936989 -67.53009 4294967295
101.6923 73.773346 -68.309914 4294967295
101.71236 70.980339 -69.185112 4294967295
101.76898 72.834503 -69.094688 4294967295
101.77935 71.903519 -69.412292 4294967295
101.79848 74.226807 -68.935471 4294967295
101.8181 75.620682 -68.706612 4294967295
101.81889 77.483429 -68.222412 4294967295
101.82114 84.950119 -66.27462 4294967295
101.82892 76.550545 -68.537949 4294967295
101.8428 79.810677 -67.777992 4294967295
101.84952 84.477699 -66.597908 4294967295
101.85136 86.815056 -65.996201 4294967295
101.86652 78.408821 -68.313095 4294967295
101.86925 81.672585 -67.473938 4294967295
101.88058 78.872849 -68.289635 4294967295
101.88323 70.499939 -70.510078 4294967295
101.88601 75.14711 -69.307487 4294967295
101.89381 77.00779 -68.872864 4294967295
101.89432 76.076721 -69.121307 4294967295
101.89441 72.356613 -70.100227 4294967295
101.91238 83.532623 -67.287407 4294967295
101.92924 83.996681 -67.283653 4294967295
101.95401 85.393547 -67.090096 4294967295
101.99117 83.052582 -67.966255 4294967295
102.01089 81.183891 -68.596016 4294967295
102.0462 85.843811 -67.618324 4294967295
102.2021 70.030968 -69.586205 4294967295
102.28801 70.952194 -69.947601 4294967295
102.30618 83.526794 -66.759361 4294967295
102.33901 80.254448 -67.853302 4294967295
102.35729 72.339066 -70.069244 4294967295
102.42882 78.377388 -68.980019 4294967295
102.61411 71.877579 -68.702042 4294967295
102.62537 72.80677 -68.535797 4294967295
102.65425 74.199684 -68.371246 4294967295
102.66151 75.595657 -68.053261 4294967295
102.66473 70.013496 -69.552177 4294967295
102.67222 70.942101 -69.359444 4294967295
102.67538 78.389969 -67.412079 4294967295
102.68229 76.524689 -67.954117 4294967295
102.69128 78.854057 -67.401558 4294967295
102.71946 79.782776 -67.354767 4294967295
102.75401 70.469917 -70.061218 4294967295
102.75978 83.043701 -66.776711 4294967295
102.76709 81.175171 -67.322502 4294967295
102.76855 75.117142 -68.934952 4294967295
102.77122 77.910614 -68.214935 4294967295
102.77162 71.397202 -69.940323 4294967295
102.77497 86.312599 -66.01947 4294967295
102.7768 84.442284 -66.527046 4294967295
102.77985 76.977821 -68.522522 4294967295
102.82764 79.300652 -68.245285 4294967295
102.83739 83.964531 -67.080696 4294967295
102.83832 85.365868 -66.716766 4294967295
102.841 84.898117 -66.859314 4294967295
102.85676 80.228569 -68.205399 4294967295
102.85837 77.43306 -68.956001 4294967295
102.86211 82.559814 -67.626602 4294967295
102.93333 85.815659 -67.268005 4294967295
103.10898 76.977814 -67.536591 4294967295
103.11173 76.511429 -67.679749 4294967295
103.18511 72.778992 -69.188789 4294967295
103.23239 82.557526 -66.929871 4294967295
103.27559 83.484161 -66.989731 4294967295
103.34771 78.343109 -68.863304 4294967295
103.3546 81.604347 -68.047264 4294967295
103.37756 87.203537 -66.724701 4294967295
103.61364 81.152458 -66.680344 4294967295
103.62044 71.834465 -69.206856 4294967295
103.63202 75.089493 -68.423302 4294967295
103.63377 76.0205 -68.188103 4294967295
103.64452 76.950706 -68.017014 4294967295
103.66492 82.078011 -66.798012 4294967295
103.66696 71.365112 -69.661774 4294967295
103.67601 80.676018 -67.249535 4294967295
103.6778 83.009857 -66.641548 4294967295
103.6926 73.686607 -69.226097 4294967295
103.69695 86.745941 -65.783745 4294967295
103.69916 78.807182 -67.910843 4294967295
103.71177 79.73774 -67.752808 4294967295
103.73521 83.467133 -66.92717 4294967295
103.73837 72.287186 -69.923096 4294967295
103.74323 77.869087 -68.473022 4294967295
103.74603 87.204269 -66.010002 4294967295
103.76712 85.797485 -66.533829 4294967295
103.76904 81.594482 -67.665268 4294967295
103.78185 83.926048 -67.136009 4294967295
103.8019 80.190407 -68.271812 4294967295
103.83429 86.252266 -66.889343 4294967295
103.85183 84.847595 -67.387413 4294967295
103.86286 82.512146 -68.086815 4294967295
104.0467 74.612144 -68.168045 4294967295
104.05451 70.425468 -69.340309 4294967295
104.08787 78.333954 -67.468254 4294967295
104.12232 74.137962 -68.83255 4294967295
104.12582 81.127129 -66.993149 4294967295
104.18092 75.061569 -69.003067 4294967295
104.18927 86.722725 -65.95224 4294967295
104.41116 69.488083 -68.796295 4294967295
104.43787 72.275528 -68.241226 4294967295
104.55016 82.983749 -66.17804 4294967295
104.62244 76.908661 -68.318886 4294967295
104.63894 84.370071 -66.44072 4294967295
104.64413 80.16787 -67.601776 4294967295
104.64868 77.836693 -68.257828 4294967295
104.65017 85.302757 -66.271294 4294967295
104.65448 75.042686 -69.046547 4294967295
104.66779 87.169884 -65.897629 4294967295
104.6848 74.10894 -69.512619 4294967295
104.69413 86.697075 -66.212051 4294967295
104.6944 81.559319 -67.588234 4294967295
104.70598 79.692329 -68.17028 4294967295
104.71505 82.489105 -67.486908 4294967295
104.71992 84.822746 -66.897369 4294967295
104.76067 83.414757 -67.564796 4294967295
104.80074 83.874504 -67.727699 4294967295
104.9507 71.787773 -68.68969 4294967295
104.96754 75.974762 -67.687019 4294967295
104.99547 71.318413 -69.135963 4294967295
104.99581 72.248154 -68.888885 4294967295
105.01015 69.923203 -69.615234 4294967295
105.01385 78.76506 -67.269791 4294967295
105.01905 73.640923 -68.68161 4294967295
105.02053 81.563744 -66.56691 4294967295
105.02856 83.430786 -66.123444 4294967295
105.03514 75.500587 -68.297874 4294967295
105.06053 76.428627 -68.230637 4294967295
105.08403 79.687401 -67.52462 4294967295
105.2653 86.658592 -66.951653 4294967295
105.56165 73.614395 -69.222527 4294967295
105.62659 85.258232 -66.555901 4294967295
105.62891 82.922592 -67.200996 4294967295
105.63342 78.259064 -68.487946 4294967295
105.64507 82.453148 -67.443253 4294967295
105.65401 87.122856 -66.251137 4294967295
105.68819 86.181305 -66.749664 4294967295
105.74992 86.636742 -67.07016 4294967295
105.85211 73.616287 -67.944534 4294967295
105.86349 74.546082 -67.775574 4294967295
105.8793 69.428711 -69.270119 4294967295
105.8965 70.821014 -69.018196 4294967295
105.90069 75.007256 -67.918777 4294967295
105.93947 75.9338 -67.947929 4294967295
105.94925 77.796127 -67.515915 4294967295
105.95643 69.88633 -69.701675 4294967295
105.95882 73.13913 -68.841255 4294967295
105.98197 77.325638 -67.878281 4294967295
105.99779 87.128662 -65.347229 4294967295
106.00361 84.321602 -66.146446 4294967295
106.01893 83.384445 -66.509529 4294967295
106.02364 82.449646 -66.795685 4294967295
106.02462 74.061844 -69.065872 4294967295
106.02541 81.515793 -67.060448 4294967295
106.03878 79.181671 -67.786362 4294967295
106.06996 80.575676 -67.634583 4294967295
106.08108 80.107674 -67.840927 4294967295
106.08443 79.640991 -67.991013 4294967295
106.37519 76.385529 -67.589584 4294967295
106.41088 76.846725 -67.722397 4294967295
106.44214 81.505684 -66.687286 4294967295
106.45285 74.048286 -68.782547 4294967295
106.48563 80.565437 -67.255653 4294967295
106.49673 86.636177 -65.693077 4294967295
106.49867 72.6483 -69.492065 4294967295
106.6281 85.676086 -66.901047 4294967295
106.7076 69.402222 -68.499306 4294967295
106.75378 72.653084 -67.9515 4294967295
106.7776 69.860718 -68.881554 4294967295
106.80904 70.787239 -68.857727 4294967295
106.82532 75.437973 -67.713463 4294967295
106.83289 79.165955 -66.756561 4294967295
106.8525 73.107567 -68.542633 4294967295
106.85798 76.831268 -67.571831 4294967295
106.87489 74.035469 -68.452896 4294967295
106.88491 74.965027 -68.273148 4294967295
106.88755 78.225342 -67.40757 4294967295
106.90101 72.172401 -69.14756 4294967295
106.91071 76.358482 -68.081795 4294967295
106.91316 81.953613 -66.581184 4294967295
106.95247 79.614471 -67.500481 4294967295
106.97147 80.077873 -67.512222 4294967295
106.97202 83.811577 -66.502945 4294967295
106.97315 81.010445 -67.271385 4294967295
106.97916 83.343254 -66.681725 4294967295
106.97957 86.614708 -65.796921 4294967295
107.0303 80.535019 -67.814018 4294967295
107.03101 82.867416 -67.186241 4294967295
107.05742 85.197548 -66.744995 4294967295
107.05746 87.067085 -66.23806 4294967295
107.0619 84.262581 -67.031174 4294967295
107.22733 69.844406 -68.753532 4294967295
107.3138 76.348732 -67.611046 4294967295
107.38232 73.547615 -68.870888 4294967295
107.42691 77.26519 -68.182732 4294967295
107.4287 74.007332 -69.082466 4294967295
107.43266 71.683083 -69.743767 4294967295
107.47479 78.190033 -68.278671 4294967295
107.47871 81.919006 -67.292091 4294967295
107.68898 70.756622 -68.45845 4294967295
107.70314 73.546211 -67.80014 4294967295
107.72571 70.288345 -68.853661 4294967295
107.77417 72.607819 -68.57338 4294967295
107.77833 76.330948 -67.587372 4294967295
107.78339 74.467743 -68.13282 4294967295
107.79155 71.211388 -69.0811 4294967295
107.80013 77.725922 -67.365265 4294967295
107.80775 74.930252 -68.183868 4294967295
107.80817 79.123466 -67.042412 4294967295
107.82216 84.724747 -65.615227 4294967295
107.83889 78.186523 -67.521812 4294967295
107.85141 75.855766 -68.249199 4294967295
107.88506 76.782539 -68.241219 4294967295
107.88986 85.179695 -65.98407 4294967295
107.91396 83.30645 -66.670807 4294967295
107.9273 86.107628 -66.003311 4294967295
107.93267 80.96981 -67.444893 4294967295
107.94683 82.367126 -67.16655 4294967295
107.95117 84.233887 -66.688599 4294967295
107.96753 87.03495 -66.043114 4294967295
107.97464 80.496834 -67.879532 4294967295
107.98089 83.761581 -67.033852 4294967295
108.13941 70.275421 -68.461426 4294967295
108.26613 80.039597 -66.713608 4294967295
108.29144 81.435707 -66.516312 4294967295
108.3157 73.51162 -68.862724 4294967295
108.32552 86.102493 -65.487556 4294967295
108.32713 80.496605 -67.033958 4294967295
108.39364 87.024658 -65.732414 4294967295
108.4517 84.209442 -66.927155 4294967295
108.65022 71.647934 -68.398003 4294967295
108.67552 70.715721 -68.839218 4294967295
108.69183 75.36586 -67.681801 4294967295
108.70538 76.761536 -67.397873 4294967295
108.71029 77.226868 -67.306046 4294967295
108.71416 81.424698 -66.181778 4294967295
108.7259 72.104996 -68.826637 4294967295
108.72731 78.1567 -67.175385 4294967295
108.72733 74.430435 -68.198761 4294967295
108.77203 73.494789 -68.782974 4294967295
108.78305 79.080948 -67.329895 4294967295
108.78566 73.028297 -69.01078 4294967295
108.79008 80.012527 -67.125557 4294967295
108.8009 82.810989 -66.436462 4294967295
108.80635 76.282341 -68.268944 4294967295
108.81981 74.884499 -68.751282 4294967295
108.82845 81.872597 -66.895828 4294967295
108.83318 86.076248 -65.776283 4294967295
108.84327 78.605957 -67.901283 4294967295
108.86122 84.668678 -66.368118 4294967295
108.86582 85.602463 -66.145401 4294967295
108.87126 84.199661 -66.570396 4294967295
108.8754 80.931824 -67.497948 4294967295
108.91685 86.527489 -66.265175 4294967295
108.94625 85.120003 -66.866936 4294967295
108.94981 83.718582 -67.277786 4294967295
108.95018 86.988373 -66.382652 4294967295
109.11301 70.700661 -68.620453 4294967295
109.22526 82.333 -66.241669 4294967295
109.29359 77.192688 -68.159042 4294967295
109.40234 84.636566 -66.907959 4294967295
109.57605 73.939041 -67.690491 4294967295
109.62245 78.59227 -66.747139 4294967295
109.65237 72.069824 -68.76889 4294967295
109.65326 71.140228 -69.032295 4294967295
109.65868 78.12072 -67.144234 4294967295
109.6635 76.722015 -67.56601 4294967295
109.67172 81.384308 -66.338928 4294967295
109.67851 72.996826 -68.705498 4294967295
109.68554 72.531128 -68.885902 4294967295
109.6892 82.315231 -66.210564 4294967295
109.69547 75.320885 -68.188507 4294967295
109.71796 80.910011 -66.810555 4294967295
109.72337 75.782776 -68.266548 4294967295
109.73115 79.508614 -67.294769 4294967295
109.75674 77.175034 -68.127777 4294967295
109.76208 80.436447 -67.266335 4294967295
109.78604 83.699326 -66.541725 4294967295
109.78812 86.035378 -65.911736 4294967295
109.79263 85.099648 -66.203438 4294967295
109.81552 81.827087 -67.276016 4294967295
109.82521 83.225433 -66.96109 4294967295
109.86006 84.619865 -66.832718 4294967295
109.87778 86.952698 -66.319008 4294967295
110.00337 69.73951 -68.551674 4294967295
110.06981 75.314522 -67.498169 4294967295
110.0713 71.592003 -68.540436 4294967295
110.09163 70.195915 -69.077415 4294967295
110.10033 79.038872 -66.692108 4294967295
110.13889 77.63456 -67.366058 4294967295
110.14054 83.70121 -65.697655 4294967295
110.14597 73.90889 -68.450294 4294967295
110.18468 85.562988 -65.507942 4294967295
110.19929 84.625214 -65.875771 4294967295
110.27348 86.013382 -66.039368 4294967295
110.62505 80.411217 -66.72686 4294967295
110.65942 77.608803 -67.760223 4294967295
110.66213 81.80513 -66.614464 4294967295
110.66348 75.745728 -68.307869 4294967295
110.6663 78.073708 -67.682053 4294967295
110.66987 76.21035 -68.226196 4294967295
110.67281 72.024681 -69.410912 4294967295
110.68192 86.006378 -65.593826 4294967295
110.69555 83.667 -66.344757 4294967295
110.70842 85.533691 -65.921501 4294967295
110.7257 78.530899 -67.995216 4294967295
110.73221 82.726646 -66.877655 4294967295
110.79951 86.450752 -66.341751 4294967295
110.84517 86.909027 -66.55278 4294967295
110.94182 69.703339 -68.582993 4294967295
110.97392 71.559326 -68.304428 4294967295
110.99866 70.162643 -68.877533 4294967295
111.00408 72.486099 -68.270309 4294967295
111.02055 75.276207 -67.615181 4294967295
111.02635 73.413864 -68.177261 4294967295
111.02838 79.469856 -66.504822 4294967295
111.04009 71.087791 -68.927635 4294967295
111.0576 79.931854 -66.593285 4294967295
111.0832 73.872383 -68.472038 4294967295
111.08929 76.6642 -67.739349 4294967295
111.11016 80.856606 -66.726166 4294967295
111.11114 82.256714 -66.343307 4294967295
111.13311 84.588493 -65.856857 4294967295
111.14272 80.384857 -67.099594 4294967295
111.14331 78.986008 -67.493828 4294967295
111.15071 86.923088 -65.337029 4294967295
111.19514 81.775665 -67.101662 4294967295
111.20923 83.173317 -66.816933 4294967295
111.36203 70.154533 -68.102669 4294967295
111.61069 86.438271 -65.405121 4294967295
111.65931 80.358604 -67.466797 4294967295
111.70894 84.082741 -66.795921 4294967295
111.74736 85.943756 -66.562256 4294967295
111.75768 86.876343 -66.378433 4294967295
111.88399 70.596146 -68.383301 4294967295
111.88776 71.060577 -68.281273 4294967295
111.9668 74.772934 -67.831589 4294967295
111.97841 77.099899 -67.266075 4294967295
111.97939 72.91053 -68.447807 4294967295
111.99272 72.444107 -68.67823 4294967295
111.9957 76.631645 -67.526627 4294967295
112.00676 71.977806 -68.913979 4294967295
112.0125 81.758774 -66.214928 4294967295
112.02068 73.835838 -68.49707 4294967295
112.03553 85.492744 -65.34034 4294967295
112.04548 78.022232 -67.508972 4294967295
112.04683 82.686722 -66.211426 4294967295
112.05098 84.087402 -65.849823 4294967295
112.05807 83.151749 -66.165085 4294967295
112.05993 78.952148 -67.356369 4294967295
112.06706 85.954239 -65.446716 4294967295
112.08286 81.280212 -66.875084 4294967295
112.08914 85.014923 -65.875122 4294967295
112.10807 78.47892 -67.848923 4294967295
112.35663 72.902634 -67.771637 4294967295
112.40295 75.224289 -67.466309 4294967295
112.41499 78.484528 -66.639847 4294967295
112.42405 69.642197 -69.194031 4294967295
112.48055 74.283752 -68.31263 4294967295
112.49072 80.338501 -66.686447 4294967295
112.52377 73.348549 -68.899841 4294967295
112.52818 86.872551 -65.130112 4294967295
112.55423 77.532158 -67.951866 4294967295
112.59092 82.18811 -66.917862 4294967295
112.64882 83.111244 -67.092506 4294967295
112.66594 86.377136 -66.302597 4294967295
112.7679 71.495178 -67.742432 4294967295
112.81338 70.56073 -68.348068 4294967295
112.84558 76.606873 -66.885078 4294967295
112.85136 74.742943 -67.454277 4294967295
112.85393 75.673965 -67.211014 4294967295
112.87206 78.467804 -66.559402 4294967295
112.87254 72.414047 -68.27037 4294967295
112.88129 78.9328 -66.497795 4294967295
112.88248 79.865685 -66.243637 4294967295
112.88632 72.877525 -68.243385 4294967295
112.89427 71.017349 -68.827843 4294967295
112.89701 77.06572 -67.142639 4294967295
112.91447 70.086418 -69.242363 4294967295
112.91829 74.269234 -68.091377 4294967295
112.94754 77.990463 -67.261856 4294967295
112.97774 76.123177 -68.015625 4294967295
112.98051 81.716347 -66.459084 4294967295
112.99954 75.18956 -68.442978 4294967295
112.99972 79.380882 -67.26223 4294967295
113.01734 84.04464 -66.07943 4294967295
113.02428 86.38044 -65.472961 4294967295
113.02937 80.308662 -67.223625 4294967295
113.03098 82.64119 -66.57782 4294967295
113.03336 81.240791 -66.990776 4294967295
113.04721 83.105141 -66.569115 4294967295
113.04839 85.440598 -65.919312 4294967295
113.0975 86.833267 -65.895966 4294967295
113.12347 83.558144 -67.014984 4294967295
113.31271 71.469093 -68.330154 4294967295
113.35592 74.254745 -67.868179 4294967295
113.4106 71.92347 -68.940186 4294967295
113.41083 84.507355 -65.382164 4294967295
113.43962 85.436935 -65.336418 4294967295
113.46485 86.835114 -65.131279 4294967295
113.46947 73.775894 -68.860313 4294967295
113.71486 71.457909 -67.837883 4294967295
113.73755 74.247139 -67.21817 4294967295
113.76984 72.382072 -67.99173 4294967295
113.77538 70.057533 -68.693153 4294967295
113.79769 73.309166 -67.939445 4294967295
113.81718 80.295738 -66.10463 4294967295
113.84594 75.630081 -67.646057 4294967295
113.86014 78.423279 -66.960983 4294967295
113.87137 78.887772 -66.914139 4294967295
113.87411 77.0233 -67.463898 4294967295
113.89018 76.089737 -67.850502 4294967295
113.89753 81.682602 -66.319122 4294967295
113.90755 84.483345 -65.600273 4294967295
113.90918 75.15641 -68.259003 4294967295
113.92854 79.811356 -67.084686 4294967295
113.95187 85.409668 -65.672905 4294967295
113.95488 84.007179 -66.093513 4294967295
113.96293 85.875 -65.624496 4294967295
113.97139 83.070122 -66.484352 4294967295
113.97821 82.602081 -66.668816 4294967295
113.99249 84.934425 -66.115067 4294967295
114.02025 82.128052 -67.121506 4294967295
114.05038 86.792404 -66.025986 4294967295
114.06767 86.321472 -66.290466 4294967295
114.21527 72.831612 -67.694679 4294967295
114.28816 76.080894 -67.323204 4294967295
114.28889 70.499573 -68.917122 4294967295
114.32981 70.959938 -69.096756 4294967295
114.48757 81.176788 -67.386543 4294967295
114.55857 86.765427 -66.334923 4294967295
114.70702 77.467346 -66.553772 4294967295
114.72723 76.998352 -66.841515 4294967295
114.73192 79.329048 -66.211815 4294967295
114.73741 74.668297 -67.58416 4294967295
114.75034 76.529182 -67.151291 4294967295
114.75474 72.340401 -68.380669 4294967295
114.75497 70.017311 -69.045593 4294967295
114.75916 78.392082 -66.686691 4294967295
114.7722 73.268311 -68.248726 4294967295
114.77454 74.198311 -68.000938 4294967295
114.77554 75.128868 -67.742981 4294967295
114.78327 70.943336 -68.996696 4294967295
114.83362 81.178864 -66.458046 4294967295
114.83446 75.586571 -68.060867 4294967295
114.85652 80.708466 -66.766731 4294967295
114.86017 80.241447 -66.927849 4294967295
114.86324 77.910522 -67.616615 4294967295
114.86881 83.974106 -65.928101 4294967295
114.87477 76.046539 -68.236511 4294967295
114.88017 83.504883 -66.148537 4294967295
114.89858 85.837753 -65.622704 4294967295
114.90283 82.566971 -66.588791 4294967295
114.91599 84.899559 -66.023132 4294967295
114.91779 79.765923 -67.502357 4294967295
114.92004 82.097252 -66.853889 4294967295
114.95675 86.293541 -65.935493 4294967295
115.10747 70.475098 -68.038452 4294967295
115.30388 84.896446 -65.408928 4294967295
115.33123 85.358589 -65.485565 4294967295
115.61528 73.708214 -67.418152 4294967295
115.64124 70.915154 -68.419205 4294967295
115.68199 77.891106 -66.727753 4294967295
115.6892 70.44577 -68.921486 4294967295
115.71104 78.352913 -66.817581 4294967295
115.72156 75.091049 -67.835098 4294967295
115.73086 76.952095 -67.371796 4294967295
115.74821 80.212334 -66.568329 4294967295
115.74997 71.832909 -68.988564 4294967295
115.75013 72.762192 -68.722839 4294967295
115.75169 78.812851 -66.99688 4294967295
115.75959 81.143555 -66.387947 4294967295
115.76176 74.620621 -68.278183 4294967295
115.77592 86.747742 -64.903397 4294967295
115.79269 83.472038 -65.972717 4294967295
115.80212 84.871941 -65.642952 4294967295
115.80499 83.936867 -65.933502 4294967295
115.81821 80.667183 -66.973877 4294967295
115.83347 82.530769 -66.555504 4294967295
115.84845 82.061447 -66.805016 4294967295
115.88137 85.791023 -65.986046 4294967295
116.16466 78.80294 -66.577339 4294967295
116.17605 71.819328 -68.67688 4294967295
116.17712 76.471069 -67.344902 4294967295
116.18292 75.073639 -67.792122 4294967295
116.18391 75.538948 -67.665611 4294967295
116.20475 83.931122 -65.40786 4294967295
116.26104 75.993958 -68.127243 4294967295
116.29111 87.18708 -65.133423 4294967295
116.30424 81.578461 -66.85025 4294967295
116.52908 73.209167 -67.394997 4294967295
116.55095 74.137268 -67.295357 4294967295
116.59167 71.342163 -68.417099 4294967295
116.67562 83.444717 -65.56649 4294967295
116.68957 87.183022 -64.593559 4294967295
116.70178 85.776909 -65.09407 4294967295
116.71931 79.703323 -66.984467 4294967295
116.72543 78.304199 -67.435951 4294967295
116.74336 76.904472 -67.978714 4294967295
116.74377 84.366272 -65.82547 4294967295
116.75164 86.234436 -65.346153 4294967295
116.75174 81.563461 -66.696808 4294967295
116.75893 82.028801 -66.617752 4294967295
116.76169 86.700043 -65.289009 4294967295
116.7656 81.094589 -66.939194 4294967295
116.7789 82.958649 -66.502983 4294967295
116.7849 84.825523 -66.009628 4294967295
116.9472 70.406166 -67.824326 4294967295
117.03652 73.651543 -67.574066 4294967295
117.04072 76.44455 -66.796768 4294967295
117.046 70.860847 -68.45623 4294967295
117.04667 76.909653 -66.708008 4294967295
117.06306 74.113571 -67.645264 4294967295
117.07065 72.71727 -68.108749 4294967295
117.07844 73.181358 -68.034409 4294967295
117.09297 75.040466 -67.607864 4294967295
117.10182 80.165192 -66.190659 4294967295
117.12044 79.229301 -66.605835 4294967295
117.132 77.363235 -67.236282 4294967295
117.1412 71.779877 -68.925911 4294967295
117.15258 86.69738 -64.689453 4294967295
117.18368 83.885796 -65.744873 4294967295
117.20256 87.154823 -64.943237 4294967295
117.27763 86.203835 -65.79937 4294967295
117.43693 71.780571 -67.597076 4294967295
117.5094 80.156708 -65.723343 4294967295
117.55599 78.28344 -66.629524 4294967295
117.56728 83.41584 -65.224495 4294967295
117.59779 76.879402 -67.361961 4294967295
117.71306 86.659401 -65.411957 4294967295
117.74743 82.915421 -66.767227 4294967295
117.74813 85.717232 -65.957924 4294967295
117.75363 86.183464 -65.864929 4294967295
117.77264 84.311035 -66.556915 4294967295
117.85365 69.443558 -67.883453 4294967295
117.90524 70.367867 -68.015213 4294967295
117.93675 70.829353 -68.125763 4294967295
117.9447 72.223045 -67.781021 4294967295
117.96388 74.081497 -67.388107 4294967295
117.98744 75.940613 -67.029076 4294967295
117.99012 77.804008 -66.506348 4294967295
117.99816 72.681908 -68.063049 4294967295
117.9983 73.146881 -67.92852 4294967295
117.99915 76.870613 -66.848907 4294967295
118.00739 75.006752 -67.456642 4294967295
118.03921 82.929268 -65.393204 4294967295
118.05817 79.658447 -66.494858 4294967295
118.06396 80.123917 -66.40416 4294967295
118.06792 74.533585 -68.065598 4294967295
118.0704 78.257919 -66.998581 4294967295
118.07923 81.521156 -66.115364 4294967295
118.11621 79.182869 -67.085159 4294967295
118.11823 87.121689 -64.785004 4294967295
118.11836 81.98098 -66.285614 4294967295
118.12398 85.249664 -65.375778 4294967295
118.13001 84.781067 -65.559464 4294967295
118.3573 71.281067 -67.62883 4294967295
118.41856 75.927383 -66.747276 4294967295
118.45179 70.341927 -68.641052 4294967295
118.48683 69.874153 -69.051331 4294967295
118.51414 70.79995 -68.993576 4294967295
118.64524 81.485413 -66.889961 4294967295
118.79808 70.800941 -67.561035 4294967295
118.83496 72.191917 -67.441513 4294967295
118.85019 71.260307 -67.834122 4294967295
118.87561 75.910606 -66.66806 4294967295
118.89041 78.238907 -66.100479 4294967295
118.89341 77.305992 -66.397896 4294967295
118.89552 74.510986 -67.23481 4294967295
118.91364 74.974106 -67.240746 4294967295
118.92089 73.577179 -67.707581 4294967295
118.93732 76.367775 -67.016953 4294967295
118.94299 72.644516 -68.15432 4294967295
118.95717 80.094055 -66.078575 4294967295
118.99834 84.289619 -65.16938 4294967295
118.99857 73.102814 -68.454895 4294967295
119.00488 75.427353 -67.821907 4294967295
119.007 79.153145 -66.744865 4294967295
119.01531 81.484039 -66.125809 4294967295
119.01741 86.624123 -64.633408 4294967295
119.0191 85.22052 -65.058578 4294967295
119.03367 81.947517 -66.133446 4294967295
119.04552 82.412193 -66.089859 4294967295
119.06099 83.343185 -65.93763 4294967295
119.06258 83.809944 -65.813026 4294967295
119.07469 86.144394 -65.222679 4294967295
119.23485 70.321198 -67.46151 4294967295
119.32607 69.847488 -68.317352 4294967295
119.40503 81.479279 -65.512375 4294967295
119.4336 81.941154 -65.600784 4294967295
119.453 83.338898 -65.341507 4294967295
119.45374 78.205811 -66.85881 4294967295
119.46597 76.80645 -67.366959 4294967295
119.54177 80.522362 -66.868027 4294967295
119.55273 79.588181 -67.229156 4294967295
119.5929 87.050362 -65.347343 4294967295
119.62917 86.107697 -65.90963 4294967295
119.73412 71.694695 -67.306641 4294967295
119.73798 70.299614 -67.749176 4294967295
119.74186 73.08947 -66.955673 4294967295
119.76772 72.621132 -67.297798 4294967295
119.79051 69.829788 -68.301804 4294967295
119.80157 74.012894 -67.153328 4294967295
119.80515 72.151756 -67.731255 4294967295
119.82713 75.871819 -66.805496 4294967295
119.84998 74.937492 -67.261482 4294967295
119.85724 77.265144 -66.631111 4294967295
119.90331 73.535034 -68.095932 4294967295
119.91917 82.386398 -65.606293 4294967295
119.91936 83.78788 -65.19381 4294967295
119.92601 76.789223 -67.313446 4294967295
119.92889 80.984184 -66.097031 4294967295
119.94284 78.650101 -66.896477 4294967295
119.97741 81.908958 -66.206154 4294967295
119.98558 79.575432 -66.959694 4294967295
119.98579 86.579857 -64.89238 4294967295
120.01628 84.703514 -65.686852 4294967295
120.02757 85.635918 -65.500351 4294967295
120.05512 84.228714 -66.133148 4294967295
120.08931 85.156059 -66.128548 4294967295
120.21787 75.864258 -66.200043 4294967295
120.25259 71.206169 -67.854721 4294967295
120.257 74.927307 -66.78685 4294967295
120.3251 79.578026 -65.947052 4294967295
120.34341 80.508179 -65.81601 4294967295
120.38898 78.635101 -66.731155 4294967295
120.42052 86.100342 -64.768387 4294967295
120.43046 81.426369 -66.231804 4294967295
120.71233 73.979614 -66.971199 4294967295
120.7435 75.372185 -66.804413 4294967295
120.74561 73.044937 -67.512848 4294967295
120.75166 72.57917 -67.699371 4294967295
120.76253 80.031265 -65.570206 4294967295
120.77895 77.230499 -66.532997 4294967295
120.78679 81.894646 -65.208679 4294967295
120.80858 79.090607 -66.214935 4294967295
120.8213 76.758362 -67.009117 4294967295
120.82932 78.154907 -66.657509 4294967295
120.86535 80.480431 -66.251892 4294967295
120.86729 87.021942 -64.322708 4294967295
120.87839 86.08374 -64.689575 4294967295
120.89135 80.942459 -66.320686 4294967295
120.90753 86.545395 -64.783447 4294967295
120.91335 82.338509 -66.080147 4294967295
120.92185 83.270706 -65.870369 4294967295
120.93242 84.670059 -65.538147 4294967295
121.04532 70.720276 -66.873444 4294967295
121.14891 71.174217 -67.561935 4294967295
121.21665 71.631599 -67.964203 4294967295
121.22983 72.094902 -67.930893 4294967295
121.23343 69.771805 -68.652321 4294967295
121.23624 76.281883 -66.73333 4294967295
121.27391 75.810875 -67.173386 4294967295
121.2841 82.804962 -65.168762 4294967295
121.32815 77.665756 -67.051537 4294967295
121.36159 85.126587 -65.09259 4294967295
121.36436 79.057915 -66.92437 4294967295
121.48221 70.705475 -66.633743 4294967295
121.54637 73.024879 -66.451683 4294967295
121.73058 80.455536 -65.698402 4294967295
121.75752 81.851219 -65.495888 4294967295
121.76629 83.250885 -65.147034 4294967295
121.78815 86.987747 -64.203552 4294967295
121.79033 81.378479 -65.89901 4294967295
121.79681 77.647224 -67.066948 4294967295
121.80588 76.24897 -67.557648 4294967295
121.81569 86.046021 -64.70504 4294967295
121.81933 84.17514 -65.293732 4294967295
121.82043 85.109756 -65.022881 4294967295
121.86552 83.698906 -65.804787 4294967295
121.99287 70.682915 -66.985535 4294967295
122.01425 71.610748 -66.878212 4294967295
122.0742 74.861519 -66.382416 4294967295
122.0891 70.208145 -67.898193 4294967295
122.0901 75.790993 -66.230629 4294967295
122.106 72.06543 -67.476036 4294967295
122.11263 77.652084 -65.852448 4294967295
122.12019 73.924393 -67.031715 4294967295
122.14397 72.990982 -67.502205 4294967295
122.14744 78.112984 -65.992729 4294967295
122.14793 79.512276 -65.576752 4294967295
122.18137 80.906761 -65.425819 4294967295
122.21858 84.170082 -64.744316 4294967295
122.25177 85.566231 -64.590973 4294967295
122.3348 82.279381 -66.241928 4294967295
122.38145 86.00666 -65.496719 4294967295
122.39554 70.206589 -66.609413 4294967295
122.50259 74.382759 -66.211601 4294967295
122.58466 78.09938 -65.751633 4294967295
122.60914 72.50811 -67.631516 4294967295
122.61889 74.832932 -67.009941 4294967295
122.69516 79.480606 -66.223015 4294967295
122.73126 84.142555 -65.109261 4294967295
122.73684 86.479538 -64.450378 4294967295
122.74252 81.805115 -65.90345 4294967295
122.74602 86.945496 -64.383751 4294967295
122.74718 82.737976 -65.659966 4294967295
122.75919 81.335426 -66.178688 4294967295
122.75974 85.539192 -64.917374 4294967295
122.77106 83.667465 -65.571777 4294967295
122.79802 83.195221 -65.930481 4294967295
122.92509 72.973404 -66.273743 4294967295
122.95086 70.179604 -67.32518 4294967295
122.95225 72.504715 -66.634041 4294967295
122.98035 73.897606 -66.439728 4294967295
122.98442 71.570663 -67.175331 4294967295
123.01093 76.68856 -65.842957 4294967295
123.0202 72.031601 -67.324348 4294967295
123.03175 70.635895 -67.838974 4294967295
123.0331 79.483795 -65.177261 4294967295
123.03567 75.752998 -66.324883 4294967295
123.05339 71.098213 -67.873627 4294967295
123.06488 77.146645 -66.139297 4294967295
123.11008 78.071938 -66.223862 4294967295
123.1134 79.936943 -65.687309 4294967295
123.11697 85.075699 -64.163773 4294967295
123.14648 80.86454 -65.673492 4294967295
123.17029 80.393738 -66.007507 4294967295
123.20762 78.988541 -66.732697 4294967295
123.29153 86.909775 -65.015945 4294967295
123.4135 69.697372 -67.434883 4294967295
123.4361 71.554359 -67.054832 4294967295
123.48865 78.534081 -65.364403 4294967295
123.55342 83.192734 -64.476135 4294967295
123.55981 82.724106 -64.669731 4294967295
123.59009 74.326309 -67.459251 4294967295
123.63026 84.580063 -64.676643 4294967295
123.69718 85.969025 -64.796608 4294967295
123.75181 84.08828 -65.807983 4294967295
123.77003 86.888649 -65.106628 4294967295
123.7914 71.083588 -66.290596 4294967295
123.82346 69.685112 -66.975632 4294967295
123.85188 70.611969 -66.924271 4294967295
123.89252 74.329865 -66.123535 4294967295
123.90496 78.05732 -65.091156 4294967295
123.907 74.793686 -66.099915 4294967295
123.90753 76.657684 -65.537498 4294967295
123.95601 71.995285 -67.347961 4294967295
123.96439 71.529442 -67.557571 4294967295
123.96602 72.924202 -67.146721 4294967295
123.96893 79.446877 -65.187363 4294967295
124.00082 70.131752 -68.277733 4294967295
124.00352 83.177582 -64.333702 4294967295
124.03146 80.836456 -65.271942 4294967295
124.03617 82.236664 -64.884361 4294967295
124.04694 80.366966 -65.54007 4294967295
124.05157 85.974487 -63.872837 4294967295
124.06158 77.566559 -66.51017 4294967295
124.06257 76.169014 -66.943069 4294967295
124.08655 78.960869 -66.288704 4294967295
124.09834 84.561348 -64.681679 4294967295
124.10133 83.6259 -64.990265 4294967295
124.10373 85.027847 -64.583549 4294967295
124.17358 86.883987 -64.585617 4294967295
124.20983 84.071541 -65.734436 4294967295
124.25336 69.670868 -66.676521 4294967295
124.29217 71.061905 -66.567963 4294967295
124.31977 73.385536 -66.083809 4294967295
124.33682 72.452499 -66.507027 4294967295
124.3963 76.170135 -65.857002 4294967295
124.44861 81.761208 -64.577164 4294967295
124.47398 73.831314 -67.202156 4294967295
124.48779 86.430756 -63.471569 4294967295
124.57034 80.338737 -66.001083 4294967295
124.74619 71.510559 -66.322029 4294967295
124.77087 72.903854 -66.097153 4294967295
124.82735 73.827858 -66.275269 4294967295
124.83022 70.106552 -67.437401 4294967295
124.83319 71.035774 -67.177376 4294967295
124.83426 71.965652 -66.901466 4294967295
124.8559 76.153008 -65.796783 4294967295
124.86122 75.220383 -66.125633 4294967295
124.89031 78.479126 -65.365791 4294967295
124.91527 77.076309 -65.998779 4294967295
124.92313 78.940269 -65.492424 4294967295
124.92383 70.56131 -68.062149 4294967295
124.93258 79.87191 -65.284492 4294967295
124.94643 82.204292 -64.683868 4294967295
124.95532 78.002357 -66.04216 4294967295
124.96935 85.472939 -63.87072 4294967295
124.98726 81.262634 -65.305222 4294967295
124.9907 77.530724 -66.47522 4294967295
125.01307 82.658836 -65.088577 4294967295
125.0382 80.32019 -66.009216 4294967295
125.03837 80.78669 -65.867935 4294967295
125.07405 86.85421 -64.302452 4294967295
125.08112 86.384766 -64.503716 4294967295
125.1042 84.976997 -65.122887 4294967295
125.11904 84.506615 -65.387878 4294967295
125.24142 71.954559 -66.413788 4294967295
125.30602 76.13726 -65.658524 4294967295
125.44293 74.720848 -67.214294 4294967295
125.48315 83.574249 -64.825615 4294967295
125.4931 84.507111 -64.620583 4294967295
125.58625 86.357864 -64.815079 4294967295
125.71364 71.935913 -66.459877 4294967295
125.72507 74.727882 -65.693779 4294967295
125.73415 77.057388 -65.050819 4294967295
125.75178 71.466393 -66.917702 4294967295
125.77979 79.383286 -64.709335 4294967295
125.79415 76.115967 -65.833641 4294967295
125.80453 73.320648 -66.779922 4294967295
125.80948 74.250801 -66.534058 4294967295
125.81001 72.389641 -67.111595 4294967295
125.81152 80.778687 -64.540176 4294967295
125.8168 79.843803 -64.871475 4294967295
125.82536 78.908905 -65.229683 4294967295
125.83822 77.507629 -65.766998 4294967295
125.85252 83.10759 -64.159683 4294967295
125.86436 73.778229 -67.130386 4294967295
125.86469 81.703232 -64.692146 4294967295
125.89304 75.170357 -66.937218 4294967295
125.92442 85.43148 -64.034401 4294967295
125.94055 84.492622 -64.4561 4294967295
125.94343 82.155548 -65.199539 4294967295
125.95244 77.955673 -66.567154 4294967295
125.95522 81.219612 -65.584641 4294967295
125.96349 86.826942 -63.925591 4294967295
125.97334 84.018456 -64.871506 4294967295
125.97505 86.356369 -64.165405 4294967295
126.12038 69.59922 -66.68338 4294967295
126.18298 70.522446 -66.913887 4294967295
126.23968 76.567032 -65.513245 4294967295
126.2791 82.629494 -63.964634 4294967295
126.28355 73.301003 -66.884087 4294967295
126.29289 78.423988 -65.377884 4294967295
126.3063 75.625343 -66.353302 4294967295
126.32451 84.95916 -63.618904 4294967295
126.38093 86.819412 -63.509003 4294967295
126.41094 79.803452 -65.924438 4294967295
126.43863 84.000282 -64.855728 4294967295
126.57593 72.373734 -65.727493 4294967295
126.60675 70.044151 -66.704651 4294967295
126.61353 71.438553 -66.328232 4294967295
126.68545 75.153801 -65.771011 4294967295
126.75177 78.873543 -65.166046 4294967295
126.76008 77.006805 -65.81356 4294967295
126.76577 82.139862 -64.269135 4294967295
126.77829 73.744522 -66.975655 4294967295
126.78354 79.801437 -65.141083 4294967295
126.8032 81.198509 -64.870476 4294967295
126.81351 78.396904 -65.824356 4294967295
126.82611 84.465622 -64.047005 4294967295
126.85324 85.395531 -63.982891 4294967295
126.88291 80.250648 -65.823395 4294967295
126.90479 83.047455 -65.137108 4294967295
126.93923 85.844833 -64.554672 4294967295
127.0743 72.817383 -65.845932 4294967295
127.0937 72.349541 -66.152306 4294967295
127.10295 70.023132 -66.952812 4294967295
127.10786 73.744347 -65.835999 4294967295
127.13375 71.414436 -66.775505 4294967295
127.18949 75.130402 -66.081909 4294967295
127.19644 81.660965 -64.108139 4294967295
127.19919 76.526718 -65.72802 4294967295
127.20079 83.062683 -63.708199 4294967295
127.21513 77.922867 -65.42601 4294967295
127.2215 77.455566 -65.624161 4294967295
127.22759 71.868484 -67.412766 4294967295
127.23112 76.056007 -66.139359 4294967295
127.23647 83.991013 -63.715347 4294967295
127.24435 73.261314 -67.1185 4294967295
127.28276 86.321236 -63.374435 4294967295
127.28663 79.31028 -65.587448 4294967295
127.32928 83.504646 -64.636559 4294967295
127.52924 73.732201 -65.456902 4294967295
127.53622 70.473602 -66.532074 4294967295
127.74968 75.099052 -66.865036 4294967295
127.75375 79.758392 -65.444695 4294967295
127.75867 81.15773 -65.048973 4294967295
127.75953 82.5588 -64.618835 4294967295
127.78022 82.087654 -64.93808 4294967295
127.78815 85.358269 -63.983273 4294967295
127.7897 86.762009 -63.557987 4294967295
127.82153 86.286827 -63.971275 4294967295
127.88232 84.870575 -64.919304 4294967295
128.01648 71.384239 -66.357239 4294967295
128.03632 70.916931 -66.669228 4294967295
128.04135 75.571678 -65.253548 4294967295
128.04518 72.776619 -66.160889 4294967295
128.06686 72.308647 -66.48851 4294967295
128.08597 74.167847 -66.06575 4294967295
128.08652 71.841164 -66.799049 4294967295
128.10454 76.960739 -65.346275 4294967295
128.18062 75.085915 -66.568771 4294967295
128.18292 77.880814 -65.7127 4294967295
128.21745 83.944443 -64.102364 4294967295
128.22096 76.476913 -66.469986 4294967295
128.25989 80.666245 -65.483147 4294967295
128.29297 82.994446 -65.030327 4294967295
128.36124 87.187798 -64.287224 4294967295
128.44711 73.232315 -65.47113 4294967295
128.50627 74.155998 -65.676712 4294967295
128.51671 77.884056 -64.59272 4294967295
128.5383 79.747826 -64.187996 4294967295
128.58972 70.889259 -67.402275 4294967295
128.60922 73.676727 -66.689804 4294967295
128.67984 87.203163 -63.031437 4294967295
128.69695 82.98848 -64.499046 4294967295
128.76688 85.779266 -64.20816 4294967295
128.79839 86.240112 -64.327316 4294967295
128.81754 84.83313 -64.929855 4294967295
128.90652 73.680977 -65.262657 4294967295
128.93372 75.541328 -64.904831 4294967295
128.94299 69.954124 -66.744179 4294967295
128.95859 71.347221 -66.436043 4294967295
128.96024 73.20829 -65.863174 4294967295
128.9612 74.139488 -65.577713 4294967295
128.96504 72.27684 -66.197243 4294967295
128.97234 77.401009 -64.643135 4294967295
128.97357 70.415657 -66.855705 4294967295
129.00629 74.599052 -65.811905 4294967295
129.00697 77.862015 -64.788963 4294967295
129.04251 76.457443 -65.530571 4294967295
129.04758 76.922806 -65.426445 4294967295
129.05887 78.786591 -64.933823 4294967295
129.06805 82.521515 -63.833549 4294967295
129.06966 80.185043 -64.583626 4294967295
129.0715 82.988411 -63.715359 4294967295
129.10506 75.982109 -66.206238 4294967295
129.12712 83.444832 -64.039017 4294967295
129.15581 81.570068 -64.871162 4294967295
129.17523 84.370117 -64.151749 4294967295
129.23204 87.165009 -63.748238 4294967295
129.46715 70.859512 -66.941261 4294967295
129.47263 75.512657 -65.515564 4294967295
129.48393 78.308678 -64.726418 4294967295
129.49425 71.786133 -66.876656 4294967295
129.59238 76.892395 -66.089081 4294967295
129.74641 87.13546 -64.148468 4294967295
129.81905 69.924286 -66.266235 4294967295
129.86597 71.314209 -66.222237 4294967295
129.89125 73.172432 -65.846306 4294967295
129.90579 71.774666 -66.41317 4294967295
129.91463 75.03212 -65.454018 4294967295
129.94009 79.225723 -64.338493 4294967295
129.9438 77.358513 -64.962448 4294967295
129.94501 80.158859 -64.083923 4294967295
129.95396 75.958305 -65.492935 4294967295
129.97758 74.557472 -66.137512 4294967295
129.99455 82.018639 -63.912998 4294967295
129.99472 78.283066 -65.100044 4294967295
130.00023 81.550209 -64.109619 4294967295
130.02216 75.482376 -66.221161 4294967295
130.02693 83.414825 -63.743881 4294967295
130.05333 79.672653 -65.154976 4294967295
130.06714 78.737289 -65.568726 4294967295
130.06731 76.407028 -66.309784 4294967295
130.08914 84.805016 -63.829128 4294967295
130.10158 82.932251 -64.528847 4294967295
130.1144 81.061646 -65.230995 4294967295
130.12544 85.264977 -63.99036 4294967295
130.18346 83.85009 -64.930481 4294967295
130.21744 87.11586 -64.181549 4294967295
130.2464 86.173683 -64.725616 4294967295
130.35544 77.349098 -64.491234 4294967295
130.42041 81.54071 -63.70808 4294967295
130.43462 71.284363 -67.095085 4294967295
130.49741 83.863327 -63.622383 4294967295
130.50517 80.123657 -64.879318 4294967295
130.50708 85.26503 -63.258198 4294967295
130.61232 87.113907 -63.563122 4294967295
130.72839 70.821152 -65.770645 4294967295
130.80193 72.208298 -65.953964 4294967295
130.80287 70.347824 -66.556648 4294967295
130.80893 73.138306 -65.716461 4294967295
130.85898 77.324959 -64.805122 4294967295
130.85938 74.528389 -65.702164 4294967295
130.871 78.256065 -64.610062 4294967295
130.8727 79.189285 -64.326233 4294967295
130.87762 75.923355 -65.411919 4294967295
