# .PCD v0.7 - Point Cloud Data file format
VERSION 0.7
FIELDS x y z rgb
SIZE 4 4 4 4
TYPE F F F U
COUNT 1 1 1 1
WIDTH 1121
HEIGHT 1
VIEWPOINT 0 0 0 1 0 0 0
POINTS 1121
DATA ascii
338.18201 -54.749229 -47.433727 4294967295
338.24982 -52.415257 -47.749939 4294967295
338.25125 -38.489681 -48.816105 4294967295
338.26605 -51.4655 -48.060101 4294967295
338.26984 -52.933346 -47.122192 4294967295
338.30347 -50.548019 -48.013451 4294967295
338.32254 -49.603264 -48.274746 4294967295
338.35858 -48.683758 -48.252338 4294967295
338.36948 -46.756641 -49.230457 4294967295
338.39185 -47.760303 -48.274971 4294967295
338.40253 -47.289928 -48.386559 4294967295
338.43076 -45.873981 -48.783821 4294967295
338.50793 -44.042885 -48.651661 4294967295
338.61121 -39.827141 -49.529671 4294967295
338.68314 -53.369453 -47.532833 4294967295
338.72714 -50.027885 -48.823769 4294967295
338.77939 -48.161171 -49.107082 4294967295
338.82202 -49.681709 -47.529709 4294967295
338.888 -46.861221 -48.162788 4294967295
338.93411 -43.047684 -49.699799 4294967295
338.97891 -45.048576 -47.802979 4294967295
339.01352 -44.12669 -47.803967 4294967295
339.01544 -42.191132 -48.923286 4294967295
339.03723 -41.736778 -48.84856 4294967295
339.05981 -40.799503 -49.049599 4294967295
339.07733 -39.855911 -49.333298 4294967295
339.10233 -54.302017 -47.553024 4294967295
339.10614 -40.37796 -48.567322 4294967295
339.11313 -52.856827 -48.236759 4294967295
339.11841 -53.351898 -47.860989 4294967295
339.12372 -38.467762 -49.424713 4294967295
339.1564 -53.897156 -46.942039 4294967295
339.1741 -51.001675 -48.37421 4294967295
339.18265 -51.98764 -47.658302 4294967295
339.21478 -52.523102 -46.836357 4294967295
339.24478 -50.133339 -47.777317 4294967295
339.24789 -49.65163 -48.013016 4294967295
339.24826 -50.625015 -47.431866 4294967295
339.27893 -47.26812 -48.933189 4294967295
339.29224 -48.744087 -47.852535 4294967295
339.31976 -45.871155 -49.116547 4294967295
339.31982 -47.812256 -47.968956 4294967295
339.33997 -46.384686 -48.495911 4294967295
339.37943 -45.470261 -48.415855 4294967295
339.45956 -43.64262 -48.236553 4294967295
339.47095 -42.689491 -48.620609 4294967295
339.52286 -39.374287 -49.763721 4294967295
339.55606 -41.352367 -48.073086 4294967295
339.5564 -37.970173 -50.065617 4294967295
339.6225 -54.901703 -46.189354 4294967295
339.73212 -50.193439 -47.242191 4294967295
339.80884 -47.873837 -47.405991 4294967295
339.91925 -40.75988 -49.859501 4294967295
340.02524 -54.833908 -47.055271 4294967295
340.0416 -38.505981 -49.272224 4294967295
340.04584 -38.994377 -48.918598 4294967295
340.04739 -39.962776 -48.326031 4294967295
340.05414 -53.902946 -47.15004 4294967295
340.06879 -52.464127 -47.76244 4294967295
340.07434 -54.420845 -46.534302 4294967295
340.09302 -52.987061 -47.080872 4294967295
340.09781 -51.534145 -47.854488 4294967295
340.10181 -53.487362 -46.652599 4294967295
340.14539 -48.688427 -48.77684 4294967295
340.14691 -50.147518 -47.901501 4294967295
340.14777 -50.634819 -47.604275 4294967295
340.17776 -48.249474 -48.530338 4294967295
340.21225 -47.328171 -48.532562 4294967295
340.26608 -45.949089 -48.50211 4294967295
340.30304 -44.062668 -49.02935 4294967295
340.31241 -43.591492 -49.159031 4294967295
340.37604 -42.709934 -48.685833 4294967295
340.37915 -43.198074 -48.3526 4294967295
340.38864 -40.793163 -49.60881 4294967295
340.40244 -42.26162 -48.53759 4294967295
340.4324 -41.817894 -48.331802 4294967295
340.47116 -53.858421 -47.770035 4294967295
340.52414 -54.912483 -46.341125 4294967295
340.54019 -39.05909 -48.268669 4294967295
340.58426 -51.106773 -47.621151 4294967295
340.62726 -49.711174 -47.767532 4294967295
340.68185 -49.30368 -47.161404 4294967295
340.70627 -46.426537 -48.454048 4294967295
340.77332 -44.581234 -48.49004 4294967295
340.88214 -41.341045 -48.690239 4294967295
341.00339 -39.083202 -48.129768 4294967295
341.01578 -52.057644 -47.437786 4294967295
341.01831 -51.089275 -47.956802 4294967295
341.06812 -51.647701 -46.870754 4294967295
341.10095 -49.750839 -47.461529 4294967295
341.13693 -48.83083 -47.440369 4294967295
341.17319 -46.941124 -47.97422 4294967295
341.17874 -47.918983 -47.325016 4294967295
341.24417 -44.616249 -48.22628 4294967295
341.27316 -42.236786 -49.154274 4294967295
341.29645 -42.751091 -48.500126 4294967295
341.30212 -43.726303 -47.850433 4294967295
341.34857 -41.853073 -48.21846 4294967295
341.34927 -40.404701 -49.042393 4294967295
341.38821 -39.007061 -49.252132 4294967295
341.39291 -54.874878 -47.014717 4294967295
341.39969 -38.539417 -49.345688 4294967295
341.40613 -53.434509 -47.638947 4294967295
341.40854 -39.998528 -48.367687 4294967295
341.41681 -39.526295 -48.513588 4294967295
341.46753 -54.011803 -46.371788 4294967295
341.49277 -38.175098 -48.127468 4294967295
341.51474 -49.70517 -48.120831 4294967295
341.52411 -50.689503 -47.414299 4294967295
341.55426 -48.790668 -48.043224 4294967295
341.60223 -47.887878 -47.829239 4294967295
341.66895 -44.588932 -48.703442 4294967295
341.66983 -45.558144 -48.134155 4294967295
341.68689 -46.065819 -47.582821 4294967295
341.7818 -41.355087 -48.836205 4294967295
341.82263 -38.513073 -49.844173 4294967295
341.85361 -53.922535 -47.478474 4294967295
341.86951 -52.973412 -47.778717 4294967295
342.02744 -50.285416 -46.916061 4294967295
342.04105 -49.333614 -47.252197 4294967295
342.04144 -48.363914 -47.799591 4294967295
342.05524 -47.898308 -47.855289 4294967295
342.12643 -45.089722 -48.377541 4294967295
342.13855 -43.655251 -49.011444 4294967295
342.14798 -46.571789 -47.205517 4294967295
342.16745 -45.629234 -47.447598 4294967295
342.189 -44.205967 -47.931988 4294967295
342.20038 -41.321808 -49.404129 4294967295
342.20898 -43.265182 -48.165272 4294967295
342.21353 -42.30455 -48.644478 4294967295
342.23013 -40.877689 -49.206348 4294967295
342.23901 -41.854736 -48.514637 4294967295
342.3035 -39.524307 -48.86499 4294967295
342.31995 -40.027744 -48.328365 4294967295
342.32007 -38.580917 -49.151749 4294967295
342.33521 -53.974174 -47.052017 4294967295
342.38187 -52.583439 -47.136292 4294967295
342.39258 -51.627174 -47.517128 4294967295
342.39853 -54.553684 -45.768414 4294967295
342.41061 -50.681931 -47.781109 4294967295
342.56018 -46.042465 -48.156086 4294967295
342.57462 -47.03064 -47.378212 4294967295
342.80246 -39.111465 -48.431908 4294967295
342.81143 -54.017593 -46.715008 4294967295
342.84137 -38.195724 -48.365189 4294967295
342.92249 -49.319675 -47.697624 4294967295
342.97986 -48.91428 -47.066124 4294967295
343.06372 -44.669662 -48.201462 4294967295
343.06656 -45.64093 -47.611309 4294967295
343.11496 -41.838509 -49.029118 4294967295
343.12927 -43.789124 -47.714775 4294967295
343.14569 -42.843914 -48.001549 4294967295
343.18036 -40.95723 -48.545521 4294967295
343.18466 -39.51619 -49.292973 4294967295
343.20938 -40.511658 -48.361347 4294967295
343.23737 -38.136719 -49.280834 4294967295
343.2565 -54.015732 -46.870628 4294967295
343.26056 -54.507835 -46.534443 4294967295
343.26062 -53.53569 -47.077953 4294967295
343.27252 -40.10891 -47.64209 4294967295
343.31927 -53.133881 -46.428856 4294967295
343.32352 -51.197384 -47.450764 4294967295
343.33829 -50.732929 -47.49136 4294967295
343.34869 -50.262489 -47.599659 4294967295
343.36227 -52.709202 -46.026314 4294967295
343.37424 -51.754288 -46.383408 4294967295
343.38202 -49.339134 -47.620075 4294967295
343.40396 -48.400211 -47.819225 4294967295
343.44852 -47.976593 -47.392685 4294967295
343.46271 -47.511444 -47.44231 4294967295
343.504 -44.180725 -48.693321 4294967295
343.50598 -45.633472 -47.849648 4294967295
343.50726 -46.118996 -47.558647 4294967295
343.65607 -40.032883 -48.750957 4294967295
343.67892 -39.579437 -48.664803 4294967295
343.6972 -41.049469 -47.56802 4294967295
343.72577 -52.591732 -47.458008 4294967295
343.74854 -38.70192 -48.118805 4294967295
343.96365 -46.134186 -47.530247 4294967295
344.03168 -44.289322 -47.550892 4294967295
344.06461 -42.399796 -48.114849 4294967295
344.08163 -41.456383 -48.388527 4294967295
344.10669 -40.52351 -48.536686 4294967295
344.14325 -39.60508 -48.507092 4294967295
344.20523 -53.610416 -46.533993 4294967295
344.22058 -38.736683 -47.844845 4294967295
344.2207 -39.21888 -47.574257 4294967295
344.2215 -54.605804 -45.742596 4294967295
344.23178 -52.676617 -46.660614 4294967295
344.25189 -54.162945 -45.540329 4294967295
344.25238 -38.293728 -47.620049 4294967295
344.26135 -51.747307 -46.739712 4294967295
344.3172 -50.369377 -46.680279 4294967295
344.31763 -49.885128 -46.941971 4294967295
344.33575 -50.880138 -46.12384 4294967295
344.34885 -48.474098 -47.263321 4294967295
344.35712 -49.454369 -46.598694 4294967295
344.37589 -46.091019 -48.185539 4294967295
344.39932 -47.089439 -47.287075 4294967295
344.40347 -45.643997 -48.026833 4294967295
344.44873 -43.770725 -48.39793 4294967295
344.46204 -42.822655 -48.727085 4294967295
344.54138 -40.51215 -48.838474 4294967295
344.57971 -39.596275 -48.780403 4294967295
344.61896 -53.564575 -47.17057 4294967295
344.7356 -50.816765 -46.974709 4294967295
344.85577 -46.620865 -47.525681 4294967295
344.91412 -45.730377 -47.160976 4294967295
345.01715 -42.963814 -47.175682 4294967295
345.03873 -41.543098 -47.642628 4294967295
345.04575 -40.587502 -48.066246 4294967295
345.05923 -42.051361 -47.062031 4294967295
345.09241 -39.681152 -47.881908 4294967295
345.09409 -54.576904 -46.324585 4294967295
345.10269 -38.249008 -48.520306 4294967295
345.1051 -53.621319 -46.687073 4294967295
345.12033 -52.672081 -46.985909 4294967295
345.14175 -53.187332 -46.390316 4294967295
345.19391 -52.289227 -46.122524 4294967295
345.2049 -51.334126 -46.485748 4294967295
345.21259 -50.375107 -46.899235 4294967295
345.21432 -49.892979 -47.138416 4294967295
345.23129 -47.979828 -47.939392 4294967295
345.2377 -50.894119 -46.249035 4294967295
345.28278 -49.50106 -46.355736 4294967295
345.2934 -45.645176 -48.31374 4294967295
345.31085 -47.117882 -47.252651 4294967295
345.31317 -48.573006 -46.420975 4294967295
345.32269 -46.649864 -47.336342 4294967295
345.33588 -47.634811 -46.604435 4294967295
345.3876 -45.284225 -47.138126 4294967295
345.39468 -43.844311 -47.824585 4294967295
345.43277 -44.859169 -46.712994 4294967295
345.45236 -42.95219 -47.472496 4294967295
345.47299 -41.53096 -47.950722 4294967295
345.47476 -40.087776 -48.715801 4294967295
345.49182 -39.627213 -48.719505 4294967295
345.55597 -39.223785 -48.005299 4294967295
345.5896 -55.132542 -45.44014 4294967295
345.70914 -48.02364 -47.581562 4294967295
345.72876 -46.599403 -48.073063 4294967295
345.892 -42.464222 -47.960232 4294967295
346.01123 -38.275616 -48.515095 4294967295
346.0426 -38.794315 -47.778206 4294967295
346.06274 -54.684208 -45.432087 4294967295
346.0777 -51.309105 -47.044838 4294967295
346.09943 -49.88591 -47.503304 4294967295
346.10599 -51.832237 -46.35347 4294967295
346.10681 -50.86414 -46.866661 4294967295
346.10785 -52.804764 -45.800415 4294967295
346.1116 -53.295311 -45.480362 4294967295
346.19931 -48.567142 -46.778492 4294967295
346.21799 -47.140831 -47.281647 4294967295
346.22028 -46.6605 -47.509579 4294967295
346.23743 -45.233925 -48.035152 4294967295
346.26059 -45.746399 -47.423893 4294967295
346.29666 -43.861656 -47.92495 4294967295
346.29773 -44.345425 -47.64798 4294967295
346.36951 -42.023911 -47.871441 4294967295
346.38873 -41.083961 -48.103573 4294967295
346.39139 -39.643166 -48.846058 4294967295
346.39725 -42.540451 -47.191349 4294967295
346.42804 -39.206169 -48.554848 4294967295
346.44714 -41.63755 -46.961544 4294967295
346.47971 -55.128929 -45.746586 4294967295
346.50552 -54.193878 -45.880676 4294967295
346.52026 -53.728966 -45.920044 4294967295
346.59525 -50.922173 -46.35759 4294967295
346.66168 -46.656502 -47.704678 4294967295
346.68216 -48.133034 -46.615349 4294967295
346.71732 -47.211617 -46.608284 4294967295
346.75 -46.287029 -46.637993 4294967295
346.85141 -41.588997 -47.715897 4294967295
346.86722 -40.644981 -47.998447 4294967295
346.96188 -38.833176 -47.617939 4294967295
347.04959 -52.387871 -45.585854 4294967295
347.05264 -50.938187 -46.319118 4294967295
347.06409 -51.922642 -45.628323 4294967295
347.11044 -47.628101 -47.269432 4294967295
347.11652 -49.086517 -46.401325 4294967295
347.14313 -48.153847 -46.522167 4294967295
347.16229 -46.245674 -47.271526 4294967295
347.19061 -45.316193 -47.365868 4294967295
347.21478 -44.86412 -47.263466 4294967295
347.26508 -42.997669 -47.546875 4294967295
347.2695 -41.557953 -48.255379 4294967295
347.28552 -42.059036 -47.758602 4294967295
347.34558 -40.68713 -47.637615 4294967295
347.35822 -41.183975 -47.191246 4294967295
347.36221 -55.115578 -46.15773 4294967295
347.4024 -54.200844 -46.075504 4294967295
347.41522 -38.845112 -47.632401 4294967295
347.42175 -39.333984 -47.277531 4294967295
347.42511 -53.746986 -45.99538 4294967295
347.42856 -38.379864 -47.691338 4294967295
347.45767 -52.821678 -46.027073 4294967295
347.46872 -50.415501 -47.153149 4294967295
347.49753 -51.421776 -46.208595 4294967295
347.54181 -48.577335 -47.096909 4294967295
347.61032 -48.182735 -46.335983 4294967295
347.62418 -47.233929 -46.644806 4294967295
347.70532 -42.993275 -47.756001 4294967295
347.70728 -45.40733 -46.440845 4294967295
347.78094 -40.196365 -48.174629 4294967295
347.9202 -54.299198 -45.14209 4294967295
347.92355 -53.818604 -45.349995 4294967295
348.07602 -47.726181 -46.430515 4294967295
348.08664 -48.223194 -46.016914 4294967295
348.10989 -46.320248 -46.697735 4294967295
348.11551 -45.362076 -47.126564 4294967295
348.13657 -45.871052 -46.559788 4294967295
348.15869 -44.933475 -46.745033 4294967295
348.17151 -43.502682 -47.323071 4294967295
348.1814 -43.032951 -47.432407 4294967295
348.18744 -42.558605 -47.598717 4294967295
348.2305 -40.685059 -47.98505 4294967295
348.24863 -39.264088 -48.483215 4294967295
348.27023 -40.251205 -47.654541 4294967295
348.27805 -38.818047 -48.304035 4294967295
348.30374 -39.809731 -47.416035 4294967295
348.30682 -55.188343 -45.640923 4294967295
348.31207 -54.225769 -46.074966 4294967295
348.33801 -54.745888 -45.436954 4294967295
348.36819 -52.363548 -46.269753 4294967295
348.3851 -51.417877 -46.53191 4294967295
348.39413 -53.852032 -45.121407 4294967295
348.4227 -52.920803 -45.211555 4294967295
348.43362 -49.063835 -47.092136 4294967295
348.4761 -50.569702 -45.702671 4294967295
348.49417 -49.625561 -45.947128 4294967295
348.5061 -47.224823 -47.045681 4294967295
348.56958 -46.339466 -46.622265 4294967295
348.73297 -41.236706 -47.021729 4294967295
348.88766 -51.009571 -46.083164 4294967295
349.05545 -43.498627 -47.681679 4294967295
349.0639 -45.919224 -46.294399 4294967295
349.07278 -44.001335 -47.176636 4294967295
349.10764 -43.080177 -47.17366 4294967295
349.10907 -42.600361 -47.405609 4294967295
349.1362 -41.670258 -47.514347 4294967295
349.16196 -40.257786 -47.896515 4294967295
349.16296 -40.739811 -47.629383 4294967295
349.17499 -39.31192 -48.210445 4294967295
349.23849 -53.304848 -46.333164 4294967295
349.26642 -37.976116 -47.635803 4294967295
349.27289 -53.834984 -45.579178 4294967295
349.27841 -54.326912 -45.246639 4294967295
349.3078 -52.912704 -45.575699 4294967295
349.30975 -51.947113 -46.052635 4294967295
349.32913 -50.5215 -46.527706 4294967295
349.39154 -48.186081 -46.880905 4294967295
349.42014 -48.70533 -46.212379 4294967295
349.48056 -46.367374 -46.594673 4294967295
349.61475 -41.71207 -47.160744 4294967295
349.67078 -54.740089 -45.902603 4294967295
349.67371 -39.857243 -47.311451 4294967295
349.68607 -37.950119 -48.133923 4294967295
349.73801 -52.892654 -45.933678 4294967295
349.85965 -49.665005 -45.929684 4294967295
349.88226 -47.761902 -46.604919 4294967295
349.96033 -43.520405 -47.729481 4294967295
350.1073 -41.288872 -46.859138 4294967295
350.12872 -40.832878 -46.799686 4294967295
350.13895 -39.883102 -47.151299 4294967295
350.14615 -53.32782 -46.354736 4294967295
350.15857 -52.860439 -46.425457 4294967295
350.15863 -54.796711 -45.424801 4294967295
350.16415 -37.990555 -47.786034 4294967295
350.17383 -53.848312 -45.705585 4294967295
350.18872 -38.498573 -47.182991 4294967295
350.23087 -51.987438 -45.883434 4294967295
350.2663 -51.549686 -45.622826 4294967295
350.29727 -50.622437 -45.676456 4294967295
350.31448 -49.677807 -45.927883 4294967295
350.31998 -48.718899 -46.347015 4294967295
350.34857 -47.789383 -46.434582 4294967295
350.3833 -46.867592 -46.43383 4294967295
350.38821 -45.909355 -46.861134 4294967295
350.44208 -45.49308 -46.33609 4294967295
350.4588 -43.10516 -47.339333 4294967295
350.47321 -44.085129 -46.635693 4294967295
350.50739 -42.200378 -47.139664 4294967295
350.56674 -41.78891 -46.537075 4294967295
350.68396 -52.96534 -45.409351 4294967295
350.78464 -49.710037 -45.705853 4294967295
350.9606 -43.655785 -46.411957 4294967295
351.0773 -39.462864 -46.971779 4294967295
351.07928 -38.024868 -47.683128 4294967295
351.08929 -54.849239 -45.125366 4294967295
351.10797 -53.421585 -45.601265 4294967295
351.11996 -51.503384 -46.418308 4294967295
351.13181 -52.968819 -45.508484 4294967295
351.19778 -49.670471 -46.29739 4294967295
351.24814 -48.768131 -46.073795 4294967295
351.26019 -46.854023 -46.888477 4294967295
351.26865 -47.828602 -46.275444 4294967295
351.27097 -45.90374 -47.227261 4294967295
351.29321 -46.412403 -46.665253 4294967295
351.37454 -45.065182 -46.248177 4294967295
351.39163 -43.641022 -46.744259 4294967295
351.39966 -44.131916 -46.383923 4294967295
351.40622 -42.215248 -47.273796 4294967295
351.41653 -43.189159 -46.636612 4294967295
351.44031 -41.293488 -47.281593 4294967295
351.45801 -40.35305 -47.521393 4294967295
351.50937 -38.01149 -48.020317 4294967295
351.5535 -38.540462 -47.150257 4294967295
351.6525 -48.718754 -46.783192 4294967295
351.65799 -51.622303 -45.233765 4294967295
351.6846 -50.689468 -45.347851 4294967295
351.71207 -49.757881 -45.450039 4294967295
352.0365 -38.105762 -46.987362 4294967295
352.03815 -52.023354 -46.041019 4294967295
352.07965 -49.180046 -46.920681 4294967295
352.08646 -49.670704 -46.580879 4294967295
352.09009 -53.056484 -44.819565 4294967295
352.09119 -51.607563 -45.537693 4294967295
352.11359 -48.739841 -46.686794 4294967295
352.11484 -50.671326 -45.693157 4294967295
352.12607 -47.791294 -46.998714 4294967295
352.15921 -48.313828 -46.288017 4294967295
352.1756 -46.888065 -46.788857 4294967295
352.2529 -44.573471 -46.920025 4294967295
352.26236 -45.065891 -46.543922 4294967295
352.26562 -46.032898 -46.01099 4294967295
352.28952 -44.135506 -46.648594 4294967295
352.34048 -43.232899 -46.420151 4294967295
352.3418 -41.792252 -47.131092 4294967295
352.35898 -40.851276 -47.375992 4294967295
352.42126 -39.001587 -47.473469 4294967295
352.43399 -53.41037 -46.133541 4294967295
352.4566 -38.561062 -47.221001 4294967295
352.45773 -54.891525 -45.071098 4294967295
352.4801 -52.503025 -45.973095 4294967295
352.50775 -51.089523 -46.313778 4294967295
352.58478 -50.703106 -45.477661 4294967295
352.6593 -45.011105 -47.344833 4294967295
352.66525 -47.425255 -46.050484 4294967295
352.67542 -47.919579 -45.665947 4294967295
352.74652 -43.190002 -47.093571 4294967295
352.83896 -41.854424 -46.528641 4294967295
352.86676 -38.525948 -47.831524 4294967295
352.98105 -52.091251 -45.566193 4294967295
353.09848 -46.930969 -46.586155 4294967295
353.12558 -44.55769 -47.413479 4294967295
353.1301 -47.45052 -45.905369 4294967295
353.17157 -45.092461 -46.532871 4294967295
353.18411 -43.183952 -47.322285 4294967295
353.21506 -43.700268 -46.651413 4294967295
353.22226 -44.189484 -46.310841 4294967295
353.22449 -41.789436 -47.482712 4294967295
353.23993 -42.28722 -47.027412 4294967295
353.2511 -40.859688 -47.593098 4294967295
353.25482 -42.784676 -46.58041 4294967295
353.26785 -39.919079 -47.841122 4294967295
353.33987 -39.519295 -47.08289 4294967295
353.34058 -38.560986 -47.553547 4294967295
353.37097 -54.437656 -45.259647 4294967295
353.37585 -53.960476 -45.433342 4294967295
353.43817 -51.62426 -45.770939 4294967295
353.50763 -50.262562 -45.529209 4294967295
353.50806 -51.228348 -45.042919 4294967295
353.52472 -50.766197 -45.0522 4294967295
353.53201 -48.363762 -46.151649 4294967295
353.53632 -49.332954 -45.612576 4294967295
353.56024 -45.50948 -47.199677 4294967295
353.56235 -48.882378 -45.492268 4294967295
353.69717 -40.384518 -47.938427 4294967295
353.82629 -53.484722 -45.72929 4294967295
353.82846 -39.570473 -46.605034 4294967295
353.96158 -49.792213 -45.776585 4294967295
354.00687 -45.994526 -47.061424 4294967295
354.01309 -47.926849 -46.021652 4294967295
354.10248 -44.182762 -46.69862 4294967295
354.11298 -44.675549 -46.316505 4294967295
354.1528 -43.7598 -46.245872 4294967295
354.16669 -41.854225 -47.006866 4294967295
354.17142 -42.339615 -46.704422 4294967295
354.18866 -42.839485 -46.229263 4294967295
354.19266 -40.9235 -47.125809 4294967295
354.25095 -53.942566 -45.899628 4294967295
354.25607 -38.116814 -47.680866 4294967295
354.26413 -54.925293 -45.242798 4294967295
354.26645 -52.51424 -46.401199 4294967295
354.26685 -39.566303 -46.820992 4294967295
354.30396 -38.647724 -46.787155 4294967295
354.33356 -53.080544 -45.241913 4294967295
354.38394 -50.248024 -45.977413 4294967295
354.38531 -51.214111 -45.48315 4294967295
354.40088 -50.750793 -45.507801 4294967295
354.40839 -48.350666 -46.593086 4294967295
354.42807 -49.337532 -45.848286 4294967295
354.43521 -49.828148 -45.512623 4294967295
354.44348 -47.911133 -46.349239 4294967295
354.46594 -45.532696 -47.2276 4294967295
354.50989 -46.545666 -46.151958 4294967295
354.51205 -47.510998 -45.647171 4294967295
354.74762 -53.525299 -45.558216 4294967295
354.86777 -47.888496 -46.756294 4294967295
354.8681 -46.927139 -47.223064 4294967295
354.99124 -43.706318 -47.197136 4294967295
354.99774 -45.635582 -46.165821 4294967295
355.09729 -41.425701 -46.93206 4294967295
355.13727 -40.510479 -46.859318 4294967295
355.15466 -54.926781 -45.494747 4294967295
355.15775 -39.573967 -47.052113 4294967295
355.16379 -38.622307 -47.440075 4294967295
355.21542 -51.143497 -46.55286 4294967295
355.22491 -53.566181 -45.24752 4294967295
355.22693 -52.121395 -45.926216 4294967295
355.23813 -52.617466 -45.538471 4294967295
355.24625 -50.217552 -46.604893 4294967295
355.27713 -49.77317 -46.420876 4294967295
355.29083 -51.717319 -45.294098 4294967295
355.30875 -50.774719 -45.521851 4294967295
355.31589 -48.856632 -46.365105 4294967295
355.33893 -47.921463 -46.522839 4294967295
355.40454 -45.113598 -47.041416 4294967295
355.40573 -46.075897 -46.556408 4294967295
355.45221 -44.687687 -46.630245 4294967295
355.45853 -45.65604 -46.075474 4294967295
355.46292 -43.259472 -47.188736 4294967295
355.47925 -42.797951 -47.201988 4294967295
355.4834 -44.242733 -46.443001 4294967295
355.50204 -40.905441 -47.829872 4294967295
355.93234 -44.249893 -46.511044 4294967295
355.94534 -43.784321 -46.569904 4294967295
355.9827 -42.866104 -46.532719 4294967295
356.02551 -38.121773 -48.284096 4294967295
356.02759 -39.080845 -47.79163 4294967295
356.03671 -54.91835 -45.853588 4294967295
356.10419 -52.590458 -46.112091 4294967295
356.12772 -51.173847 -46.4944 4294967295
356.14569 -53.123283 -45.321049 4294967295
356.14786 -54.090988 -44.825706 4294967295
356.17825 -49.309124 -46.74596 4294967295
356.18631 -50.7626 -45.940178 4294967295
356.20129 -51.74435 -45.272579 4294967295
356.2218 -48.879417 -46.393867 4294967295
356.24008 -50.345181 -45.450771 4294967295
356.25925 -47.480537 -46.588543 4294967295
356.26761 -49.896202 -45.314072 4294967295
356.30118 -46.567665 -46.491009 4294967295
356.34964 -44.70158 -46.770206 4294967295
356.35245 -45.184902 -46.500774 4294967295
356.35315 -43.266151 -47.418957 4294967295
356.38272 -44.258743 -46.558781 4294967295
356.40829 -42.368176 -47.143826 4294967295
356.40985 -41.890522 -47.354752 4294967295
356.40994 -43.809174 -46.426167 4294967295
356.42908 -42.870674 -46.633869 4294967295
356.46417 -39.554504 -47.786003 4294967295
356.49139 -40.5415 -46.958786 4294967295
356.49344 -39.107063 -47.626125 4294967295
356.51736 -54.481133 -45.731625 4294967295
356.54794 -38.20752 -47.360661 4294967295
356.63855 -52.218201 -45.270321 4294967295
356.65112 -49.344151 -46.491432 4294967295
356.79901 -47.111347 -45.674171 4294967295
356.81976 -42.334881 -47.706291 4294967295
356.88229 -40.008514 -48.02478 4294967295
356.92755 -38.143265 -48.343765 4294967295
357.14127 -51.806782 -44.857307 4294967295
357.15271 -50.375168 -45.396809 4294967295
357.16779 -48.468143 -46.118 4294967295
357.16949 -49.913467 -45.404362 4294967295
357.19025 -46.57188 -46.739552 4294967295
357.21448 -46.119148 -46.648319 4294967295
357.22812 -45.654488 -46.696777 4294967295
357.22937 -44.696198 -47.13924 4294967295
357.24588 -47.115715 -45.771458 4294967295
357.27823 -42.353302 -47.63932 4294967295
357.29425 -43.3293 -46.96843 4294967295
357.29868 -45.253628 -45.990692 4294967295
357.31537 -43.832199 -46.458797 4294967295
357.33054 -41.931065 -47.175648 4294967295
357.34198 -40.506824 -47.711308 4294967295
357.3692 -39.57872 -47.80933 4294967295
357.39447 -40.084049 -47.245781 4294967295
357.40213 -54.95919 -45.814411 4294967295
357.4053 -41.053467 -46.643814 4294967295
357.41006 -54.004997 -46.168144 4294967295
357.4277 -38.683563 -47.492657 4294967295
357.43655 -39.171284 -47.146744 4294967295
357.43726 -54.520103 -45.578545 4294967295
357.49457 -52.18029 -45.967339 4294967295
357.51031 -50.755203 -46.446373 4294967295
357.52371 -52.696941 -45.351452 4294967295
357.52802 -51.738716 -45.753647 4294967295
357.57599 -48.908653 -46.493462 4294967295
357.74023 -44.772552 -46.38422 4294967295
357.80554 -42.925732 -46.436256 4294967295
357.92804 -39.223991 -46.648045 4294967295
358.00409 -53.22261 -44.77916 4294967295
358.05151 -49.427048 -45.980206 4294967295
358.05762 -47.512108 -46.811409 4294967295
358.10706 -45.648251 -47.07132 4294967295
358.13165 -44.237152 -47.430271 4294967295
358.13388 -46.158035 -46.491856 4294967295
358.13568 -48.081463 -45.557526 4294967295
358.146 -47.13208 -45.877304 4294967295
358.16382 -43.314064 -47.462486 4294967295
358.18253 -42.855347 -47.444504 4294967295
358.20633 -45.278847 -45.995548 4294967295
358.23053 -44.825661 -45.905548 4294967295
358.24417 -41.485138 -47.31694 4294967295
358.33167 -39.184902 -47.304035 4294967295
358.33609 -40.625244 -46.565544 4294967295
358.35538 -38.731251 -47.220608 4294967295
358.37418 -54.579605 -45.20306 4294967295
358.37576 -39.709435 -46.499466 4294967295
358.39468 -53.158825 -45.616074 4294967295
358.40564 -52.690384 -45.699249 4294967295
358.45444 -50.822952 -45.968582 4294967295
358.47449 -52.290535 -45.02417 4294967295
358.47827 -51.813438 -45.201794 4294967295
358.50397 -49.43792 -46.000183 4294967295
358.52109 -49.938522 -45.549355 4294967295
358.52377 -48.499493 -46.194534 4294967295
358.53595 -46.592804 -46.941608 4294967295
358.55637 -45.17688 -47.353127 4294967295
358.61044 -47.636982 -45.514503 4294967295
358.64877 -41.924675 -47.728184 4294967295
358.73322 -40.578682 -47.303989 4294967295
358.73883 -38.672123 -48.133118 4294967295
358.81418 -53.61161 -45.840706 4294967295
358.8703 -51.753056 -46.012379 4294967295
358.87283 -51.275059 -46.205257 4294967295
358.98187 -50.43985 -45.236233 4294967295
359.14313 -41.024323 -47.644096 4294967295
359.14325 -44.856598 -45.842972 4294967295
359.14868 -43.424065 -46.447639 4294967295
359.17331 -40.577744 -47.476624 4294967295
359.259 -39.71043 -46.813667 4294967295
359.28094 -54.602524 -45.223747 4294967295
359.32278 -53.207516 -45.355633 4294967295
359.33447 -51.296661 -46.104248 4294967295
359.38809 -52.321537 -44.958309 4294967295
359.38953 -49.918205 -46.064445 4294967295
359.40607 -50.898819 -45.400116 4294967295
359.43488 -48.048595 -46.374218 4294967295
359.45062 -46.147259 -47.066933 4294967295
359.47742 -48.576836 -45.598686 4294967295
359.47818 -45.698261 -46.93404 4294967295
359.48407 -46.663872 -46.409912 4294967295
359.48502 -47.624809 -45.949139 4294967295
359.51785 -44.783054 -46.869064 4294967295
359.53415 -43.363735 -47.329472 4294967295
359.55573 -42.429512 -47.497929 4294967295
359.62122 -42.978065 -46.427734 4294967295
359.67474 -41.119427 -46.631138 4294967295
359.73044 -40.22036 -46.359146 4294967295
359.75275 -53.191551 -45.667671 4294967295
359.76147 -52.239697 -46.002388 4294967295
359.76666 -38.822609 -46.561943 4294967295
359.84183 -50.409634 -45.859924 4294967295
359.84454 -51.374294 -45.377926 4294967295
359.88791 -49.981716 -45.488876 4294967295
359.95984 -45.741863 -46.571362 4294967295
360.13809 -40.664124 -46.728386 4294967295
360.15536 -54.587185 -45.659023 4294967295
360.15759 -54.108528 -45.853294 4294967295
360.16306 -39.255352 -47.074993 4294967295
360.17871 -40.227764 -46.429108 4294967295
360.17969 -38.316631 -47.305939 4294967295
360.22693 -51.304443 -46.297482 4294967295
360.2569 -50.858376 -46.135193 4294967295
360.25891 -52.302883 -45.441669 4294967295
360.27298 -53.281754 -44.815102 4294967295
360.3103 -48.998047 -46.339485 4294967295
360.31583 -48.044579 -46.71241 4294967295
360.32455 -48.534096 -46.37854 4294967295
360.3252 -47.575356 -46.814552 4294967295
360.34998 -49.523003 -45.607777 4294967295
360.39334 -47.17115 -46.162804 4294967295
360.40552 -46.704906 -46.22863 4294967295
360.43906 -44.824074 -46.686459 4294967295
360.46445 -44.37236 -46.582806 4294967295
360.46588 -45.811783 -45.898964 4294967295
360.47556 -43.426453 -46.884445 4294967295
360.48248 -43.912674 -46.573879 4294967295
360.55057 -42.548347 -46.367321 4294967295
360.55112 -41.11348 -47.024635 4294967295
360.56982 -39.69873 -47.449368 4294967295
360.78329 -50.47316 -45.42852 4294967295
360.88498 -47.705498 -45.45739 4294967295
360.95087 -42.505432 -47.046062 4294967295
361.00897 -44.003105 -45.644188 4294967295
361.02505 -55.529476 -45.702354 4294967295
361.04788 -55.075256 -45.632061 4294967295
361.04965 -38.306175 -47.770939 4294967295
361.11185 -53.225979 -45.700481 4294967295
361.13422 -53.732994 -45.19511 4294967295
361.14282 -38.877388 -46.365845 4294967295
361.1647 -52.806332 -45.248039 4294967295
361.18585 -50.908009 -45.860767 4294967295
361.19122 -49.953739 -46.232857 4294967295
361.24966 -48.579323 -46.150757 4294967295
361.24982 -51.461338 -44.82708 4294967295
361.29993 -47.675354 -45.952488 4294967295
361.30167 -49.117142 -45.269943 4294967295
361.34293 -44.367668 -46.94524 4294967295
361.34958 -46.290977 -45.981495 4294967295
361.3837 -45.848434 -45.768726 4294967295
361.38962 -42.981445 -47.011185 4294967295
361.41467 -42.529274 -46.913349 4294967295
361.41788 -43.96846 -46.213581 4294967295
361.42569 -43.497883 -46.334457 4294967295
361.45602 -41.615715 -46.827671 4294967295
361.49323 -39.742058 -47.233456 4294967295
361.49445 -41.177124 -46.560097 4294967295
361.50854 -40.713402 -46.601131 4294967295
361.51178 -38.805672 -47.436665 4294967295
361.51584 -40.242809 -46.728088 4294967295
361.54831 -54.180038 -45.481297 4294967295
361.55792 -55.153702 -44.919857 4294967295
361.6828 -50.489021 -45.533463 4294967295
361.74179 -46.237423 -46.758118 4294967295
361.85626 -42.530022 -47.061111 4294967295
361.90448 -42.101757 -46.671398 4294967295
362.13904 -49.544338 -45.939209 4294967295
362.1568 -48.604584 -46.151619 4294967295
362.16223 -47.172596 -46.736633 4294967295
362.20151 -50.093857 -44.934452 4294967295
362.21286 -46.269222 -46.535122 4294967295
362.23895 -45.818203 -46.425007 4294967295
362.24014 -48.216293 -45.320938 4294967295
362.25043 -47.747765 -45.40971 4294967295
362.27463 -43.94133 -46.846832 4294967295
362.30917 -44.935059 -45.977608 4294967295
362.32993 -43.520699 -46.370045 4294967295
362.33502 -41.135551 -47.392151 4294967295
362.38797 -39.756477 -47.378994 4294967295
362.39539 -41.675064 -46.417645 4294967295
362.40402 -40.727898 -46.743504 4294967295
362.43646 -40.282864 -46.553658 4294967295
362.45004 -55.641098 -44.90239 4294967295
362.49307 -52.80574 -45.667229 4294967295
362.4986 -53.292542 -45.380905 4294967295
362.49951 -38.435261 -46.63139 4294967295
362.52927 -50.446129 -46.299141 4294967295
362.56311 -51.443954 -45.441036 4294967295
362.56799 -52.410393 -44.944778 4294967295
362.64044 -49.609699 -45.340691 4294967295
362.65906 -45.795567 -46.841614 4294967295
362.66013 -47.712685 -45.961693 4294967295
362.66946 -46.764381 -46.278145 4294967295
362.78769 -45.453125 -45.449905 4294967295
362.81732 -44.526356 -45.512146 4294967295
362.81763 -42.134224 -46.590954 4294967295
362.85632 -38.83033 -47.620285 4294967295
362.9436 -39.394188 -46.315025 4294967295
362.99606 -51.433189 -45.701107 4294967295
363.14731 -48.241104 -45.327442 4294967295
363.18387 -44.926643 -46.381989 4294967295
363.19589 -43.504204 -46.878391 4294967295
363.20001 -45.901169 -45.750046 4294967295
363.20181 -47.34082 -45.080151 4294967295
363.25711 -43.089149 -46.332615 4294967295
363.27182 -42.626083 -46.364849 4294967295
363.3085 -39.796913 -47.199295 4294967295
363.32068 -40.286427 -46.83321 4294967295
363.32623 -40.769577 -46.549362 4294967295
363.32904 -38.385929 -47.589287 4294967295
363.33344 -55.637375 -45.208 4294967295
363.33698 -41.258209 -46.200653 4294967295
363.36118 -54.227234 -45.508724 4294967295
363.36453 -54.711658 -45.252022 4294967295
363.37756 -53.765396 -45.520992 4294967295
363.42392 -39.43383 -45.98114 4294967295
363.43042 -52.384315 -45.509701 4294967295
363.46118 -50.019367 -46.203289 4294967295
363.47864 -51.477966 -45.34177 4294967295
363.50394 -50.54612 -45.457592 4294967295
363.52658 -47.694412 -46.466061 4294967295
363.5618 -49.170322 -45.384781 4294967295
363.57474 -46.788128 -46.298378 4294967295
363.73889 -44.566696 -45.337612 4294967295
363.76926 -38.386673 -47.745682 4294967295
363.78757 -42.702538 -45.593185 4294967295
363.81921 -53.284081 -45.88356 4294967295
364.02435 -48.233765 -45.703541 4294967295
364.12228 -46.900639 -45.136017 4294967295
364.12949 -45.950127 -45.475079 4294967295
364.13586 -46.435787 -45.18301 4294967295
364.14993 -41.190338 -47.356304 4294967295
364.16504 -40.728172 -47.383331 4294967295
364.19318 -43.144852 -45.97126 4294967295
364.19632 -44.104782 -45.505325 4294967295
364.21027 -42.684124 -45.973858 4294967295
364.22479 -38.879097 -47.499519 4294967295
364.26654 -54.249828 -45.53326 4294967295
364.28711 -40.371918 -46.093639 4294967295
364.32895 -52.879555 -45.404507 4294967295
364.33087 -38.50531 -46.407387 4294967295
364.37982 -51.976097 -45.205185 4294967295
364.39935 -50.078758 -45.817116 4294967295
364.42404 -50.585255 -45.300552 4294967295
364.45343 -49.658043 -45.365406 4294967295
364.48099 -48.728989 -45.452461 4294967295
364.49838 -46.352875 -46.302639 4294967295
364.53973 -47.833206 -45.156769 4294967295
364.577 -45.477829 -45.763111 4294967295
364.59656 -45.976955 -45.310051 4294967295
364.60367 -42.636402 -46.710022 4294967295
364.61005 -44.555054 -45.78257 4294967295
364.66376 -41.263905 -46.610046 4294967295
364.66379 -43.653419 -45.548038 4294967295
364.78259 -53.372112 -45.192215 4294967295
364.91541 -48.721153 -45.686935 4294967295
365.01309 -44.516235 -46.398087 4294967295
365.14746 -55.685818 -45.219082 4294967295
365.16245 -39.889973 -46.68766 4294967295
365.17783 -55.239868 -45.059811 4294967295
365.18704 -40.391262 -46.176903 4294967295
365.19113 -38.487034 -46.970928 4294967295
365.24066 -39.0117 -46.156418 4294967295
365.2532 -52.92337 -45.197224 4294967295
365.27383 -38.089493 -46.174397 4294967295
365.28754 -51.521847 -45.412041 4294967295
365.3306 -49.650982 -45.731792 4294967295
365.34021 -50.140579 -45.403717 4294967295
365.34201 -48.226391 -46.225441 4294967295
365.37097 -48.736 -45.661949 4294967295
365.38214 -47.311451 -46.158585 4294967295
365.39191 -46.364868 -46.46072 4294967295
365.43668 -45.933041 -46.12656 4294967295
365.48434 -44.069527 -46.389256 4294967295
365.52896 -41.726517 -46.898399 4294967295
365.55063 -43.180786 -46.004608 4294967295
365.55142 -45.572952 -44.942497 4294967295
365.56314 -42.715546 -46.062897 4294967295
365.57419 -41.293938 -46.559647 4294967295
365.58426 -40.349503 -46.857697 4294967295
365.7489 -50.584122 -45.737701 4294967295
365.81738 -49.220161 -45.537243 4294967295
365.92279 -47.894428 -44.89035 4294967295
365.95355 -46.489902 -45.147343 4294967295
365.98334 -46.041981 -44.996628 4294967295
366.04422 -43.712067 -45.307579 4294967295
366.17908 -52.489067 -45.181332 4294967295
366.21603 -51.090717 -45.362679 4294967295
366.25049 -48.253906 -46.200584 4294967295
366.28433 -50.205391 -44.95665 4294967295
366.31979 -48.805557 -45.155987 4294967295
366.34283 -47.872005 -45.29565 4294967295
366.36618 -45.98214 -45.850002 4294967295
366.36649 -46.939259 -45.428371 4294967295
366.40082 -45.539368 -45.641228 4294967295
366.40405 -43.631077 -46.436104 4294967295
366.41553 -45.076187 -45.672482 4294967295
366.43732 -44.620155 -45.618889 4294967295
366.44519 -42.239754 -46.565598 4294967295
366.50406 -40.388954 -46.690731 4294967295
366.51453 -39.445557 -46.980877 4294967295
366.5253 -40.886581 -46.227055 4294967295
366.53793 -38.038612 -47.322983 4294967295
366.58035 -41.417599 -45.356857 4294967295
366.58063 -39.032055 -46.394371 4294967295
366.5842 -38.558792 -46.559227 4294967295
366.61179 -53.917999 -44.806881 4294967295
366.72977 -49.730179 -45.263111 4294967295
366.86893 -44.611084 -45.879841 4294967295
366.96594 -41.841782 -45.962315 4294967295
366.98389 -39.47435 -46.78315 4294967295
367.18405 -50.701767 -44.839897 4294967295
367.19086 -48.793205 -45.58696 4294967295
367.20392 -49.285664 -45.223228 4294967295
367.22095 -47.867493 -45.640671 4294967295
367.24811 -46.460663 -45.936905 4294967295
367.37772 -44.201641 -45.423656 4294967295
367.38547 -43.253925 -45.744213 4294967295
367.3989 -45.179008 -44.757587 4294967295
367.43054 -42.820755 -45.413097 4294967295
367.43546 -43.781185 -44.941429 4294967295
367.45407 -41.888756 -45.545578 4294967295
367.47241 -39.521217 -46.359009 4294967295
367.48221 -40.484287 -45.829533 4294967295
367.48706 -54.867386 -44.775486 4294967295
367.51263 -38.60603 -46.292374 4294967295
367.52731 -40.050358 -45.498795 4294967295
367.5575 -52.545834 -44.968746 4294967295
367.5849 -51.616619 -45.054844 4294967295
367.63605 -48.319016 -45.889389 4294967295
367.74817 -46.042965 -45.585541 4294967295
367.81882 -42.292805 -46.391781 4294967295
367.87625 -41.87149 -45.915737 4294967295
367.91251 -38.093277 -47.127308 4294967295
367.97864 -53.482239 -44.941658 4294967295
368.202 -45.578411 -45.784374 4294967295
368.2037 -46.058033 -45.558704 4294967295
368.21182 -47.022491 -45.052876 4294967295
368.28012 -44.223083 -45.474808 4294967295
368.29108 -42.324425 -46.163868 4294967295
368.29425 -40.897079 -46.739536 4294967295
368.2973 -43.284904 -45.681618 4294967295
368.30188 -43.76696 -45.421825 4294967295
368.3414 -40.465397 -46.387421 4294967295
368.3689 -41.445385 -45.65369 4294967295
368.39209 -41.944954 -45.174915 4294967295
368.42462 -39.11417 -46.018303 4294967295
368.42868 -38.165237 -46.378334 4294967295
368.4487 -40.090355 -45.325016 4294967295
368.4725 -52.10022 -45.07869 4294967295
368.5032 -51.653736 -44.920864 4294967295
368.51529 -50.229851 -45.391708 4294967295
368.55188 -48.832397 -45.572842 4294967295
368.61133 -46.980583 -45.688705 4294967295
368.63864 -46.052399 -45.774929 4294967295
368.68738 -45.623379 -45.404934 4294967295
368.71432 -44.217163 -45.699348 4294967295
368.82675 -40.985886 -45.802422 4294967295
368.83875 -39.090969 -46.475132 4294967295
369.21066 -42.363365 -46.004429 4294967295
369.21661 -43.800663 -45.326347 4294967295
369.21683 -41.892418 -46.135078 4294967295
369.23599 -42.864811 -45.505379 4294967295
369.27582 -40.041897 -46.254795 4294967295
369.28494 -38.621788 -46.75544 4294967295
369.28787 -39.576775 -46.3167 4294967295
369.31763 -40.557755 -45.563549 4294967295
369.32224 -41.03899 -45.306709 4294967295
369.47818 -48.399918 -45.542519 4294967295
369.55746 -46.568172 -45.42561 4294967295
369.5864 -47.0751 -44.885349 4294967295
369.61658 -44.23893 -45.746468 4294967295
369.6304 -44.72982 -45.383022 4294967295
369.63696 -45.213894 -45.103725 4294967295
369.65448 -43.321377 -45.708118 4294967295
369.79886 -38.691147 -46.043095 4294967295
369.82059 -53.082973 -44.815002 4294967295
369.90701 -50.779263 -44.817463 4294967295
369.9137 -49.350815 -45.344833 4294967295
370.02991 -46.122391 -45.403 4294967295
370.19467 -40.556461 -45.902645 4294967295
370.19937 -41.991013 -45.24548 4294967295
370.20813 -41.522408 -45.344631 4294967295
370.21365 -39.621445 -46.083809 4294967295
370.24323 -40.125263 -45.53981 4294967295
370.27032 -38.721222 -45.828178 4294967295
370.27206 -53.093437 -44.837055 4294967295
370.30243 -38.274399 -45.656681 4294967295
370.35159 -50.782734 -44.919678 4294967295
370.39801 -49.873497 -44.783405 4294967295
370.45139 -47.536808 -45.168083 4294967295
370.50674 -46.158524 -45.128979 4294967295
370.51645 -44.735748 -45.617897 4294967295
370.54895 -45.722378 -44.841194 4294967295
370.5968 -43.381855 -45.289524 4294967295
370.76004 -51.705963 -45.037426 4294967295
370.83264 -48.91087 -45.399147 4294967295
370.92886 -45.186268 -45.8862 4294967295
370.95255 -44.73217 -45.813107 4294967295
371.17993 -39.703068 -45.387882 4294967295
371.29398 -48.454071 -45.502762 4294967295
371.29831 -49.892292 -44.856182 4294967295
371.3869 -47.113373 -45.032879 4294967295
371.39224 -46.641033 -45.170387 4294967295
371.4248 -45.718033 -45.193958 4294967295
371.44775 -44.78577 -45.32798 4294967295
371.46909 -43.375347 -45.67894 4294967295
371.48746 -42.43948 -45.864594 4294967295
371.53754 -42.009895 -45.489662 4294967295
371.54309 -40.585934 -46.02095 4294967295
371.55911 -41.553486 -45.44088 4294967295
371.56195 -42.986477 -44.813293 4294967295
371.56671 -39.655594 -46.14616 4294967295
371.61475 -38.271652 -46.191315 4294967295
371.63983 -39.246159 -45.507999 4294967295
371.6575 -38.786114 -45.503784 4294967295
371.99734 -41.552753 -45.609303 4294967295
372.28979 -47.135498 -45.071568 4294967295
372.33536 -45.270676 -45.341629 4294967295
372.39874 -41.994232 -45.997929 4294967295
372.41351 -43.914337 -45.043358 4294967295
372.43872 -41.555061 -45.740128 4294967295
372.43997 -42.508999 -45.333157 4294967295
372.45694 -39.66782 -46.319614 4294967295
372.49274 -40.176186 -45.717026 4294967295
372.49405 -38.274574 -46.48703 4294967295
372.51334 -41.147491 -45.09 4294967295
372.54825 -40.703068 -44.89053 4294967295
372.56882 -39.293076 -45.246365 4294967295
372.57516 -38.822781 -45.370979 4294967295
372.66437 -49.936535 -44.783867 4294967295
372.7106 -48.071503 -45.045002 4294967295
372.73975 -46.667931 -45.303043 4294967295
372.78937 -44.807632 -45.525578 4294967295
373.07812 -50.865528 -44.837238 4294967295
373.22006 -47.18438 -44.799339 4294967295
373.2413 -45.296356 -45.340893 4294967295
373.28073 -44.380123 -45.28738 4294967295
373.28787 -42.481159 -45.986324 4294967295
373.30377 -42.972134 -45.612572 4294967295
373.38809 -42.097416 -45.052753 4294967295
373.39816 -40.202057 -45.719177 4294967295
373.40613 -41.637608 -45.044678 4294967295
373.41959 -38.318893 -46.256634 4294967295
373.43698 -40.713226 -45.087246 4294967295
373.44205 -39.289925 -45.614773 4294967295
373.63058 -47.155914 -45.278103 4294967295
373.69009 -46.259033 -44.99855 4294967295
374.0885 -48.127899 -44.833836 4294967295
374.20987 -44.42767 -45.026455 4294967295
374.23523 -43.498184 -45.130104 4294967295
374.24701 -42.556404 -45.385326 4294967295
374.27939 -41.157852 -45.60305 4294967295
374.31943 -40.242252 -45.542835 4294967295
374.33456 -39.780083 -45.566917 4294967295
374.35489 -38.847008 -45.726288 4294967295
374.57349 -45.309883 -45.635273 4294967295
374.61243 -46.300144 -44.815941 4294967295
374.69586 -41.613869 -45.813759 4294967295
374.78183 -41.215603 -45.050636 4294967295
374.84985 -38.897202 -45.257305 4294967295
375.01437 -47.218201 -44.998074 4294967295
375.23361 -39.800529 -45.637363 4294967295
375.27338 -40.787239 -44.81464 4294967295
375.4527 -47.693947 -44.967548 4294967295
375.53168 -45.384842 -45.051453 4294967295
375.54367 -44.443214 -45.300751 4294967295
375.5842 -42.576073 -45.617573 4294967295
375.58539 -43.529133 -45.222893 4294967295
375.66647 -41.698521 -45.092758 4294967295
375.6904 -38.866714 -45.972862 4294967295
376.11826 -40.759243 -45.483871 4294967295
376.33069 -48.169861 -45.080963 4294967295
376.3649 -47.725529 -44.896191 4294967295
376.43002 -45.880135 -44.941238 4294967295
376.50967 -44.048122 -44.82761 4294967295
376.56036 -40.763023 -45.598026 4294967295
376.57529 -42.203159 -44.867943 4294967295
376.59958 -41.749001 -44.791332 4294967295
376.6001 -38.897034 -45.920219 4294967295
376.608 -39.854145 -45.455971 4294967295
376.67731 -38.488556 -45.266224 4294967295
376.85071 -46.339531 -45.102207 4294967295
376.95132 -42.147717 -45.703018 4294967295
376.96826 -43.114208 -45.142025 4294967295
377.2525 -48.210712 -44.902699 4294967295
377.29553 -47.297852 -44.811794 4294967295
377.29626 -46.822033 -44.991726 4294967295
377.35071 -45.44339 -44.964642 4294967295
377.40759 -42.16404 -45.661606 4294967295
377.42776 -43.609138 -44.879807 4294967295
377.44717 -40.77306 -45.795567 4294967295
377.4823 -40.328575 -45.602352 4294967295
377.51572 -38.457703 -45.990009 4294967295
377.53223 -38.946621 -45.624191 4294967295
377.63324 -38.08287 -44.904953 4294967295
377.85654 -44.55233 -44.764854 4294967295
377.90375 -40.314682 -45.937202 4294967295
377.9151 -41.750164 -45.253979 4294967295
378.23215 -46.399406 -44.849346 4294967295
378.25363 -44.990829 -45.176819 4294967295
378.27563 -44.059071 -45.31279 4294967295
378.32874 -43.630882 -44.928181 4294967295
378.36688 -41.287186 -45.448238 4294967295
378.3757 -42.245625 -44.981438 4294967295
378.42337 -39.910805 -45.3993 4294967295
378.48447 -38.538212 -45.300808 4294967295
378.81296 -40.344765 -45.886566 4294967295
378.89487 -39.940147 -45.195316 4294967295
379.2504 -43.195671 -44.936581 4294967295
379.29196 -39.905945 -45.785679 4294967295
379.31732 -41.352619 -44.961647 4294967295
379.33954 -38.997044 -45.647434 4294967295
379.35477 -38.535343 -45.669167 4294967295
379.78613 -40.904469 -44.972744 4294967295
379.88101 -38.135651 -45.067978 4294967295
380.12051 -44.14159 -44.940292 4294967295
380.17606 -42.764099 -44.901905 4294967295
380.17758 -40.865322 -45.617939 4294967295
380.25198 -39.979069 -45.197479 4294967295
380.26172 -38.563564 -45.64325 4294967295
380.30615 -39.07518 -44.991161 4294967295
380.5556 -44.139153 -45.123451 4294967295
380.57956 -43.684841 -45.053391 4294967295
380.59671 -42.749374 -45.237461 4294967295
380.65143 -41.371536 -45.207882 4294967295
380.67514 -38.544479 -46.051014 4294967295
381.11429 -39.49519 -45.823315 4294967295
381.50833 -43.731483 -44.802094 4294967295
381.54965 -41.866837 -45.093758 4294967295
381.55432 -40.921364 -45.40654 4294967295
381.60837 -39.068909 -45.564781 4294967295
381.64575 -38.151318 -45.536327 4294967295
381.93484 -44.197083 -44.891247 4294967295
382.33484 -45.589954 -44.895683 4294967295
382.3721 -44.672001 -44.868206 4294967295
382.48135 -41.915726 -44.812027 4294967295
382.56506 -39.138168 -45.020958 4294967295
382.92563 -40.498383 -45.431557 4294967295
382.97318 -38.167301 -45.833073 4294967295
383.01279 -38.673389 -45.246037 4294967295
383.38986 -41.470287 -44.949966 4294967295
383.42618 -38.181286 -45.821762 4294967295
383.71735 -45.175526 -44.809444 4294967295
383.81506 -41.935223 -45.048965 4294967295
383.92719 -39.656048 -44.786888 4294967295
383.94666 -38.249588 -45.119129 4294967295
330.09286 -35.382568 -50.199215 4294967295
330.10989 -34.436626 -50.531864 4294967295
330.17261 -32.586506 -50.655094 4294967295
330.17264 -33.07119 -50.326519 4294967295
330.21518 -31.677166 -50.504402 4294967295
330.36227 -26.55798 -51.319481 4294967295
330.4216 -25.669952 -50.853317 4294967295
330.664 -31.198627 -50.938122 4294967295
330.72147 -30.30949 -50.509022 4294967295
330.73242 -29.840647 -50.628803 4294967295
330.77966 -27.97102 -51.039463 4294967295
330.78677 -28.463348 -50.582436 4294967295
330.80029 -26.068352 -51.949184 4294967295
330.81915 -25.610699 -51.919632 4294967295
330.92413 -22.854153 -51.895256 4294967295
330.94696 -35.81456 -50.911297 4294967295
330.96661 -21.463678 -52.070534 4294967295
330.96854 -34.875923 -51.154587 4294967295
330.97644 -22.437408 -51.240791 4294967295
330.9823 -35.380299 -50.574276 4294967295
