# .PCD v0.7 - Point Cloud Data file format
VERSION 0.7
FIELDS x y z rgb
SIZE 4 4 4 4
TYPE F F F U
COUNT 1 1 1 1
WIDTH 1147
HEIGHT 1
VIEWPOINT 0 0 0 1 0 0 0
POINTS 1147
DATA ascii
349.77478 37.483559 -35.2551 4294967295
349.7757 29.134087 -37.341572 4294967295
349.77866 38.420963 -35.70895 4294967295
349.81076 30.063372 -37.339466 4294967295
349.82489 39.818115 -35.800564 4294967295
349.84198 38.877106 -35.040668 4294967295
349.84674 30.522442 -37.069073 4294967295
349.85962 39.342659 -35.038441 4294967295
349.85983 30.988525 -37.133823 4294967295
349.87186 31.924538 -37.467228 4294967295
349.90265 40.27235 -34.921322 4294967295
349.92596 31.439133 -36.424774 4294967295
349.93512 33.315479 -37.309242 4294967295
349.9696 23.092081 -37.881443 4294967295
349.97168 32.366169 -36.267658 4294967295
349.9791 33.773212 -36.923332 4294967295
349.99121 32.830704 -36.238686 4294967295
349.99823 41.662071 -34.293274 4294967295
350.00635 23.549088 -37.60162 4294967295
350.01276 24.488846 -38.01577 4294967295
350.02219 42.126907 -34.199303 4294967295
350.05844 35.16111 -36.531857 4294967295
350.05942 35.630043 -36.772278 4294967295
350.06226 34.690796 -36.222092 4294967295
350.06512 24.94035 -37.508389 4294967295
350.0675 26.351679 -38.234913 4294967295
350.08221 25.875887 -37.767651 4294967295
350.11197 25.394257 -37.081234 4294967295
350.12003 27.274282 -37.979359 4294967295
350.12408 27.74316 -38.17363 4294967295
350.15164 36.077473 -35.685375 4294967295
350.16925 37.94976 -36.446659 4294967295
350.1734 37.011032 -35.877651 4294967295
350.18378 36.539459 -35.473167 4294967295
350.2265 29.120243 -37.448071 4294967295
350.23654 28.646748 -37.04903 4294967295
350.25711 38.40033 -35.424015 4294967295
350.26221 38.868221 -35.604519 4294967295
350.26572 30.518009 -37.639111 4294967295
350.27151 29.576256 -37.048775 4294967295
350.2793 30.04398 -37.189293 4294967295
350.2912 39.331326 -35.437263 4294967295
350.30316 39.797775 -35.517735 4294967295
350.35983 40.256004 -34.949093 4294967295
350.36798 31.427608 -36.663826 4294967295
350.38168 31.893597 -36.718922 4294967295
350.42422 40.71331 -34.269135 4294967295
350.42722 33.759491 -37.071411 4294967295
350.44775 32.814888 -36.267502 4294967295
350.4491 33.284256 -36.501385 4294967295
350.45633 23.064957 -37.464844 4294967295
350.46075 41.175919 -33.99342 4294967295
350.46521 24.474897 -38.094208 4294967295
350.47549 23.528877 -37.440323 4294967295
350.495 41.639114 -33.750633 4294967295
350.50214 23.989979 -37.307343 4294967295
350.50888 24.929607 -37.715069 4294967295
350.5242 42.103306 -33.581631 4294967295
350.52859 35.141815 -36.363441 4294967295
350.54111 36.077091 -36.68808 4294967295
350.54367 25.387825 -37.464832 4294967295
350.54703 25.857416 -37.668633 4294967295
350.54849 26.327518 -37.900051 4294967295
350.56744 26.791412 -37.878494 4294967295
350.58829 27.254681 -37.829586 4294967295
350.59412 36.533928 -36.174133 4294967295
350.60095 35.593781 -35.570175 4294967295
350.62204 27.713684 -37.594086 4294967295
350.64038 37.4617 -36.011559 4294967295
350.64267 36.992161 -35.725437 4294967295
350.64642 37.92926 -36.176483 4294967295
350.6575 28.17234 -37.335304 4294967295
350.65753 29.582466 -38.090462 4294967295
350.70657 28.626793 -36.879028 4294967295
350.75082 39.314541 -35.427166 4294967295
350.75186 30.023388 -36.98204 4294967295
350.75247 30.493183 -37.224972 4294967295
350.77444 38.840984 -34.833363 4294967295
350.78104 39.77755 -35.243675 4294967295
350.80664 30.947098 -36.696388 4294967295
350.81213 31.415419 -36.86887 4294967295
350.83408 31.878967 -36.804359 4294967295
350.8345 41.173767 -35.229053 4294967295
350.85077 32.344025 -36.816113 4294967295
350.86044 40.231758 -34.349869 4294967295
350.86249 23.069159 -38.211277 4294967295
350.88364 32.804676 -36.594357 4294967295
350.8952 41.632114 -34.606155 4294967295
350.89899 40.693874 -34.047012 4294967295
350.91394 33.266193 -36.409618 4294967295
350.91934 33.73431 -36.58321 4294967295
350.92535 23.987164 -37.809345 4294967295
350.93137 23.513786 -37.472172 4294967295
350.96323 42.089783 -33.877644 4294967295
350.96384 24.914703 -37.758076 4294967295
350.96451 34.661621 -36.4366 4294967295
350.96606 25.384636 -37.977371 4294967295
350.97797 25.85096 -38.057602 4294967295
350.99084 35.593616 -36.560421 4294967295
351.00534 35.120934 -36.100925 4294967295
351.02231 26.305927 -37.671272 4294967295
351.02585 26.775171 -37.871365 4294967295
351.06815 27.231192 -37.514256 4294967295
351.077 28.638744 -38.139313 4294967295
351.09274 29.103571 -38.163822 4294967295
351.09723 36.507355 -35.534088 4294967295
351.11804 27.684999 -37.049416 4294967295
351.12854 28.151987 -37.149342 4294967295
351.13531 37.437347 -35.489758 4294967295
351.14951 37.903389 -35.537426 4294967295
351.17157 30.018848 -37.534672 4294967295
351.18161 30.955166 -37.891037 4294967295
351.19543 30.481464 -37.442551 4294967295
351.21674 39.296532 -35.325203 4294967295
351.23575 40.230255 -35.55574 4294967295
351.24307 38.353249 -34.444733 4294967295
351.26645 38.817841 -34.36042 4294967295
351.27512 31.397778 -36.801136 4294967295
351.31653 41.621567 -35.14925 4294967295
351.32339 41.151951 -34.799339 4294967295
351.32446 40.683079 -34.532516 4294967295
351.34265 32.788155 -36.584942 4294967295
351.37155 32.310497 -35.920631 4294967295
351.37177 42.081055 -34.607548 4294967295
351.38605 33.246223 -36.214333 4294967295
351.4198 25.84054 -38.284897 4294967295
351.41992 34.645939 -36.479687 4294967295
351.43069 26.777161 -38.628136 4294967295
351.43637 34.172432 -35.994545 4294967295
351.43863 24.892578 -37.516655 4294967295
351.46121 26.296467 -37.943119 4294967295
351.47061 25.351919 -37.309986 4294967295
351.47281 35.571587 -36.223366 4294967295
351.48346 27.229412 -38.123909 4294967295
351.48602 35.099136 -35.784534 4294967295
351.49561 27.69545 -38.200054 4294967295
351.49829 36.034782 -36.108456 4294967295
351.51514 36.500023 -36.118603 4294967295
351.57068 28.611156 -37.626606 4294967295
351.58917 36.952705 -35.309666 4294967295
351.5939 29.543697 -37.79364 4294967295
351.61734 29.066486 -37.209793 4294967295
351.63266 37.881729 -35.188564 4294967295
351.64719 37.409451 -34.731155 4294967295
351.66104 29.993122 -37.085209 4294967295
351.67081 39.280807 -35.393982 4294967295
351.69333 30.453426 -36.874077 4294967295
351.69357 31.392843 -37.368774 4294967295
351.69916 39.744148 -35.238953 4294967295
351.71802 40.209328 -35.219135 4294967295
351.73618 30.910812 -36.512135 4294967295
351.74707 40.672745 -35.054329 4294967295
351.81113 23.495626 -37.987278 4294967295
351.81979 32.297009 -36.068447 4294967295
351.82202 23.020439 -37.58445 4294967295
351.82938 32.764202 -36.181 4294967295
351.83762 23.956556 -37.858486 4294967295
351.85815 41.122425 -33.719391 4294967295
351.8606 33.695232 -36.234123 4294967295
351.86429 25.829144 -38.472569 4294967295
351.86578 24.417004 -37.706783 4294967295
351.86719 42.058556 -34.090359 4294967295
351.87634 41.588333 -33.71035 4294967295
351.8797 25.353321 -38.005226 4294967295
351.90295 34.623444 -36.128868 4294967295
351.92239 27.219593 -38.390709 4294967295
351.92426 26.27861 -37.868382 4294967295
351.92886 34.147476 -35.511581 4294967295
351.95908 36.017776 -36.076851 4294967295
351.96243 35.547813 -35.780895 4294967295
351.98328 28.139532 -38.021809 4294967295
352.01617 36.943096 -35.762203 4294967295
352.03665 28.592453 -37.512341 4294967295
352.05319 29.057228 -37.524734 4294967295
352.07697 29.519802 -37.435944 4294967295
352.10495 38.331379 -35.246319 4294967295
352.12686 39.733234 -35.680832 4294967295
352.13934 38.793472 -35.006466 4294967295
352.15222 29.966982 -36.616405 4294967295
352.15793 30.435287 -36.783077 4294967295
352.16895 31.841148 -37.370041 4294967295
352.1731 31.370457 -37.063187 4294967295
352.1933 32.303833 -37.272713 4294967295
352.19476 40.18943 -34.965229 4294967295
352.20459 23.033304 -38.650257 4294967295
352.22235 32.765316 -37.108017 4294967295
352.25397 23.95599 -38.444927 4294967295
352.2561 24.425699 -38.661652 4294967295
352.27057 23.479052 -37.962944 4294967295
352.27682 42.04958 -34.794834 4294967295
352.2915 25.353584 -38.654339 4294967295
352.29449 41.578281 -34.295559 4294967295
352.30252 40.639252 -33.684097 4294967295
352.30591 24.878094 -38.204178 4294967295
352.32361 33.208069 -35.920929 4294967295
352.32449 33.677441 -36.156715 4294967295
352.34616 26.274868 -38.374954 4294967295
352.35797 34.607857 -36.178001 4294967295
352.36496 35.075386 -36.326237 4294967295
352.37296 25.795296 -37.749687 4294967295
352.37561 34.134041 -35.680202 4294967295
352.39423 35.53759 -36.159554 4294967295
352.42758 27.657814 -37.965031 4294967295
352.48758 29.518013 -38.103729 4294967295
352.4881 37.861389 -36.069016 4294967295
352.49792 36.452339 -35.187702 4294967295
352.49869 35.982761 -34.929016 4294967295
352.49963 28.104584 -37.193756 4294967295
352.53268 28.564262 -36.973572 4294967295
352.53546 37.382607 -35.151787 4294967295
352.54181 36.912003 -34.814461 4294967295
352.59045 38.309425 -34.869686 4294967295
352.59128 38.778198 -35.104721 4294967295
352.64172 30.411533 -36.421608 4294967295
352.66663 39.232666 -34.287296 4294967295
352.67365 40.169174 -34.683315 4294967295
352.68646 23.949295 -38.796993 4294967295
352.72723 23.463528 -37.97776 4294967295
352.728 31.796875 -35.944817 4294967295
352.73544 24.872173 -38.599201 4294967295
352.73947 40.626408 -34.001106 4294967295
352.7403 24.400028 -38.285503 4294967295
352.74124 41.56353 -34.470932 4294967295
352.74588 25.338671 -38.697533 4294967295
352.75858 33.197823 -36.252922 4294967295
352.759 42.029167 -34.467094 4294967295
352.77115 34.133343 -36.56834 4294967295
352.77426 33.663254 -36.278557 4294967295
352.78259 32.72184 -35.668648 4294967295
352.83951 25.776234 -37.62664 4294967295
352.84036 26.716503 -38.105175 4294967295
352.84311 34.584911 -35.801525 4294967295
352.88718 35.043724 -35.427528 4294967295
352.89642 35.510937 -35.543686 4294967295
352.89865 27.167244 -37.531895 4294967295
352.91702 36.444603 -35.745544 4294967295
352.93307 28.096291 -37.538452 4294967295
352.95703 27.618391 -36.957127 4294967295
352.99838 36.895973 -34.848076 4294967295
353.00357 37.833107 -35.266895 4294967295
353.00375 28.544039 -36.791668 4294967295
353.01074 37.362556 -34.919777 4294967295
353.03723 38.764069 -35.285465 4294967295
353.04474 29.471678 -36.706577 4294967295
353.04672 30.880442 -37.414589 4294967295
353.07181 31.342798 -37.307587 4294967295
353.0791 39.693504 -35.189369 4294967295
353.0947 29.926796 -36.251194 4294967295
353.10016 23.008787 -38.919346 4294967295
353.11862 40.154972 -34.880013 4294967295
353.12122 30.389099 -36.124134 4294967295
353.12439 23.470158 -38.824471 4294967295
353.12878 39.215431 -34.244846 4294967295
353.159 40.616531 -34.558773 4294967295
353.16342 32.726044 -36.758083 4294967295
353.17673 24.391701 -38.58036 4294967295
353.19092 33.18819 -36.617142 4294967295
353.19452 32.248184 -36.077557 4294967295
353.19922 31.777058 -35.766342 4294967295
353.19998 23.912722 -38.010654 4294967295
353.23376 33.64658 -36.262577 4294967295
353.25394 42.475288 -34.208931 4294967295
353.26544 26.711319 -38.559914 4294967295
353.26624 26.241089 -38.304779 4294967295
353.26904 42.004444 -33.751957 4294967295
353.2973 25.760208 -37.626575 4294967295
353.30322 34.098618 -35.534004 4294967295
353.31647 34.564884 -35.593941 4294967295
353.33221 35.030499 -35.618332 4294967295
353.34186 27.155964 -37.736301 4294967295
353.34872 35.965057 -35.876541 4294967295
353.39026 27.610294 -37.303196 4294967295
353.39389 36.424049 -35.489529 4294967295
353.39957 37.36068 -35.898952 4294967295
353.41995 37.82518 -35.859074 4294967295
353.42935 28.067955 -37.001865 4294967295
353.45587 36.879711 -34.866837 4294967295
353.46078 28.528208 -36.806057 4294967295
353.4715 28.995003 -36.900677 4294967295
353.48697 38.749187 -35.411125 4294967295
353.49774 39.215729 -35.505363 4294967295
353.50134 38.277576 -34.965656 4294967295
353.53741 29.915184 -36.468803 4294967295
353.59088 31.779068 -36.698292 4294967295
353.59348 22.979336 -38.417355 4294967295
353.59451 30.838552 -36.15955 4294967295
353.59613 39.666199 -34.374664 4294967295
353.6033 23.916639 -38.766869 4294967295
353.6055 31.305336 -36.250572 4294967295
353.63095 40.128811 -34.133038 4294967295
353.63455 32.70628 -36.576916 4294967295
353.64606 32.233688 -36.172665 4294967295
353.65018 41.062984 -34.353855 4294967295
353.65186 33.171116 -36.578644 4294967295
353.65723 41.530346 -34.499493 4294967295
353.65894 23.425587 -37.748772 4294967295
353.66681 41.997211 -34.610092 4294967295
353.66812 40.591213 -33.858723 4294967295
353.68509 24.827866 -38.114017 4294967295
353.68686 24.356766 -37.846497 4294967295
353.69543 25.764683 -38.456104 4294967295
353.69629 34.098385 -36.446865 4294967295
353.70319 33.627388 -36.107761 4294967295
353.72433 42.456795 -34.051552 4294967295
353.72696 26.223969 -38.260406 4294967295
353.7355 34.557987 -36.144047 4294967295
353.78598 26.67425 -37.681751 4294967295
353.81552 27.604692 -37.756935 4294967295
353.81583 35.008125 -35.269299 4294967295
353.82977 27.129986 -37.315884 4294967295
353.83948 35.941284 -35.426456 4294967295
353.84772 28.064342 -37.551826 4294967295
353.85013 28.533436 -37.761505 4294967295
353.85165 35.469208 -35.013672 4294967295
353.88181 36.870216 -35.324654 4294967295
353.89178 28.99036 -37.424992 4294967295
353.95752 38.730267 -35.244888 4294967295
353.96179 38.260639 -34.942322 4294967295
353.99118 29.900265 -36.530003 4294967295
353.99588 29.428814 -36.221855 4294967295
354.00128 30.367195 -36.632183 4294967295
354.03146 39.653831 -34.703537 4294967295
354.03629 22.968922 -38.619976 4294967295
354.05563 30.821495 -36.121029 4294967295
354.05765 23.43145 -38.565845 4294967295
354.06076 31.289898 -36.292439 4294967295
354.06583 40.584995 -34.712444 4294967295
354.08026 32.223804 -36.506462 4294967295
354.08792 31.752138 -36.157928 4294967295
354.11542 24.821491 -38.490772 4294967295
354.11771 25.290771 -38.700226 4294967295
354.11966 41.513039 -34.451611 4294967295
354.13101 33.149368 -36.287605 4294967295
354.1395 32.677666 -35.927425 4294967295
354.15457 25.74807 -38.431931 4294967295
354.16614 34.548222 -36.527878 4294967295
354.16733 41.036625 -33.545658 4294967295
354.18723 34.073933 -35.99332 4294967295
354.20044 41.968884 -33.573143 4294967295
354.20282 42.437107 -33.782822 4294967295
354.22104 26.665691 -37.995193 4294967295
354.28564 28.05447 -37.826241 4294967295
354.28827 35.926994 -35.562668 4294967295
354.28836 35.457783 -35.31929 4294967295
354.31003 36.391235 -35.503223 4294967295
354.31027 27.106514 -37.002205 4294967295
354.31058 28.516422 -37.722569 4294967295
354.35883 29.910587 -37.779911 4294967295
354.3783 36.845604 -34.800949 4294967295
354.39124 28.961529 -36.849712 4294967295
354.397 29.429672 -37.011219 4294967295
354.41858 37.306339 -34.485607 4294967295
354.43808 39.178123 -35.184025 4294967295
354.44388 38.708344 -34.862251 4294967295
354.44556 38.239101 -34.59634 4294967295
354.46182 23.435061 -39.297638 4294967295
354.47839 22.958698 -38.829296 4294967295
354.48587 40.106525 -35.007282 4294967295
354.48618 31.2827 -36.745285 4294967295
354.4873 30.342913 -36.246384 4294967295
354.48822 23.895502 -39.174385 4294967295
354.49051 39.637135 -34.701363 4294967295
354.53961 32.207157 -36.489635 4294967295
354.54767 33.143616 -36.8606 4294967295
354.5575 31.732765 -36.001877 4294967295
354.58496 32.66468 -36.105293 4294967295
354.5957 41.493553 -34.214848 4294967295
354.59595 40.55616 -33.727604 4294967295
354.6116 41.022354 -33.753376 4294967295
354.62207 25.728603 -38.291943 4294967295
354.62714 25.256744 -37.982285 4294967295
354.63983 24.781965 -37.567089 4294967295
354.65781 26.186558 -38.040497 4294967295
354.67651 33.580421 -35.325207 4294967295
354.677 41.949432 -33.333874 4294967295
354.69888 34.044468 -35.25758 4294967295
354.70026 34.513611 -35.48053 4294967295
354.70587 27.580425 -38.099197 4294967295
354.72098 34.978039 -35.435936 4294967295
354.72208 26.6353 -37.396759 4294967295
354.75491 27.09473 -37.185192 4294967295
354.75845 28.033573 -37.616863 4294967295
354.76071 36.376419 -35.610703 4294967295
354.7955 36.837883 -35.372887 4294967295
354.8183 35.894531 -34.576595 4294967295
354.83139 29.890011 -37.573872 4294967295
354.84583 28.946367 -36.895588 4294967295
354.84961 30.354153 -37.563591 4294967295
354.86017 37.29335 -34.723728 4294967295
354.86353 37.761681 -34.918556 4294967295
354.88 38.696037 -35.173462 4294967295
354.88138 29.405615 -36.64772 4294967295
354.90271 39.160366 -35.10125 4294967295
354.91632 31.274103 -37.127445 4294967295
354.93027 38.217419 -34.240551 4294967295
354.97034 22.929913 -38.352764 4294967295
354.99274 23.392132 -38.284637 4294967295
355.02789 31.713184 -35.835648 4294967295
355.0296 24.789711 -38.496819 4294967295
355.03464 40.542912 -34.009418 4294967295
355.04059 33.118382 -36.381268 4294967295
355.04434 32.178478 -35.849392 4294967295
355.05298 24.311256 -37.937908 4294967295
355.05463 41.476818 -34.216255 4294967295
355.06552 32.642544 -35.799099 4294967295
355.07141 25.245308 -38.163479 4294967295
355.08282 34.046234 -36.281185 4294967295
355.0896 41.939819 -33.975845 4294967295
355.09393 25.707691 -38.093987 4294967295
355.1037 34.510281 -36.234608 4294967295
355.12381 33.566818 -35.479031 4294967295
355.14996 26.629025 -37.805111 4294967295
355.16473 42.39706 -33.18475 4294967295
355.16779 27.093142 -37.7999 4294967295
355.17426 26.15086 -37.23357 4294967295
355.22083 34.951958 -34.868729 4294967295
355.25739 36.351624 -35.087345 4294967295
355.26349 35.881065 -34.764065 4294967295
355.26422 28.472359 -37.19714 4294967295
355.26727 37.287426 -35.430576 4294967295
355.29468 29.402649 -37.258698 4294967295
355.30054 28.931166 -36.93948 4294967295
355.32877 29.862272 -37.031265 4294967295
355.33505 38.211395 -34.981934 4294967295
355.36493 37.736519 -34.333004 4294967295
355.36569 38.674267 -34.802452 4294967295
355.36771 30.32069 -36.737938 4294967295
355.38968 22.928057 -38.870689 4294967295
355.39728 30.781967 -36.572941 4294967295
355.39905 23.394791 -38.980198 4294967295
355.4321 31.241922 -36.335716 4294967295
355.43262 31.7113 -36.567352 4294967295
355.43408 39.599125 -34.345375 4294967295
355.44843 40.533836 -34.628044 4294967295
355.45865 40.063507 -34.248894 4294967295
355.46735 32.171463 -36.331509 4294967295
355.48309 32.636726 -36.354916 4294967295
355.50208 23.827866 -37.813766 4294967295
355.51062 33.098999 -36.218403 4294967295
355.53101 41.925739 -34.2173 4294967295
355.53647 24.286106 -37.582981 4294967295
355.53723 25.226414 -38.048138 4294967295
355.54019 33.56086 -36.053398 4294967295
355.55154 41.454067 -33.697796 4294967295
355.55405 25.690769 -38.057293 4294967295
355.55536 24.749916 -37.563778 4294967295
355.57645 34.490398 -36.035564 4294967295
355.58365 26.620739 -38.129017 4294967295
355.62433 42.380219 -33.181526 4294967295
355.63751 35.883289 -35.918129 4294967295
355.64554 34.943363 -35.331844 4294967295
355.65271 27.538147 -37.664471 4294967295
355.65329 27.068077 -37.418949 4294967295
355.66724 35.407623 -35.274864 4294967295
355.72174 36.802872 -35.246868 4294967295
355.74353 36.329155 -34.711617 4294967295
355.75974 37.263905 -34.968151 4294967295
355.76736 28.442366 -36.5798 4294967295
355.77731 28.909328 -36.682484 4294967295
355.80829 38.191956 -34.783207 4294967295
355.84274 30.299597 -36.505089 4294967295
355.84964 38.652855 -34.458042 4294967295
355.87164 31.230698 -36.587215 4294967295
355.88281 23.839325 -38.854351 4294967295
355.88501 30.757431 -36.168884 4294967295
355.88885 31.695471 -36.590927 4294967295
355.90817 39.57975 -34.138817 4294967295
355.92062 39.108566 -33.730675 4294967295
355.93723 32.621414 -36.408821 4294967295
355.95187 24.284977 -38.154785 4294967295
355.95993 40.976871 -34.149101 4294967295
355.9693 25.6889 -38.628006 4294967295
355.9693 32.143623 -35.73568 4294967295
355.98975 41.908993 -34.219707 4294967295
355.99118 40.503014 -33.485523 4294967295
355.99411 33.545528 -36.111263 4294967295
355.99432 34.014576 -36.34552 4294967295
355.99689 24.739494 -37.781143 4294967295
356.0079 34.480286 -36.398045 4294967295
356.01303 41.436928 -33.664516 4294967295
356.02188 33.069252 -35.497086 4294967295
356.03574 27.076029 -38.436726 4294967295
356.03918 26.605288 -38.154018 4294967295
356.0415 26.134691 -37.886192 4294967295
356.04758 34.93993 -36.096775 4294967295
356.05698 42.367325 -33.543613 4294967295
356.09714 27.99576 -38.078197 4294967295
356.10559 27.523523 -37.727863 4294967295
356.12805 35.390617 -35.242756 4294967295
356.1373 28.452961 -37.77121 4294967295
356.15335 35.854122 -35.137089 4294967295
356.20169 28.90316 -37.135822 4294967295
356.23706 37.243523 -34.714046 4294967295
356.2464 37.71056 -34.824539 4294967295
356.25076 29.358349 -36.70805 4294967295
356.26703 29.823318 -36.724041 4294967295
356.27066 38.174637 -34.733116 4294967295
356.31677 38.634655 -34.345139 4294967295
356.33536 39.100029 -34.331009 4294967295
356.34268 23.822411 -38.816589 4294967295
356.34412 31.679892 -36.627022 4294967295
356.36044 30.736361 -35.934395 4294967295
356.37466 22.870361 -37.914062 4294967295
356.38348 23.337627 -38.03101 4294967295
356.38907 40.02795 -34.07806 4294967295
356.39255 40.964405 -34.504799 4294967295
356.40262 40.494278 -34.130951 4294967295
356.42972 24.261848 -37.87825 4294967295
356.43271 32.125957 -35.666309 4294967295
356.43298 33.533871 -36.370701 4294967295
356.452 25.664349 -38.28323 4294967295
356.46564 42.357914 -34.226692 4294967295
356.47681 24.715769 -37.477844 4294967295
356.47748 25.185791 -37.704918 4294967295
356.48758 33.989723 -35.870087 4294967295
356.52103 34.450916 -35.654285 4294967295
356.53857 27.515087 -38.057259 4294967295
356.55615 27.039852 -37.585369 4294967295
356.59641 35.841 -35.344826 4294967295
356.60791 28.902288 -37.828552 4294967295
356.63162 28.42568 -37.275021 4294967295
356.63599 27.954565 -36.980537 4294967295
356.63687 36.301247 -35.03511 4294967295
356.68307 29.349621 -37.052021 4294967295
356.69391 37.696186 -34.974281 4294967295
356.69647 36.757736 -34.467361 4294967295
356.72327 29.807585 -36.746628 4294967295
356.78018 39.085926 -34.518509 4294967295
356.79279 22.868771 -38.441216 4294967295
356.7941 30.726868 -36.263836 4294967295
356.79419 39.552029 -34.566082 4294967295
356.80038 38.613373 -34.010849 4294967295
356.8237 31.188366 -36.100796 4294967295
356.82907 31.656416 -36.263332 4294967295
356.83209 32.594131 -36.692726 4294967295
356.85046 23.318249 -37.901287 4294967295
356.86774 40.007854 -33.811382 4294967295
356.87241 32.114471 -35.915958 4294967295
356.88116 23.777689 -37.723495 4294967295
356.88638 25.186188 -38.355595 4294967295
356.89209 40.472466 -33.718849 4294967295
356.89362 40.940834 -33.934032 4294967295
356.89514 24.713261 -38.00436 4294967295
356.90366 24.240128 -37.655849 4294967295
356.9079 41.407047 -33.977634 4294967295
356.92114 41.873383 -34.035244 4294967295
356.93008 33.038628 -35.610565 4294967295
356.95816 42.336212 -33.773228 4294967295
356.95834 25.632015 -37.625114 4294967295
356.97305 26.566975 -37.895321 4294967295
356.9856 33.963772 -35.334297 4294967295
356.99554 26.089781 -37.359856 4294967295
357.0213 34.893909 -35.325485 4294967295
357.0217 27.021233 -37.477551 4294967295
357.03943 34.42041 -34.846416 4294967295
357.05484 36.293365 -35.578712 4294967295
357.07452 35.820213 -35.080433 4294967295
357.09048 28.409145 -37.257385 4294967295
357.09198 35.347149 -34.611031 4294967295
357.11942 29.339647 -37.338154 4294967295
357.12277 36.747936 -34.902531 4294967295
357.13123 28.866638 -36.945911 4294967295
357.14053 29.80294 -37.288841 4294967295
357.15213 37.210846 -34.74358 4294967295
357.15509 30.26812 -37.327873 4294967295
357.16541 37.677044 -34.79958 4294967295
357.17926 30.730625 -37.238289 4294967295
357.23862 23.327042 -38.82457 4294967295
357.2504 38.129425 -33.895069 4294967295
357.26495 38.595676 -33.934345 4294967295
357.26816 31.645109 -36.515369 4294967295
357.26926 39.063759 -34.1115 4294967295
357.27313 31.17441 -36.216045 4294967295
357.27371 22.844265 -38.12331 4294967295
357.29471 32.576572 -36.627987 4294967295
357.31061 32.103302 -36.181721 4294967295
357.31512 40.461723 -34.200943 4294967295
357.3157 39.993042 -33.958374 4294967295
357.32025 25.178051 -38.66695 4294967295
357.33624 24.232796 -37.987751 4294967295
357.35587 41.391998 -34.123878 4294967295
357.38229 40.919315 -33.535046 4294967295
357.38235 24.687073 -37.605145 4294967295
357.38516 33.023048 -35.652821 4294967295
357.39169 26.563335 -38.411472 4294967295
357.40433 26.089626 -38.010166 4294967295
357.41315 25.616867 -37.65966 4294967295
357.43463 41.848396 -33.303993 4294967295
357.4404 42.316036 -33.461212 4294967295
357.45099 35.352844 -35.940987 4294967295
357.45319 33.94516 -35.210888 4294967295
357.47488 34.409348 -35.154518 4294967295
357.48154 27.004408 -37.446178 4294967295
357.51648 35.807289 -35.299717 4294967295
357.5723 36.733261 -35.022308 4294967295
357.57828 29.323082 -37.320156 4294967295
357.58765 28.381149 -36.73003 4294967295
357.59641 29.787228 -37.311485 4294967295
357.61624 37.193165 -34.66959 4294967295
357.63504 37.658287 -34.651863 4294967295
357.66238 30.238033 -36.665592 4294967295
357.68008 39.055798 -34.750984 4294967295
357.69324 38.584743 -34.342499 4294967295
357.6954 23.311211 -38.826832 4294967295
357.70758 22.836811 -38.433685 4294967295
357.73282 31.157667 -36.192673 4294967295
357.73956 39.513771 -34.191849 4294967295
357.7594 23.758629 -38.20892 4294967295
357.76117 24.697821 -38.648773 4294967295
357.77716 40.444477 -34.157028 4294967295
357.7814 31.61425 -35.778839 4294967295
357.78305 40.911919 -34.31189 4294967295
357.79306 32.549995 -36.088963 4294967295
357.80032 32.078804 -35.759892 4294967295
357.80194 33.016933 -36.203186 4294967295
357.8172 24.208656 -37.672531 4294967295
357.82794 25.145094 -37.993565 4294967295
357.83688 33.946465 -36.203316 4294967295
357.85065 34.412094 -36.252621 4294967295
357.8508 33.474087 -35.785652 4294967295
357.86108 41.836514 -33.739006 4294967295
357.86566 25.602463 -37.724319 4294967295
357.87454 41.365963 -33.326073 4294967295
357.89444 27.002323 -38.03717 4294967295
357.89514 26.062717 -37.56498 4294967295
357.91916 26.524837 -37.477871 4294967295
357.92236 27.463123 -37.898277 4294967295
357.94836 42.292164 -32.809937 4294967295
357.95236 27.923405 -37.732113 4294967295
357.98526 35.3195 -34.928883 4294967295
357.99701 36.723675 -35.469818 4294967295
358.01514 36.251091 -34.996288 4294967295
358.03003 28.839167 -37.165245 4294967295
358.03418 37.184761 -35.208145 4294967295
358.05005 28.363604 -36.667896 4294967295
358.05881 37.648514 -35.11311 4294967295
358.07117 29.766146 -37.082596 4294967295
358.09186 38.579254 -35.139004 4294967295
358.10324 30.695723 -37.120262 4294967295
358.117 29.283508 -36.243645 4294967295
358.12418 30.22068 -36.611759 4294967295
358.13452 38.102615 -34.340611 4294967295
358.13788 31.155537 -36.893517 4294967295
358.16022 22.822517 -38.491943 4294967295
358.18143 23.75494 -38.672348 4294967295
358.1843 31.612415 -36.509529 4294967295
358.19254 39.498108 -34.267502 4294967295
358.19623 32.078468 -36.583004 4294967295
358.22281 23.270363 -37.895061 4294967295
358.23169 24.207441 -38.239029 4294967295
358.27917 40.420643 -33.58321 4294967295
358.27972 40.88913 -33.808456 4294967295
358.28067 24.660694 -37.822205 4294967295
358.28073 26.069857 -38.512615 4294967295
358.29126 32.992844 -35.787785 4294967295
358.30634 42.289955 -34.151642 4294967295
358.31204 33.925995 -35.974884 4294967295
358.32208 25.586739 -37.735954 4294967295
358.3324 25.113361 -37.369308 4294967295
358.33398 41.349155 -33.321529 4294967295
358.3588 33.445663 -35.125637 4294967295
358.36731 34.382107 -35.475662 4294967295
358.37817 26.508272 -37.456535 4294967295
358.38937 27.444027 -37.769032 4294967295
358.39627 27.911341 -37.908554 4294967295
358.40286 26.970251 -37.361244 4294967295
358.43655 34.835445 -34.791718 4294967295
358.45981 35.299454 -34.714771 4294967295
358.46857 35.766663 -34.830742 4294967295
358.47321 36.234657 -35.00098 4294967295
358.4949 37.167732 -35.176056 4294967295
358.5192 28.344074 -36.51754 4294967295
358.534 37.628666 -34.890949 4294967295
358.54123 28.807335 -36.456944 4294967295
358.55417 38.561909 -35.086346 4294967295
358.55429 29.742756 -36.745899 4294967295
358.55569 36.686516 -34.141834 4294967295
358.57452 30.675766 -36.939316 4294967295
358.58597 39.024521 -34.897511 4294967295
358.58655 22.8176 -38.895313 4294967295
358.60052 31.137932 -36.826931 4294967295
358.60718 30.197468 -36.278389 4294967295
358.62527 39.485973 -34.609928 4294967295
358.62637 23.273361 -38.600643 4294967295
358.63779 23.739227 -38.679943 4294967295
358.65845 32.061016 -36.524338 4294967295
358.6962 39.942291 -33.904797 4294967295
358.71555 24.182339 -37.886768 4294967295
358.72565 25.588287 -38.442383 4294967295
358.74106 40.872002 -33.775055 4294967295
358.74747 40.40239 -33.459484 4294967295
358.75537 32.974998 -35.708141 4294967295
358.76749 41.336319 -33.657352 4294967295
358.77859 33.438538 -35.632427 4294967295
358.79398 34.372932 -35.890282 4294967295
358.79404 25.095974 -37.314022 4294967295
358.79538 33.903652 -35.641842 4294967295
358.80338 41.799328 -33.415611 4294967295
358.81546 26.028851 -37.491337 4294967295
358.82101 42.265129 -33.413513 4294967295
358.82996 34.833614 -35.646553 4294967295
358.86765 35.762924 -35.611355 4294967295
358.87183 27.420254 -37.439407 4294967295
358.87219 35.29311 -35.320797 4294967295
358.91086 36.222473 -35.272461 4294967295
358.91653 26.936665 -36.62207 4294967295
358.93781 36.685631 -35.14843 4294967295
358.94431 37.152958 -35.292774 4294967295
358.97974 29.26626 -36.938908 4294967295
358.99176 28.79327 -36.5518 4294967295
358.99625 28.322212 -36.26358 4294967295
359.02188 37.606369 -34.503475 4294967295
359.02399 22.808609 -39.148415 4294967295
359.0274 38.542557 -34.890316 4294967295
359.0304 38.073444 -34.620811 4294967295
359.05579 30.653133 -36.628872 4294967295
359.0564 39.005737 -34.739273 4294967295
359.07971 30.177197 -36.085751 4294967295
359.09238 23.254276 -38.481476 4294967295
359.09839 31.111008 -36.299255 4294967295
359.12671 39.930367 -34.27523 4294967295
359.16806 24.637836 -38.17588 4294967295
359.18539 32.49638 -35.84634 4294967295
359.18674 24.161613 -37.703247 4294967295
359.18759 33.433899 -36.274956 4294967295
359.19016 25.100224 -38.115524 4294967295
359.20239 33.8992 -36.31002 4294967295
359.20432 40.854568 -33.716522 4294967295
359.21707 32.957745 -35.659969 4294967295
359.21829 26.030262 -38.203377 4294967295
359.22305 41.788364 -33.930012 4294967295
359.23331 41.318512 -33.566456 4294967295
359.3252 35.277782 -35.388836 4294967295
359.345 26.459761 -36.775562 4294967295
359.34695 36.210598 -35.562302 4294967295
359.35223 26.927391 -36.909145 4294967295
359.35641 27.395851 -37.082882 4294967295
359.39087 28.324673 -37.089069 4294967295
359.405 36.667286 -35.031578 4294967295
359.40756 29.258532 -37.326996 4294967295
359.41519 35.727303 -34.440022 4294967295
359.41965 28.785732 -36.941227 4294967295
359.45892 37.12521 -34.555004 4294967295
359.46893 30.179783 -36.981991 4294967295
359.46957 29.710342 -36.745556 4294967295
359.47522 37.59079 -34.570744 4294967295
359.51187 38.52116 -34.549049 4294967295
359.52567 30.633595 -36.469086 4294967295
359.53717 22.772722 -38.412472 4294967295
359.55313 23.237049 -38.431812 4294967295
359.56628 38.979935 -34.066521 4294967295
359.57928 23.697834 -38.317921 4294967295
359.58386 31.087433 -35.938087 4294967295
359.61523 32.48703 -36.212681 4294967295
359.61774 39.908241 -33.851784 4294967295
359.62271 39.438736 -33.558224 4294967295
359.63162 32.013767 -35.771282 4294967295
359.63983 24.147076 -37.757275 4294967295
359.6546 32.946369 -35.9268 4294967295
359.65933 40.83844 -33.765781 4294967295
359.67252 25.545618 -38.012806 4294967295
359.69586 25.068245 -37.482159 4294967295
359.71231 34.808262 -36.085781 4294967295
359.72733 33.867149 -35.434956 4294967295
359.73663 34.334 -35.541527 4294967295
359.73862 42.231579 -33.416588 4294967295
359.74658 41.762035 -33.084003 4294967295
359.78329 35.26133 -35.389103 4294967295
359.78912 26.447918 -36.95026 4294967295
359.79605 28.323854 -37.767906 4294967295
359.80142 27.852991 -37.471237 4294967295
359.81763 36.191475 -35.39814 4294967295
359.83264 26.904261 -36.611568 4294967295
359.84564 27.370119 -36.669685 4294967295
359.87854 37.584827 -35.287476 4294967295
359.88293 29.237255 -37.092388 4294967295
359.90234 28.762321 -36.613792 4294967295
359.90247 37.111607 -34.748924 4294967295
359.9473 29.688549 -36.483906 4294967295
359.96753 38.505066 -34.585346 4294967295
359.99088 31.084524 -36.598038 4294967295
359.99637 30.613865 -36.299881 4294967295
360.0069 30.141607 -35.936531 4294967295
360.0141 22.749786 -38.152878 4294967295
360.03445 32.480236 -36.712418 4294967295
360.04565 38.959614 -33.796837 4294967295
360.05133 32.007095 -36.267025 4294967295
360.05539 23.205376 -37.843674 4294967295
360.0564 24.144835 -38.283131 4294967295
360.06528 32.941467 -36.539288 4294967295
360.07898 31.530838 -35.68124 4294967295
360.12341 40.820877 -33.696335 4294967295
360.12576 24.591404 -37.610424 4294967295
360.14084 25.525986 -37.867077 4294967295
360.14169 33.392014 -35.774914 4294967295
360.16135 41.283432 -33.431026 4294967295
360.17392 26.454542 -37.890499 4294967295
360.17615 34.321789 -35.781483 4294967295
360.17728 41.74942 -33.451466 4294967295
360.17838 25.983612 -37.607197 4294967295
360.18198 34.789211 -35.932915 4294967295
360.19241 33.849121 -35.343899 4294967295
360.22812 27.376688 -37.640652 4294967295
360.23233 27.844707 -37.812046 4294967295
360.24136 26.903175 -37.24345 4294967295
360.25311 35.242325 -35.237324 4294967295
360.26871 28.303204 -37.567276 4294967295
360.31323 28.759552 -37.217293 4294967295
360.32593 35.695633 -34.520157 4294967295
360.3327 29.223234 -37.191383 4294967295
360.39447 36.619495 -34.086044 4294967295
360.39536 30.613277 -37.058655 4294967295
360.39645 29.674683 -36.592922 4294967295
360.3978 37.087765 -34.268963 4294967295
360.4072 30.141001 -36.679794 4294967295
360.41034 37.554134 -34.333523 4294967295
360.4245 38.488697 -34.603062 4294967295
360.46347 38.950191 -34.325222 4294967295
360.48004 31.529137 -36.416058 4294967295
360.48273 31.059292 -36.154945 4294967295
360.49423 32.463367 -36.683624 4294967295
360.51254 40.346928 -34.369816 4294967295
360.52209 39.408524 -33.793194 4294967295
360.55481 39.871597 -33.596909 4294967295
360.56006 32.916149 -36.059261 4294967295
360.56244 31.977364 -35.577175 4294967295
360.56406 33.384037 -36.233509 4294967295
360.58496 40.803707 -33.659851 4294967295
360.58728 24.104033 -37.329102 4294967295
360.6037 24.568575 -37.343098 4294967295
360.61075 34.310646 -36.081684 4294967295
360.61371 41.267654 -33.514236 4294967295
360.61804 42.203419 -33.911289 4294967295
360.64355 33.834324 -35.432911 4294967295
360.65955 26.429625 -37.522545 4294967295
360.66647 25.487988 -36.984051 4294967295
360.67383 41.727119 -32.963764 4294967295
360.68301 25.952583 -36.995453 4294967295
360.72964 35.221878 -34.999264 4294967295
360.75195 27.340557 -36.782402 4294967295
360.76019 26.868305 -36.451614 4294967295
360.80325 29.67247 -37.245663 4294967295
360.80481 36.143814 -34.481358 4294967295
360.83218 36.60714 -34.354084 4294967295
360.83942 30.131626 -37.0051 4294967295
360.84109 37.074188 -34.464878 4294967295
360.85721 28.718653 -36.102474 4294967295
360.85925 29.187639 -36.300526 4294967295
360.88315 23.203346 -38.951878 4294967295
360.91086 31.050739 -36.535748 4294967295
360.91367 37.528984 -33.755119 4294967295
360.92343 37.996021 -33.855015 4294967295
360.93945 30.574009 -35.943207 4294967295
360.95636 38.458782 -33.656227 4294967295
360.99203 40.326839 -34.098526 4294967295
360.99417 40.794708 -34.296684 4294967295
360.99689 23.63418 -37.716667 4294967295
361.00275 24.571774 -38.088734 4294967295
361.00336 39.388 -33.502296 4294967295
361.00537 32.902794 -36.219078 4294967295
361.01862 31.961491 -35.599899 4294967295
361.02661 32.42868 -35.722092 4294967295
361.03897 25.499081 -38.071507 4294967295
361.06226 41.720646 -33.870857 4294967295
361.0672 26.428905 -38.157139 4294967295
361.06821 33.356731 -35.636204 4294967295
361.08383 25.954353 -37.720871 4294967295
361.09134 33.820274 -35.563824 4294967295
361.09518 25.011307 -37.127308 4294967295
361.09668 42.183807 -33.653236 4294967295
361.13208 26.878305 -37.549206 4294967295
361.14578 35.214462 -35.538536 4294967295
361.18723 27.331093 -37.066078 4294967295
361.23666 35.66391 -34.596615 4294967295
361.24438 36.131149 -34.721546 4294967295
361.25668 27.780048 -36.400009 4294967295
361.2608 29.656204 -37.24194 4294967295
361.26105 37.06514 -34.95689 4294967295
361.27505 28.24432 -36.388855 4294967295
361.27853 29.182167 -36.791531 4294967295
361.31619 28.702126 -36.085938 4294967295
361.32919 37.520603 -34.30759 4294967295
361.3609 30.098139 -36.184593 4294967295
361.36978 37.981682 -34.011261 4294967295
361.38693 23.171261 -38.349197 4294967295
361.39539 31.027477 -36.190037 4294967295
361.39539 31.965408 -36.637211 4294967295
361.4104 38.442993 -33.715305 4294967295
361.41479 30.55312 -35.718563 4294967295
361.42758 38.908646 -33.719879 4294967295
361.43005 24.565529 -38.466557 4294967295
361.44104 31.484924 -35.830231 4294967295
361.46005 40.308624 -33.976547 4294967295
361.47372 39.369347 -33.352661 4294967295
361.48038 32.413338 -35.773708 4294967295
361.48737 24.076925 -37.512421 4294967295
361.49817 25.012856 -37.819923 4294967295
361.51166 39.831699 -33.091274 4294967295
361.51923 25.945103 -37.996426 4294967295
361.52023 33.341736 -35.711239 4294967295
361.53442 34.275986 -35.976593 4294967295
361.54401 25.467789 -37.457874 4294967295
361.54453 40.763702 -33.11916 4294967295
361.56824 26.868591 -37.816448 4294967295
361.57559 41.227482 -32.945278 4294967295
361.58112 33.79657 -35.156723 4294967295
361.60983 41.690941 -32.731606 4294967295
361.62067 26.383099 -36.925026 4294967295
361.6243 42.157345 -32.770893 4294967295
361.63394 34.722668 -34.928165 4294967295
361.63397 27.787468 -37.423283 4294967295
361.66965 27.307522 -36.746288 4294967295
361.68411 35.180763 -34.511478 4294967295
361.70364 36.114449 -34.708908 4294967295
361.71753 35.642685 -34.307842 4294967295
361.74924 28.692924 -36.399227 4294967295
361.75418 29.630135 -36.781227 4294967295
361.77438 37.037849 -34.252068 4294967295
361.7782 37.505806 -34.426811 4294967295
361.78052 36.567783 -33.950882 4294967295
361.78165 37.973694 -34.606155 4294967295
361.81699 30.551508 -36.426357 4294967295
361.83844 38.431858 -34.104809 4294967295
361.84799 31.48151 -36.476803 4294967295
361.86356 23.148598 -38.09713 4294967295
361.86404 38.895866 -34.001938 4294967295
361.87955 39.829998 -34.250683 4294967295
361.90759 23.603462 -37.758736 4294967295
361.91306 40.292801 -34.046425 4294967295
361.92642 31.93084 -35.70052 4294967295
361.93219 24.534752 -37.889996 4294967295
361.94394 24.06115 -37.518757 4294967295
361.95947 41.221977 -33.901169 4294967295
361.97113 33.326981 -35.799053 4294967295
361.98541 26.39546 -38.100201 4294967295
361.99109 40.748867 -33.274773 4294967295
361.99298 32.852856 -35.298557 4294967295
361.99442 24.984249 -37.321293 4294967295
362.00772 34.256092 -35.777973 4294967295
362.03128 41.679604 -33.209446 4294967295
362.04309 34.716934 -35.551022 4294967295
362.05164 33.777313 -34.997116 4294967295
362.06531 42.143063 -32.999001 4294967295
362.08945 26.833153 -37.001362 4294967295
362.09637 27.769817 -37.355991 4294967295
362.10965 36.108566 -35.371418 4294967295
362.12115 35.168823 -34.780693 4294967295
362.16727 29.157028 -37.121338 4294967295
362.17441 35.626507 -34.326672 4294967295
362.18277 36.562416 -34.664799 4294967295
362.19724 28.679462 -36.520168 4294967295
362.2113 37.962364 -34.96896 4294967295
362.21796 37.024174 -34.440083 4294967295
362.23196 30.546417 -36.964901 4294967295
362.24225 29.605587 -36.39212 4294967295
362.2608 30.069792 -36.378487 4294967295
362.26779 37.48333 -34.029449 4294967295
362.27127 38.888142 -34.651527 4294967295
362.27902 31.471891 -36.810947 4294967295
362.28604 38.417183 -34.242004 4294967295
362.29495 23.141344 -38.418346 4294967295
362.31812 39.348366 -34.279072 4294967295
362.33572 30.988491 -35.871517 4294967295
362.34628 23.59367 -37.989826 4294967295
362.3685 39.808304 -33.86211 4294967295
362.37042 24.055305 -37.905277 4294967295
362.37524 31.916744 -35.814117 4294967295
362.42255 24.977549 -37.687477 4294967295
362.42325 32.374054 -35.427025 4294967295
362.43524 25.44302 -37.747841 4294967295
362.43576 24.503603 -37.299625 4294967295
362.43674 41.670532 -33.884541 4294967295
362.43729 40.265625 -33.211266 4294967295
362.43948 33.308136 -35.664135 4294967295
362.47021 32.831928 -35.054413 4294967295
362.47144 41.197258 -33.223034 4294967295
362.47165 42.133583 -33.66391 4294967295
362.49158 33.765038 -35.226574 4294967295
362.52438 26.35433 -37.062233 4294967295
362.52963 34.225403 -34.966396 4294967295
362.53479 35.161827 -35.34333 4294967295
362.53635 26.82019 -37.131771 4294967295
362.54791 27.755337 -37.426414 4294967295
362.55182 34.689419 -34.906776 4294967295
362.58093 27.276348 -36.789146 4294967295
362.58817 35.619267 -34.889175 4294967295
362.61371 28.674789 -37.036316 4294967295
362.61734 36.55056 -34.962547 4294967295
362.63327 29.138435 -37.009903 4294967295
362.63467 37.015644 -34.965267 4294967295
362.64188 36.076996 -34.431911 4294967295
362.65244 28.194532 -36.327644 4294967295
362.67325 37.476719 -34.698273 4294967295
362.69156 30.060678 -36.715252 4294967295
362.69601 29.590393 -36.438583 4294967295
362.74637 30.515272 -36.244328 4294967295
362.77444 38.395214 -33.862339 4294967295
362.78168 31.913061 -36.459766 4294967295
362.79166 39.797398 -34.307449 4294967295
362.81528 24.043327 -38.056431 4294967295
362.8176 30.96603 -35.56678 4294967295
362.82776 32.370602 -36.099415 4294967295
362.82953 38.854172 -33.387848 4294967295
362.83884 24.974545 -38.198856 4294967295
362.84665 24.502611 -37.881023 4294967295
362.84927 40.724525 -34.022362 4294967295
362.85025 31.427006 -35.375141 4294967295
362.87674 33.296516 -35.922527 4294967295
362.87909 41.188103 -33.866798 4294967295
362.88416 25.898802 -38.067204 4294967295
362.88998 25.427692 -37.774536 4294967295
362.89478 40.249123 -33.227081 4294967295
362.90936 33.757732 -35.731506 4294967295
362.91867 41.650402 -33.588768 4294967295
362.92352 42.117737 -33.748291 4294967295
362.93112 32.814873 -35.017017 4294967295
362.93396 34.689434 -35.861778 4294967295
362.94461 34.218529 -35.508133 4294967295
362.97739 26.339558 -37.114918 4294967295
363.02319 36.076019 -35.398548 4294967295
363.0275 35.606659 -35.124969 4294967295
363.04367 27.258652 -36.72047 4294967295
363.05923 28.192799 -36.963547 4294967295
363.0683 26.781731 -36.191391 4294967295
363.07083 35.128807 -34.358795 4294967295
363.08167 36.532791 -34.882996 4294967295
363.1189 37.462486 -34.854988 4294967295
363.13641 36.990692 -34.414692 4294967295
363.14355 30.045883 -36.782059 4294967295
363.19061 29.094759 -35.752792 4294967295
363.2251 30.493502 -35.977161 4294967295
363.2334 38.378502 -33.854889 4294967295
363.24551 23.097008 -37.951374 4294967295
363.25684 38.842934 -33.780518 4294967295
363.25793 37.90538 -33.326836 4294967295
363.25928 31.422924 -35.987202 4294967295
363.27756 24.025581 -37.986698 4294967295
363.28174 30.948133 -35.486645 4294967295
363.29773 39.304493 -33.487099 4294967295
363.30887 23.545563 -37.376034 4294967295
363.31396 31.878395 -35.520233 4294967295
363.32388 24.949568 -37.843758 4294967295
363.33594 25.415119 -37.911308 4294967295
363.33871 39.766266 -33.192081 4294967295
363.35211 33.744717 -35.918385 4294967295
363.39328 33.266563 -35.18354 4294967295
363.39981 32.326752 -34.663143 4294967295
363.40634 40.692692 -32.782036 4294967295
363.40753 34.669559 -35.661777 4294967295
363.41199 41.628654 -33.151791 4294967295
363.41379 32.792698 -34.707027 4294967295
363.42209 41.158829 -32.804714 4294967295
363.4248 34.197151 -35.226425 4294967295
363.46097 42.090023 -32.756252 4294967295
363.47772 36.060196 -35.439888 4294967295
363.48584 26.777561 -36.690712 4294967295
363.48654 27.24678 -36.900337 4294967295
363.49911 27.712429 -36.961815 4294967295
363.53912 35.579117 -34.452145 4294967295
363.56427 35.104908 -33.917377 4294967295
363.58429 36.507515 -34.324097 4294967295
363.59082 37.443336 -34.680485 4294967295
363.60043 28.152863 -35.913048 4294967295
363.6091 29.089283 -36.24144 4294967295
363.61948 30.024734 -36.548256 4294967295
363.62085 36.969116 -34.085709 4294967295
363.66003 23.095301 -38.477947 4294967295
363.66049 37.898964 -34.027687 4294967295
363.66974 29.542175 -35.702286 4294967295
363.67081 30.480337 -36.125385 4294967295
363.68198 23.557407 -38.421658 4294967295
363.69339 38.361603 -33.835045 4294967295
363.71582 30.93787 -35.781254 4294967295
363.7265 38.824368 -33.639927 4294967295
363.73468 24.009533 -37.982285 4294967295
363.7356 24.478628 -38.188076 4294967295
363.74503 31.399611 -35.634724 4294967295
363.76129 40.223705 -33.861687 4294967295
363.77966 31.86014 -35.420624 4294967295
363.79324 39.281651 -33.024086 4294967295
363.80899 24.924641 -37.490845 4294967295
363.81223 39.747162 -33.005486 4294967295
363.82443 33.256321 -35.516323 4294967295
363.82605 33.724667 -35.714664 4294967295
363.83078 41.149487 -33.430786 4294967295
363.85159 32.311913 -34.741272 4294967295
363.85913 40.676891 -32.857719 4294967295
363.87186 34.651711 -35.578915 4294967295
363.88013 32.774387 -34.603172 4294967295
363.89078 27.246147 -37.559139 4294967295
363.89954 41.607765 -32.790279 4294967295
363.90311 42.075531 -32.964447 4294967295
363.93512 26.763851 -36.789764 4294967295
363.93893 35.106033 -34.960815 4294967295
363.94897 34.166153 -34.398994 4294967295
364.00116 27.683413 -36.40197 4294967295
364.01462 36.02784 -34.453537 4294967295
364.02753 36.962414 -34.728237 4294967295
364.02972 28.144699 -36.264481 4294967295
364.03128 28.613562 -36.46209 4294967295
364.07257 37.890747 -34.603027 4294967295
364.08047 36.483559 -33.850548 4294967295
364.09299 29.535164 -36.129463 4294967295
364.10141 30.002054 -36.242153 4294967295
364.12289 29.057747 -35.540218 4294967295
364.12494 38.349724 -34.169018 4294967295
364.15854 23.065386 -37.957306 4294967295
364.19086 38.806709 -33.565907 4294967295
364.20966 39.740379 -33.767349 4294967295
364.23529 23.97934 -37.437458 4294967295
364.23892 31.843456 -35.401108 4294967295
364.24133 32.311855 -35.588795 4294967295
364.24219 39.266609 -33.144787 4294967295
364.24918 24.91394 -37.698799 4294967295
364.25351 23.503628 -36.995712 4294967295
364.25449 24.442768 -37.415882 4294967295
364.25827 31.369528 -34.943645 4294967295
364.26379 40.200089 -33.311642 4294967295
364.27933 40.666012 -33.33643 4294967295
364.30746 25.365143 -37.191841 4294967295
364.30957 34.171093 -35.609127 4294967295
364.3161 41.128792 -33.09668 4294967295
364.34659 32.756065 -34.498817 4294967295
364.34998 41.592182 -32.89349 4294967295
364.35214 34.630436 -35.298073 4294967295
364.38858 42.055069 -32.63179 4294967295
364.39081 27.217529 -37.02446 4294967295
364.42523 35.083626 -34.607903 4294967295
364.43951 28.141926 -36.853241 4294967295
364.44577 26.731981 -36.127102 4294967295
364.47461 36.010952 -34.429756 4294967295
364.49191 29.534554 -36.852985 4294967295
364.51062 36.941101 -34.417099 4294967295
364.51767 28.589378 -36.101933 4294967295
364.55295 29.049059 -35.881989 4294967295
364.55704 38.337696 -34.491974 4294967295
364.57568 37.397469 -33.827114 4294967295
364.58972 37.863499 -33.870125 4294967295
364.5965 30.914036 -36.207668 4294967295
364.59793 38.798851 -34.202126 4294967295
364.61163 30.441202 -35.804237 4294967295
364.62573 31.84433 -36.277832 4294967295
364.63913 29.964817 -35.247822 4294967295
364.64914 32.307358 -36.20443 4294967295
364.65112 23.037542 -37.51363 4294967295
364.66754 39.255459 -33.556229 4294967295
364.71643 40.652534 -33.601089 4294967295
