# .PCD v0.7 - Point Cloud Data file format
VERSION 0.7
FIELDS x y z rgb
SIZE 4 4 4 4
TYPE F F F U
COUNT 1 1 1 1
WIDTH 1120
HEIGHT 1
VIEWPOINT 0 0 0 1 0 0 0
POINTS 1120
DATA ascii
175.09206 -61.208321 -60.096344 4294967295
175.09947 -74.588142 -60.69503 4294967295
175.11168 -73.693619 -60.408253 4294967295
175.12119 -74.996048 -61.191845 4294967295
175.13184 -58.950344 -59.495884 4294967295
175.14108 -48.194309 -60.436661 4294967295
175.16472 -74.05806 -61.304176 4294967295
175.16974 -59.786713 -60.421364 4294967295
175.18811 -57.996975 -59.769623 4294967295
175.18961 -59.32048 -60.453285 4294967295
175.19754 -57.54332 -59.668152 4294967295
175.2159 -57.078705 -59.680576 4294967295
175.217 -58.403332 -60.359234 4294967295
175.21889 -73.105507 -61.551487 4294967295
175.22894 -72.652985 -61.458412 4294967295
175.2478 -56.59766 -59.865746 4294967295
175.25513 -72.178093 -61.57074 4294967295
175.25529 -70.861145 -60.90934 4294967295
175.26479 -69.969582 -60.58783 4294967295
175.27066 -71.717949 -61.54747 4294967295
175.2738 -71.274803 -61.366432 4294967295
175.27679 -69.513824 -60.519249 4294967295
175.29517 -69.0494 -60.532043 4294967295
175.29724 -68.606918 -60.336758 4294967295
175.29823 -68.165703 -60.127945 4294967295
175.30403 -56.087395 -60.360828 4294967295
175.30919 -67.71106 -60.045959 4294967295
175.3195 -55.626503 -60.3367 4294967295
175.32153 -55.18174 -60.140945 4294967295
175.37814 -52.901093 -59.754166 4294967295
175.38904 -66.724815 -60.621101 4294967295
175.38972 -53.772995 -60.345848 4294967295
175.39314 -53.326317 -60.167385 4294967295
175.394 -54.210407 -60.622143 4294967295
175.41182 -65.814499 -60.46846 4294967295
175.42659 -64.033096 -59.769043 4294967295
175.44055 -52.385059 -60.328796 4294967295
175.44438 -66.211662 -61.105736 4294967295
175.44585 -65.32959 -60.680923 4294967295
175.45894 -50.591194 -59.675354 4294967295
175.46033 -63.1077 -59.755775 4294967295
175.46037 -51.919044 -60.359985 4294967295
175.46161 -49.25713 -59.042496 4294967295
175.46274 -49.699654 -59.27956 4294967295
175.46597 -64.422577 -60.494408 4294967295
175.46962 -48.804085 -58.922386 4294967295
175.47079 -50.134113 -59.604576 4294967295
175.47989 -51.01033 -60.165314 4294967295
175.48203 -76.907013 -60.762012 4294967295
175.4838 -78.217697 -61.44976 4294967295
175.50465 -77.749969 -61.494354 4294967295
175.50938 -47.426773 -58.763409 4294967295
175.51585 -75.982445 -60.750195 4294967295
175.51639 -75.105042 -60.312943 4294967295
175.51802 -77.293045 -61.44342 4294967295
175.52789 -74.650185 -60.238014 4294967295
175.52867 -76.402168 -61.135803 4294967295
175.54057 -60.799244 -59.670502 4294967295
175.55269 -60.342499 -59.602768 4294967295
175.57491 -48.241348 -60.046669 4294967295
175.57948 -47.792427 -59.88282 4294967295
175.59424 -75.432701 -61.529808 4294967295
175.59831 -46.883472 -59.678654 4294967295
175.59886 -73.67305 -60.701103 4294967295
175.61916 -59.817581 -60.230659 4294967295
175.63678 -74.058205 -61.40773 4294967295
175.63707 -61.118328 -61.126934 4294967295
175.66714 -58.433128 -60.177792 4294967295
175.66957 -73.135498 -61.383244 4294967295
175.67232 -72.693176 -61.196114 4294967295
175.67355 -72.252762 -60.989975 4294967295
175.69016 -57.96299 -60.249794 4294967295
175.69276 -57.517963 -60.0606 4294967295
175.69658 -59.279434 -60.999268 4294967295
175.73232 -69.976791 -60.630211 4294967295
175.74188 -56.573952 -60.244438 4294967295
175.74979 -70.392067 -61.076351 4294967295
175.76691 -56.985237 -60.787666 4294967295
175.77098 -70.801895 -61.570023 4294967295
175.77209 -67.724945 -60.026413 4294967295
175.78481 -54.753139 -59.903328 4294967295
175.78677 -69.463333 -61.105362 4294967295
175.81064 -52.951473 -59.342567 4294967295
175.83339 -55.578945 -60.971748 4294967295
175.85193 -54.23037 -60.541336 4294967295
175.85359 -55.112644 -61.008049 4294967295
175.86174 -52.005318 -59.551735 4294967295
175.86613 -67.159248 -61.009354 4294967295
175.868 -53.768867 -60.524525 4294967295
175.87891 -65.822685 -60.504608 4294967295
175.88026 -53.311855 -60.458862 4294967295
175.88171 -64.938492 -60.094765 4294967295
175.89244 -50.196205 -59.052742 4294967295
175.89784 -66.677322 -61.193085 4294967295
175.92822 -49.267796 -59.065178 4294967295
175.93044 -50.59581 -59.764214 4294967295
175.94885 -77.789856 -61.242653 4294967295
175.94998 -63.968372 -60.5252 4294967295
175.95247 -77.347054 -61.066109 4294967295
175.95673 -76.903175 -60.897858 4294967295
175.95676 -51.008415 -60.325462 4294967295
175.96761 -63.505013 -60.528248 4294967295
175.97241 -48.773643 -59.40995 4294967295
175.97644 -49.656174 -59.908459 4294967295
175.97755 -64.372673 -61.101952 4294967295
175.99167 -62.592701 -60.390816 4294967295
175.9948 -62.147911 -60.207584 4294967295
176.00394 -63.017429 -60.771912 4294967295
176.01413 -48.282593 -59.722549 4294967295
176.01886 -47.833458 -59.559914 4294967295
176.03038 -74.169159 -60.505169 4294967295
176.035 -74.600952 -60.78783 4294967295
176.0376 -60.770214 -60.087715 4294967295
176.04927 -46.911453 -59.50351 4294967295
176.05099 -73.262985 -60.323273 4294967295
176.05223 -75.014557 -61.232292 4294967295
176.0743 -47.327324 -60.048927 4294967295
176.07886 -60.276806 -60.39473 4294967295
176.10976 -73.61869 -61.301994 4294967295
176.12547 -71.84256 -60.610931 4294967295
176.12659 -59.775459 -60.785206 4294967295
176.14388 -70.939148 -60.400768 4294967295
176.15234 -58.860813 -60.669456 4294967295
176.18137 -59.265579 -61.266441 4294967295
176.18144 -72.203148 -61.554085 4294967295
176.18661 -71.318863 -61.174065 4294967295
176.18684 -58.376488 -60.889851 4294967295
176.22595 -70.387009 -61.233166 4294967295
176.2303 -56.114929 -60.330894 4294967295
176.24149 -68.609245 -60.538567 4294967295
176.24445 -57.422447 -61.184082 4294967295
176.25204 -67.715775 -60.22715 4294967295
176.25313 -55.203102 -60.177265 4294967295
176.25587 -69.907036 -61.394844 4294967295
176.25703 -56.524006 -60.89888 4294967295
176.25847 -53.426846 -59.349548 4294967295
176.26181 -52.979988 -59.16851 4294967295
176.27223 -69.445717 -61.381927 4294967295
176.28171 -66.796326 -60.161362 4294967295
176.29161 -67.222832 -60.513107 4294967295
176.29347 -68.099365 -60.984612 4294967295
176.29501 -54.710377 -60.492935 4294967295
176.29836 -54.264141 -60.312378 4294967295
176.30276 -66.328239 -60.208881 4294967295
176.31133 -65.436653 -59.870773 4294967295
176.32599 -53.788761 -60.444328 4294967295
176.34061 -65.837914 -60.472416 4294967295
176.35239 -50.657894 -59.214691 4294967295
176.35336 -51.986008 -59.900715 4294967295
176.36595 -77.869606 -60.639297 4294967295
176.36775 -64.921844 -60.374458 4294967295
176.37166 -52.40715 -60.36087 4294967295
176.38292 -51.065479 -59.833595 4294967295
176.38699 -78.276222 -61.134712 4294967295
176.38924 -51.501034 -60.139389 4294967295
176.40077 -63.557514 -60.127747 4294967295
176.40179 -50.157238 -59.6283 4294967295
176.4052 -48.378914 -58.773293 4294967295
176.43372 -62.633499 -60.104347 4294967295
176.45345 -63.048454 -60.583416 4294967295
176.45601 -60.840981 -59.49395 4294967295
176.45605 -77.300735 -61.57737 4294967295
176.45609 -47.877193 -59.206284 4294967295
176.4662 -49.196404 -60.010983 4294967295
176.46664 -48.75251 -59.792175 4294967295
176.47287 -63.903503 -61.282642 4294967295
176.48175 -46.96032 -59.08812 4294967295
176.49925 -76.363289 -61.686783 4294967295
176.49963 -75.925209 -61.46772 4294967295
176.50758 -74.16217 -60.673538 4294967295
176.52045 -73.267212 -60.390732 4294967295
176.53062 -47.349136 -59.944954 4294967295
176.53584 -58.974331 -59.626755 4294967295
176.5359 -72.806816 -60.366127 4294967295
176.53717 -73.681885 -60.831444 4294967295
176.54309 -74.987457 -61.580299 4294967295
176.55234 -71.906326 -60.129143 4294967295
176.55779 -74.528648 -61.546059 4294967295
176.55966 -58.502876 -59.71022 4294967295
176.56961 -71.443314 -60.127811 4294967295
176.57121 -72.318588 -60.597874 4294967295
176.57239 -60.251728 -60.773491 4294967295
176.57767 -59.363007 -60.39262 4294967295
176.62457 -56.655193 -59.650032 4294967295
176.62535 -56.2122 -59.434986 4294967295
176.63976 -55.752388 -59.396366 4294967295
176.64684 -57.952526 -60.613037 4294967295
176.65271 -68.693237 -59.853661 4294967295
176.66969 -69.109459 -60.298264 4294967295
176.68005 -57.028435 -60.593048 4294967295
176.68524 -54.812469 -59.534901 4294967295
176.69629 -70.389763 -61.316757 4294967295
176.70119 -69.505356 -60.931 4294967295
176.70126 -53.908173 -59.291962 4294967295
176.71513 -69.925003 -61.336128 4294967295
176.72696 -67.27359 -60.139877 4294967295
176.73276 -55.196861 -60.375576 4294967295
176.73729 -53.422325 -59.533443 4294967295
176.75969 -66.789795 -60.338604 4294967295
176.7618 -67.665985 -60.816116 4294967295
176.76233 -52.949802 -59.63237 4294967295
176.76334 -68.103142 -61.061134 4294967295
176.76445 -52.504528 -59.434753 4294967295
176.77307 -66.332062 -60.286949 4294967295
176.77536 -54.261223 -60.47707 4294967295
176.79398 -52.026714 -59.592049 4294967295
176.80495 -64.96962 -60.024254 4294967295
176.83659 -65.367569 -60.659912 4294967295
176.85953 -77.837654 -61.021637 4294967295
176.86693 -77.389473 -60.892361 4294967295
176.87204 -65.759949 -61.344669 4294967295
176.87888 -51.483749 -60.467693 4294967295
176.87971 -63.990543 -60.54319 4294967295
176.88446 -51.034542 -60.314667 4294967295
176.89001 -76.480713 -60.741394 4294967295
176.89589 -61.766891 -59.625343 4294967295
176.89713 -63.0872 -60.318268 4294967295
176.89937 -78.216141 -61.7631 4294967295
176.90173 -50.128651 -60.087807 4294967295
176.90916 -47.459274 -58.829361 4294967295
176.90927 -49.233643 -59.734489 4294967295
176.91191 -76.88633 -61.250595 4294967295
176.92516 -62.169762 -60.230782 4294967295
176.92923 -62.604969 -60.509075 4294967295
176.93549 -63.477188 -61.041405 4294967295
176.93799 -48.313896 -59.655655 4294967295
176.94421 -75.964462 -61.219048 4294967295
176.95126 -74.202835 -60.409115 4294967295
177.00203 -47.797352 -60.261795 4294967295
177.00325 -61.187717 -60.793579 4294967295
177.01189 -74.991615 -61.646492 4294967295
177.01596 -60.730808 -60.732903 4294967295
177.02509 -71.906059 -60.239388 4294967295
177.03569 -58.05909 -59.634499 4294967295
177.03705 -58.498878 -59.878181 4294967295
177.0425 -72.758408 -60.916985 4294967295
177.05273 -72.305626 -60.824379 4294967295
177.0536 -58.919277 -60.319244 4294967295
177.08096 -59.325645 -60.900688 4294967295
177.0872 -57.553146 -60.078247 4294967295
177.08751 -71.379845 -60.824745 4294967295
177.08952 -57.108673 -59.882446 4294967295
177.0901 -70.937622 -60.632717 4294967295
177.09673 -56.21616 -59.523621 4294967295
177.09998 -56.653992 -59.792282 4294967295
177.10823 -69.595734 -60.190773 4294967295
177.11618 -69.145638 -60.067825 4294967295
177.13417 -68.681602 -60.075993 4294967295
177.14714 -55.712181 -59.953362 4294967295
177.17705 -69.939316 -61.311779 4294967295
177.18015 -53.903374 -59.47781 4294967295
177.2041 -53.432076 -59.563103 4294967295
177.20738 -68.142136 -60.802456 4294967295
177.2077 -55.196079 -60.515663 4294967295
177.22339 -67.241791 -60.55864 4294967295
177.23524 -52.952171 -59.742455 4294967295
177.24438 -65.894669 -60.153244 4294967295
177.24709 -54.706253 -60.802124 4294967295
177.26927 -64.541466 -59.797947 4294967295
177.27417 -52.463127 -60.023064 4294967295
177.27838 -66.288551 -60.822441 4294967295
177.2923 -66.709099 -61.229904 4294967295
177.29314 -64.949745 -60.335541 4294967295
177.30061 -51.989124 -60.141373 4294967295
177.30679 -65.371315 -60.739712 4294967295
177.30869 -77.43351 -60.603325 4294967295
177.32845 -76.967079 -60.634407 4294967295
177.33183 -51.509579 -60.321701 4294967295
177.33345 -49.293018 -59.209045 4294967295
177.33417 -78.27018 -61.387829 4294967295
177.33882 -76.514404 -60.543129 4294967295
177.33958 -64.008156 -60.487854 4294967295
177.3412 -51.055908 -60.217407 4294967295
177.35127 -50.601387 -60.121883 4294967295
177.37222 -62.64463 -60.233917 4294967295
177.37595 -50.129662 -60.217285 4294967295
177.3784 -77.76786 -61.738033 4294967295
177.38518 -47.015373 -58.748608 4294967295
177.38593 -47.458385 -58.985588 4294967295
177.39037 -75.126335 -60.535828 4294967295
177.39073 -62.180046 -60.248665 4294967295
177.39256 -74.685272 -60.337936 4294967295
177.4045 -48.767506 -59.909267 4294967295
177.40996 -75.535645 -61.017761 4294967295
177.41046 -63.474606 -61.185684 4294967295
177.41136 -75.971054 -61.262566 4294967295
177.41486 -63.028919 -61.016556 4294967295
177.43205 -73.752396 -60.399834 4294967295
177.44131 -61.673832 -60.681961 4294967295
177.44336 -74.174194 -60.773926 4294967295
177.44701 -59.462635 -59.621765 4294967295
177.45975 -60.768982 -60.469215 4294967295
177.47852 -61.185238 -60.940769 4294967295
177.48567 -73.237648 -60.872875 4294967295
177.4904 -72.792816 -60.707886 4294967295
177.5069 -58.945324 -60.177029 4294967295
177.51892 -71.43734 -60.399719 4294967295
177.52493 -58.481361 -60.18568 4294967295
177.53624 -58.025906 -60.106113 4294967295
177.54057 -70.968338 -60.455532 4294967295
177.55391 -70.511002 -60.402767 4294967295
177.55972 -71.818146 -61.159603 4294967295
177.5789 -57.531006 -60.436817 4294967295
177.58154 -69.594856 -60.309669 4294967295
177.59467 -70.015381 -60.708504 4294967295
177.59911 -56.623058 -60.246723 4294967295
177.61247 -68.23484 -60.032333 4294967295
177.63081 -54.816998 -59.751785 4294967295
177.63661 -67.762398 -60.121044 4294967295
177.66061 -68.607628 -60.889465 4294967295
177.68349 -69.014748 -61.415627 4294967295
177.69289 -55.182526 -60.791637 4294967295
177.69395 -55.622646 -61.032776 4294967295
177.71381 -52.505222 -59.700367 4294967295
177.71683 -51.173542 -59.05629 4294967295
177.71846 -66.772125 -60.737396 4294967295
177.71992 -54.266151 -60.69075 4294967295
177.73621 -51.593311 -59.538322 4294967295
177.74005 -65.86412 -60.565094 4294967295
177.74426 -66.297844 -60.847546 4294967295
177.74533 -50.696854 -59.201897 4294967295
177.74562 -52.024673 -59.88924 4294967295
177.76483 -63.63166 -59.751232 4294967295
177.76961 -52.880302 -60.658829 4294967295
177.77858 -62.732746 -59.475845 4294967295
177.785 -78.300667 -61.219452 4294967295
177.78676 -64.482491 -60.494171 4294967295
177.78868 -77.858307 -61.040192 4294967295
177.79547 -49.75185 -59.403313 4294967295
177.80133 -64.023224 -60.457615 4294967295
177.80945 -76.516144 -60.629768 4294967295
177.81927 -63.119427 -60.237312 4294967295
177.82024 -65.316696 -61.38773 4294967295
177.82339 -64.8731 -61.201653 4294967295
177.84224 -76.905083 -61.286835 4294967295
177.84903 -62.199837 -60.171623 4294967295
177.84985 -47.028271 -58.747295 4294967295
177.8566 -75.572258 -60.792213 4294967295
177.85811 -77.31855 -61.722248 4294967295
177.86269 -60.419514 -59.438553 4294967295
177.86481 -61.298309 -59.922569 4294967295
177.87001 -60.850903 -59.762688 4294967295
177.87672 -47.884647 -59.556595 4294967295
177.88492 -75.968147 -61.391151 4294967295
177.88866 -75.088013 -60.984993 4294967295
177.89328 -61.701633 -60.524155 4294967295
177.89336 -74.643623 -60.818775 4294967295
177.89708 -74.200516 -60.639893 4294967295
177.90047 -73.757759 -60.45649 4294967295
177.90982 -47.403252 -59.763016 4294967295
177.91287 -59.913944 -59.86895 4294967295
177.92764 -73.280708 -60.585171 4294967295
177.96169 -58.528484 -59.825333 4294967295
177.9697 -72.782486 -60.908958 4294967295
177.97247 -71.90229 -60.489525 4294967295
177.97346 -58.954536 -60.208073 4294967295
177.99002 -70.562035 -60.035347 4294967295
177.99017 -72.315285 -60.949661 4294967295
177.99203 -70.120422 -59.833435 4294967295
178.01688 -59.339722 -61.00658 4294967295
178.01926 -70.959396 -60.647694 4294967295
178.02863 -71.384445 -60.99865 4294967295
178.03065 -69.627548 -60.11261 4294967295
178.03499 -55.787487 -59.417862 4294967295
178.05716 -57.966331 -60.851345 4294967295
178.06151 -57.078842 -60.451904 4294967295
178.07755 -68.245453 -60.043762 4294967295
178.07808 -54.408417 -59.298328 4294967295
178.07939 -69.120811 -60.524742 4294967295
178.09018 -56.160458 -60.371727 4294967295
178.09581 -67.781128 -60.055218 4294967295
178.10457 -54.817825 -59.87542 4294967295
178.10609 -68.64492 -60.647575 4294967295
178.14578 -55.20858 -60.646149 4294967295
178.14803 -52.111618 -59.073997 4294967295
178.15373 -53.431747 -59.836433 4294967295
178.16197 -51.209377 -58.799465 4294967295
178.16235 -66.811409 -60.473564 4294967295
178.22559 -66.285995 -61.077019 4294967295
178.22653 -77.034195 -60.241135 4294967295
178.23642 -49.792198 -59.09301 4294967295
178.24768 -50.664581 -59.699966 4294967295
178.24973 -64.056175 -60.251297 4294967295
178.25537 -78.302078 -61.306976 4294967295
178.25746 -65.364403 -61.039364 4294967295
178.2585 -65.80217 -61.281609 4294967295
178.27969 -63.57634 -60.417149 4294967295
178.28441 -49.292809 -59.496223 4294967295
178.29741 -64.431923 -61.107967 4294967295
178.31485 -62.649822 -60.422508 4294967295
178.31696 -75.588928 -60.745552 4294967295
178.31775 -63.085876 -60.689873 4294967295
178.32408 -74.703453 -60.381897 4294967295
178.33125 -76.005089 -61.163059 4294967295
178.33487 -48.347832 -59.703014 4294967295
178.33499 -47.904495 -59.475517 4294967295
178.33516 -62.182957 -60.461266 4294967295
178.34523 -47.449341 -59.381203 4294967295
178.34882 -60.84417 -59.953842 4294967295
178.38536 -72.86338 -60.273323 4294967295
178.38928 -60.351009 -60.258621 4294967295
178.39159 -59.907459 -60.059498 4294967295
178.39191 -74.167183 -61.047039 4294967295
178.39969 -61.218067 -60.854019 4294967295
178.40491 -46.937405 -59.939163 4294967295
178.41058 -73.702591 -61.064224 4294967295
178.41689 -58.552345 -59.705383 4294967295
178.4278 -71.926338 -60.374958 4294967295
178.43048 -58.975887 -60.114216 4294967295
178.43309 -72.356827 -60.674133 4294967295
178.43309 -58.090584 -59.689663 4294967295
178.43477 -59.41111 -60.399979 4294967295
178.44446 -70.587532 -59.906631 4294967295
178.46452 -73.18708 -61.54681 4294967295
178.48949 -69.646797 -60.042149 4294967295
178.49156 -55.367912 -59.08366 4294967295
178.49554 -70.076866 -60.351929 4294967295
178.49854 -70.949356 -60.849995 4294967295
178.50397 -57.118435 -60.166618 4294967295
178.51309 -57.547909 -60.516724 4294967295
178.52484 -71.349937 -61.426655 4294967295
178.5376 -53.984901 -59.002388 4294967295
178.54086 -69.136131 -60.491344 4294967295
178.55403 -56.17305 -60.369034 4294967295
178.57382 -56.589306 -60.859993 4294967295
178.58257 -66.883461 -59.894211 4294967295
178.59608 -67.304016 -60.302948 4294967295
178.59717 -67.741524 -60.546677 4294967295
178.61037 -68.161972 -60.950901 4294967295
178.61432 -54.773888 -60.477119 4294967295
178.62685 -54.316906 -60.412903 4294967295
178.63022 -52.545185 -59.537476 4294967295
178.64519 -52.084759 -59.505547 4294967295
178.65768 -51.627285 -59.440971 4294967295
178.6586 -66.339981 -60.670128 4294967295
178.67351 -50.723156 -59.189693 4294967295
178.69212 -63.657482 -59.733727 4294967295
178.69522 -78.349258 -60.991978 4294967295
178.69757 -77.909088 -60.793205 4294967295
178.70374 -51.129547 -59.820549 4294967295
178.70793 -77.019791 -60.470619 4294967295
178.7097 -64.952736 -60.656845 4294967295
178.7175 -76.568474 -60.367149 4294967295
178.72557 -65.809448 -61.326492 4294967295
178.73277 -50.209934 -59.744278 4294967295
178.73962 -48.873302 -59.143875 4294967295
178.74022 -62.273148 -59.679993 4294967295
178.74742 -49.307098 -59.47789 4294967295
178.74898 -63.141533 -60.256889 4294967295
178.75201 -61.817234 -59.60614 4294967295
178.75566 -77.385391 -61.332233 4294967295
178.759 -62.68832 -60.159157 4294967295
178.76122 -64.004463 -60.878761 4294967295
178.77319 -75.174332 -60.414433 4294967295
178.77438 -74.735115 -60.199947 4294967295
178.79216 -49.696945 -60.301056 4294967295
178.80154 -76.006836 -61.250107 4294967295
178.80896 -75.558876 -61.118359 4294967295
178.81062 -74.244514 -60.45015 4294967295
178.81117 -61.299042 -60.159767 4294967295
178.81311 -47.014778 -59.196037 4294967295
178.84435 -47.421909 -59.841156 4294967295
178.88454 -71.948433 -60.278435 4294967295
178.89888 -72.803497 -60.929222 4294967295
178.8998 -60.74263 -61.104713 4294967295
178.90529 -73.66906 -61.474838 4294967295
178.90532 -59.855206 -60.717178 4294967295
178.91183 -58.525227 -60.112003 4294967295
178.92792 -59.385582 -60.786522 4294967295
178.92924 -71.008255 -60.410545 4294967295
178.93648 -70.559677 -60.276123 4294967295
178.93848 -58.93153 -60.69622 4294967295
178.94162 -72.304176 -61.265945 4294967295
178.95602 -57.146049 -60.00647 4294967295
178.96246 -55.372356 -59.168167 4294967295
178.9686 -56.24773 -59.711807 4294967295
178.987 -55.783215 -59.725212 4294967295
178.99684 -57.534977 -60.779213 4294967295
179.00737 -54.432873 -59.302834 4294967295
179.02042 -56.623436 -60.631027 4294967295
179.02167 -69.124199 -60.715225 4294967295
179.03423 -54.841194 -59.890945 4294967295
179.03906 -52.625423 -58.798935 4294967295
179.06181 -66.874565 -60.094296 4294967295
179.06808 -67.30484 -60.408722 4294967295
179.07025 -67.740616 -60.668304 4294967295
179.07224 -53.91082 -59.934216 4294967295
179.08107 -68.60247 -61.273632 4294967295
179.08704 -51.682289 -58.974049 4294967295
179.09792 -52.111458 -59.350483 4294967295
179.12775 -65.027115 -60.046772 4294967295
179.15073 -50.720482 -59.359272 4294967295
179.15193 -64.554787 -60.137329 4294967295
179.15404 -66.308449 -61.089737 4294967295
179.15555 -51.157093 -59.655151 4294967295
179.1617 -77.483322 -60.56617 4294967295
179.17891 -50.244186 -59.503067 4294967295
179.1825 -63.634312 -60.081635 4294967295
179.1848 -65.827393 -61.267906 4294967295
179.18565 -63.190331 -59.89212 4294967295
179.18658 -77.009178 -60.666477 4294967295
179.20247 -62.287907 -59.653137 4294967295
179.21202 -64.033981 -60.706093 4294967295
179.22081 -76.521202 -60.890724 4294967295
179.24792 -48.834316 -59.727539 4294967295
179.25681 -49.266434 -60.077538 4294967295
179.2578 -74.718071 -60.458187 4294967295
179.2625 -76.022247 -61.214546 4294967295
179.26587 -48.37038 -59.735218 4294967295
179.26672 -75.142113 -60.808342 4294967295
179.27042 -60.877357 -59.863731 4294967295
179.27502 -74.255402 -60.456116 4294967295
179.27771 -47.913635 -59.661247 4294967295
179.28528 -75.551613 -61.286705 4294967295
179.28854 -60.413208 -59.873726 4294967295
179.29729 -61.721901 -60.685013 4294967295
179.29794 -73.346794 -60.298779 4294967295
179.29831 -72.908569 -60.07172 4294967295
179.30753 -73.770332 -60.657944 4294967295
179.3152 -47.426926 -59.929478 4294967295
179.32295 -61.2481 -60.795547 4294967295
179.34261 -59.90213 -60.362667 4294967295
179.34427 -59.019077 -59.921383 4294967295
179.36864 -59.427856 -60.478325 4294967295
179.38756 -58.522442 -60.26725 4294967295
179.39023 -71.462128 -60.602745 4294967295
179.40265 -58.062359 -60.236904 4294967295
179.42229 -70.540245 -60.567039 4294967295
179.42767 -57.589546 -60.338909 4294967295
179.43427 -54.492069 -58.801418 4294967295
179.4429 -68.757645 -59.914276 4294967295
179.4476 -69.627914 -60.441021 4294967295
179.44939 -68.309814 -59.768753 4294967295
179.4514 -54.91243 -59.262924 4294967295
179.45825 -56.227901 -60.051056 4294967295
179.46169 -70.921707 -61.324612 4294967295
179.46501 -57.101059 -60.60556 4294967295
179.48509 -56.634743 -60.64164 4294967295
179.48529 -67.820709 -60.016285 4294967295
179.49619 -53.089298 -58.931694 4294967295
179.49669 -69.996193 -61.328144 4294967295
179.4991 -55.735188 -60.364506 4294967295
179.50854 -67.349434 -60.094902 4294967295
179.51778 -55.270584 -60.381935 4294967295
179.52826 -52.607784 -59.127785 4294967295
179.52898 -69.074516 -61.295609 4294967295
179.53598 -53.923786 -59.928581 4294967295
179.55547 -51.690102 -59.026272 4294967295
179.55624 -66.405403 -60.267963 4294967295
179.55919 -66.840187 -60.539375 4294967295
179.56404 -53.44743 -60.071541 4294967295
179.57208 -52.11203 -59.481575 4294967295
179.57222 -65.505234 -60.016777 4294967295
179.58197 -65.052589 -59.914772 4294967295
179.59283 -50.759956 -59.061119 4294967295
179.59688 -64.153328 -59.649078 4294967295
179.6176 -51.172356 -59.625381 4294967295
179.62308 -65.874252 -60.929016 4294967295
179.63092 -63.667542 -59.87199 4294967295
179.67139 -49.780621 -59.647194 4294967295
179.67778 -64.482483 -60.964111 4294967295
179.68657 -47.991535 -58.918549 4294967295
179.69997 -49.304012 -59.797218 4294967295
179.70062 -63.133804 -60.572533 4294967295
179.70636 -75.626442 -60.717934 4294967295
179.7119 -75.181244 -60.559479 4294967295
179.72227 -60.025028 -59.232887 4294967295
179.72263 -47.506107 -59.168983 4294967295
179.73402 -48.37846 -59.787586 4294967295
179.74194 -62.199272 -60.660522 4294967295
179.76544 -59.527882 -59.578644 4294967295
179.76752 -73.787521 -60.606651 4294967295
179.77457 -74.651283 -61.166206 4294967295
179.77457 -74.214348 -60.933411 4294967295
179.77652 -61.713463 -60.891243 4294967295
179.77864 -73.33387 -60.522797 4294967295
179.78351 -61.264507 -60.752178 4294967295
179.79135 -72.440231 -60.227486 4294967295
179.7989 -58.1623 -59.327713 4294967295
179.81371 -60.784733 -60.924145 4294967295
179.82132 -57.692455 -59.395229 4294967295
179.83582 -58.555126 -60.056156 4294967295
179.85396 -56.327328 -59.13308 4294967295
179.86865 -71.015022 -60.565094 4294967295
179.88138 -54.968155 -58.800606 4294967295
179.88435 -71.867508 -61.241287 4294967295
179.88863 -71.42382 -61.066029 4294967295
179.89604 -70.537735 -60.699776 4294967295
179.90971 -57.137978 -60.348175 4294967295
179.91733 -70.069328 -60.752426 4294967295
179.92416 -55.355679 -59.609005 4294967295
179.92529 -69.61998 -60.626045 4294967295
179.93916 -53.570496 -58.875809 4294967295
179.94159 -69.158669 -60.611786 4294967295
179.9416 -53.125454 -58.674953 4294967295
179.95401 -55.759022 -60.243118 4294967295
179.95459 -56.639839 -60.717453 4294967295
179.97411 -68.674377 -60.815315 4294967295
180.02591 -53.904015 -60.275421 4294967295
180.0276 -52.13533 -59.363678 4294967295
180.03426 -66.836411 -60.690025 4294967295
180.04108 -65.949493 -60.314888 4294967295
180.04907 -66.377144 -60.655785 4294967295
180.05449 -51.660374 -59.49128 4294967295
180.05632 -65.050423 -60.052723 4294967295
180.06058 -67.237976 -61.276886 4294967295
180.06807 -64.595093 -59.977028 4294967295
180.0704 -52.524464 -60.172798 4294967295
180.07228 -50.312016 -59.028526 4294967295
180.08749 -65.446411 -60.705513 4294967295
180.09848 -63.674858 -59.918533 4294967295
180.11198 -64.095757 -60.334023 4294967295
180.11752 -48.929836 -58.935173 4294967295
180.13225 -50.681629 -60.069817 4294967295
180.13918 -49.788975 -59.695061 4294967295
180.17055 -49.308971 -59.88372 4294967295
180.18515 -60.039177 -59.212975 4294967295
180.19247 -62.668602 -60.715878 4294967295
180.19502 -47.952267 -59.510788 4294967295
180.19742 -61.343254 -60.080635 4294967295
180.20761 -48.379963 -59.914555 4294967295
180.22269 -47.034012 -59.415115 4294967295
180.23085 -61.738132 -60.764992 4294967295
180.23329 -59.53532 -59.627491 4294967295
180.24055 -60.40604 -60.193626 4294967295
180.24782 -58.63533 -59.354355 4294967295
180.25574 -58.184288 -59.226868 4294967295
180.27834 -72.855431 -60.772079 4294967295
180.29976 -71.511803 -60.358521 4294967295
180.31689 -58.985302 -60.520145 4294967295
180.33412 -72.336418 -61.289856 4294967295
180.33467 -56.759777 -59.587761 4294967295
180.33592 -71.02166 -60.611916 4294967295
180.33711 -70.582191 -60.393864 4294967295
180.3385 -56.313847 -59.405308 4294967295
180.34529 -70.132553 -60.269783 4294967295
180.34552 -54.981052 -58.795425 4294967295
180.34975 -71.876434 -61.266327 4294967295
180.35074 -55.415886 -59.100731 4294967295
180.37115 -69.219353 -60.149967 4294967295
180.37859 -69.646805 -60.484428 4294967295
180.40158 -67.861076 -59.856956 4294967295
180.40565 -55.78706 -60.077122 4294967295
180.42014 -68.711357 -60.576576 4294967295
180.42644 -54.437447 -59.653587 4294967295
180.43796 -66.932602 -59.878654 4294967295
180.44276 -68.241081 -60.647385 4294967295
180.44662 -53.529243 -59.456627 4294967295
180.44833 -67.356575 -60.253578 4294967295
180.4595 -52.62981 -59.16058 4294967295
180.48589 -52.155304 -59.282219 4294967295
180.50198 -66.404236 -60.508926 4294967295
180.50946 -51.684334 -59.365837 4294967295
180.51045 -53.008129 -60.084312 4294967295
180.51489 -65.508865 -60.21384 4294967295
180.52684 -51.221024 -59.365711 4294967295
180.55273 -65.01757 -60.490532 4294967295
180.55502 -50.744518 -59.511848 4294967295
180.55548 -49.859467 -59.047485 4294967295
180.55974 -50.296631 -59.340485 4294967295
180.58556 -49.38076 -59.219093 4294967295
180.59094 -64.08709 -60.53746 4294967295
180.59373 -48.928402 -59.094528 4294967295
180.60251 -63.63216 -60.459202 4294967295
180.60327 -64.508965 -60.939194 4294967295
180.60367 -62.312527 -59.769455 4294967295
180.63361 -48.438148 -59.398743 4294967295
180.66562 -60.470039 -59.666954 4294967295
180.69342 -47.039143 -59.502708 4294967295
180.69505 -61.749577 -60.771484 4294967295
180.70445 -58.216972 -59.015236 4294967295
180.71216 -59.528084 -59.826633 4294967295
180.73413 -60.818253 -60.830353 4294967295
180.76682 -59.015858 -60.331596 4294967295
180.77527 -58.564613 -60.210934 4294967295
180.78168 -57.675598 -59.826508 4294967295
180.78673 -56.787743 -59.423676 4294967295
180.78818 -70.612473 -60.220547 4294967295
180.79208 -70.169014 -60.037952 4294967295
180.80141 -56.327946 -59.386993 4294967295
180.8118 -54.991188 -58.819862 4294967295
180.81345 -55.871498 -59.314354 4294967295
180.83 -55.409267 -59.302891 4294967295
180.84769 -68.775009 -60.084999 4294967295
180.85452 -54.054146 -58.927605 4294967295
180.85692 -67.885277 -59.738716 4294967295
180.85901 -69.634537 -60.710186 4294967295
180.89755 -68.26564 -60.526131 4294967295
180.89888 -54.439377 -59.76606 4294967295
180.9054 -67.37809 -60.160942 4294967295
180.93927 -51.739502 -58.89727 4294967295
180.94875 -66.878471 -60.51358 4294967295
180.95459 -65.554581 -59.885105 4294967295
180.96791 -52.145832 -59.523151 4294967295
180.9903 -65.943253 -60.606342 4294967295
180.99672 -64.618202 -59.985306 4294967295
181.00409 -51.217606 -59.542282 4294967295
181.01955 -63.708538 -59.823193 4294967295
181.02161 -65.0224 -60.560024 4294967295
181.02818 -66.328354 -61.356583 4294967295
181.03084 -48.973949 -58.723461 4294967295
181.03479 -49.411674 -59.013916 4294967295
181.03636 -50.294167 -59.5084 4294967295
181.0385 -49.849468 -59.300957 4294967295
181.03944 -62.802624 -59.621101 4294967295
181.04477 -63.234665 -59.92997 4294967295
181.07036 -61.881481 -59.568565 4294967295
181.07227 -64.074806 -60.776382 4294967295
181.09521 -62.287178 -60.143654 4294967295
181.09532 -48.453857 -59.364456 4294967295
181.14468 -47.952301 -59.800072 4294967295
181.15385 -61.328972 -60.468735 4294967295
181.16197 -47.489304 -59.798615 4294967295
181.17488 -59.101959 -59.571865 4294967295
181.18832 -58.203632 -59.280788 4294967295
181.19234 -59.51881 -60.046505 4294967295
181.20067 -57.306248 -58.97509 4294967295
181.20573 -46.994877 -60.15818 4294967295
181.2123 -59.931965 -60.555035 4294967295
181.22433 -57.715893 -59.535057 4294967295
181.22614 -56.832317 -59.085274 4294967295
181.26254 -58.54599 -60.529564 4294967295
181.28719 -54.98962 -58.969124 4294967295
181.2932 -55.422974 -59.288719 4294967295
181.29898 -54.533279 -58.892941 4294967295
181.30359 -55.85046 -59.667915 4294967295
181.30762 -56.285942 -59.959602 4294967295
181.3253 -67.890945 -59.797699 4294967295
181.32698 -53.614918 -58.800182 4294967295
181.32811 -53.17189 -58.57798 4294967295
181.34119 -54.038334 -59.231682 4294967295
181.3826 -68.684578 -61.053612 4294967295
181.41269 -67.32811 -60.753498 4294967295
181.41696 -66.007385 -60.100128 4294967295
181.4471 -51.698074 -59.490822 4294967295
181.45186 -66.396393 -60.814205 4294967295
181.45656 -50.360779 -58.906967 4294967295
181.46033 -65.507889 -60.45546 4294967295
181.4619 -52.121105 -59.930969 4294967295
181.46524 -66.815468 -61.233898 4294967295
181.48061 -63.285484 -59.545265 4294967295
181.49138 -65.025917 -60.642456 4294967295
181.49908 -64.137932 -60.272987 4294967295
181.50209 -64.572426 -60.551525 4294967295
181.50551 -62.811993 -59.647896 4294967295
181.5092 -50.737862 -59.864906 4294967295
181.51552 -62.358894 -59.54734 4294967295
181.53651 -49.82077 -59.763252 4294967295
181.54793 -61.875252 -59.752731 4294967295
181.55215 -48.917709 -59.501434 4294967295
181.55423 -60.547695 -59.12521 4294967295
181.55887 -48.024979 -59.117233 4294967295
181.56529 -47.13203 -58.728649 4294967295
181.56541 -60.972382 -59.51638 4294967295
181.56973 -49.338383 -59.979729 4294967295
181.57487 -48.448017 -59.574566 4294967295
181.60515 -61.358025 -60.298096 4294967295
181.62238 -46.621353 -59.272774 4294967295
181.62328 -60.014965 -59.832703 4294967295
181.64096 -57.350098 -58.645561 4294967295
181.65141 -59.537502 -59.97995 4294967295
181.65465 -57.772713 -59.071579 4294967295
181.67191 -59.070316 -60.022865 4294967295
181.70787 -56.821857 -59.324402 4294967295
181.71973 -58.127037 -60.201805 4294967295
181.7439 -55.89365 -59.341839 4294967295
181.75082 -55.443863 -59.198486 4294967295
181.78085 -54.523315 -59.133022 4294967295
181.81627 -54.918747 -59.857826 4294967295
181.83197 -53.575806 -59.357685 4294967295
181.86975 -53.968704 -60.114899 4294967295
181.89435 -68.189217 -61.477516 4294967295
181.89447 -52.614319 -59.738617 4294967295
181.90326 -50.39521 -58.664101 4294967295
181.93518 -52.121902 -60.0592 4294967295
181.93736 -50.79488 -59.372322 4294967295
181.94283 -67.244675 -61.666584 4294967295
181.94572 -65.050964 -60.514488 4294967295
181.94893 -63.730621 -59.842445 4294967295
181.95607 -63.281765 -59.701649 4294967295
181.95766 -51.211227 -59.890259 4294967295
181.96649 -64.583427 -60.561054 4294967295
181.96655 -65.459816 -61.039284 4294967295
181.98755 -49.849373 -59.584541 4294967295
181.99933 -49.393074 -59.507381 4294967295
182.00734 -62.771862 -60.167564 4294967295
182.0226 -48.92268 -59.588318 4294967295
182.02676 -47.590881 -58.927895 4294967295
182.02853 -61.425293 -59.742245 4294967295
182.03412 -48.466595 -59.50787 4294967295
182.03838 -62.290127 -60.355656 4294967295
182.04414 -47.127453 -58.927773 4294967295
182.05475 -47.999477 -59.552483 4294967295
182.05641 -61.826351 -60.364799 4294967295
182.07947 -60.916538 -60.204132 4294967295
182.08185 -59.154816 -59.279755 4294967295
182.09113 -57.821781 -58.688778 4294967295
182.09904 -58.251621 -59.037651 4294967295
182.09935 -60.450241 -60.238628 4294967295
182.12148 -59.541405 -60.064926 4294967295
182.16022 -56.409126 -58.92186 4294967295
182.16347 -58.605804 -60.164642 4294967295
182.17761 -57.267117 -59.641197 4294967295
182.20932 -56.78516 -59.838676 4294967295
182.21616 -55.895439 -59.45372 4294967295
182.29143 -55.357052 -60.252415 4294967295
182.30858 -53.13131 -59.289639 4294967295
182.31703 -53.561543 -59.646561 4294967295
182.3186 -52.677357 -59.187981 4294967295
182.33768 -53.975899 -60.171356 4294967295
182.37141 -52.169323 -59.677414 4294967295
182.38982 -50.822021 -59.211021 4294967295
182.39523 -49.931728 -58.804729 4294967295
182.42142 -65.045876 -60.680805 4294967295
182.42822 -64.598068 -60.534756 4294967295
182.43349 -65.466797 -61.087242 4294967295
182.43398 -63.7131 -60.134178 4294967295
182.44124 -64.141396 -60.474907 4294967295
182.4473 -49.425556 -59.284531 4294967295
182.45515 -48.53186 -58.912003 4294967295
182.46388 -61.91597 -59.586811 4294967295
182.46422 -63.232212 -60.312408 4294967295
182.46506 -62.792366 -60.083458 4294967295
182.46967 -48.956161 -59.353531 4294967295
182.47717 -62.336666 -60.011047 4294967295
182.49208 -61.437992 -59.736389 4294967295
182.50737 -47.583893 -59.153488 4294967295
182.51555 -58.76799 -58.617172 4294967295
182.51952 -60.082291 -59.394566 4294967295
182.52092 -60.519897 -59.654594 4294967295
182.52623 -60.951946 -59.96875 4294967295
182.52899 -47.115475 -59.212006 4294967295
182.53857 -47.988152 -59.826012 4294967295
182.54585 -59.606979 -59.518547 4294967295
182.55029 -57.841 -58.61668 4294967295
182.55069 -59.160694 -59.344959 4294967295
182.61433 -57.315594 -59.263287 4294967295
182.69348 -56.330658 -59.878674 4294967295
182.716 -55.420616 -59.708733 4294967295
182.71664 -55.860054 -59.958885 4294967295
182.73526 -54.955063 -59.73494 4294967295
182.74968 -54.05513 -59.452728 4294967295
182.77246 -54.466297 -60.010086 4294967295
182.78032 -52.251747 -58.912437 4294967295
182.78125 -53.573704 -59.649734 4294967295
182.78561 -52.686226 -59.227692 4294967295
182.81737 -51.322102 -58.943779 4294967295
182.82655 -53.074879 -60.03727 4294967295
182.85223 -49.953445 -58.703255 4294967295
182.85461 -50.392235 -58.978153 4294967295
182.85622 -51.714371 -59.725449 4294967295
182.88205 -50.799389 -59.601341 4294967295
182.89679 -49.456318 -59.081169 4294967295
182.90651 -49.002441 -58.974377 4294967295
182.91359 -61.508652 -59.14658 4294967295
182.92319 -62.373512 -59.763462 4294967295
182.93008 -48.53146 -59.06057 4294967295
182.96248 -47.165398 -58.785057 4294967295
182.96263 -60.123062 -59.103058 4294967295
182.97824 -47.588497 -59.246593 4294967295
182.98389 -60.972572 -59.88282 4294967295
182.98788 -46.692249 -58.896851 4294967295
183.00752 -58.742954 -59.001877 4294967295
183.01402 -60.4921 -60.060326 4294967295
183.03384 -57.827576 -58.884113 4294967295
183.04449 -59.132652 -59.758831 4294967295
183.11459 -54.637226 -58.312347 4294967295
183.12399 -55.506439 -58.928616 4294967295
183.12978 -55.939259 -59.251804 4294967295
183.1403 -55.044449 -58.913742 4294967295
183.15497 -54.143803 -58.632858 4294967295
183.1947 -53.210449 -58.701988 4294967295
183.23949 -52.711876 -59.084427 4294967295
183.25807 -52.247025 -59.10125 4294967295
183.30063 -49.985973 -58.480721 4294967295
183.31311 -50.412014 -58.898392 4294967295
183.32535 -51.279255 -59.555496 4294967295
183.33844 -50.821526 -59.495647 4294967295
183.34323 -49.491043 -58.833176 4294967295
183.3568 -48.590405 -58.53632 4294967295
183.36812 -48.134323 -58.451591 4294967295
183.36963 -49.016441 -58.959351 4294967295
183.39983 -47.653263 -58.651649 4294967295
183.42653 -46.736084 -58.538517 4294967295
183.45198 -59.221714 -58.969177 4294967295
183.45795 -59.653114 -59.296036 4294967295
183.47478 -60.508404 -60.01828 4294967295
183.47649 -58.308907 -58.825439 4294967295
183.47746 -60.065636 -59.812729 4294967295
183.51112 -58.701683 -59.554138 4294967295
183.51431 -47.071411 -60.011086 4294967295
183.53563 -57.789261 -59.410522 4294967295
183.56886 -55.984737 -58.901516 4294967295
183.573 -55.098301 -58.471756 4294967295
183.60294 -56.379593 -59.623158 4294967295
183.60698 -56.814049 -59.923431 4294967295
183.62958 -55.464146 -59.509285 4294967295
183.65588 -54.108494 -59.146584 4294967295
183.66937 -54.531307 -59.579876 4294967295
183.71776 -53.146854 -59.527336 4294967295
183.73384 -52.68541 -59.509048 4294967295
183.74915 -51.784031 -59.235703 4294967295
183.76413 -52.205727 -59.690216 4294967295
183.79913 -51.279305 -59.69363 4294967295
183.80598 -50.829586 -59.545746 4294967295
183.82013 -49.929272 -59.255943 4294967295
183.82762 -49.478439 -59.116844 4294967295
183.84845 -48.569199 -58.920559 4294967295
183.87312 -48.980091 -59.512341 4294967295
183.88571 -48.081253 -59.200356 4294967295
183.91454 -46.719982 -58.871796 4294967295
183.91606 -47.602028 -59.382996 4294967295
183.91931 -47.156151 -59.184273 4294967295
183.97177 -56.959377 -58.528408 4294967295
183.98109 -56.06636 -58.16922 4294967295
183.9837 -56.503201 -58.451355 4294967295
184.00888 -57.78896 -59.54147 4294967295
184.0273 -55.124001 -58.330166 4294967295
184.04356 -55.542858 -58.804932 4294967295
184.08942 -53.720318 -58.470261 4294967295
184.08961 -54.601238 -58.964043 4294967295
184.09869 -54.148834 -58.846634 4294967295
184.11726 -53.243195 -58.617905 4294967295
184.13718 -52.77647 -58.653503 4294967295
184.22501 -51.340469 -59.157295 4294967295
184.2338 -51.770073 -59.526966 4294967295
184.26579 -49.965118 -58.996483 4294967295
184.30965 -48.585537 -58.8792 4294967295
184.32181 -49.011845 -59.297146 4294967295
184.32735 -49.446178 -59.621101 4294967295
184.33466 -47.228958 -58.494659 4294967295
184.37227 -46.740635 -58.78093 4294967295
184.3824 -47.611813 -59.416637 4294967295
184.39207 -48.041309 -59.799599 4294967295
184.56953 -54.59269 -59.188622 4294967295
184.57967 -52.817287 -58.345123 4294967295
184.60092 -53.230228 -58.893921 4294967295
184.64169 -52.295803 -58.978909 4294967295
184.64958 -50.962692 -58.349754 4294967295
184.67511 -50.488754 -58.465469 4294967295
184.68013 -50.041023 -58.289284 4294967295
184.68279 -51.801857 -59.31567 4294967295
184.68718 -51.3554 -59.131195 4294967295
184.70076 -49.573326 -58.335499 4294967295
184.70454 -49.12693 -58.141998 4294967295
184.75986 -48.174038 -58.433891 4294967295
184.78839 -48.579876 -59.087189 4294967295
184.84613 -47.183182 -59.166687 4294967295
184.86731 -47.598396 -59.715481 4294967295
185.08212 -51.457424 -58.144501 4294967295
185.09622 -52.32074 -58.843178 4294967295
185.16341 -49.146622 -58.062935 4294967295
185.16463 -51.791061 -59.571861 4294967295
185.17801 -50.892532 -59.266655 4294967295
185.17969 -50.449558 -59.041935 4294967295
185.20036 -49.982086 -59.089127 4294967295
185.36043 -46.691826 -59.638439 4294967295
185.63336 -50.916199 -59.143875 4294967295
185.65198 -50.45142 -59.161552 4294967295
185.65622 -49.564156 -58.722572 4294967295
185.66267 -48.673454 -58.314819 4294967295
185.66966 -49.105839 -58.665756 4294967295
185.70335 -49.944508 -59.650291 4294967295
185.73468 -48.140839 -59.10083 4294967295
185.75696 -47.230064 -58.921223 4294967295
186.15205 -47.329746 -57.923584 4294967295
186.17361 -46.86084 -57.984077 4294967295
186.1844 -47.730354 -58.643917 4294967295
186.1913 -48.162804 -58.995476 4294967295
117.63091 -45.444485 -63.172855 4294967295
117.64919 -45.884987 -63.452217 4294967295
117.69077 -44.951462 -63.505051 4294967295
117.71483 -46.293137 -64.102188 4294967295
118.09294 -46.367111 -63.396736 4294967295
118.13985 -43.165047 -62.807457 4294967295
118.16396 -45.866272 -63.817635 4294967295
118.17375 -42.689499 -62.936855 4294967295
118.22421 -42.203213 -63.196495 4294967295
118.22633 -41.748581 -63.076187 4294967295
118.23819 -44.005867 -63.85363 4294967295
118.2527 -45.353817 -64.377617 4294967295
118.26711 -44.43922 -64.217453 4294967295
118.30792 -43.506882 -64.264595 4294967295
118.63463 -44.972153 -63.563957 4294967295
118.64271 -41.795502 -62.666664 4294967295
118.64366 -43.607635 -63.223389 4294967295
118.64448 -42.247696 -62.817871 4294967295
118.64973 -45.414577 -63.819969 4294967295
118.65845 -44.503437 -63.614483 4294967295
118.68517 -45.842953 -64.236267 4294967295
118.7066 -44.018528 -63.85656 4294967295
118.70661 -41.300545 -63.033051 4294967295
118.70971 -42.657967 -63.46946 4294967295
118.71646 -40.840816 -62.973328 4294967295
118.71803 -43.105392 -63.672279 4294967295
118.80502 -39.877121 -63.396912 4294967295
118.8141 -40.324551 -63.605904 4294967295
119.01118 -46.40514 -63.253414 4294967295
119.06783 -45.913864 -63.563362 4294967295
119.09296 -45.444237 -63.624317 4294967295
119.09964 -42.269394 -62.713284 4294967295
119.11354 -44.525066 -63.511753 4294967295
119.11893 -41.803429 -62.728073 4294967295
119.12578 -44.064117 -63.470802 4294967295
119.16872 -41.317627 -62.983978 4294967295
119.19787 -43.110519 -63.765362 4294967295
119.21812 -43.549721 -64.063065 4294967295
119.22418 -38.560932 -62.595543 4294967295
119.22797 -40.825867 -63.314884 4294967295
119.2295 -42.636806 -63.877808 4294967295
119.23373 -40.368893 -63.222687 4294967295
119.24582 -39.000851 -62.904755 4294967295
119.26721 -38.080013 -62.798252 4294967295
119.2692 -37.171124 -62.537998 4294967295
119.27364 -39.889915 -63.400551 4294967295
119.54288 -45.016808 -63.342739 4294967295
119.54434 -45.920906 -63.63028 4294967295
119.55455 -44.103455 -63.159058 4294967295
119.57375 -46.353065 -64.001297 4294967295
119.59052 -41.814354 -62.753384 4294967295
119.59139 -45.436363 -63.865231 4294967295
119.59695 -44.527615 -63.633194 4294967295
119.603 -43.618168 -63.405029 4294967295
119.61201 -43.159321 -63.338387 4294967295
119.65948 -37.687355 -62.055595 4294967295
119.6656 -42.670868 -63.625328 4294967295
119.67014 -40.855827 -63.108673 4294967295
119.6714 -39.494865 -62.703842 4294967295
119.67937 -39.94323 -62.90535 4294967295
119.68178 -42.207333 -63.615513 4294967295
119.70285 -38.113876 -62.538452 4294967295
119.71322 -38.561005 -62.759102 4294967295
119.75874 -38.985516 -63.25893 4294967295
119.76467 -36.259632 -62.475708 4294967295
119.79832 -37.146355 -63.019875 4294967295
119.82711 -36.674683 -63.110146 4294967295
119.8275 -35.766815 -62.83643 4294967295
119.94895 -46.429768 -63.264839 4294967295
119.98526 -44.141632 -62.860966 4294967295
120.00529 -44.580906 -63.158825 4294967295
120.00907 -42.313461 -62.49588 4294967295
120.01408 -45.932533 -63.644119 4294967295
120.04742 -45.004898 -63.632378 4294967295
120.06012 -45.448639 -63.871819 4294967295
120.06661 -40.915703 -62.537689 4294967295
120.07982 -41.813553 -62.920235 4294967295
120.09742 -40.442242 -62.644207 4294967295
120.10049 -41.346817 -62.946056 4294967295
120.10809 -39.528366 -62.451542 4294967295
120.12838 -37.700378 -62.057858 4294967295
120.13168 -42.685108 -63.610092 4294967295
120.13178 -38.152115 -62.223866 4294967295
120.13746 -43.133949 -63.794643 4294967295
120.15411 -39.952133 -62.956848 4294967295
120.20044 -39.015579 -63.04834 4294967295
120.20469 -38.559414 -62.943405 4294967295
120.21119 -37.194347 -62.578796 4294967295
120.2792 -36.24424 -62.842972 4294967295
120.29692 -35.779392 -62.845394 4294967295
120.29868 -34.416267 -62.442619 4294967295
120.31999 -34.857323 -62.751488 4294967295
120.35912 -33.016968 -62.507576 4294967295
120.3776 -33.914162 -62.933014 4294967295
120.38841 -33.453529 -62.88031 4294967295
120.41956 -44.630394 -62.728996 4294967295
120.4511 -44.156181 -62.841579 4294967295
120.46772 -46.407505 -63.668877 4294967295
120.46852 -43.238628 -62.702599 4294967295
120.49626 -40.954132 -62.228424 4294967295
120.50188 -45.026958 -63.524799 4294967295
120.51227 -42.303352 -62.773613 4294967295
120.56092 -41.364964 -62.883896 4294967295
120.59911 -40.433586 -62.910561 4294967295
120.60921 -38.159607 -62.295212 4294967295
120.6327 -41.770599 -63.596085 4294967295
120.64674 -35.412014 -61.758888 4294967295
120.64796 -38.588524 -62.744068 4294967295
120.65698 -39.03619 -62.955406 4294967295
120.66642 -37.669582 -62.613075 4294967295
120.66928 -39.934753 -63.331913 4294967295
120.68449 -35.8428 -62.200108 4294967295
120.68532 -39.471226 -63.320892 4294967295
120.69362 -37.1987 -62.691246 4294967295
120.76366 -33.523232 -62.136257 4294967295
120.79253 -33.051437 -62.227753 4294967295
120.79578 -33.957966 -62.532753 4294967295
120.81879 -32.126831 -62.158932 4294967295
120.82578 -30.758743 -61.796127 4294967295
120.83124 -34.844238 -63.095039 4294967295
120.8669 -31.18922 -62.264969 4294967295
120.90378 -43.726768 -62.57777 4294967295
120.94038 -42.796181 -62.591717 4294967295
120.96385 -44.591454 -63.337494 4294967295
120.96954 -46.396751 -63.940266 4294967295
120.96979 -41.417187 -62.408607 4294967295
120.97092 -45.943668 -63.812046 4294967295
120.97478 -45.036434 -63.564354 4294967295
120.99133 -39.589302 -62.022522 4294967295
120.9949 -42.306759 -62.88887 4294967295
120.99556 -40.493572 -62.335785 4294967295
121.01351 -45.462116 -64.013588 4294967295
121.06966 -41.804142 -63.348053 4294967295
121.09698 -39.067474 -62.729649 4294967295
121.13789 -37.680775 -62.638401 4294967295
121.14303 -38.131046 -62.819332 4294967295
121.14993 -37.21949 -62.595264 4294967295
121.16933 -38.567596 -63.16993 4294967295
121.17164 -36.298321 -62.489841 4294967295
121.18076 -35.838745 -62.423306 4294967295
121.18349 -35.383087 -62.305397 4294967295
121.19518 -32.650063 -61.559517 4294967295
121.20222 -36.732853 -62.874847 4294967295
121.21559 -34.909225 -62.423077 4294967295
121.23586 -33.988594 -62.306015 4294967295
121.23801 -32.16975 -61.763474 4294967295
121.245 -34.437096 -62.51918 4294967295
121.27092 -33.058838 -62.307594 4294967295
121.27116 -31.695368 -61.889633 4294967295
121.30248 -28.947727 -61.30056 4294967295
121.33766 -33.472515 -62.983208 4294967295
