# .PCD v0.7 - Point Cloud Data file format
VERSION 0.7
FIELDS x y z rgb
SIZE 4 4 4 4
TYPE F F F U
COUNT 1 1 1 1
WIDTH 1123
HEIGHT 1
VIEWPOINT 0 0 0 1 0 0 0
POINTS 1123
DATA ascii
382.78702 -2.6403351 -47.505333 4294967295
382.78943 -16.943117 -46.612244 4294967295
382.79004 -4.046154 -46.939144 4294967295
382.88843 -2.2231646 -46.637386 4294967295
382.8956 -15.127735 -46.230339 4294967295
382.91388 -13.728694 -46.576424 4294967295
382.91855 -14.201449 -46.349838 4294967295
382.98428 -12.361019 -46.385471 4294967295
383.10022 -19.219379 -47.172714 4294967295
383.10397 -8.6739922 -46.576862 4294967295
383.19318 -6.3778782 -46.548386 4294967295
383.20859 -3.5757036 -47.456207 4294967295
383.26715 -2.6693974 -47.20911 4294967295
383.27527 -13.688979 -47.503731 4294967295
383.28613 -15.574505 -46.682186 4294967295
383.29684 -14.17144 -47.104935 4294967295
383.32986 -11.374967 -47.830059 4294967295
383.33597 -15.134879 -46.347504 4294967295
383.38623 -14.695237 -46.008705 4294967295
383.39999 -13.29353 -46.399776 4294967295
383.4162 -9.5486107 -47.6525 4294967295
383.41943 -11.896015 -46.732712 4294967295
383.42581 -10.961007 -47.022041 4294967295
383.43365 -10.496304 -47.119305 4294967295
383.48172 -6.7736778 -48.043438 4294967295
383.49567 -8.6552505 -47.191837 4294967295
383.52228 -5.8589993 -47.981674 4294967295
383.53345 -9.1451225 -46.627075 4294967295
383.54941 -6.3415666 -47.526737 4294967295
383.57138 -17.835331 -47.50087 4294967295
383.57831 -4.9522762 -47.76115 4294967295
383.57947 -19.721733 -46.709728 4294967295
383.60147 -7.3066192 -46.638359 4294967295
383.61807 -16.454823 -47.55315 4294967295
383.6189 -5.4416161 -47.168442 4294967295
383.62039 -7.78578 -46.267277 4294967295
383.62234 -19.278791 -46.446838 4294967295
383.62781 -4.5098343 -47.431427 4294967295
383.66461 -17.42384 -46.722492 4294967295
383.67145 -18.368935 -46.298477 4294967295
383.6795 -3.6002226 -47.255501 4294967295
383.9054 -10.05303 -47.088039 4294967295
383.98215 -6.8144593 -47.53936 4294967295
384.06384 -4.0486631 -47.762463 4294967295
384.08832 -6.4024682 -46.63179 4294967295
384.13953 -16.982206 -46.66003 4294967295
384.25409 -16.112354 -45.843994 4294967295
384.30319 -12.852133 -46.577606 4294967295
384.32031 -10.046916 -47.458836 4294967295
384.32654 -10.988302 -47.043873 4294967295
384.3277 -12.396887 -46.503685 4294967295
384.36023 -9.6003838 -47.228485 4294967295
384.37869 -8.6731491 -47.392349 4294967295
384.39859 -10.559944 -46.485764 4294967295
384.48044 -18.337393 -47.257362 4294967295
384.49734 -4.054265 -47.941322 4294967295
384.50339 -19.762922 -46.496853 4294967295
384.52356 -4.5354528 -47.499523 4294967295
384.53128 -7.34975 -46.367069 4294967295
384.54034 -6.4172082 -46.626232 4294967295
384.54153 -5.0127459 -47.141209 4294967295
384.56219 -16.978365 -46.953556 4294967295
384.57324 -2.6894178 -47.696556 4294967295
384.6254 -17.958166 -45.959316 4294967295
384.64456 -17.49966 -45.940304 4294967295
384.64944 -16.562065 -46.2421 4294967295
384.65732 -13.278791 -47.390991 4294967295
384.66837 -14.224125 -46.927921 4294967295
384.68341 -2.276104 -46.75304 4294967295
384.69635 -15.650428 -46.116467 4294967295
384.71426 -14.721221 -46.286053 4294967295
384.76013 -11.930712 -46.873226 4294967295
384.83972 -11.037554 -46.416592 4294967295
384.86459 -6.3647056 -47.915482 4294967295
384.93649 -19.764997 -46.683762 4294967295
384.98566 -3.6199551 -47.7384 4294967295
384.98825 -5.9613419 -46.837616 4294967295
385.01855 -16.525578 -47.077854 4294967295
385.03555 -2.7095652 -47.583073 4294967295
385.24942 -11.497338 -46.664768 4294967295
385.27509 -9.6358128 -47.103859 4294967295
385.29474 -12.462141 -45.856632 4294967295
385.34152 -8.2660713 -46.956104 4294967295
385.37625 -6.8792238 -47.128559 4294967295
385.39084 -8.7615795 -46.283524 4294967295
385.39209 -18.841042 -46.990356 4294967295
385.42682 -5.5009336 -47.14183 4294967295
385.43216 -3.6322317 -47.784336 4294967295
385.44275 -19.34334 -46.30431 4294967295
385.44727 -6.4481788 -46.586548 4294967295
385.46133 -18.414331 -46.465717 4294967295
385.48035 -4.124197 -47.12442 4294967295
385.50488 -3.2008228 -47.225056 4294967295
385.50531 -16.091442 -46.893642 4294967295
385.52496 -5.0832005 -46.325233 4294967295
385.53845 -17.051537 -46.21072 4294967295
385.54276 -15.174629 -46.864555 4294967295
385.57254 -13.314583 -47.261169 4294967295
385.57321 -15.662633 -46.383297 4294967295
385.57993 -2.3022728 -46.816742 4294967295
385.60413 -14.271864 -46.594395 4294967295
385.60797 -13.804603 -46.729839 4294967295
385.6781 -12.906503 -46.37109 4294967295
385.73328 -11.060724 -46.512222 4294967295
385.74283 -10.128041 -46.763584 4294967295
385.86182 -6.4433503 -46.957512 4294967295
385.88129 -17.938639 -46.955986 4294967295
385.88394 -8.3294907 -46.039257 4294967295
385.97134 -16.584171 -46.572109 4294967295
386.01334 -16.139692 -46.324066 4294967295
386.12686 -11.980559 -46.74577 4294967295
386.28171 -8.7837067 -46.405739 4294967295
386.3006 -7.3879638 -46.735771 4294967295
386.32416 -5.995388 -47.019085 4294967295
386.32584 -6.9327903 -46.65649 4294967295
386.32721 -7.8706489 -46.295883 4294967295
386.33081 -18.421446 -46.800346 4294967295
386.3537 -5.54247 -46.896179 4294967295
386.36853 -19.385447 -46.076355 4294967295
386.39062 -17.988445 -46.37421 4294967295
386.39597 -3.6921091 -47.164818 4294967295
386.39883 -16.114067 -46.984116 4294967295
386.41669 -17.534391 -46.286346 4294967295
386.41959 -4.1717396 -46.755493 4294967295
386.42059 -4.6402817 -46.572578 4294967295
386.48859 -2.3344469 -46.756462 4294967295
386.49796 -16.643715 -45.819206 4294967295
386.49823 -14.29502 -46.680992 4294967295
386.50784 -14.770183 -46.412075 4294967295
386.50876 -15.710222 -46.056915 4294967295
386.56055 -13.392432 -46.403244 4294967295
386.61771 -9.2042465 -47.386047 4294967295
386.64792 -12.034262 -46.04818 4294967295
386.65085 -8.2854233 -47.399704 4294967295
386.66925 -12.515815 -45.662323 4294967295
386.68283 -10.646164 -46.217918 4294967295
386.69183 -11.589647 -45.78236 4294967295
386.72592 -11.139353 -45.614582 4294967295
386.83798 -4.1698637 -47.083744 4294967295
386.85086 -6.0487194 -46.265823 4294967295
386.88086 -5.5957355 -46.139061 4294967295
386.91394 -3.2718849 -46.670792 4294967295
386.95349 -13.372915 -46.985893 4294967295
386.9617 -2.3596163 -46.539303 4294967295
387.03082 -15.766275 -45.353558 4294967295
387.27707 -17.066748 -46.880379 4294967295
387.29398 -4.1868258 -47.035358 4294967295
387.30276 -18.962387 -45.937725 4294967295
387.30719 -7.4713535 -45.70142 4294967295
387.30966 -5.1305265 -46.536278 4294967295
387.32181 -18.503891 -45.920692 4294967295
387.33255 -17.570276 -46.156948 4294967295
387.33582 -3.2720709 -46.962902 4294967295
387.35092 -3.747241 -46.641155 4294967295
387.3598 -16.646879 -46.230259 4294967295
387.3656 -14.772032 -46.85873 4294967295
387.3844 -16.191809 -46.157543 4294967295
387.40302 -14.324512 -46.659122 4294967295
387.40741 -2.3715315 -46.595028 4294967295
387.41614 -15.271194 -46.185501 4294967295
387.4541 -12.477205 -46.837448 4294967295
387.46387 -15.769235 -45.539616 4294967295
387.49115 -13.436694 -46.127068 4294967295
387.55829 -11.128545 -46.318554 4294967295
387.5715 -9.7293377 -46.70158 4294967295
387.57428 -12.075796 -45.816837 4294967295
387.57712 -10.20113 -46.47427 4294967295
387.61633 -9.2849083 -46.428394 4294967295
387.61917 -6.9446607 -47.255955 4294967295
387.64365 -7.8938775 -46.670979 4294967295
387.72479 -5.5947809 -46.723392 4294967295
387.72592 -6.531703 -46.369576 4294967295
387.72894 -8.407589 -45.654724 4294967295
387.80566 -15.248938 -46.797543 4294967295
387.88013 -16.702177 -45.548088 4294967295
388.06281 -12.110723 -45.451218 4294967295
388.12933 -6.0535707 -47.012566 4294967295
388.13251 -19.885132 -46.319405 4294967295
388.28778 -3.3254013 -46.472748 4294967295
388.30234 -2.3971653 -46.669609 4294967295
388.32648 -16.243179 -45.769978 4294967295
388.33429 -3.8160028 -45.843868 4294967295
388.34372 -13.436381 -46.622089 4294967295
388.3454 -13.906518 -46.435169 4294967295
388.36923 -15.328806 -45.689049 4294967295
388.37457 -12.046883 -46.828903 4294967295
388.43274 -11.141528 -46.59621 4294967295
388.4617 -12.564728 -45.800636 4294967295
388.50797 -9.776329 -46.365761 4294967295
388.52835 -6.9772301 -47.184811 4294967295
388.53241 -11.66562 -45.444279 4294967295
388.54001 -8.3878088 -46.560631 4294967295
388.54663 -9.3284016 -46.155331 4294967295
388.57458 -7.4692507 -46.560375 4294967295
388.61087 -6.0834942 -46.713234 4294967295
388.63577 -6.5642958 -46.29847 4294967295
388.64056 -18.054092 -46.440884 4294967295
388.64682 -18.997787 -46.03941 4294967295
388.65558 -5.6380835 -46.443638 4294967295
388.69104 -19.495262 -45.434582 4294967295
388.71585 -17.629728 -45.87096 4294967295
388.73105 -2.8685379 -46.72052 4294967295
388.73218 -18.579849 -45.370434 4294967295
388.73511 -3.3381109 -46.510727 4294967295
388.7529 -2.4114962 -46.675529 4294967295
388.91187 -13.986483 -45.304249 4294967295
388.91696 -9.7679501 -46.780113 4294967295
388.92517 -13.524458 -45.343761 4294967295
388.92795 -10.24238 -46.503551 4294967295
388.93771 -7.9060297 -47.253777 4294967295
388.9743 -12.613169 -45.200439 4294967295
389.07251 -5.1675882 -46.947975 4294967295
389.14709 -3.8012991 -46.725586 4294967295
389.2417 -17.688431 -45.141357 4294967295
389.2471 -16.751492 -45.428226 4294967295
389.32626 -11.633918 -46.513222 4294967295
389.3299 -13.512128 -45.801605 4294967295
389.34283 -14.458447 -45.336845 4294967295
389.35919 -12.590122 -45.852928 4294967295
389.39398 -13.078874 -45.344166 4294967295
389.39835 -8.861681 -46.821819 4294967295
389.43561 -9.3497906 -46.28907 4294967295
389.44632 -8.4186182 -46.521748 4294967295
389.45584 -10.298016 -45.753582 4294967295
389.48904 -7.0361729 -46.610607 4294967295
389.49286 -10.787049 -45.222813 4294967295
389.50317 -9.8545303 -45.460098 4294967295
389.53088 -6.5894175 -46.370949 4294967295
389.57089 -19.038666 -45.830563 4294967295
389.57227 -19.509609 -45.648579 4294967295
389.57285 -4.2711172 -46.803871 4294967295
389.58002 -5.6780796 -46.228485 4294967295
389.61646 -15.77815 -46.566311 4294967295
389.62564 -3.8291731 -46.457924 4294967295
389.62756 -16.254045 -46.289108 4294967295
389.63791 -20.020376 -44.839333 4294967295
389.64999 -2.9057178 -46.557602 4294967295
389.65323 -18.618555 -45.196201 4294967295
389.66083 -5.2502451 -45.608952 4294967295
389.70502 -17.239246 -45.197186 4294967295
389.74216 -2.4819307 -45.827694 4294967295
389.74377 -11.629721 -46.840363 4294967295
389.75345 -14.918649 -45.567471 4294967295
389.85248 -8.4095478 -46.958778 4294967295
389.94278 -6.5839858 -46.752644 4294967295
390.00177 -19.98019 -45.693886 4294967295
390.00272 -18.570862 -46.188389 4294967295
390.14368 -16.306034 -45.658409 4294967295
390.20892 -15.404646 -45.360176 4294967295
390.30664 -11.705078 -45.754944 4294967295
390.31268 -12.177439 -45.528324 4294967295
390.35614 -8.4513035 -46.447823 4294967295
390.40518 -9.882658 -45.469246 4294967295
390.40836 -6.6057925 -46.611156 4294967295
390.41519 -7.07723 -46.377697 4294967295
390.43546 -5.6837282 -46.683002 4294967295
390.4642 -18.590984 -46.08876 4294967295
390.47232 -4.7665386 -46.660728 4294967295
390.53891 -3.8636274 -46.350689 4294967295
390.55435 -2.935977 -46.5359 4294967295
390.57037 -15.836224 -46.064739 4294967295
390.57492 -15.369534 -46.187931 4294967295
390.60492 -17.735319 -45.060879 4294967295
390.60764 -16.3274 -45.53651 4294967295
390.65579 -14.946538 -45.572418 4294967295
390.6636 -13.543198 -45.998318 4294967295
390.66635 -12.606829 -46.305882 4294967295
390.67053 -14.485522 -45.597275 4294967295
390.68665 -2.5308495 -45.423042 4294967295
390.72244 -9.8259506 -46.765327 4294967295
390.75269 -13.123691 -45.304482 4294967295
390.78824 -10.329329 -45.9631 4294967295
390.82901 -10.819887 -45.402668 4294967295
390.83331 -7.0749507 -46.695919 4294967295
390.83902 -9.4190063 -45.806698 4294967295
390.94818 -20.034672 -45.271542 4294967295
390.98053 -19.114021 -45.292671 4294967295
391.02893 -2.494339 -46.474937 4294967295
391.31332 -11.32082 -44.919338 4294967295
391.38199 -7.6069965 -45.589409 4294967295
391.392 -4.336689 -46.655708 4294967295
391.39761 -4.8069344 -46.435909 4294967295
391.40744 -18.643311 -45.69492 4294967295
391.41629 -5.7516031 -45.924812 4294967295
391.42404 -16.774803 -46.199921 4294967295
391.45163 -17.260357 -45.769005 4294967295
391.45914 -19.61446 -44.865395 4294967295
391.46576 -15.391174 -46.297138 4294967295
391.4729 -3.4404068 -46.210861 4294967295
391.50305 -2.5197382 -46.253246 4294967295
391.50424 -18.231018 -44.930908 4294967295
391.55118 -14.970558 -45.643024 4294967295
391.55646 -3.0123053 -45.574314 4294967295
391.59711 -14.057955 -45.533234 4294967295
391.60449 -13.592888 -45.628716 4294967295
391.60907 -13.12635 -45.751041 4294967295
391.61124 -12.65863 -45.895645 4294967295
391.61444 -14.536984 -45.201157 4294967295
391.64011 -11.736749 -45.950329 4294967295
391.64908 -9.3994083 -46.693172 4294967295
391.68277 -12.228788 -45.374687 4294967295
391.68393 -8.949439 -46.5242 4294967295
391.69293 -10.35914 -45.940617 4294967295
391.76254 -8.0536175 -46.101963 4294967295
391.79205 -8.5369949 -45.653641 4294967295
391.8096 -7.6094012 -45.816254 4294967295
391.83667 -4.3482018 -46.715981 4294967295
391.92673 -17.288305 -45.540173 4294967295
391.96252 -16.369967 -45.528603 4294967295
391.98569 -3.9519215 -45.454777 4294967295
392.22128 -8.5400906 -45.863708 4294967295
392.31683 -18.675304 -45.628418 4294967295
392.31998 -18.207466 -45.763947 4294967295
392.32278 -7.6551099 -45.224487 4294967295
392.32544 -4.3809147 -46.353783 4294967295
392.32718 -19.621193 -45.199947 4294967295
392.32806 -6.7212386 -45.504227 4294967295
392.36407 -17.763781 -45.507786 4294967295
392.3902 -16.370445 -45.753723 4294967295
392.44189 -3.0334854 -45.738049 4294967295
392.44238 -2.5662603 -45.897953 4294967295
392.44965 -15.465749 -45.515976 4294967295
392.44965 -14.527371 -45.845833 4294967295
392.46271 -3.5109205 -45.374012 4294967295
392.49158 -13.612682 -45.775448 4294967295
392.54953 -12.237745 -45.717602 4294967295
392.54993 -14.114106 -45.055012 4294967295
392.55707 -12.710712 -45.480743 4294967295
392.58371 -13.194311 -45.062347 4294967295
392.6239 -10.402806 -45.667229 4294967295
392.66052 -9.9534149 -45.483814 4294967295
392.68967 -8.5632467 -45.699905 4294967295
392.7168 -9.0455379 -45.277271 4294967295
392.72192 -7.6432123 -45.721649 4294967295
392.72433 -8.1126289 -45.534397 4294967295
392.77859 -6.2672968 -45.675632 4294967295
392.82581 -5.3545218 -45.555504 4294967295
392.92825 -16.43425 -44.927399 4294967295
393.02469 -10.859028 -45.981663 4294967295
393.04172 -11.336603 -45.655514 4294967295
393.11407 -11.843992 -44.805229 4294967295
393.18292 -5.3235826 -46.446644 4294967295
393.31976 -4.4539719 -45.477974 4294967295
393.33319 -16.891226 -45.203632 4294967295
393.35187 -3.5337944 -45.501461 4294967295
393.35602 -4.9391212 -44.971264 4294967295
393.41104 -15.527081 -44.958023 4294967295
393.42569 -13.189558 -45.637329 4294967295
393.47253 -10.871616 -46.011719 4294967295
393.49567 -12.289736 -45.302429 4294967295
393.52838 -8.5597191 -46.30043 4294967295
393.56641 -9.5154266 -45.614399 4294967295
393.57361 -10.456108 -45.219467 4294967295
393.58112 -7.1826925 -46.29121 4294967295
393.58841 -6.7185922 -46.385719 4294967295
393.66879 -19.655525 -45.316525 4294967295
393.69977 -6.3054504 -45.497341 4294967295
393.71478 -16.865318 -45.861675 4294967295
393.72827 -18.281401 -45.244629 4294967295
393.74875 -3.9904413 -45.850723 4294967295
393.78488 -16.436058 -45.363117 4294967295
393.86014 -2.1723413 -45.451778 4294967295
393.86191 -14.133349 -45.451756 4294967295
393.94186 -13.708118 -44.86105 4294967295
393.97589 -10.913343 -45.51812 4294967295
393.98566 -9.5134029 -45.914307 4294967295
394.14465 -7.2528372 -45.230938 4294967295
394.15308 -5.3854361 -45.802452 4294967295
394.23865 -4.0232239 -45.485207 4294967295
394.32971 -3.1303711 -44.954067 4294967295
394.34973 -11.823847 -45.918789 4294967295
394.35315 -2.2059832 -45.058517 4294967295
394.36121 -13.235925 -45.323986 4294967295
394.39944 -10.913204 -45.776878 4294967295
394.40851 -10.449604 -45.854099 4294967295
394.41177 -12.325454 -45.173862 4294967295
394.44785 -10.001705 -45.64629 4294967295
394.50809 -8.1597176 -45.730202 4294967295
394.53848 -9.5798283 -44.958305 4294967295
394.55054 -19.671135 -45.509701 4294967295
394.57468 -6.7889009 -45.59153 4294967295
394.59903 -5.8651619 -45.687519 4294967295
394.60016 -5.3980541 -45.839226 4294967295
394.62579 -17.837036 -45.452095 4294967295
394.66043 -6.3627434 -44.949806 4294967295
394.66458 -4.0260258 -45.720951 4294967295
394.66901 -17.392424 -45.209446 4294967295
394.67682 -4.966939 -45.282585 4294967295
394.67722 -15.989347 -45.618355 4294967295
394.67999 -4.5007696 -45.414776 4294967295
394.72949 -2.1867018 -45.760471 4294967295
394.76385 -15.568644 -44.968891 4294967295
394.77643 -14.168313 -45.336636 4294967295
394.87012 -9.533165 -46.077053 4294967295
394.99506 -6.7883706 -45.878281 4294967295
395.02335 -8.2061558 -45.129353 4294967295
395.0351 -8.6803207 -44.857498 4294967295
395.34995 -12.372849 -44.839825 4294967295
395.37964 -10.045546 -45.368752 4294967295
395.39084 -9.5829887 -45.425831 4294967295
395.39407 -8.648447 -45.717724 4294967295
395.44144 -7.2683311 -45.759003 4294967295
395.45862 -6.3413372 -45.92104 4294967295
395.48444 -7.7573633 -45.197838 4294967295
395.51886 -6.8382726 -45.19894 4294967295
395.52298 -4.5021772 -45.965057 4294967295
395.5238 -19.740702 -44.846458 4294967295
395.53345 -4.9744673 -45.707222 4294967295
395.56555 -18.355974 -44.941086 4294967295
395.578 -5.4631605 -45.131763 4294967295
395.60004 -17.436729 -44.942192 4294967295
395.60217 -4.071681 -45.389446 4294967295
395.60352 -15.561997 -45.552872 4294967295
395.62119 -3.6130333 -45.373398 4294967295
395.63977 -14.644246 -45.536568 4294967295
395.73212 -2.2612648 -44.823772 4294967295
395.75674 -10.958319 -45.734772 4294967295
395.78122 -11.439379 -45.346478 4294967295
395.82883 -9.1226845 -45.706764 4294967295
395.9462 -8.2451057 -44.938469 4294967295
395.97955 -6.3895216 -45.270412 4294967295
396.04691 -2.6817284 -45.927826 4294967295
396.05347 -16.513498 -45.241772 4294967295
396.13843 -13.74671 -45.415127 4294967295
396.34021 -10.103883 -44.827503 4294967295
396.36517 -19.732903 -45.410591 4294967295
396.36682 -6.3733921 -45.860207 4294967295
396.36963 -8.7138538 -45.035324 4294967295
396.37927 -7.3146939 -45.425743 4294967295
396.40985 -5.4589396 -45.782204 4294967295
396.45386 -18.375864 -45.070244 4294967295
396.47482 -5.9573421 -45.021484 4294967295
396.47699 -5.0230751 -45.320858 4294967295
396.49396 -16.990755 -45.179188 4294967295
396.49945 -4.5660543 -45.272972 4294967295
396.58594 -15.634467 -44.808361 4294967295
396.59888 -2.2746191 -45.153034 4294967295
396.61447 -14.711974 -44.86433 4294967295
396.63132 -13.314582 -45.187962 4294967295
396.67676 -11.932904 -45.246418 4294967295
396.73474 -9.621397 -45.509098 4294967295
396.75406 -11.035978 -44.852703 4294967295
396.91086 -4.5622549 -45.63739 4294967295
396.96359 -3.1847725 -45.629787 4294967295
397.23676 -7.3220921 -45.83284 4294967295
397.38443 -5.9898214 -44.953114 4294967295
397.41766 -4.6026192 -45.12426 4294967295
397.42755 -17.036375 -44.889156 4294967295
397.43271 -5.0771399 -44.827339 4294967295
397.46838 -15.651746 -44.990517 4294967295
397.54309 -2.3225985 -44.76672 4294967295
397.5657 -13.360052 -44.890472 4294967295
397.58768 -10.561401 -45.639446 4294967295
397.60303 -12.442424 -44.865211 4294967295
397.604 -11.506069 -45.172962 4294967295
397.6582 -8.2574224 -45.784714 4294967295
397.69122 -9.2093315 -45.16597 4294967295
397.72348 -7.8215394 -45.345207 4294967295
397.76669 -5.5045595 -45.740017 4294967295
397.80316 -4.5870218 -45.722721 4294967295
397.90826 -16.128685 -44.933651 4294967295
397.93372 -14.735988 -45.175217 4294967295
397.93573 -2.7784739 -45.142616 4294967295
398.18555 -7.3736968 -45.400173 4294967295
398.18909 -8.3108826 -45.053097 4294967295
398.38107 -2.3235893 -45.350719 4294967295
398.39868 -2.7984324 -45.033119 4294967295
398.548 -9.2157841 -45.575729 4294967295
398.58862 -7.8326983 -45.677479 4294967295
398.61984 -8.3154564 -45.236576 4294967295
398.68387 -7.4108343 -44.968842 4294967295
398.73862 -6.5014277 -44.785446 4294967295
398.79156 -5.1233158 -44.775841 4294967295
398.90082 -13.393165 -45.052879 4294967295
398.94012 -12.00849 -45.166824 4294967295
398.95422 -11.079435 -45.351822 4294967295
398.97971 -10.624263 -45.277409 4294967295
399.08707 -6.4676752 -45.713928 4294967295
399.21713 -2.3241215 -45.943665 4294967295
399.27719 -3.751564 -44.931068 4294967295
399.36548 -13.88304 -44.771679 4294967295
399.3905 -12.490726 -45.0144 4294967295
399.43906 -11.579018 -44.888107 4294967295
399.46198 -10.186285 -45.149246 4294967295
399.51248 -9.2753754 -45.005524 4294967295
399.59564 -6.9767876 -45.034859 4294967295
399.60425 -6.5133247 -45.11311 4294967295
399.67377 -5.6107464 -44.797203 4294967295
399.70071 -4.2210026 -45.022507 4294967295
399.7182 -16.188215 -44.877445 4294967295
399.73987 -15.731135 -44.837997 4294967295
399.7598 -13.399271 -45.437454 4294967295
399.79608 -2.3948517 -44.785957 4294967295
399.99597 -8.3700247 -45.022308 4294967295
400.05835 -19.423969 -44.784908 4294967295
400.08087 -6.0724049 -45.035839 4294967295
400.10083 -18.040388 -44.869865 4294967295
400.19061 -2.8518114 -45.136951 4294967295
400.37909 -9.7547264 -45.164291 4294967295
400.42599 -6.9722214 -45.673431 4294967295
400.42651 -7.9071722 -45.358627 4294967295
400.43066 -8.8443298 -45.01173 4294967295
400.46783 -5.590332 -45.762257 4294967295
400.565 -4.2334137 -45.356098 4294967295
400.5806 -17.13249 -44.919998 4294967295
400.62103 -3.3243885 -45.164333 4294967295
400.63141 -15.285267 -45.083618 4294967295
400.66025 -2.4077892 -45.122757 4294967295
400.70419 -13.918184 -44.896812 4294967295
400.71863 -12.052946 -45.385704 4294967295
400.74667 -13.00347 -44.825863 4294967295
400.74979 -11.600729 -45.261387 4294967295
400.94971 -7.4883718 -44.865116 4294967295
401.03757 -16.681162 -45.018559 4294967295
401.40726 -7.0385251 -44.958076 4294967295
401.47772 -5.6689386 -44.792919 4294967295
401.48932 -3.3390884 -45.457912 4294967295
401.49792 -3.8096685 -45.228069 4294967295
401.55862 -13.922099 -45.315334 4294967295
401.56088 -15.328225 -44.833862 4294967295
401.56378 -13.456713 -45.422474 4294967295
401.5715 -2.4412966 -45.034912 4294967295
401.63083 -12.086935 -45.287182 4294967295
401.71436 -10.257204 -45.15873 4294967295
401.72958 -8.8618984 -45.484264 4294967295
401.81311 -19.921457 -45.061306 4294967295
401.83643 -7.9777398 -44.842972 4294967295
401.92822 -17.640711 -44.807011 4294967295
401.96219 -16.72167 -44.812222 4294967295
401.99924 -3.8465624 -44.778572 4294967295
402.16113 -11.20512 -44.887318 4294967295
402.3208 -6.6057386 -45.002884 4294967295
402.39246 -5.2367449 -44.828255 4294967295
402.39404 -16.725626 -44.978394 4294967295
402.41202 -3.3777285 -45.265686 4294967295
402.4147 -4.3125744 -44.937016 4294967295
402.46902 -2.4689426 -45.067905 4294967295
402.5274 -12.580945 -45.174232 4294967295
402.55566 -13.063244 -44.772114 4294967295
402.64062 -8.8954391 -45.3941 4294967295
402.71982 -7.9980922 -45.001297 4294967295
402.80127 -6.1666327 -44.892128 4294967295
402.80893 -17.657543 -44.988258 4294967295
402.82761 -2.9106321 -45.725578 4294967295
402.85129 -2.4543934 -45.668705 4294967295
403.34058 -3.8855906 -44.872562 4294967295
403.41479 -14.006336 -44.838741 4294967295
403.45013 -13.088148 -44.83176 4294967295
403.47583 -11.697369 -45.060768 4294967295
403.50171 -9.8397779 -45.439869 4294967295
403.5694 -8.9373398 -45.149227 4294967295
403.58771 -8.4786501 -45.140133 4294967295
403.65207 -7.1068444 -45.030704 4294967295
403.71509 -5.7341967 -44.932735 4294967295
403.74432 -16.766911 -44.990536 4294967295
403.7771 -3.8940563 -44.995182 4294967295
403.79822 -2.503293 -45.263771 4294967295
403.81384 -2.9765234 -44.975883 4294967295
404.21091 -4.8349314 -44.83913 4294967295
404.28671 -14.955878 -44.791508 4294967295
404.36975 -12.190074 -44.970963 4294967295
404.39117 -10.330336 -45.386578 4294967295
404.39236 -11.733454 -44.92503 4294967295
404.46249 -8.4952106 -45.36689 4294967295
404.58801 -5.7506485 -45.17664 4294967295
404.64111 -5.3073988 -44.864819 4294967295
404.67145 -3.920351 -45.051895 4294967295
404.69073 -3.4620447 -45.03421 4294967295
404.70554 -15.421808 -44.916275 4294967295
404.7276 -2.5446386 -45.014519 4294967295
404.7869 -12.187885 -45.259933 4294967295
405.16248 -14.50326 -45.159058 4294967295
405.52094 -5.3271093 -45.047138 4294967295
405.68622 -12.683247 -45.120987 4294967295
405.81821 -8.5406113 -45.323242 4294967295
405.99753 -3.9533043 -45.267021 4294967295
406.08728 -2.5920858 -44.940453 4294967295
406.13516 -13.632089 -44.835449 4294967295
406.28473 -9.4967346 -44.886189 4294967295
406.39899 -4.8797436 -45.388371 4294967295
406.4097 -5.8176212 -44.999935 4294967295
406.58417 -12.71036 -45.142651 4294967295
406.59277 -13.649833 -44.773121 4294967295
406.67346 -11.351223 -44.821526 4294967295
406.71103 -9.4998503 -45.091923 4294967295
406.72852 -9.9752388 -44.793991 4294967295
406.90363 -3.5185747 -45.364765 4294967295
407.34369 -4.4615097 -45.1558 4294967295
407.42651 -15.047981 -44.900997 4294967295
407.50269 -13.215101 -44.84034 4294967295
407.81876 -4.4866867 -44.943817 4294967295
407.88339 -3.1147966 -44.834843 4294967295
407.99994 -10.915217 -45.173965 4294967295
408.08887 -8.6215458 -45.152145 4294967295
408.1167 -9.1012125 -44.769737 4294967295
408.29385 -2.64678 -45.317547 4294967295
408.41104 -11.845247 -45.211418 4294967295
408.45151 -10.930196 -45.160854 4294967295
408.48419 -10.011441 -45.176281 4294967295
408.68469 -4.0349789 -45.379414 4294967295
408.77197 -3.6053467 -44.788528 4294967295
408.85281 -12.790009 -44.988976 4294967295
409.12775 -5.9118786 -44.855263 4294967295
409.4671 -8.6773272 -44.915146 4294967295
409.58127 -5.9278269 -44.826439 4294967295
409.59399 -4.0680714 -45.299038 4294967295
409.83426 -10.521262 -45.030216 4294967295
409.99344 -6.8588858 -44.854301 4294967295
410.09415 -3.6374359 -45.023018 4294967295
410.4241 -7.3313994 -44.871582 4294967295
410.59854 -2.7422447 -44.856827 4294967295
410.72339 -11.478719 -44.832005 4294967295
410.86319 -7.8075972 -44.818241 4294967295
410.9487 -5.51229 -44.825436 4294967295
411.3584 -5.9759579 -45.015369 4294967295
411.36942 -6.4470072 -44.780945 4294967295
414.96198 -19.727448 -55.087154 4294967295
415.01321 -18.363083 -55.087872 4294967295
415.04739 -17.453506 -55.088352 4294967295
415.08154 -16.543932 -55.088833 4294967295
415.48495 -14.420011 -52.544807 4294967295
415.5192 -13.508475 -52.545288 4294967295
415.87292 -12.74367 -49.989578 4294967295
415.92441 -11.373413 -49.990303 4294967295
415.95871 -10.459911 -49.990784 4294967295
376.10791 2.6791945 -48.542519 4294967295
376.22461 3.5581789 -47.643593 4294967295
376.45715 -1.4948893 -47.963207 4294967295
376.50345 -1.0506496 -47.64613 4294967295
376.51132 -0.58643723 -47.748417 4294967295
376.52438 1.7465076 -48.548401 4294967295
376.53806 -0.13187601 -47.645378 4294967295
376.54825 0.79913813 -47.911163 4294967295
376.60623 2.6417265 -48.032307 4294967295
376.6517 4.0225134 -48.102184 4294967295
376.67096 3.0782623 -47.515598 4294967295
377.34805 -1.0497055 -48.284561 4294967295
377.36398 -0.1220741 -48.485683 4294967295
377.44431 1.7085934 -48.363865 4294967295
377.44733 1.2395153 -48.1446 4294967295
377.46021 -0.63894838 -47.257519 4294967295
377.49603 2.6185284 -48.178238 4294967295
377.51413 3.5445976 -48.355774 4294967295
377.60635 3.9686823 -47.545883 4294967295
377.957 1.1962204 -47.518597 4294967295
378.28168 -1.562808 -47.769215 4294967295
378.31512 0.29204181 -48.151886 4294967295
378.35306 -0.66284943 -47.37447 4294967295
378.36908 1.2008171 -47.943764 4294967295
378.37857 0.72842032 -47.656815 4294967295
378.4144 2.1140766 -47.828403 4294967295
378.4364 1.6357927 -47.407352 4294967295
378.43817 2.570241 -47.758736 4294967295
378.49643 3.4777098 -47.504433 4294967295
378.49667 3.0100594 -47.316696 4294967295
378.78894 -1.1376734 -47.359337 4294967295
378.80524 -1.6143007 -47.000111 4294967295
379.25458 1.1797752 -48.130234 4294967295
379.26871 -0.2303333 -47.428383 4294967295
379.27939 1.6352634 -48.050251 4294967295
379.30527 3.0247974 -48.32579 4294967295
379.35144 2.5357904 -47.651127 4294967295
379.41168 3.9097681 -47.561577 4294967295
379.62207 -1.1316013 -48.104725 4294967295
379.65561 -0.21293829 -48.115139 4294967295
379.7088 -0.70724303 -47.368176 4294967295
379.7634 1.1372738 -47.522137 4294967295
380.24689 1.5747995 -47.367424 4294967295
380.28903 2.9573622 -47.46949 4294967295
380.34927 3.3968964 -47.016689 4294967295
380.53259 -1.6326771 -47.840046 4294967295
380.58957 0.67730808 -48.149143 4294967295
380.59308 -0.72723478 -47.567432 4294967295
380.60474 0.20244791 -47.808117 4294967295
380.62814 -0.27673721 -47.380142 4294967295
380.65201 1.1146631 -47.674095 4294967295
381.13525 -0.31868079 -46.798416 4294967295
381.16806 2.938756 -47.721184 4294967295
381.43192 -1.6602535 -47.875805 4294967295
381.4837 -1.2182989 -47.515606 4294967295
381.53226 0.1609821 -47.54937 4294967295
381.54672 1.0889874 -47.758762 4294967295
381.55106 0.61947823 -47.533588 4294967295
381.58145 2.474369 -47.937359 4294967295
381.63657 3.3831472 -47.722961 4294967295
381.64676 1.976656 -47.076492 4294967295
381.93082 0.1717672 -48.098679 4294967295
382.12469 2.4170284 -46.982121 4294967295
382.4071 -1.2577963 -47.302288 4294967295
382.44174 1.0630617 -47.837517 4294967295
382.46152 1.5209723 -47.812046 4294967295
382.46323 0.58550262 -47.436306 4294967295
382.4707 -0.35331631 -47.001671 4294967295
382.4975 1.9713507 -47.618008 4294967295
382.53564 3.8218689 -47.938217 4294967295
382.55157 2.413579 -47.237782 4294967295
383.04892 3.7792492 -47.298786 4294967295
383.33359 0.1040392 -47.591694 4294967295
383.33569 0.57035059 -47.747463 4294967295
383.35284 1.9635267 -48.102859 4294967295
383.35321 -1.3083038 -46.857895 4294967295
383.35498 -1.7771349 -46.661751 4294967295
383.43753 1.457159 -47.056259 4294967295
383.43817 3.3252745 -47.758984 4294967295
383.45135 3.7861633 -47.801212 4294967295
383.49783 2.8313446 -46.969646 4294967295
383.73392 0.1135321 -48.112545 4294967295
383.80215 0.54839993 -47.591129 4294967295
383.93808 3.2885866 -47.260639 4294967295
384.28598 2.3865709 -47.962524 4294967295
384.28824 -0.41769031 -46.883793 4294967295
384.28952 1.4510775 -47.574417 4294967295
384.33301 0.49623391 -46.779678 4294967295
384.336 0.0272274 -46.573193 4294967295
384.37518 0.94403547 -46.525978 4294967295
384.44592 3.2485199 -46.685219 4294967295
384.67313 0.53362179 -47.909836 4294967295
384.6774 -1.3376741 -47.165142 4294967295
384.70706 1.4517717 -47.915543 4294967295
384.74475 -0.90249348 -46.656479 4294967295
384.8537 1.8516989 -46.603271 4294967295
385.11526 0.055989299 -47.824574 4294967295
385.23245 3.7368498 -48.035873 4294967295
385.30173 4.1731215 -47.510788 4294967295
385.52213 -0.87199777 -47.92197 4294967295
385.55014 -0.4182024 -47.813114 4294967295
385.64883 0.0025682 -46.992912 4294967295
385.67621 3.7251234 -48.108162 4294967295
385.68295 1.388442 -47.171322 4294967295
385.74133 0.89437199 -46.409157 4294967295
386.03333 -1.3827162 -47.142975 4294967295
386.08212 1.3973551 -47.693153 4294967295
386.12897 0.90894318 -47.050121 4294967295
386.15656 -0.0385237 -46.426472 4294967295
386.27713 3.6448565 -46.603737 4294967295
386.28146 2.7088194 -46.213711 4294967295
386.5307 -1.4194145 -46.681274 4294967295
386.54541 1.8437672 -47.742817 4294967295
386.56284 -0.96712208 -46.532394 4294967295
386.57224 2.7650347 -47.819611 4294967295
386.58054 0.89401048 -47.046333 4294967295
386.58951 -0.51212877 -46.438572 4294967295
386.59521 2.2881823 -47.417614 4294967295
386.62961 0.40419391 -46.383381 4294967295
386.64633 3.1990261 -47.251709 4294967295
386.6546 3.6620579 -47.341682 4294967295
386.87827 -1.3847456 -47.71476 4294967295
387.03226 3.6789484 -48.072102 4294967295
387.08838 1.3206272 -46.654449 4294967295
387.43265 -0.98104572 -46.858601 4294967295
387.44781 1.3472118 -47.564957 4294967295
387.46103 0.87440783 -47.262852 4294967295
387.47491 -0.53345013 -46.610909 4294967295
387.50027 3.1902847 -47.729603 4294967295
387.54391 3.6378193 -47.468365 4294967295
387.55106 2.7015324 -47.055405 4294967295
387.57281 1.7580614 -46.496925 4294967295
387.88739 -0.063016899 -47.165146 4294967295
387.96768 -1.502696 -45.858715 4294967295
388.07581 3.1213818 -46.498333 4294967295
388.09644 3.5793018 -46.465523 4294967295
388.34912 0.38433069 -47.229855 4294967295
388.38416 -0.56599432 -46.544182 4294967295
388.40225 -1.0417948 -46.196308 4294967295
388.4071 -1.5116796 -45.977818 4294967295
388.4111 3.1566267 -47.639343 4294967295
388.46661 1.2653122 -46.413158 4294967295
388.52631 2.1730051 -46.16618 4294967295
388.55316 3.5620871 -46.411892 4294967295
388.7652 -1.4825697 -46.89402 4294967295
388.78433 -0.55714422 -47.045143 4294967295
388.89062 2.196311 -47.019253 4294967295
388.90411 3.5899811 -47.394348 4294967295
389.19437 -1.0199337 -47.276936 4294967295
389.32428 -0.14544199 -46.344326 4294967295
389.32465 0.32154751 -46.509388 4294967295
389.38263 1.6967278 -46.449951 4294967295
389.42654 4.0111837 -46.86433 4294967295
389.44974 3.5348177 -46.469193 4294967295
389.46613 3.0610857 -46.1408 4294967295
389.75027 -1.5505667 -46.084988 4294967295
389.81061 1.6920843 -46.675133 4294967295
389.84634 -0.1923618 -45.654263 4294967295
389.89838 1.1863689 -45.65276 4294967295
389.97098 3.4902506 -45.787716 4294967295
390.3111 3.0558863 -46.698696 4294967295
390.31702 0.71891779 -45.803577 4294967295
390.33014 3.514308 -46.681412 4294967295
390.36377 2.5666246 -46.020477 4294967295
390.64999 -1.1112814 -46.279285 4294967295
390.65155 1.2226334 -47.099232 4294967295
390.7001 -1.6017723 -45.627644 4294967295
390.70874 -0.20355511 -46.045567 4294967295
390.77786 1.6340799 -46.045544 4294967295
390.78384 3.9646778 -46.822102 4294967295
390.81836 3.4837523 -46.321621 4294967295
391.15469 1.6515808 -46.76107 4294967295
391.46982 -2.0370607 -46.73798 4294967295
391.52475 -1.5952501 -46.376812 4294967295
391.57382 -0.2163076 -46.402897 4294967295
391.60345 2.1042042 -46.946915 4294967295
391.65677 1.6146345 -46.27047 4294967295
391.68201 3.0036869 -46.525066 4294967295
391.69116 -0.73637682 -45.110924 4294967295
391.72833 3.4507513 -46.247314 4294967295
391.72906 1.1162004 -45.410778 4294967295
392.09952 -2.1342497 -45.027313 4294967295
392.1405 1.1188097 -45.792645 4294967295
392.15338 0.17890359 -45.339096 4294967295
392.20389 2.4922619 -45.682587 4294967295
392.23395 2.0124998 -45.229794 4294967295
392.44995 -1.6351604 -46.15543 4294967295
392.49597 -2.1235676 -45.552162 4294967295
392.55402 3.918787 -47.137981 4294967295
392.57233 -1.2234583 -45.153664 4294967295
392.62222 0.1564455 -45.172661 4294967295
392.63 0.62026882 -45.263176 4294967295
392.65665 2.4767542 -45.667618 4294967295
392.66605 2.005909 -45.413731 4294967295
392.98999 0.17849161 -45.966499 4294967295
393.02521 -0.3041735 -45.467411 4294967295
393.04742 3.4201689 -46.568882 4294967295
393.0546 1.5510235 -45.845009 4294967295
393.47852 -1.2543926 -45.120808 4294967295
393.48721 2.9435854 -46.509205 4294967295
393.49414 -0.32670501 -45.300354 4294967295
393.51871 1.5306654 -45.721985 4294967295
393.5213 0.59566778 -45.37035 4294967295
393.58072 1.9711227 -45.29908 4294967295
393.60291 2.4286346 -45.252567 4294967295
393.83191 -0.29141521 -46.369843 4294967295
393.8588 -1.2372284 -45.790867 4294967295
393.9306 0.59908009 -45.765606 4294967295
394.32767 -0.79281139 -45.78548 4294967295
394.33289 -1.2622137 -45.574085 4294967295
394.40469 1.9745073 -46.03553 4294967295
394.40854 -0.36138919 -45.188438 4294967295
394.43008 3.8292885 -46.445755 4294967295
394.47296 2.4124956 -45.557369 4294967295
394.47638 2.8776608 -45.687199 4294967295
394.76959 -0.3366318 -46.032181 4294967295
395.26138 0.56432343 -45.972088 4294967295
395.26996 -1.774333 -45.086746 4294967295
395.3685 2.8520145 -45.779285 4294967295
395.37967 1.9142666 -45.353214 4294967295
395.40662 3.3028517 -45.585384 4294967295
395.42825 3.7604799 -45.544716 4294967295
395.66245 -0.3622131 -46.114243 4294967295
395.72113 1.4788218 -46.210979 4294967295
395.73041 0.075070404 -45.642986 4294967295
395.74286 0.53647041 -45.687511 4294967295
395.74765 -0.86634451 -45.161552 4294967295
396.24323 0.50065517 -45.230274 4294967295
396.60284 -0.87526512 -45.595074 4294967295
396.61804 0.0516949 -45.774048 4294967295
396.66031 -0.4333162 -45.224155 4294967295
396.68933 0.48798561 -45.275513 4294967295
396.71121 3.7437401 -46.189064 4294967295
396.73807 2.8005714 -45.623249 4294967295
397.02054 -1.3422909 -45.741463 4294967295
397.12451 2.3457098 -46.056122 4294967295
397.20749 1.3785086 -44.975815 4294967295
397.2287 3.7022305 -45.575214 4294967295
397.45264 -1.8155708 -45.754284 4294967295
397.526 -0.91393381 -45.398499 4294967295
397.58292 0.46200559 -45.352085 4294967295
397.60498 1.3859634 -45.466877 4294967295
397.62317 -0.0218754 -44.824905 4294967295
397.65973 1.8298521 -45.123051 4294967295
397.67508 3.6891098 -45.616001 4294967295
397.72186 2.7376604 -44.871143 4294967295
398.41718 0.4608154 -45.965992 4294967295
398.42062 -0.47360131 -45.620159 4294967295
398.45224 -1.4207706 -45.018051 4294967295
398.53024 2.2794027 -45.566132 4294967295
398.53824 2.7423792 -45.650349 4294967295
398.64639 3.6317892 -44.981411 4294967295
398.88272 -0.026598001 -45.673767 4294967295
399.41656 0.85689348 -45.233719 4294967295
399.43063 1.7839165 -45.419079 4294967295
399.53745 3.1399918 -44.922771 4294967295
399.80573 -0.531703 -45.322067 4294967295
399.81192 -1.467804 -44.954788 4294967295
399.81747 0.86269093 -45.683109 4294967295
400.19824 -0.52190691 -45.844162 4294967295
400.39465 2.1953726 -45.011841 4294967295
400.40564 3.1234474 -45.223721 4294967295
400.44489 3.5741882 -45.026619 4294967295
400.77429 2.6748877 -45.801971 4294967295
400.77444 -0.1227245 -44.874107 4294967295
401.04913 -1.9291668 -45.828064 4294967295
401.11496 -0.0916605 -45.857155 4294967295
401.16949 0.3520079 -45.524784 4294967295
401.60483 -1.5221481 -45.045486 4294967295
401.61908 -0.59504223 -45.225792 4294967295
401.66193 2.6504049 -45.91925 4294967295
401.69772 1.2381134 -45.141266 4294967295
401.76892 3.0744553 -45.12344 4294967295
402.14044 2.1586552 -45.517349 4294967295
402.46613 0.33014771 -46.008373 4294967295
402.50604 -0.1522951 -45.503468 4294967295
402.54858 -1.1027336 -44.823093 4294967295
402.57574 0.75170141 -45.193573 4294967295
402.58325 2.1468382 -45.584454 4294967295
402.60748 3.0689754 -45.675415 4294967295
402.66278 2.5815725 -45.035114 4294967295
402.68985 3.5030327 -45.101559 4294967295
403.06696 1.6529074 -45.139317 4294967295
403.35654 -0.62717819 -45.792931 4294967295
403.39481 -1.1092148 -45.305908 4294967295
403.47498 1.654891 -45.511486 4294967295
403.52197 3.0339394 -45.554035 4294967295
403.52597 0.70238298 -44.761738 4294967295
403.8363 -0.65401357 -45.534599 4294967295
403.9368 2.5670929 -45.712543 4294967295
404.40799 1.1466093 -45.079044 4294967295
404.47418 2.9844751 -45.104538 4294967295
404.77328 -0.69830507 -45.217896 4294967295
404.79395 -0.24055099 -45.188766 4294967295
404.81125 2.081871 -45.787598 4294967295
404.82687 1.6100903 -45.502056 4294967295
405.14722 -1.1478109 -45.729469 4294967295
405.20187 0.69350338 -45.854172 4294967295
405.29828 2.9839115 -45.766998 4294967295
405.58368 -1.6228666 -45.697803 4294967295
405.63715 -1.1787977 -45.385567 4294967295
405.73853 0.17844769 -44.958546 4294967295
405.75708 2.5002384 -45.542381 4294967295
405.79541 1.0880117 -44.765579 4294967295
405.82663 2.007803 -44.794571 4294967295
406.07886 -0.258214 -45.755497 4294967295
406.2662 2.4629164 -45.035744 4294967295
406.53772 -1.2082415 -45.383331 4294967295
406.5975 0.63130277 -45.46312 4294967295
406.59821 -0.30067819 -45.161335 4294967295
406.61386 1.5561962 -45.618237 4294967295
407.5618 2.9046001 -45.651123 4294967295
407.95312 -0.81252962 -44.976017 4294967295
407.96262 0.58119202 -45.335232 4294967295
407.98779 -0.36036679 -44.828335 4294967295
408.46378 3.339282 -45.778454 4294967295
408.49789 2.3960037 -45.198189 4294967295
408.51947 1.9223156 -44.869949 4294967295
408.80386 -0.82221413 -45.393452 4294967295
408.84097 -0.3711786 -45.226078 4294967295
408.90677 0.53457069 -44.962685 4294967295
409.45477 3.2759924 -45.0103 4294967295
409.80621 0.039621402 -44.823483 4294967295
410.21603 -0.89094162 -44.870415 4294967295
410.67502 -0.90914923 -44.795769 4294967295
410.72791 0.46748921 -44.786652 4294967295
411.07373 -1.8351889 -44.933998 4294967295
411.16736 1.8529816 -45.303619 4294967295
411.23053 2.7600889 -45.065834 4294967295
411.69955 2.2729521 -44.7645 4294967295
411.70773 2.7352724 -44.839855 4294967295
412.50546 0.4169035 -44.968151 4294967295
415.88083 1.2920885 -57.581684 4294967295
415.89789 1.7459021 -57.581921 4294967295
415.93198 2.6535292 -57.582401 4294967295
415.96606 3.5611525 -57.582882 4294967295
416.00015 4.4687777 -57.583363 4294967295
416.01721 4.9225893 -57.583599 4294967295
402.85318 -55.80048 -40.036613 4294967295
403.74722 -55.816551 -40.130375 4294967295
405.17526 -55.911415 -39.509731 4294967295
405.54269 -55.855301 -40.246529 4294967295
406.50092 -55.923439 -39.780052 4294967295
407.45056 -55.984276 -39.392326 4294967295
408.30359 -55.968372 -39.829521 4294967295
408.96912 -56.149166 -38.019588 4294967295
409.76596 -56.08902 -38.932323 4294967295
410.70874 -56.143669 -38.611359 4294967295
411.65002 -56.196915 -38.305569 4294967295
415.28455 -55.834637 -38.306965 4294967295
374.41196 -55.182636 -43.380169 4294967295
374.43158 -54.245125 -43.547886 4294967295
374.4335 -53.289848 -43.913357 4294967295
374.44937 -53.784595 -43.542912 4294967295
374.44943 -52.827599 -43.928871 4294967295
374.49585 -51.439465 -43.991547 4294967295
374.49805 -50.485714 -44.353294 4294967295
374.53259 -51.954521 -43.388577 4294967295
374.54947 -49.103115 -44.359734 4294967295
374.57617 -48.651581 -44.255074 4294967295
374.61224 -47.25415 -44.432465 4294967295
374.65948 -45.867722 -44.485336 4294967295
374.68036 -44.933601 -44.638145 4294967295
374.87067 -51.851738 -44.670612 4294967295
374.87753 -55.207443 -43.246399 4294967295
374.90356 -50.928947 -44.689972 4294967295
374.98898 -52.448357 -43.164303 4294967295
375.30936 -55.197552 -43.486954 4294967295
375.33093 -53.783798 -43.82402 4294967295
375.35559 -50.940544 -44.700783 4294967295
375.37933 -54.311527 -43.095978 4294967295
375.39044 -53.365509 -43.357063 4294967295
375.4201 -52.438446 -43.412552 4294967295
375.44116 -51.502995 -43.562653 4294967295
375.44714 -49.597538 -44.263363 4294967295
375.46545 -50.570869 -43.677975 4294967295
375.49756 -48.691353 -44.089657 4294967295
375.50214 -47.264091 -44.612827 4294967295
375.58038 -45.907112 -44.322666 4294967295
375.72818 -41.277847 -44.603336 4294967295
375.89944 -51.04237 -43.700172 4294967295
375.96191 -46.806385 -44.728428 4294967295
376.05707 -44.511848 -44.634903 4294967295
376.10861 -43.129963 -44.639114 4294967295
376.26883 -54.79723 -43.098961 4294967295
376.27106 -52.408077 -44.025707 4294967295
376.28406 -53.377178 -43.502853 4294967295
376.32205 -51.980576 -43.656441 4294967295
376.33957 -52.954273 -43.083923 4294967295
376.35928 -50.583569 -43.818707 4294967295
376.37885 -49.64743 -43.983715 4294967295
376.41794 -48.730179 -43.935158 4294967295
376.44333 -46.369133 -44.605877 4294967295
376.53177 -44.544666 -44.396637 4294967295
376.543 -43.602211 -44.652901 4294967295
376.69226 -53.82275 -43.806675 4294967295
376.70013 -39.458942 -44.639194 4294967295
376.77609 -51.993858 -43.648212 4294967295
376.85196 -50.634457 -43.387688 4294967295
376.86417 -47.305283 -44.577835 4294967295
376.9007 -48.770996 -43.612793 4294967295
376.9285 -45.458733 -44.631954 4294967295
377.09283 -41.321953 -44.539772 4294967295
377.10815 -40.859688 -44.561619 4294967295
377.22607 -50.570511 -44.249058 4294967295
377.23544 -52.968307 -43.204758 4294967295
377.25906 -51.07996 -43.701694 4294967295
377.26196 -50.127781 -44.047153 4294967295
377.28659 -49.674091 -43.967789 4294967295
377.29276 -47.7719 -44.653851 4294967295
377.36298 -48.792271 -43.51429 4294967295
377.3653 -45.933159 -44.618187 4294967295
377.43527 -44.56818 -44.4226 4294967295
377.5351 -41.325562 -44.655262 4294967295
377.58881 -54.794044 -43.536926 4294967295
377.59024 -54.317341 -43.709408 4294967295
377.61899 -52.912128 -43.961109 4294967295
377.62723 -53.876068 -43.496422 4294967295
377.73047 -51.587845 -43.316597 4294967295
377.79529 -48.308102 -43.92828 4294967295
377.83008 -46.433365 -44.30217 4294967295
377.931 -43.667332 -44.334301 4294967295
377.95599 -42.737644 -44.438732 4294967295
378.02533 -53.834061 -44.091137 4294967295
378.13959 -54.90377 -42.483299 4294967295
378.25397 -47.849171 -44.054684 4294967295
378.2778 -46.917923 -44.170918 4294967295
378.28207 -48.829494 -43.378372 4294967295
378.32162 -45.528687 -44.259201 4294967295
378.3934 -43.21273 -44.418503 4294967295
378.44901 -41.83445 -44.379124 4294967295
378.4725 -54.796341 -43.781048 4294967295
378.47736 -40.907951 -44.446922 4294967295
378.51999 -52.932159 -44.015625 4294967295
378.52652 -39.524086 -44.477085 4294967295
378.54993 -53.439125 -43.507557 4294967295
378.57239 -50.596352 -44.383213 4294967295
378.5939 -52.526543 -43.407326 4294967295
378.59943 -54.443993 -42.602699 4294967295
378.59967 -51.576965 -43.718044 4294967295
378.65302 -48.765072 -44.260994 4294967295
378.67102 -49.735889 -43.696541 4294967295
378.81619 -44.150723 -44.368862 4294967295
378.87885 -42.778633 -44.254707 4294967295
378.97137 -53.898319 -43.661301 4294967295
378.98059 -54.385174 -43.377514 4294967295
379.08224 -51.617813 -43.402443 4294967295
379.25119 -45.575836 -44.00462 4294967295
379.26859 -43.687412 -44.557781 4294967295
379.31406 -42.776085 -44.442646 4294967295
379.36298 -40.916794 -44.659344 4294967295
379.42151 -53.430359 -43.877159 4294967295
379.44977 -52.980316 -43.760403 4294967295
379.46399 -54.427299 -43.054691 4294967295
379.49429 -50.160164 -44.39344 4294967295
379.49789 -51.594574 -43.801498 4294967295
379.53656 -49.246391 -44.312332 4294967295
379.56589 -51.182114 -43.261593 4294967295
379.58456 -47.861328 -44.354416 4294967295
379.58688 -48.339977 -44.14526 4294967295
379.6778 -46.517464 -43.915348 4294967295
379.80002 -41.866913 -44.457809 4294967295
379.93115 -53.497772 -43.274879 4294967295
379.96106 -54.960732 -42.404678 4294967295
379.97202 -52.58202 -43.209042 4294967295
380.03836 -50.735695 -43.24057 4294967295
380.13379 -47.485935 -43.515289 4294967295
380.25781 -42.359737 -44.220249 4294967295
380.33075 -53.936005 -43.657574 4294967295
380.38437 -53.032871 -43.456844 4294967295
380.39886 -54.957836 -42.570343 4294967295
380.39975 -52.570236 -43.477577 4294967295
380.40607 -51.62183 -43.777424 4294967295
380.42493 -54.505245 -42.477795 4294967295
380.45001 -53.5737 -42.579395 4294967295
380.45355 -48.329605 -44.555958 4294967295
380.47333 -51.208332 -43.2495 4294967295
380.51947 -49.820347 -43.311348 4294967295
380.52048 -47.438271 -44.215721 4294967295
380.52359 -46.964958 -44.36528 4294967295
380.5426 -45.554253 -44.713181 4294967295
380.69479 -43.310055 -44.021782 4294967295
380.69574 -41.884598 -44.55875 4294967295
380.85883 -54.498825 -42.682724 4294967295
381.00006 -48.428226 -43.568214 4294967295
381.04111 -45.132179 -44.411999 4294967295
381.05798 -44.671425 -44.41647 4294967295
381.28424 -53.529327 -43.339081 4294967295
381.2988 -54.976208 -42.640331 4294967295
381.32388 -52.135357 -43.468388 4294967295
381.34106 -50.720741 -43.833347 4294967295
381.35577 -54.075539 -42.406651 4294967295
381.36411 -51.696178 -43.228382 4294967295
381.37994 -48.85054 -44.152336 4294967295
381.39328 -53.155945 -42.377449 4294967295
381.42191 -47.460163 -44.256794 4294967295
381.4527 -48.440605 -43.571701 4294967295
381.46201 -46.068352 -44.380871 4294967295
