# .PCD v0.7 - Point Cloud Data file format
VERSION 0.7
FIELDS x y z rgb
SIZE 4 4 4 4
TYPE F F F U
COUNT 1 1 1 1
WIDTH 1121
HEIGHT 1
VIEWPOINT 0 0 0 1 0 0 0
POINTS 1121
DATA ascii
71.839249 -33.492451 -68.356148 4294967295
71.843933 -27.790234 -69.942902 4294967295
71.849434 -28.244469 -70.079315 4294967295
71.85202 -32.573112 -68.224442 4294967295
71.859871 -27.326832 -69.934227 4294967295
71.874313 -32.106247 -68.253639 4294967295
71.944504 -26.377951 -70.231529 4294967295
71.949005 -23.17771 -69.53228 4294967295
71.949326 -31.159147 -68.493546 4294967295
71.972115 -25.453112 -70.188843 4294967295
71.989822 -24.075354 -69.983345 4294967295
71.99369 -23.616814 -69.902664 4294967295
71.99379 -30.682671 -68.655167 4294967295
72.022896 -35.922066 -67.161652 4294967295
72.036026 -35.458992 -67.135956 4294967295
72.065948 -31.564108 -69.29393 4294967295
72.084183 -34.979694 -67.319778 4294967295
72.089264 -28.81352 -68.80957 4294967295
72.098091 -34.516296 -67.298683 4294967295
72.210922 -34.007622 -67.869576 4294967295
72.238052 -28.292793 -69.594521 4294967295
72.24585 -33.534855 -67.974281 4294967295
72.267113 -27.823689 -69.664246 4294967295
72.293053 -26.899208 -69.61142 4294967295
72.325554 -24.600883 -69.285667 4294967295
72.326523 -25.51457 -69.499504 4294967295
72.343399 -27.334631 -70.016197 4294967295
72.344795 -32.576462 -68.357964 4294967295
72.347527 -26.41954 -69.832985 4294967295
72.38546 -32.10144 -68.497169 4294967295
72.422752 -23.189983 -69.554886 4294967295
72.450714 -31.158848 -68.679314 4294967295
72.489334 -30.685009 -68.806328 4294967295
72.510963 -23.611374 -70.186409 4294967295
72.560974 -31.566397 -69.443542 4294967295
72.579201 -29.275391 -69.031769 4294967295
72.616272 -35.877991 -67.896202 4294967295
72.630844 -34.95784 -67.774742 4294967295
72.645515 -29.703192 -69.533058 4294967295
72.645943 -28.789742 -69.327293 4294967295
72.660751 -35.40062 -68.058449 4294967295
72.661819 -34.48679 -67.855927 4294967295
72.695847 -27.854862 -69.417763 4294967295
72.712753 -26.020136 -69.102119 4294967295
72.724434 -25.101061 -68.963539 4294967295
72.736107 -33.539215 -68.092598 4294967295
72.740181 -24.637379 -68.953659 4294967295
72.747734 -32.620323 -67.9534 4294967295
72.795166 -28.268919 -70.116859 4294967295
72.840469 -26.8801 -70.075745 4294967295
72.847466 -25.507099 -69.805092 4294967295
72.868904 -26.411537 -70.14196 4294967295
72.934525 -35.962711 -66.981102 4294967295
72.961082 -23.633083 -70.06926 4294967295
72.96505 -32.065758 -69.152771 4294967295
72.979889 -23.168585 -70.077698 4294967295
72.981361 -31.601978 -69.146141 4294967295
73.004074 -31.135349 -69.178116 4294967295
73.005356 -28.851175 -68.663551 4294967295
73.013458 -30.674643 -69.12999 4294967295
73.034927 -29.295185 -68.945564 4294967295
73.085854 -34.97839 -67.681122 4294967295
73.109535 -34.510658 -67.718765 4294967295
73.116501 -34.050652 -67.655914 4294967295
73.131775 -27.883024 -69.213486 4294967295
73.146538 -33.580032 -67.731796 4294967295
73.163338 -29.695728 -69.820686 4294967295
73.170357 -28.323162 -69.54966 4294967295
73.185699 -35.388454 -68.385948 4294967295
73.191307 -26.944063 -69.362091 4294967295
73.216576 -27.390079 -69.618294 4294967295
73.223404 -26.016817 -69.34594 4294967295
73.230644 -33.084877 -68.132782 4294967295
73.236282 -23.726015 -68.900627 4294967295
73.24144 -25.095375 -69.245224 4294967295
73.251823 -26.46171 -69.621078 4294967295
73.267876 -32.61124 -68.251961 4294967295
73.362732 -31.655144 -68.613014 4294967295
73.367569 -24.58637 -69.898529 4294967295
73.442703 -32.075729 -69.198662 4294967295
73.453758 -23.180679 -70.102997 4294967295
73.504028 -31.135445 -69.358261 4294967295
73.513306 -35.011772 -67.421387 4294967295
73.514359 -28.847895 -68.896988 4294967295
73.518066 -30.21628 -69.233421 4294967295
73.522736 -29.300995 -69.052124 4294967295
73.609993 -28.349773 -69.367813 4294967295
73.657936 -26.50227 -69.237549 4294967295
73.659706 -33.573853 -67.988739 4294967295
73.660233 -27.414854 -69.460831 4294967295
73.697426 -26.942324 -69.580017 4294967295
73.713821 -26.021889 -69.469276 4294967295
73.714302 -23.736574 -68.948303 4294967295
73.716827 -27.847219 -69.906181 4294967295
73.719826 -34.459225 -68.560905 4294967295
73.720169 -24.648439 -69.193298 4294967295
73.726929 -33.086437 -68.288887 4294967295
73.760483 -33.984047 -68.700966 4294967295
73.768417 -25.085417 -69.588593 4294967295
73.770348 -32.610054 -68.445717 4294967295
73.792122 -32.143585 -68.472015 4294967295
73.795647 -31.68532 -68.388306 4294967295
73.797478 -25.530098 -69.868332 4294967295
73.873222 -35.990646 -66.963165 4294967295
73.882484 -30.733141 -68.70195 4294967295
73.97876 -35.027489 -67.390121 4294967295
73.984993 -31.143955 -69.425034 4294967295
74.00016 -29.767879 -69.201874 4294967295
74.017509 -30.216721 -69.411415 4294967295
74.042107 -27.922951 -69.035057 4294967295
74.063606 -26.543123 -68.84977 4294967295
74.065666 -35.443432 -68.020218 4294967295
74.08136 -29.275761 -69.586693 4294967295
74.090591 -26.988579 -69.117569 4294967295
74.090851 -34.5186 -67.96196 4294967295
74.141068 -23.768064 -68.686935 4294967295
74.144394 -33.123978 -67.96981 4294967295
74.173866 -33.567089 -68.253067 4294967295
74.17598 -32.652855 -68.055473 4294967295
74.179993 -23.294897 -68.816986 4294967295
74.182693 -25.579151 -69.35849 4294967295
74.182755 -25.122219 -69.253906 4294967295
74.209366 -32.180969 -68.151993 4294967295
74.227562 -33.998783 -68.682663 4294967295
74.230103 -24.188677 -69.329666 4294967295
74.24028 -24.641417 -69.49614 4294967295
74.276161 -31.23745 -68.345253 4294967295
74.377251 -35.531406 -67.059052 4294967295
74.393936 -30.728189 -68.951958 4294967295
74.406158 -29.80958 -68.815399 4294967295
74.418221 -31.630142 -69.309044 4294967295
74.449104 -35.954201 -67.599533 4294967295
74.465134 -29.326998 -69.066818 4294967295
74.478233 -30.234249 -69.356346 4294967295
74.484375 -35.024395 -67.602081 4294967295
74.498589 -34.104362 -67.477219 4294967295
74.530716 -34.546135 -67.77726 4294967295
74.540314 -27.467642 -69.100609 4294967295
74.547386 -26.093998 -68.827621 4294967295
74.564354 -25.629852 -68.824974 4294967295
74.58007 -28.820204 -69.656631 4294967295
74.583328 -28.362339 -69.571098 4294967295
74.58371 -26.535543 -69.152618 4294967295
74.583946 -24.707497 -68.732925 4294967295
74.590775 -27.902592 -69.511032 4294967295
74.596863 -33.602238 -67.966919 4294967295
74.603447 -33.142555 -67.901299 4294967295
74.640305 -32.212265 -67.913612 4294967295
74.642685 -25.140089 -69.193649 4294967295
74.649277 -24.223339 -69.022949 4294967295
74.702988 -23.744192 -69.242752 4294967295
74.722473 -23.279163 -69.255432 4294967295
74.756088 -32.616146 -68.720482 4294967295
74.783714 -31.234135 -68.571495 4294967295
74.785683 -30.319901 -68.372437 4294967295
74.842621 -29.381178 -68.506607 4294967295
74.848282 -30.748642 -68.857307 4294967295
74.908913 -28.895357 -68.802917 4294967295
74.967384 -34.575207 -67.572525 4294967295
74.968811 -27.042213 -68.744057 4294967295
74.970955 -35.030144 -67.699921 4294967295
74.980301 -27.950878 -69.024666 4294967295
74.987083 -35.47905 -67.903458 4294967295
74.991821 -27.489176 -68.989082 4294967295
74.999252 -26.572327 -68.823082 4294967295
75.052559 -28.376106 -69.568291 4294967295
75.082855 -25.166224 -69.013588 4294967295
75.08606 -24.707897 -68.927452 4294967295
75.106186 -24.242493 -68.943985 4294967295
75.141632 -33.124729 -68.31321 4294967295
75.14241 -25.598087 -69.480354 4294967295
75.159134 -26.047712 -69.687256 4294967295
75.211426 -30.809971 -68.208382 4294967295
75.223198 -32.630875 -68.702789 4294967295
75.241714 -23.272762 -69.555298 4294967295
75.250671 -23.725946 -69.715149 4294967295
75.281319 -32.147999 -68.950134 4294967295
75.324722 -31.215633 -69.00238 4294967295
75.329559 -30.300545 -68.82032 4294967295
75.361015 -36.451012 -67.529068 4294967295
75.421227 -34.139606 -67.365479 4294967295
75.424347 -29.345507 -69.184814 4294967295
75.430611 -29.799173 -69.328506 4294967295
75.455605 -28.875271 -69.269028 4294967295
75.46698 -35.487793 -67.961746 4294967295
75.470078 -26.585608 -68.828316 4294967295
75.48304 -34.567352 -67.847618 4294967295
75.486206 -35.022327 -67.972855 4294967295
75.498482 -27.486935 -69.212463 4294967295
75.502121 -33.188663 -67.645775 4294967295
75.507545 -26.112806 -68.950302 4294967295
75.530029 -24.27536 -68.663773 4294967295
75.559731 -32.705482 -67.890465 4294967295
75.567825 -25.173624 -69.105225 4294967295
75.575523 -25.627226 -69.257835 4294967295
75.582016 -24.71077 -69.0858 4294967295
75.61927 -23.781376 -69.100769 4294967295
75.621086 -31.764156 -68.051918 4294967295
75.747795 -23.271626 -69.776772 4294967295
75.749062 -30.793158 -68.619125 4294967295
75.753975 -32.160149 -68.966965 4294967295
75.822433 -29.390732 -68.748123 4294967295
75.824539 -36.01107 -67.380783 4294967295
75.842102 -35.546181 -67.381638 4294967295
75.849457 -31.204308 -69.336411 4294967295
75.884399 -29.819756 -69.231461 4294967295
75.894257 -34.151764 -67.38105 4294967295
75.898994 -27.0737 -68.684433 4294967295
75.914612 -28.893547 -69.20359 4294967295
75.93293 -26.602299 -68.785179 4294967295
75.937187 -25.686638 -68.599014 4294967295
75.943062 -27.51144 -69.059059 4294967295
76.007019 -35.011757 -68.281281 4294967295
76.019272 -23.82402 -68.675049 4294967295
76.039948 -26.09988 -69.33139 4294967295
76.050262 -24.268227 -68.970169 4294967295
76.121277 -32.22047 -68.341164 4294967295
76.125175 -24.69384 -69.53289 4294967295
76.157135 -32.660408 -68.666214 4294967295
76.176491 -23.302212 -69.527718 4294967295
76.213669 -31.721893 -68.798828 4294967295
76.232925 -29.430595 -68.385223 4294967295
76.236938 -30.798561 -68.728485 4294967295
76.260193 -30.331648 -68.764214 4294967295
76.276131 -29.868015 -68.755287 4294967295
76.299896 -31.226473 -69.218971 4294967295
76.344551 -27.097855 -68.535469 4294967295
76.346725 -35.543205 -67.590637 4294967295
76.346947 -28.467016 -68.868965 4294967295
76.37426 -35.073692 -67.652542 4294967295
76.393967 -28.902859 -69.262314 4294967295
76.395454 -27.532598 -68.952713 4294967295
76.42437 -33.680603 -67.639519 4294967295
76.434418 -33.219322 -67.594398 4294967295
76.449501 -25.682381 -68.857765 4294967295
76.453781 -24.766699 -68.671234 4294967295
76.461319 -34.576225 -68.078377 4294967295
76.482224 -26.581902 -69.270302 4294967295
76.500641 -23.833063 -68.744972 4294967295
76.509338 -24.286461 -68.90448 4294967295
76.569061 -26.088207 -69.694542 4294967295
76.585266 -32.23666 -68.304161 4294967295
76.609978 -32.681679 -68.561783 4294967295
76.645317 -31.296322 -68.458618 4294967295
76.659187 -31.746428 -68.649872 4294967295
76.68425 -30.365713 -68.483856 4294967295
76.720207 -28.979795 -68.384315 4294967295
76.735527 -29.429661 -68.58461 4294967295
76.769463 -30.783747 -69.111786 4294967295
76.774803 -29.868671 -68.931526 4294967295
76.837105 -27.101728 -68.673805 4294967295
76.847336 -28.467154 -69.056061 4294967295
76.849358 -28.009731 -68.961945 4294967295
76.866158 -34.620338 -67.678261 4294967295
76.868744 -35.531834 -67.907654 4294967295
76.88327 -34.155811 -67.67646 4294967295
76.933617 -27.516487 -69.371368 4294967295
76.933884 -33.675644 -67.879913 4294967295
76.94989 -26.13979 -69.151527 4294967295
76.960701 -26.591764 -69.324203 4294967295
76.97625 -23.387398 -68.673477 4294967295
76.981941 -33.196812 -68.067932 4294967295
77.004349 -25.203264 -69.271957 4294967295
77.013535 -32.725742 -68.154808 4294967295
77.015244 -24.285133 -69.125603 4294967295
77.0513 -24.726784 -69.453087 4294967295
77.052856 -31.338181 -68.075783 4294967295
77.058838 -25.636749 -69.712273 4294967295
77.066368 -32.244968 -68.372154 4294967295
77.101334 -31.772549 -68.479782 4294967295
77.198235 -30.815739 -68.860764 4294967295
77.223808 -30.347858 -68.910957 4294967295
77.227875 -35.598167 -67.225494 4294967295
77.247467 -35.132301 -67.238892 4294967295
77.267792 -28.958971 -68.860527 4294967295
77.28289 -36.028183 -67.670547 4294967295
77.295746 -28.033569 -68.818542 4294967295
77.304527 -29.399044 -69.192741 4294967295
77.332733 -34.63538 -67.655846 4294967295
77.352081 -28.465282 -69.271065 4294967295
77.376465 -34.15834 -67.817551 4294967295
77.388214 -26.166897 -68.959023 4294967295
77.399788 -27.075111 -69.243675 4294967295
77.422363 -27.521738 -69.488998 4294967295
77.443245 -26.599831 -69.403694 4294967295
77.454216 -33.20916 -68.08149 4294967295
77.455437 -25.224829 -69.158134 4294967295
77.484802 -25.668972 -69.445335 4294967295
77.488129 -23.383781 -68.931656 4294967295
77.540001 -33.625317 -68.71563 4294967295
77.549896 -23.814966 -69.417961 4294967295
77.562172 -24.26651 -69.600166 4294967295
77.573792 -31.784801 -68.495537 4294967295
77.578278 -24.716301 -69.805786 4294967295
77.587242 -32.691078 -68.792152 4294967295
77.600998 -32.228565 -68.769714 4294967295
77.61441 -31.309883 -68.638298 4294967295
77.623222 -29.936586 -68.371384 4294967295
77.636597 -36.097549 -66.953125 4294967295
77.681946 -30.822868 -68.94664 4294967295
77.738182 -28.05917 -68.650398 4294967295
77.746803 -35.588169 -67.524559 4294967295
77.769791 -29.414513 -69.165916 4294967295
77.80632 -34.647099 -67.67662 4294967295
77.820976 -28.935432 -69.37384 4294967295
77.826324 -27.563988 -69.0858 4294967295
77.837067 -27.102793 -69.044769 4294967295
77.845573 -25.272322 -68.668892 4294967295
77.848999 -28.466768 -69.439262 4294967295
77.858032 -26.180519 -68.959709 4294967295
77.8638 -35.076008 -68.138 4294967295
77.878288 -34.156708 -68.012848 4294967295
77.925888 -24.32469 -68.949104 4294967295
77.930031 -26.606018 -69.509995 4294967295
77.935127 -33.673706 -68.255791 4294967295
77.995857 -33.189079 -68.522751 4294967295
78.003983 -24.748474 -69.537041 4294967295
78.008057 -32.727203 -68.490646 4294967295
78.031937 -31.803621 -68.423317 4294967295
78.043037 -32.254772 -68.599022 4294967295
78.044876 -30.428415 -68.181244 4294967295
78.046471 -23.81743 -69.584595 4294967295
78.055656 -23.356945 -69.534027 4294967295
78.103233 -29.945549 -68.433708 4294967295
78.104942 -36.11182 -66.940208 4294967295
78.115448 -31.309042 -68.830864 4294967295
78.158432 -35.629593 -67.162888 4294967295
78.160889 -28.09351 -68.359993 4294967295
78.224899 -28.978197 -68.969429 4294967295
78.247375 -26.685589 -68.571434 4294967295
78.261253 -28.50569 -69.086365 4294967295
78.319443 -33.727364 -67.726997 4294967295
78.32605 -27.564394 -69.271515 4294967295
78.332283 -25.278835 -68.773354 4294967295
78.351448 -34.168564 -68.032219 4294967295
78.363831 -27.091516 -69.397255 4294967295
78.399796 -34.601742 -68.438324 4294967295
78.415398 -31.856895 -67.88958 4294967295
78.419113 -25.698349 -69.41658 4294967295
78.441757 -24.77561 -69.341652 4294967295
78.470261 -32.287907 -68.336121 4294967295
78.480408 -32.73941 -68.506287 4294967295
78.481346 -23.845663 -69.371338 4294967295
78.494522 -33.188923 -68.700951 4294967295
78.502556 -24.293358 -69.609558 4294967295
78.514076 -31.355085 -68.391769 4294967295
78.514191 -30.442192 -68.177315 4294967295
78.562668 -36.13121 -66.861763 4294967295
78.57692 -29.500837 -68.349899 4294967295
78.577789 -29.95693 -68.462868 4294967295
78.60878 -29.030037 -68.439339 4294967295
78.636734 -28.104464 -68.39698 4294967295
78.669228 -28.546618 -68.70546 4294967295
78.718285 -27.611958 -68.793686 4294967295
78.724243 -34.684372 -67.538383 4294967295
78.744827 -26.68721 -68.742638 4294967295
78.750534 -25.771339 -68.562706 4294967295
78.754829 -35.582138 -67.943306 4294967295
78.758827 -26.224491 -68.721642 4294967295
78.761513 -35.122787 -67.876923 4294967295
78.777512 -24.846153 -68.51432 4294967295
78.804657 -27.11764 -69.220322 4294967295
78.822922 -25.28359 -68.902931 4294967295
78.882149 -32.328255 -67.977127 4294967295
78.883621 -31.871155 -67.878403 4294967295
78.899605 -34.144783 -68.516365 4294967295
78.90432 -24.335659 -69.191383 4294967295
78.927689 -33.219444 -68.474731 4294967295
78.94397 -33.667805 -68.683289 4294967295
78.962379 -31.378429 -68.258469 4294967295
78.996193 -23.840366 -69.65229 4294967295
79.00576 -23.379805 -69.603897 4294967295
79.010506 -29.987219 -68.233131 4294967295
79.046013 -30.427498 -68.561058 4294967295
79.084259 -29.497478 -68.582428 4294967295
79.119621 -36.102459 -67.398758 4294967295
79.136108 -29.017824 -68.795937 4294967295
79.164764 -27.635769 -68.650032 4294967295
79.190796 -28.537077 -69.027069 4294967295
79.239708 -25.77667 -68.683235 4294967295
79.24041 -35.587845 -68.040283 4294967295
79.250092 -27.141806 -69.071251 4294967295
79.263077 -25.309921 -68.720291 4294967295
79.27832 -24.846666 -68.706902 4294967295
79.28804 -26.668819 -69.198708 4294967295
79.293236 -34.194309 -68.044037 4294967295
79.299904 -26.207222 -69.164436 4294967295
79.328209 -32.352787 -67.828842 4294967295
79.355965 -34.620407 -68.541428 4294967295
79.358307 -23.442492 -68.879379 4294967295
79.359871 -33.706585 -68.349648 4294967295
79.370598 -31.876707 -67.98394 4294967295
79.379234 -32.78524 -68.2537 4294967295
79.395981 -33.233486 -68.465759 4294967295
79.430183 -24.325516 -69.54113 4294967295
79.4394 -23.865108 -69.49044 4294967295
79.446289 -30.472675 -68.129761 4294967295
79.504044 -31.358746 -68.704643 4294967295
79.517845 -29.983702 -68.466156 4294967295
79.574799 -30.870113 -69.036079 4294967295
79.592354 -29.037369 -68.712868 4294967295
79.646111 -27.644222 -68.722649 4294967295
79.66996 -29.45863 -69.3032 4294967295
79.670601 -35.164223 -67.685112 4294967295
79.679283 -36.072132 -67.955734 4294967295
79.686378 -28.538988 -69.189026 4294967295
79.71051 -26.70298 -68.906731 4294967295
79.749321 -25.31649 -68.823586 4294967295
79.758621 -23.485365 -68.448578 4294967295
79.766846 -27.134665 -69.365021 4294967295
79.770721 -34.660038 -68.199684 4294967295
79.778152 -25.760628 -69.110954 4294967295
79.795334 -26.209608 -69.32592 4294967295
79.828522 -24.36941 -69.099739 4294967295
79.852745 -33.25296 -68.385208 4294967295
79.872543 -23.894161 -69.265465 4294967295
79.879784 -32.328064 -68.336945 4294967295
79.887123 -31.868465 -68.2743 4294967295
79.904602 -32.772518 -68.599709 4294967295
79.923248 -30.026478 -68.065735 4294967295
79.988129 -28.627632 -68.144691 4294967295
80.009537 -30.899544 -68.819763 4294967295
80.040436 -27.691166 -68.253693 4294967295
80.049843 -28.143539 -68.420746 4294967295
80.0793 -30.411495 -69.145912 4294967295
80.080513 -27.216862 -68.395042 4294967295
80.098366 -29.034515 -68.939766 4294967295
80.139496 -36.090084 -67.895439 4294967295
80.140106 -29.471786 -69.308022 4294967295
80.144905 -25.818796 -68.470978 4294967295
80.18074 -24.433079 -68.368996 4294967295
80.201401 -34.692135 -67.955795 4294967295
80.2034 -35.147171 -68.076866 4294967295
80.209724 -25.334137 -68.766586 4294967295
80.212379 -26.246059 -68.999893 4294967295
80.218147 -23.960333 -68.493683 4294967295
80.237289 -23.495382 -68.504547 4294967295
80.254494 -35.57827 -68.504051 4294967295
80.262497 -32.838501 -67.902588 4294967295
80.274712 -34.200981 -68.304665 4294967295
80.318527 -33.724136 -68.469437 4294967295
80.381119 -31.870581 -68.425629 4294967295
80.392418 -33.2332 -68.821907 4294967295
80.491867 -29.994898 -68.682632 4294967295
80.501396 -28.621677 -68.416237 4294967295
80.534119 -29.063278 -68.729233 4294967295
80.562042 -27.681742 -68.577637 4294967295
80.562973 -27.22485 -68.474792 4294967295
80.571274 -28.134018 -68.743965 4294967295
80.632225 -35.636253 -67.929665 4294967295
80.632248 -26.737852 -68.798904 4294967295
80.640808 -34.7201 -67.765625 4294967295
80.64727 -35.172997 -67.914825 4294967295
80.663155 -25.811382 -68.774651 4294967295
80.686203 -26.257797 -69.027405 4294967295
80.689163 -36.064274 -68.394417 4294967295
80.696609 -34.237225 -68.00573 4294967295
80.702843 -23.053988 -68.3703 4294967295
80.706581 -25.33604 -68.93737 4294967295
80.742371 -23.950932 -68.834892 4294967295
80.767799 -31.46645 -67.797768 4294967295
80.78582 -33.282658 -68.346024 4294967295
80.796097 -32.821781 -68.301498 4294967295
80.809433 -24.835314 -69.471512 4294967295
80.811279 -24.378147 -69.374336 4294967295
80.839272 -33.713089 -68.789177 4294967295
80.89476 -32.319359 -68.809822 4294967295
80.898155 -30.493591 -68.395668 4294967295
80.932144 -28.65276 -68.172722 4294967295
80.934845 -30.932798 -68.734146 4294967295
80.980659 -36.164898 -67.278091 4294967295
80.996841 -29.079899 -68.686729 4294967295
81.020882 -35.689121 -67.421028 4294967295
81.038254 -29.973234 -69.163658 4294967295
81.040283 -28.147818 -68.740936 4294967295
81.051323 -29.511284 -69.136627 4294967295
81.072853 -26.764217 -68.618057 4294967295
81.098846 -33.826824 -67.473198 4294967295
81.102913 -27.663593 -69.024132 4294967295
81.125031 -35.182415 -67.964752 4294967295
81.140068 -34.263191 -67.84079 4294967295
81.160492 -25.356476 -68.840187 4294967295
81.16391 -27.180305 -69.297318 4294967295
81.194771 -34.69276 -68.292877 4294967295
81.230217 -23.043509 -68.732162 4294967295
81.232361 -33.307007 -68.201263 4294967295
81.246254 -24.406557 -69.159599 4294967295
81.264053 -31.923798 -68.072586 4294967295
81.264137 -24.855286 -69.380623 4294967295
81.276314 -23.93725 -69.239029 4294967295
81.288475 -32.824406 -68.444031 4294967295
81.319496 -30.529339 -68.09288 4294967295
81.327454 -32.350063 -68.579361 4294967295
81.408531 -28.663296 -68.214821 4294967295
81.438339 -28.19346 -68.292686 4294967295
81.448753 -30.013697 -68.794746 4294967295
81.493568 -27.712334 -68.530151 4294967295
81.501198 -26.339474 -68.250336 4294967295
81.524582 -35.685886 -67.633072 4294967295
81.574562 -36.117203 -68.05645 4294967295
81.600204 -26.752321 -68.981285 4294967295
81.618164 -24.005394 -68.438545 4294967295
81.622543 -27.198635 -69.230682 4294967295
81.633492 -33.353058 -67.770477 4294967295
81.637001 -33.807446 -67.902069 4294967295
81.681519 -25.80406 -69.27356 4294967295
81.685303 -32.416187 -67.877457 4294967295
81.688049 -32.871002 -68.004082 4294967295
81.698311 -35.145275 -68.615417 4294967295
81.698936 -34.689312 -68.510033 4294967295
81.70459 -24.881416 -69.200043 4294967295
81.711029 -23.052532 -68.803497 4294967295
81.73719 -23.498083 -69.077164 4294967295
81.754013 -24.403786 -69.401283 4294967295
81.75647 -34.205837 -68.762352 4294967295
81.77317 -30.093901 -67.882668 4294967295
81.792488 -30.99749 -68.223099 4294967295
81.828056 -30.524843 -68.337425 4294967295
81.832016 -31.891054 -68.690536 4294967295
81.87571 -28.67798 -68.199341 4294967295
81.900902 -28.210217 -68.24836 4294967295
81.967453 -29.092556 -68.886017 4294967295
81.985207 -26.803293 -68.450462 4294967295
81.985489 -35.703526 -67.576759 4294967295
82.027672 -34.770981 -67.62326 4294967295
82.038315 -27.692238 -69.003731 4294967295
82.060226 -25.857374 -68.703743 4294967295
82.096306 -24.47213 -68.602348 4294967295
82.09874 -24.014444 -68.508072 4294967295
82.117348 -23.549793 -68.515793 4294967295
82.122696 -25.373688 -68.987579 4294967295
82.128769 -35.177574 -68.36985 4294967295
82.175079 -32.420094 -68.003822 4294967295
82.175797 -24.894283 -69.212494 4294967295
82.175827 -23.068279 -68.774635 4294967295
82.195518 -33.322285 -68.35199 4294967295
82.209129 -32.859913 -68.328094 4294967295
82.235268 -30.110928 -67.834572 4294967295
82.272697 -31.005997 -68.290077 4294967295
82.288055 -31.454845 -68.496651 4294967295
82.292816 -31.908518 -68.636322 4294967295
82.321289 -28.246008 -67.938057 4294967295
82.336357 -30.520351 -68.581894 4294967295
82.350586 -29.601622 -68.45211 4294967295
82.379669 -28.675947 -68.416145 4294967295
82.44191 -35.723373 -67.492195 4294967295
82.454964 -25.447208 -68.122673 4294967295
82.461693 -26.813833 -68.494629 4294967295
82.473145 -27.721306 -68.786438 4294967295
82.489632 -26.345066 -68.561157 4294967295
82.531364 -35.223606 -67.947258 4294967295
82.579338 -36.111294 -68.470039 4294967295
82.587891 -24.01976 -68.632408 4294967295
82.60807 -25.836603 -69.198982 4294967295
82.614449 -32.903934 -67.922401 4294967295
82.627213 -34.265408 -68.332893 4294967295
82.639786 -33.80357 -68.302475 4294967295
82.662666 -23.53121 -68.994843 4294967295
82.677345 -23.068443 -68.977707 4294967295
82.695999 -24.429647 -69.424873 4294967295
82.702179 -31.038174 -68.037003 4294967295
82.717506 -33.310452 -68.683647 4294967295
82.755943 -30.100859 -68.156898 4294967295
82.756516 -32.380413 -68.710335 4294967295
82.766006 -31.920135 -68.660355 4294967295
82.773407 -31.460804 -68.597214 4294967295
82.791519 -28.715725 -68.05175 4294967295
82.803848 -29.622585 -68.349838 4294967295
82.81839 -28.247173 -68.111641 4294967295
82.829979 -29.15444 -68.405022 4294967295
82.91687 -35.734093 -67.524872 4294967295
82.947556 -27.732616 -68.818672 4294967295
82.96537 -27.268452 -68.821335 4294967295
83.021133 -35.226994 -68.074852 4294967295
83.024712 -26.329645 -68.976723 4294967295
83.037231 -32.939728 -67.62571 4294967295
83.054405 -25.860325 -69.054604 4294967295
83.057625 -24.489885 -68.744804 4294967295
83.059761 -36.119053 -68.539703 4294967295
83.07547 -24.02569 -68.747711 4294967295
83.08493 -23.108469 -68.587379 4294967295
83.104973 -23.556507 -68.824379 4294967295
83.14373 -32.432896 -68.190186 4294967295
83.184975 -31.501467 -68.231003 4294967295
83.189339 -33.322601 -68.699463 4294967295
83.202408 -31.949146 -68.451706 4294967295
83.249008 -30.103441 -68.305992 4294967295
83.273933 -30.547855 -68.574394 4294967295
83.306046 -29.621006 -68.557381 4294967295
83.335205 -28.695473 -68.521652 4294967295
83.33548 -28.23918 -68.413109 4294967295
83.35482 -29.142563 -68.756241 4294967295
83.405617 -35.737949 -67.645447 4294967295
83.427879 -34.815327 -67.565765 4294967295
83.428078 -34.359291 -67.456497 4294967295
83.436554 -26.825041 -68.723183 4294967295
83.470428 -36.161465 -68.16732 4294967295
83.488525 -33.417995 -67.61927 4294967295
83.490349 -27.257063 -69.174751 4294967295
83.503006 -32.955006 -67.600677 4294967295
83.516113 -32.492649 -67.573395 4294967295
83.520264 -23.593449 -68.48185 4294967295
83.530075 -25.414923 -68.985565 4294967295
83.536514 -31.57062 -67.48175 4294967295
83.539001 -25.867182 -69.15255 4294967295
83.544472 -23.126461 -68.52507 4294967295
83.56282 -35.20475 -68.532944 4294967295
83.566986 -32.012329 -67.786034 4294967295
83.567078 -24.94248 -69.110054 4294967295
83.568451 -33.835205 -68.237373 4294967295
83.576759 -24.481993 -69.06115 4294967295
83.633392 -31.068813 -67.986725 4294967295
83.652138 -23.993114 -69.429176 4294967295
83.693428 -30.584623 -68.257683 4294967295
83.716354 -29.205652 -68.071625 4294967295
83.782463 -29.631247 -68.602425 4294967295
83.812675 -26.88036 -68.130928 4294967295
83.836937 -28.694221 -68.727524 4294967295
83.843826 -27.322708 -68.439674 4294967295
83.904457 -27.751474 -68.935699 4294967295
83.905464 -35.280537 -67.726807 4294967295
83.907738 -24.099205 -68.071548 4294967295
83.941452 -34.807072 -67.845154 4294967295
83.949486 -33.89151 -67.674667 4294967295
83.973457 -26.352339 -69.042816 4294967295
83.973488 -24.983641 -68.711258 4294967295
83.975609 -25.895245 -68.945976 4294967295
83.986954 -33.41745 -67.802414 4294967295
83.987183 -23.608276 -68.466393 4294967295
83.99044 -34.327347 -68.046211 4294967295
83.999672 -32.955399 -67.772598 4294967295
84.024933 -35.676971 -68.597916 4294967295
84.028366 -24.503347 -68.94973 4294967295
84.054199 -25.404425 -69.335266 4294967295
84.06707 -31.555244 -67.869324 4294967295
84.134476 -30.155319 -67.966179 4294967295
84.191818 -29.216425 -68.109764 4294967295
84.192978 -31.039831 -68.560516 4294967295
84.199341 -30.580992 -68.49025 4294967295
84.202858 -29.667427 -68.291016 4294967295
84.2323 -28.285469 -68.146004 4294967295
84.299835 -28.710663 -68.687332 4294967295
84.354065 -26.861717 -68.589539 4294967295
84.36512 -35.75441 -67.774483 4294967295
84.383492 -27.304575 -68.888031 4294967295
84.390739 -36.197201 -68.048965 4294967295
84.408325 -33.910099 -67.605919 4294967295
84.411819 -35.275612 -67.961418 4294967295
84.418747 -34.816555 -67.894531 4294967295
84.42511 -24.092188 -68.377159 4294967295
84.429482 -25.459463 -68.737823 4294967295
84.446098 -26.364403 -69.065536 4294967295
84.453377 -34.343864 -68.004547 4294967295
84.458015 -24.534317 -68.69799 4294967295
84.484894 -32.505318 -67.761467 4294967295
84.498535 -25.885033 -69.289055 4294967295
84.502762 -32.040794 -67.764374 4294967295
84.537651 -32.93576 -68.209351 4294967295
84.540115 -31.110987 -67.780678 4294967295
84.541733 -33.389477 -68.346413 4294967295
84.550659 -23.58144 -69.067131 4294967295
84.55201 -31.561357 -67.967728 4294967295
84.581635 -23.111805 -69.153839 4294967295
84.606163 -29.711655 -67.86908 4294967295
84.648499 -30.60392 -68.361771 4294967295
84.714294 -30.117233 -68.670914 4294967295
84.721642 -28.28993 -68.273392 4294967295
84.750603 -29.188641 -68.680702 4294967295
84.78537 -26.89242 -68.347183 4294967295
84.81839 -27.333687 -68.669357 4294967295
84.840195 -24.586134 -68.141556 4294967295
84.870239 -23.659874 -68.111259 4294967295
84.872604 -25.940931 -68.682541 4294967295
84.875923 -36.202526 -68.149796 4294967295
84.883926 -35.74308 -68.089783 4294967295
84.885139 -27.759335 -69.207092 4294967295
84.886841 -26.39072 -68.884682 4294967295
84.906784 -34.820679 -68.013344 4294967295
84.907272 -24.100355 -68.459267 4294967295
84.930435 -33.442017 -67.830635 4294967295
84.945099 -34.346222 -68.147156 4294967295
84.962845 -33.881924 -68.149452 4294967295
84.972946 -31.597902 -67.657242 4294967295
84.973839 -31.141403 -67.551453 4294967295
84.978233 -23.156736 -68.690773 4294967295
84.983345 -32.04892 -67.835121 4294967295
84.995804 -25.430164 -69.359024 4294967295
85.073402 -29.270044 -67.74324 4294967295
85.102783 -30.168537 -68.154312 4294967295
85.150368 -29.690334 -68.347649 4294967295
85.201851 -27.842386 -68.231743 4294967295
85.215294 -26.923826 -68.094925 4294967295
85.242157 -28.28001 -68.601387 4294967295
85.265762 -28.725044 -68.864044 4294967295
85.271202 -36.252975 -67.674934 4294967295
85.30735 -25.513681 -68.350471 4294967295
85.33947 -24.586748 -68.333328 4294967295
85.357399 -33.931908 -67.66964 4294967295
85.368446 -26.398745 -68.965027 4294967295
85.380501 -35.742722 -68.26429 4294967295
85.39119 -24.107712 -68.553482 4294967295
85.391388 -32.091816 -67.44104 4294967295
85.417091 -31.623463 -67.494301 4294967295
85.418121 -34.813202 -68.28241 4294967295
85.437828 -34.348007 -68.297272 4294967295
85.43821 -35.258595 -68.522858 4294967295
85.458298 -23.622171 -68.872299 4294967295
85.472656 -33.419888 -68.297516 4294967295
85.480728 -23.156151 -68.904663 4294967295
85.508537 -32.491268 -68.304527 4294967295
85.529373 -30.202126 -67.879936 4294967295
85.563385 -29.274059 -67.874863 4294967295
85.611145 -30.619478 -68.516617 4294967295
85.642609 -29.6931 -68.495369 4294967295
85.662025 -27.403969 -68.06147 4294967295
85.731232 -35.815407 -67.50222 4294967295
85.738655 -26.913017 -68.442009 4294967295
85.786896 -27.80302 -68.975311 4294967295
85.798096 -25.973995 -68.600464 4294967295
85.801697 -36.235455 -68.067192 4294967295
85.801895 -25.059853 -68.401321 4294967295
85.818947 -24.139587 -68.287331 4294967295
85.819786 -25.508158 -68.62812 4294967295
85.821182 -33.948036 -67.633041 4294967295
85.826965 -34.856472 -67.89402 4294967295
85.851631 -23.212381 -68.273804 4294967295
85.861435 -33.472576 -67.780014 4294967295
85.868271 -35.291363 -68.271553 4294967295
85.890297 -34.369602 -68.189438 4294967295
85.896202 -32.999897 -67.891731 4294967295
85.944954 -32.520531 -68.093437 4294967295
85.946686 -31.152248 -67.768677 4294967295
85.961723 -30.689123 -67.753464 4294967295
85.963432 -23.620243 -69.104446 4294967295
85.96711 -31.598358 -68.012161 4294967295
85.986465 -32.044823 -68.248634 4294967295
86.037949 -29.285185 -67.908195 4294967295
86.059258 -29.731224 -68.157349 4294967295
86.066925 -28.815638 -67.982712 4294967295
86.069145 -30.182438 -68.333069 4294967295
86.122551 -27.877758 -68.116905 4294967295
86.149887 -28.321232 -68.404945 4294967295
86.193405 -35.832344 -67.454979 4294967295
86.227684 -27.373627 -68.682007 4294967295
86.237717 -34.443241 -67.4039 4294967295
86.264687 -24.620062 -68.248085 4294967295
86.272728 -26.897194 -68.860146 4294967295
86.273994 -25.984619 -68.644325 4294967295
86.276802 -36.245747 -68.104645 4294967295
86.326561 -25.048937 -68.758957 4294967295
86.338234 -24.131382 -68.610054 4294967295
86.345329 -26.408476 -69.215828 4294967295
86.346077 -33.934052 -67.990532 4294967295
86.349709 -33.476673 -67.901756 4294967295
86.352394 -35.297165 -68.367714 4294967295
86.369339 -31.188028 -67.467102 4294967295
86.372032 -33.010105 -67.933533 4294967295
86.385818 -32.547707 -67.910225 4294967295
86.388794 -25.477253 -69.271996 4294967295
86.400627 -23.191589 -68.788071 4294967295
86.474312 -30.682085 -68.032227 4294967295
86.481621 -28.854597 -67.630157 4294967295
86.488731 -30.219368 -68.013023 4294967295
86.49501 -31.583658 -68.390205 4294967295
86.507957 -32.032974 -68.585983 4294967295
86.51207 -28.384291 -67.714355 4294967295
86.601158 -29.710569 -68.62635 4294967295
86.63765 -27.414265 -68.300621 4294967295
86.680084 -26.482779 -68.350029 4294967295
86.688202 -36.288273 -67.730957 4294967295
86.69735 -26.931004 -68.573822 4294967295
86.740341 -35.806545 -67.95549 4294967295
86.752441 -34.434097 -67.696304 4294967295
86.773392 -33.056702 -67.494247 4294967295
86.779182 -25.982029 -68.877831 4294967295
86.784424 -34.873665 -68.015533 4294967295
86.788872 -24.609478 -68.603439 4294967295
86.791405 -33.503597 -67.723251 4294967295
86.805107 -25.058401 -68.820709 4294967295
86.841553 -33.934437 -68.160004 4294967295
86.864555 -32.556511 -67.971222 4294967295
86.879204 -24.113499 -69.074837 4294967295
86.888649 -30.265739 -67.564316 4294967295
86.93235 -29.789061 -67.734505 4294967295
86.98761 -31.130209 -68.429726 4294967295
86.988869 -32.040634 -68.662834 4294967295
87.001541 -30.667923 -68.407387 4294967295
87.034737 -28.829102 -68.171997 4294967295
87.044853 -29.280251 -68.350029 4294967295
87.045341 -28.368221 -68.128036 4294967295
87.09861 -26.975557 -68.135056 4294967295
87.151505 -36.304562 -67.691948 4294967295
87.173645 -25.573135 -68.28302 4294967295
87.22892 -26.460264 -68.866287 4294967295
87.229004 -26.004313 -68.754204 4294967295
87.231232 -33.987144 -67.64473 4294967295
87.240463 -24.174694 -68.377968 4294967295
87.265343 -24.619896 -68.651787 4294967295
87.296127 -34.865685 -68.290955 4294967295
87.297691 -32.587509 -67.737144 4294967295
87.303932 -34.40649 -68.228752 4294967295
87.311211 -25.055529 -69.061478 4294967295
87.31263 -35.312607 -68.510544 4294967295
87.313087 -32.124298 -67.724236 4294967295
87.346527 -31.652353 -67.828224 4294967295
87.361053 -23.665466 -69.046638 4294967295
87.362923 -33.466576 -68.385666 4294967295
87.373863 -29.815718 -67.554054 4294967295
87.400444 -32.992775 -68.516235 4294967295
87.416992 -31.162708 -68.172485 4294967295
87.461548 -28.862465 -67.897224 4294967295
87.533768 -27.916891 -68.140137 4294967295
87.57502 -27.441893 -68.294998 4294967295
87.590935 -28.346247 -68.624023 4294967295
87.591507 -26.978329 -68.2892 4294967295
87.593033 -26.52158 -68.186172 4294967295
87.613762 -35.410538 -67.41993 4294967295
87.6521 -24.213856 -68.00489 4294967295
87.65229 -36.301762 -67.896332 4294967295
87.661118 -23.753452 -67.950531 4294967295
87.663879 -24.664957 -68.194397 4294967295
87.68837 -26.022299 -68.692284 4294967295
87.708252 -25.557362 -68.708473 4294967295
87.758102 -34.42725 -68.131775 4294967295
87.759048 -33.515949 -67.911812 4294967295
87.7612 -25.077642 -68.939423 4294967295
87.779427 -34.871819 -68.383392 4294967295
87.799545 -33.951286 -68.288086 4294967295
87.821762 -32.118538 -67.980324 4294967295
87.846619 -30.739422 -67.802521 4294967295
87.880371 -33.000744 -68.587425 4294967295
87.885536 -32.542896 -68.50795 4294967295
87.90123 -28.889875 -67.705055 4294967295
87.908997 -30.253836 -68.095085 4294967295
87.916023 -29.338869 -67.914513 4294967295
87.929787 -31.610582 -68.569565 4294967295
87.954185 -31.143356 -68.615227 4294967295
87.993721 -29.757889 -68.533096 4294967295
88.004646 -27.929678 -68.151634 4294967295
88.032715 -27.460739 -68.2211 4294967295
88.108292 -26.970068 -68.5998 4294967295
88.122734 -26.507584 -68.580719 4294967295
88.124336 -35.402969 -67.688347 4294967295
88.150833 -24.670719 -68.310753 4294967295
88.202118 -26.015608 -68.984291 4294967295
88.209114 -34.449604 -68.01403 4294967295
88.212181 -35.813622 -68.373886 4294967295
88.226685 -24.180847 -68.691498 4294967295
88.228683 -33.073582 -67.80143 4294967295
88.238907 -25.54318 -69.110649 4294967295
88.243202 -23.261261 -68.572647 4294967295
88.24511 -23.716599 -68.698265 4294967295
88.251953 -31.695259 -67.612877 4294967295
88.25415 -33.516445 -68.080841 4294967295
88.256248 -34.881168 -68.43441 4294967295
88.270699 -25.073084 -69.204514 4294967295
88.280136 -33.958843 -68.36351 4294967295
88.290863 -32.131969 -67.979988 4294967295
88.302216 -32.581913 -68.167336 4294967295
88.337364 -31.19821 -68.056335 4294967295
88.414642 -30.249861 -68.333458 4294967295
88.429543 -28.875648 -68.090302 4294967295
88.458557 -30.684309 -68.733307 4294967295
88.472458 -27.487906 -68.029907 4294967295
88.495903 -29.300053 -68.636673 4294967295
88.517654 -28.378561 -68.551765 4294967295
88.532181 -27.004398 -68.306183 4294967295
88.559814 -25.167568 -68.032463 4294967295
88.570702 -27.898134 -68.784424 4294967295
88.609123 -35.863575 -67.903633 4294967295
88.646194 -26.49626 -68.93676 4294967295
88.65168 -24.670212 -68.518692 4294967295
88.690163 -34.456913 -68.092102 4294967295
88.7005 -23.280163 -68.496834 4294967295
88.722984 -33.985207 -68.19297 4294967295
88.728027 -34.892994 -68.453072 4294967295
88.73069 -24.178959 -68.921082 4294967295
88.732445 -35.345772 -68.59549 4294967295
88.732681 -23.722084 -68.820572 4294967295
88.794006 -32.584106 -68.316093 4294967295
88.800766 -33.036053 -68.473854 4294967295
88.811264 -33.486027 -68.656151 4294967295
88.824173 -31.20306 -68.17234 4294967295
88.838692 -32.106846 -68.49453 4294967295
88.855591 -31.643248 -68.491386 4294967295
88.920609 -27.96719 -68.006737 4294967295
88.924774 -29.332531 -68.375313 4294967295
88.929901 -30.241148 -68.636246 4294967295
88.951759 -29.775242 -68.665482 4294967295
88.953674 -30.685093 -68.905266 4294967295
89.022789 -28.375114 -68.788956 4294967295
89.039917 -25.632402 -68.218414 4294967295
89.078651 -25.158829 -68.358185 4294967295
89.090004 -24.697659 -68.318687 4294967295
89.091759 -27.431822 -69.012817 4294967295
89.095436 -35.412865 -67.902466 4294967295
89.096664 -26.973961 -68.931145 4294967295
89.096741 -26.062464 -68.704163 4294967295
89.114265 -35.858387 -68.13961 4294967295
89.121849 -23.771156 -68.299484 4294967295
89.125687 -26.504957 -69.007263 4294967295
89.144363 -23.304987 -68.333076 4294967295
89.15538 -36.292278 -68.52269 4294967295
89.181496 -32.182114 -67.668465 4294967295
89.182487 -34.913574 -68.358643 4294967295
89.188583 -24.197531 -68.850235 4294967295
89.236588 -32.610477 -68.143501 4294967295
89.240395 -33.974274 -68.510155 4294967295
89.244675 -34.427158 -68.6521 4294967295
89.260574 -33.509075 -68.528519 4294967295
89.266258 -29.862509 -67.65387 4294967295
89.295135 -31.670986 -68.299232 4294967295
89.329712 -31.198753 -68.411949 4294967295
89.337296 -30.284145 -68.233643 4294967295
89.413376 -29.336685 -68.504501 4294967295
89.441246 -27.044992 -68.117081 4294967295
89.476959 -28.395531 -68.693459 4294967295
89.494522 -26.108616 -68.23838 4294967295
89.527428 -25.63765 -68.340225 4294967295
89.54808 -34.979271 -67.680435 4294967295
89.551193 -26.538441 -68.724281 4294967295
89.557922 -25.167843 -68.426254 4294967295
89.559837 -36.338642 -68.100266 4294967295
89.610054 -24.23241 -68.540176 4294967295
89.615364 -34.489971 -68.008087 4294967295
89.616562 -24.685457 -68.696991 4294967295
89.639999 -23.306961 -68.508537 4294967295
89.660683 -32.190575 -67.734459 4294967295
89.696426 -33.538883 -68.312073 4294967295
89.703049 -33.990681 -68.469734 4294967295
89.720032 -23.727434 -69.148117 4294967295
89.733795 -30.332525 -67.757675 4294967295
89.761192 -33.051464 -68.623299 4294967295
89.774948 -32.589523 -68.599503 4294967295
89.802193 -30.755035 -68.321526 4294967295
89.842293 -28.002043 -67.89917 4294967295
89.873291 -28.443233 -68.217392 4294967295
89.883331 -27.526983 -68.054657 4294967295
89.930267 -28.871864 -68.706329 4294967295
89.948174 -25.67329 -68.023628 4294967295
89.954758 -27.037952 -68.410103 4294967295
89.966087 -26.576927 -68.370239 4294967295
90.016647 -25.18614 -68.359734 4294967295
90.055626 -34.517807 -67.819046 4294967295
90.082237 -34.049141 -67.879707 4294967295
90.099335 -24.236965 -68.675072 4294967295
90.110611 -35.399948 -68.409981 4294967295
90.113403 -36.308132 -68.657295 4294967295
90.145218 -33.562275 -68.179947 4294967295
90.164803 -32.186691 -67.965263 4294967295
90.202652 -23.734913 -69.240738 4294967295
90.204132 -32.622524 -68.338959 4294967295
90.211563 -30.797401 -67.929634 4294967295
90.214882 -33.072311 -68.5243 4294967295
90.241432 -31.238308 -68.240982 4294967295
90.261787 -31.683632 -68.489761 4294967295
90.301201 -29.38752 -68.176483 4294967295
90.32415 -30.287394 -68.557053 4294967295
90.336533 -28.003756 -68.065567 4294967295
90.346664 -29.821194 -68.590775 4294967295
90.363708 -27.079424 -68.015434 4294967295
90.378006 -28.439846 -68.453651 4294967295
90.38562 -28.891739 -68.618446 4294967295
90.400139 -26.606661 -68.140976 4294967295
90.434021 -25.223257 -68.020287 4294967295
90.438522 -36.395725 -67.709846 4294967295
90.445198 -25.674145 -68.208763 4294967295
90.521179 -35.898022 -68.140594 4294967295
90.565422 -34.965424 -68.203072 4294967295
90.57576 -24.247229 -68.726143 4294967295
90.589806 -32.22184 -67.675079 4294967295
90.608986 -23.320559 -68.715988 4294967295
90.611099 -34.487206 -68.389877 4294967295
90.618683 -33.573296 -68.210335 4294967295
90.652847 -23.756853 -69.12014 4294967295
90.662872 -31.730358 -68.042877 4294967295
90.668442 -30.816744 -67.849808 4294967295
90.67112 -31.27091 -67.982468 4294967295
90.70137 -32.62175 -68.526787 4294967295
90.765129 -29.8589 -68.258934 4294967295
90.817131 -28.923014 -68.372765 4294967295
90.818375 -29.377874 -68.49588 4294967295
90.874969 -27.073299 -68.295448 4294967295
90.886673 -25.700384 -68.027824 4294967295
90.902992 -26.148758 -68.25074 4294967295
90.91555 -26.598709 -68.448776 4294967295
90.931511 -36.396484 -67.868538 4294967295
90.967941 -35.922672 -67.994568 4294967295
90.999344 -24.737179 -68.543159 4294967295
91.010101 -34.991055 -68.043396 4294967295
91.028244 -34.071678 -67.933197 4294967295
91.034645 -34.523502 -68.090759 4294967295
91.05101 -23.802147 -68.65493 4294967295
91.051643 -35.424633 -68.433434 4294967295
91.069054 -24.249844 -68.889328 4294967295
91.078407 -33.591213 -68.150223 4294967295
91.116547 -23.316984 -68.973671 4294967295
91.122559 -32.203613 -68.097183 4294967295
91.153862 -31.732855 -68.189392 4294967295
91.163742 -32.638271 -68.485054 4294967295
91.16703 -33.091629 -68.621956 4294967295
91.200333 -30.344088 -68.151703 4294967295
91.266075 -30.767334 -68.702324 4294967295
91.26709 -28.489977 -68.133102 4294967295
91.283836 -29.392942 -68.474571 4294967295
91.284897 -27.570223 -68.020615 4294967295
91.295601 -28.931889 -68.437355 4294967295
91.313362 -29.833994 -68.785339 4294967295
91.332237 -36.445221 -67.416168 4294967295
91.35495 -35.978344 -67.451454 4294967295
91.377838 -26.15962 -68.290932 4294967295
91.38044 -25.702618 -68.192932 4294967295
91.388763 -27.065851 -68.593964 4294967295
91.414452 -26.598291 -68.649063 4294967295
91.472931 -35.007412 -68.003571 4294967295
91.484039 -35.4566 -68.192688 4294967295
91.488174 -24.741716 -68.676994 4294967295
91.489449 -33.633736 -67.766869 4294967295
91.496216 -25.193745 -68.845558 4294967295
91.545677 -23.804192 -68.827797 4294967295
91.555481 -24.255489 -69.00808 4294967295
91.574234 -32.680737 -68.09893 4294967295
91.594429 -30.393978 -67.655472 4294967295
91.63649 -31.284197 -68.165886 4294967295
91.637672 -32.193958 -68.404663 4294967295
91.70536 -30.795132 -68.507866 4294967295
91.718819 -29.422693 -68.250854 4294967295
91.740402 -28.045794 -68.047615 4294967295
91.758675 -29.858747 -68.631126 4294967295
91.801086 -36.003487 -67.299118 4294967295
91.814064 -27.099792 -68.306099 4294967295
91.819618 -28.918882 -68.805145 4294967295
91.85096 -24.803713 -67.973328 4294967295
91.876846 -25.703552 -68.376793 4294967295
91.92823 -26.135386 -68.834045 4294967295
91.930023 -26.590002 -68.961517 4294967295
91.945091 -34.563999 -67.91011 4294967295
91.946968 -34.107986 -67.806908 4294967295
91.975952 -25.202282 -68.920326 4294967295
91.979744 -33.636242 -67.909271 4294967295
92.02562 -24.268454 -69.019539 4294967295
92.031746 -32.699768 -68.023956 4294967295
92.036606 -33.15242 -68.171982 4294967295
92.121811 -29.923483 -67.928871 4294967295
92.124527 -31.743229 -68.410172 4294967295
92.128136 -29.464931 -67.855164 4294967295
92.146385 -32.187359 -68.67144 4294967295
92.146423 -31.277287 -68.440277 4294967295
92.174767 -30.353008 -68.397499 4294967295
92.192879 -30.799288 -68.633865 4294967295
92.21228 -28.513443 -68.184105 4294967295
92.229698 -28.049622 -68.184349 4294967295
92.260513 -36.021732 -67.234978 4294967295
92.26825 -27.575802 -68.325378 4294967295
92.304359 -27.103237 -68.450211 4294967295
92.320869 -26.639935 -68.444412 4294967295
92.353027 -25.258026 -68.311134 4294967295
92.360046 -36.424622 -68.014931 4294967295
92.36499 -23.884935 -68.042999 4294967295
92.394058 -25.694748 -68.700607 4294967295
92.396416 -33.22084 -67.445282 4294967295
92.419144 -24.771971 -68.636086 4294967295
92.422127 -33.66301 -67.732895 4294967295
92.422554 -26.137001 -69.006462 4294967295
92.434586 -32.290997 -67.467758 4294967295
92.476257 -32.725342 -67.862083 4294967295
92.497025 -34.989288 -68.580879 4294967295
92.523018 -24.268982 -69.21299 4294967295
92.597862 -29.933443 -67.977394 4294967295
92.638321 -31.279163 -68.595886 4294967295
92.647591 -29.453892 -68.193474 4294967295
92.648346 -30.819168 -68.546829 4294967295
92.653954 -30.361296 -68.468163 4294967295
92.65966 -28.537222 -68.041824 4294967295
92.702187 -26.694536 -67.86116 4294967295
92.735306 -28.95619 -68.663338 4294967295
92.737747 -36.030685 -67.289757 4294967295
92.743301 -27.586344 -68.368362 4294967295
92.747314 -28.039854 -68.511322 4294967295
92.764885 -26.209473 -68.164017 4294967295
92.785065 -25.744373 -68.182755 4294967295
92.79023 -27.108685 -68.565834 4294967295
92.803307 -35.541519 -67.611961 4294967295
92.830528 -25.267633 -68.37043 4294967295
92.882362 -24.332411 -68.484642 4294967295
92.90374 -35.034546 -68.167534 4294967295
92.94503 -31.82831 -67.629272 4294967295
92.96714 -34.092339 -68.3591 4294967295
92.980591 -31.355291 -67.750854 4294967295
93.00605 -23.364967 -69.07946 4294967295
93.00666 -23.82024 -69.199699 4294967295
93.013962 -29.972679 -67.624939 4294967295
93.014931 -32.703449 -68.329971 4294967295
93.031128 -32.240334 -68.321999 4294967295
93.105659 -30.383036 -68.355492 4294967295
93.126251 -29.007217 -68.144127 4294967295
93.126991 -27.640337 -67.799591 4294967295
93.140671 -30.820843 -68.706329 4294967295
93.159073 -29.446573 -68.480469 4294967295
93.204079 -36.045315 -67.272041 4294967295
93.206169 -28.058048 -68.44664 4294967295
93.222198 -28.50563 -68.670456 4294967295
93.267509 -26.662733 -68.508286 4294967295
93.285889 -26.198627 -68.514931 4294967295
93.295761 -27.104778 -68.814034 4294967295
93.335579 -34.612034 -67.804192 4294967295
93.375252 -35.500977 -68.303581 4294967295
93.390091 -31.853626 -67.469681 4294967295
93.393578 -33.217388 -67.843369 4294967295
93.405312 -23.409962 -68.616592 4294967295
93.417824 -33.659988 -68.122665 4294967295
93.425636 -24.311947 -68.985916 4294967295
93.435303 -23.852005 -68.934196 4294967295
93.46067 -34.0928 -68.52681 4294967295
93.552208 -29.496843 -67.974396 4294967295
93.609207 -29.924192 -68.473907 4294967295
93.617271 -30.830223 -68.761421 4294967295
93.619514 -29.008793 -68.309669 4294967295
93.630524 -28.548174 -68.266884 4294967295
93.656364 -25.802528 -67.739471 4294967295
93.667328 -27.164331 -68.163681 4294967295
