# .PCD v0.7 - Point Cloud Data file format
VERSION 0.7
FIELDS x y z rgb
SIZE 4 4 4 4
TYPE F F F U
COUNT 1 1 1 1
WIDTH 1147
HEIGHT 1
VIEWPOINT 0 0 0 1 0 0 0
POINTS 1147
DATA ascii
169.80742 86.556221 -18.407526 4294967295
169.8148 86.068161 -18.723883 4294967295
169.82861 88.493759 -17.773243 4294967295
169.84326 88.002525 -18.18041 4294967295
169.85178 87.513626 -18.511375 4294967295
169.85419 87.026962 -18.766022 4294967295
169.88657 89.44677 -18.046665 4294967295
169.91449 89.923492 -18.170229 4294967295
169.94991 90.397415 -18.3874 4294967295
170.19009 84.139221 -18.299833 4294967295
170.19049 83.168617 -18.755342 4294967295
170.21579 83.646423 -18.846529 4294967295
170.25346 85.091057 -18.641924 4294967295
170.26259 85.573776 -18.530794 4294967295
170.27066 87.028763 -17.955025 4294967295
170.28519 86.052345 -18.588261 4294967295
170.30444 88.476357 -17.701124 4294967295
170.31396 86.52887 -18.723152 4294967295
170.31618 87.499908 -18.299667 4294967295
170.32304 88.956497 -17.708195 4294967295
170.41077 89.412407 -18.582127 4294967295
170.41559 89.897079 -18.4167 4294967295
170.44159 90.374268 -18.516773 4294967295
170.63284 83.645996 -18.040739 4294967295
170.63382 83.16037 -18.279461 4294967295
170.64299 84.128502 -17.9419 4294967295
170.6604 85.580582 -17.480909 4294967295
170.75815 86.035713 -18.484163 4294967295
170.76942 87.003815 -18.172653 4294967295
170.78204 86.513824 -18.558191 4294967295
170.81367 87.475235 -18.503065 4294967295
170.81711 88.446373 -18.092459 4294967295
170.82158 90.391487 -17.240332 4294967295
170.83105 88.927948 -18.041098 4294967295
170.83176 89.900925 -17.595797 4294967295
170.89293 89.392685 -18.593801 4294967295
171.09302 83.147614 -18.000282 4294967295
171.13084 84.593056 -17.795053 4294967295
171.15964 85.555832 -17.703398 4294967295
171.16502 85.068329 -17.99947 4294967295
171.1927 86.031342 -17.893574 4294967295
171.24596 86.50016 -18.339285 4294967295
171.24948 87.471069 -17.928183 4294967295
171.26991 88.436836 -17.730608 4294967295
171.28944 86.971832 -18.661678 4294967295
171.32138 88.905472 -18.154043 4294967295
171.34457 89.383743 -18.219677 4294967295
171.36974 90.347878 -18.081881 4294967295
171.64156 84.079491 -18.395105 4294967295
171.64899 85.534134 -17.803192 4294967295
171.65559 83.590057 -18.802227 4294967295
171.66151 84.558891 -18.420198 4294967295
171.68767 85.036362 -18.523451 4294967295
171.7025 86.003014 -18.254164 4294967295
171.76505 86.954376 -18.591551 4294967295
171.77371 88.40979 -18.014488 4294967295
171.78131 90.353935 -17.193453 4294967295
171.81747 89.36734 -18.112885 4294967295
172.13336 84.542572 -18.300997 4294967295
172.13342 84.057121 -18.53171 4294967295
172.15901 86.477753 -17.708094 4294967295
172.17239 86.959534 -17.648809 4294967295
172.17273 85.015945 -18.573614 4294967295
172.17896 85.985313 -18.193029 4294967295
172.22984 88.399162 -17.692303 4294967295
172.23901 87.423462 -18.270128 4294967295
172.30145 88.86058 -18.377426 4294967295
172.30588 89.345413 -18.203814 4294967295
172.35675 90.300064 -18.393772 4294967295
172.57123 83.080292 -18.438427 4294967295
172.58162 85.019287 -17.64727 4294967295
172.58392 84.532799 -17.907948 4294967295
172.59177 83.559479 -18.470825 4294967295
172.5925 85.501816 -17.555351 4294967295
172.60004 84.042343 -18.345785 4294967295
172.6515 85.968872 -18.08173 4294967295
172.66399 86.450768 -18.010756 4294967295
172.69167 86.927658 -18.134714 4294967295
172.70927 87.407845 -18.12949 4294967295
172.72484 88.375092 -17.866508 4294967295
172.73634 89.831055 -17.319597 4294967295
172.75446 87.878601 -18.47871 4294967295
172.79572 89.322937 -18.31473 4294967295
172.80186 90.293922 -17.930351 4294967295
172.8019 88.834396 -18.62569 4294967295
173.00586 83.074814 -17.839346 4294967295
173.05104 83.54686 -18.189676 4294967295
173.07925 84.509293 -18.088993 4294967295
173.10268 85.959366 -17.694019 4294967295
173.10605 84.015648 -18.666883 4294967295
173.1069 84.986313 -18.213327 4294967295
173.13412 86.921326 -17.634617 4294967295
173.15793 86.42733 -18.174515 4294967295
173.20929 87.868309 -18.140087 4294967295
173.23004 87.375114 -18.640656 4294967295
173.24843 90.287346 -17.481628 4294967295
173.26524 88.335083 -18.630081 4294967295
173.2812 88.815643 -18.603788 4294967295
173.28476 89.30069 -18.417011 4294967295
173.30907 89.778328 -18.498238 4294967295
173.51253 84.019188 -17.701385 4294967295
173.54877 83.522758 -18.404598 4294967295
173.57906 85.45575 -17.863249 4294967295
173.59007 86.424271 -17.538872 4294967295
173.60124 84.962975 -18.384415 4294967295
173.60323 84.476868 -18.643658 4294967295
173.64659 87.377785 -17.804718 4294967295
173.6597 85.915512 -18.675591 4294967295
173.66847 86.884247 -18.322111 4294967295
173.70296 89.304047 -17.600792 4294967295
173.71648 87.839989 -18.477751 4294967295
173.7281 88.808434 -18.161289 4294967295
173.73531 88.319565 -18.488602 4294967295
173.76791 90.253746 -17.976599 4294967295
174.00044 83.998016 -17.78758 4294967295
174.02882 83.503922 -18.392193 4294967295
174.05748 83.010223 -18.999725 4294967295
174.08594 85.428284 -18.197758 4294967295
174.08795 84.941978 -18.458832 4294967295
174.09154 84.455399 -18.740248 4294967295
174.12326 86.387779 -18.214828 4294967295
174.1266 85.900841 -18.493196 4294967295
174.14085 88.326851 -17.504305 4294967295
174.1631 86.860397 -18.4993 4294967295
174.16466 87.345871 -18.284864 4294967295
174.16815 89.290512 -17.390097 4294967295
174.19284 87.822281 -18.417612 4294967295
174.23885 90.238144 -17.842516 4294967295
174.2466 89.748543 -18.178972 4294967295
174.46123 83.98513 -17.520142 4294967295
174.52065 83.481522 -18.534088 4294967295
174.54327 84.445328 -18.358984 4294967295
174.54475 82.989197 -19.085505 4294967295
174.54601 85.415855 -17.922779 4294967295
174.57587 85.892021 -18.077816 4294967295
174.61745 88.309174 -17.442175 4294967295
174.63184 86.845245 -18.339674 4294967295
174.64049 87.81459 -17.980927 4294967295
174.64221 87.327766 -18.239574 4294967295
174.65695 89.26841 -17.487738 4294967295
174.72337 89.730721 -18.122959 4294967295
174.73306 90.213821 -18.013733 4294967295
174.99214 83.465248 -18.410501 4294967295
175.0159 83.943321 -18.486263 4294967295
175.02078 86.370903 -17.36429 4294967295
175.02887 84.910294 -18.182911 4294967295
175.0538 85.387985 -18.274139 4294967295
175.05579 85.873169 -18.062969 4294967295
175.08075 87.809601 -17.442265 4294967295
175.08519 86.835373 -17.975794 4294967295
175.14197 87.301987 -18.48682 4294967295
175.16275 88.267036 -18.286013 4294967295
175.19731 89.713966 -18.029074 4294967295
175.24843 90.181465 -18.466175 4294967295
175.44038 82.970688 -18.217115 4294967295
175.44565 84.425774 -17.571522 4294967295
175.45024 83.453079 -18.109341 4294967295
175.49785 83.923836 -18.500664 4294967295
175.50053 85.379929 -17.821217 4294967295
175.51007 84.891045 -18.185854 4294967295
175.54175 85.852295 -18.128386 4294967295
175.54668 86.336624 -17.955086 4294967295
175.58533 86.809563 -18.228889 4294967295
175.61664 87.284843 -18.405128 4294967295
175.62981 88.25267 -18.102249 4294967295
175.63266 87.765373 -18.378588 4294967295
175.63684 88.736588 -17.95672 4294967295
175.67168 89.210396 -18.179731 4294967295
175.6824 89.693031 -18.083158 4294967295
175.73152 90.161194 -18.496044 4294967295
175.89322 83.445587 -17.603899 4294967295
175.9303 84.891411 -17.378115 4294967295
175.93089 82.948715 -18.344294 4294967295
175.99919 84.383659 -18.534573 4294967295
176.03667 85.342667 -18.554201 4294967295
176.04588 86.797302 -17.957544 4294967295
176.0948 87.752686 -18.129547 4294967295
176.0961 87.266052 -18.386648 4294967295
176.10831 88.720718 -17.829456 4294967295
176.10933 89.693924 -17.362621 4294967295
176.37224 83.427109 -17.575764 4294967295
176.39694 82.934082 -18.146885 4294967295
176.40819 84.873283 -17.333769 4294967295
176.44096 85.834793 -17.289938 4294967295
176.47224 84.366959 -18.43157 4294967295
176.51202 85.325249 -18.482136 4294967295
176.52034 87.753067 -17.387913 4294967295
176.53133 86.776474 -18.01749 4294967295
176.55106 87.255806 -18.0404 4294967295
176.58322 88.217064 -17.988771 4294967295
176.60527 88.695526 -18.042866 4294967295
176.61024 89.180298 -17.868212 4294967295
176.6356 89.657516 -17.966881 4294967295
176.64264 90.14167 -17.819632 4294967295
176.90094 84.850334 -17.489189 4294967295
176.91547 83.874184 -18.169104 4294967295
176.92941 83.38446 -18.598351 4294967295
176.93971 85.323593 -17.768385 4294967295
176.96352 85.801659 -17.846598 4294967295
176.96899 86.285919 -17.677658 4294967295
177.0162 86.755836 -18.070623 4294967295
177.03893 88.206871 -17.649195 4294967295
177.03973 87.720085 -17.902668 4294967295
177.04918 89.176613 -17.302067 4294967295
177.07057 89.655533 -17.347506 4294967295
177.09821 88.671722 -18.205261 4294967295
177.12466 90.121841 -17.833654 4294967295
177.34108 83.386757 -17.666651 4294967295
177.36179 84.351746 -17.459345 4294967295
177.39806 83.854492 -18.19326 4294967295
177.40027 85.311157 -17.492743 4294967295
177.43227 84.81472 -18.168673 4294967295
177.45767 85.777969 -18.025202 4294967295
177.4718 87.231743 -17.485474 4294967295
177.47357 87.717674 -17.265486 4294967295
177.49957 86.249657 -18.348379 4294967295
177.54121 88.179771 -17.937542 4294967295
177.54294 89.152489 -17.472967 4294967295
177.55385 88.66169 -17.864588 4294967295
177.60559 90.589447 -17.589449 4294967295
177.63876 89.602974 -18.527027 4294967295
177.64215 90.088326 -18.32897 4294967295
177.78323 82.894012 -17.383917 4294967295
177.85867 83.356216 -18.163939 4294967295
177.88615 83.833015 -18.292833 4294967295
177.90292 86.257065 -17.296642 4294967295
177.92084 84.792984 -18.274698 4294967295
177.92734 85.762527 -17.873323 4294967295
177.93909 86.730888 -17.543217 4294967295
177.94478 85.27076 -18.355476 4294967295
177.97266 87.205399 -17.75507 4294967295
178.01651 87.676048 -18.106768 4294967295
178.03676 88.155067 -18.137356 4294967295
178.04767 89.124184 -17.795553 4294967295
178.08562 89.596512 -18.067095 4294967295
178.1143 90.559097 -17.967224 4294967295
178.29161 83.352089 -17.511122 4294967295
178.339 84.308495 -17.66647 4294967295
178.34132 82.851166 -18.436005 4294967295
178.38461 85.751335 -17.55113 4294967295
178.38826 86.722778 -17.108564 4294967295
178.40002 84.7743 -18.254284 4294967295
178.40883 87.202072 -17.143536 4294967295
178.44975 86.215042 -18.195835 4294967295
178.47179 87.66597 -17.758396 4294967295
178.51274 88.137497 -18.072222 4294967295
178.54039 90.561295 -17.217798 4294967295
178.58006 89.571861 -18.254501 4294967295
178.75169 83.339531 -17.224968 4294967295
178.78839 83.81369 -17.481306 4294967295
178.79233 82.841248 -18.029886 4294967295
178.82127 84.774803 -17.438322 4294967295
178.83026 84.28595 -17.809038 4294967295
178.83624 85.25589 -17.396418 4294967295
178.89821 85.720917 -18.00034 4294967295
178.91682 87.173134 -17.513296 4294967295
178.92928 86.682343 -17.932501 4294967295
178.94128 86.192032 -18.345255 4294967295
178.96323 88.129341 -17.656345 4294967295
179.01515 88.596596 -18.123085 4294967295
179.02068 89.081131 -17.951193 4294967295
179.05246 90.529526 -17.644943 4294967295
179.07524 89.546867 -18.454601 4294967295
179.07527 90.033554 -18.207298 4294967295
179.23311 83.32029 -17.230221 4294967295
179.24565 82.830666 -17.652002 4294967295
179.28307 84.275963 -17.422617 4294967295
179.28938 83.788086 -17.758505 4294967295
179.31831 84.750259 -17.660816 4294967295
179.3855 87.158241 -17.344456 4294967295
179.38766 85.698692 -18.121374 4294967295
179.42542 88.116936 -17.398329 4294967295
179.43138 87.628113 -17.73008 4294967295
179.45338 89.567215 -17.037241 4294967295
179.4695 88.587166 -17.759098 4294967295
179.51765 90.51635 -17.428106 4294967295
179.73672 82.80835 -17.79472 4294967295
179.75212 83.774773 -17.508287 4294967295
179.78099 84.25119 -17.659258 4294967295
179.7876 84.73494 -17.500509 4294967295
179.80675 85.214531 -17.516726 4294967295
179.81558 85.697685 -17.389048 4294967295
179.88269 88.10643 -17.069752 4294967295
179.8886 86.644562 -17.903233 4294967295
179.89439 87.615341 -17.483147 4294967295
179.94763 87.109528 -18.473946 4294967295
179.94949 89.054924 -17.497799 4294967295
179.95055 88.567703 -17.763275 4294967295
180.00516 90.007133 -17.771471 4294967295
180.02809 89.511284 -18.341305 4294967295
180.04897 90.476669 -18.130543 4294967295
180.22269 82.787621 -17.867994 4294967295
180.23087 83.270576 -17.730927 4294967295
180.24043 84.239082 -17.361387 4294967295
180.24135 84.724854 -17.122822 4294967295
180.25807 83.747467 -17.85924 4294967295
180.30182 85.676598 -17.464132 4294967295
180.30215 85.190346 -17.720608 4294967295
180.3667 86.140038 -18.11931 4294967295
180.39221 87.589752 -17.720655 4294967295
180.39481 87.102356 -18.009058 4294967295
180.40251 88.072517 -17.612957 4294967295
180.42448 89.037804 -17.416319 4294967295
180.42635 90.011383 -16.938219 4294967295
180.44017 88.54496 -17.887852 4294967295
180.46733 89.508064 -17.76383 4294967295
180.54581 90.450676 -18.358459 4294967295
180.70517 83.739288 -17.38834 4294967295
180.71474 83.250443 -17.775454 4294967295
180.7198 84.220406 -17.340826 4294967295
180.77641 84.687378 -17.882954 4294967295
180.80472 85.163635 -18.027723 4294967295
180.82083 85.644035 -18.001171 4294967295
180.83699 87.583786 -17.215879 4294967295
180.84833 86.120415 -18.134363 4294967295
180.85213 87.091591 -17.682074 4294967295
180.89771 89.508507 -17.056049 4294967295
180.91177 88.042427 -18.014381 4294967295
180.94173 89.00428 -17.92898 4294967295
180.95215 88.513603 -18.32913 4294967295
180.96164 90.457436 -17.449162 4294967295
181.21049 85.170242 -16.971905 4294967295
181.22568 83.221558 -18.203226 4294967295
181.22925 84.191681 -17.745674 4294967295
181.22974 83.705772 -18.006683 4294967295
181.25943 84.667374 -17.917503 4294967295
181.29015 85.628761 -17.842579 4294967295
181.32176 87.563011 -17.271357 4294967295
181.34395 86.095779 -18.34866 4294967295
181.3532 87.064804 -17.970436 4294967295
181.38399 89.486969 -17.132359 4294967295
181.40021 88.020119 -18.12631 4294967295
181.41464 88.501175 -18.075628 4294967295
181.45087 88.973755 -18.333609 4294967295
181.45688 90.432106 -17.654287 4294967295
181.65083 83.706253 -17.163347 4294967295
181.6904 83.20755 -17.980421 4294967295
181.70076 85.147804 -17.104759 4294967295
181.73227 84.165009 -18.063793 4294967295
181.73264 84.650696 -17.813623 4294967295
181.77765 86.579659 -17.429554 4294967295
181.79077 86.088562 -17.872143 4294967295
181.79216 85.601974 -18.147545 4294967295
181.8304 87.046753 -17.923592 4294967295
181.84262 87.528664 -17.841225 4294967295
181.86661 88.006157 -17.926414 4294967295
181.86862 88.978958 -17.442884 4294967295
181.86983 88.491608 -17.716211 4294967295
181.90503 89.451576 -17.704531 4294967295
181.92403 89.930992 -17.718798 4294967295
182.20135 85.608002 -17.130156 4294967295
182.23833 85.108795 -17.915705 4294967295
182.2411 84.621956 -18.212442 4294967295
182.25827 86.560425 -17.428749 4294967295
182.27809 87.03965 -17.454962 4294967295
182.28482 86.064461 -18.065495 4294967295
182.29388 88.494225 -16.907684 4294967295
182.34564 87.500877 -18.163139 4294967295
182.34659 88.960663 -17.404181 4294967295
182.36804 87.978821 -18.226036 4294967295
182.39258 89.916466 -17.546909 4294967295
182.45222 90.379204 -18.142969 4294967295
182.59695 83.673111 -16.94211 4294967295
182.60889 83.183228 -17.371943 4294967295
182.65533 84.139503 -17.521988 4294967295
182.66475 84.62233 -17.3983 4294967295
182.69072 85.099442 -17.512749 4294967295
182.73398 85.570305 -17.87557 4294967295
182.76192 87.505875 -17.241875 4294967295
182.7691 86.530067 -17.862671 4294967295
182.77579 86.041412 -18.217554 4294967295
182.77786 88.47364 -16.953054 4294967295
182.80148 87.977547 -17.551807 4294967295
182.81654 88.945534 -17.250313 4294967295
182.84821 90.394676 -16.928108 4294967295
182.86356 89.413849 -17.667612 4294967295
182.90544 89.883904 -18.011427 4294967295
183.12727 83.63739 -17.65733 4294967295
183.13234 84.121574 -17.470499 4294967295
183.1709 84.594315 -17.767038 4294967295
183.18983 86.532867 -16.999857 4294967295
183.21194 85.551979 -17.840063 4294967295
183.23859 87.488091 -17.184031 4294967295
183.25317 86.995895 -17.655447 4294967295
183.2798 89.420425 -16.737759 4294967295
183.28018 88.445839 -17.264736 4294967295
183.31401 88.919472 -17.493633 4294967295
183.31781 87.944389 -18.069487 4294967295
183.34734 89.880264 -17.454653 4294967295
183.36678 90.359535 -17.475502 4294967295
183.58891 84.110626 -17.122467 4294967295
183.62543 84.58416 -17.391108 4294967295
183.64359 83.606194 -18.177847 4294967295
183.64905 85.062035 -17.472784 4294967295
183.67813 86.997559 -16.848047 4294967295
183.69493 86.504562 -17.354214 4294967295
183.7014 85.52951 -17.971783 4294967295
183.81606 88.404694 -18.068979 4294967295
183.82802 88.886719 -17.980869 4294967295
183.83176 90.346611 -17.249109 4294967295
183.83882 89.369278 -17.87606 4294967295
184.06737 83.606163 -17.353859 4294967295
184.0793 83.116364 -17.790821 4294967295
184.09322 84.083336 -17.468203 4294967295
184.11374 84.562256 -17.505144 4294967295
184.14377 85.037781 -17.68055 4294967295
184.1499 86.008217 -17.243965 4294967295
184.17303 86.486214 -17.318811 4294967295
184.17564 85.512497 -17.883385 4294967295
184.19832 86.96331 -17.425356 4294967295
184.20244 87.448494 -17.222178 4294967295
184.22766 88.41259 -17.064228 4294967295
184.22842 87.925285 -17.338833 4294967295
184.25267 88.889748 -17.166378 4294967295
184.29411 90.334839 -16.982233 4294967295
184.29735 89.846031 -17.29353 4294967295
184.30588 89.355309 -17.68198 4294967295
184.52464 83.108948 -17.277126 4294967295
184.5475 83.587173 -17.3482 4294967295
184.56551 84.553185 -17.08359 4294967295
184.5766 85.522118 -16.717196 4294967295
184.59216 84.057785 -17.739861 4294967295
184.61826 85.993484 -17.064846 4294967295
184.62448 86.477852 -16.891401 4294967295
184.67809 87.431084 -17.150204 4294967295
184.69202 86.938995 -17.620094 4294967295
184.72552 88.873497 -17.053202 4294967295
184.76239 87.884956 -18.125853 4294967295
184.79189 90.308174 -17.234608 4294967295
184.81241 89.812241 -17.802263 4294967295
184.97247 83.100815 -16.794598 4294967295
185.07158 84.038956 -17.72691 4294967295
185.07292 84.524521 -17.480558 4294967295
185.08278 85.493599 -17.093792 4294967295
185.13228 86.935081 -17.026894 4294967295
185.14493 86.443581 -17.480476 4294967295
185.17439 87.405655 -17.383463 4294967295
185.18835 87.887054 -17.32386 4294967295
185.19987 88.856674 -16.960989 4294967295
185.2012 88.36895 -17.247322 4294967295
185.2337 90.305161 -16.661509 4294967295
185.26167 89.805832 -17.342796 4294967295
185.47444 83.56057 -16.844038 4294967295
185.56911 84.013794 -17.983372 4294967295
185.59091 84.977997 -17.772615 4294967295
185.605 85.459068 -17.714355 4294967295
185.60884 86.430557 -17.236019 4294967295
185.61989 86.913086 -17.132288 4294967295
185.66064 87.870979 -17.202524 4294967295
185.67976 88.350365 -17.219234 4294967295
185.70007 89.316589 -16.985319 4294967295
185.73175 88.816322 -17.725637 4294967295
185.77068 90.261711 -17.500753 4294967295
185.95209 84.02877 -16.531046 4294967295
185.99818 83.04071 -17.758415 4294967295
186.00087 85.471001 -16.45232 4294967295
186.00418 84.983139 -16.771225 4294967295
186.02074 84.490776 -17.288361 4294967295
186.07541 87.390549 -16.489054 4294967295
186.09785 85.921509 -17.634003 4294967295
186.11818 86.886909 -17.399103 4294967295
186.14656 88.823868 -16.745337 4294967295
186.18552 89.782646 -16.789248 4294967295
186.18828 89.293999 -17.100351 4294967295
186.19101 90.268021 -16.601391 4294967295
186.40692 83.04599 -16.684446 4294967295
186.44414 83.519348 -16.973278 4294967295
186.47867 83.993408 -17.221752 4294967295
186.49292 85.447578 -16.623053 4294967295
186.49698 84.473099 -17.226271 4294967295
186.50902 85.928329 -16.594412 4294967295
186.52187 84.950386 -17.32991 4294967295
186.5307 86.894028 -16.378151 4294967295
186.64276 88.79805 -16.981188 4294967295
186.65378 89.280869 -16.875618 4294967295
186.66977 88.299805 -17.659513 4294967295
186.68857 90.241287 -16.857105 4294967295
186.8904 83.025887 -16.728649 4294967295
186.94809 84.464493 -16.784029 4294967295
186.95354 83.976212 -17.138935 4294967295
186.95787 84.947464 -16.659557 4294967295
186.96548 83.485939 -17.59223 4294967295
187.00009 85.418442 -17.025942 4294967295
187.04944 87.834145 -16.409317 4294967295
187.05547 85.884125 -17.592154 4294967295
187.0778 86.848755 -17.384785 4294967295
187.09435 88.303246 -16.816786 4294967295
187.09573 87.328491 -17.38382 4294967295
187.09923 88.788635 -16.617817 4294967295
187.13383 89.261673 -16.869474 4294967295
187.17873 89.730103 -17.277309 4294967295
187.21472 90.202065 -17.550055 4294967295
187.39645 82.997963 -17.11767 4294967295
187.45081 84.437248 -17.122698 4294967295
187.467 83.945244 -17.643312 4294967295
187.49493 85.880417 -16.972267 4294967295
187.50075 85.391624 -17.334864 4294967295
187.5509 86.832291 -17.276127 4294967295
187.55675 87.804001 -16.816483 4294967295
187.57912 87.307945 -17.431957 4294967295
187.63065 88.748024 -17.394068 4294967295
187.63361 88.259712 -17.713749 4294967295
187.65137 89.226562 -17.435658 4294967295
187.6526 89.713448 -17.179865 4294967295
187.84109 82.991226 -16.571995 4294967295
187.85962 83.957489 -16.304132 4294967295
187.88454 83.462242 -16.96133 4294967295
187.89388 84.91835 -16.276718 4294967295
187.93916 85.388176 -16.694706 4294967295
187.96454 84.405876 -17.635023 4294967295
187.97382 86.34861 -16.673634 4294967295
187.98813 85.856262 -17.169153 4294967295
188.04617 87.293945 -17.230757 4294967295
188.05745 88.263641 -16.851322 4294967295
188.08546 87.764999 -17.557301 4294967295
188.09494 89.222778 -16.874144 4294967295
188.1188 88.725327 -17.516718 4294967295
188.14473 89.688934 -17.362003 4294967295
188.349 83.448753 -16.717064 4294967295
188.35283 82.961227 -17.053358 4294967295
188.39145 83.919861 -17.093611 4294967295
188.40591 85.374153 -16.483961 4294967295
188.41891 84.882584 -16.961943 4294967295
188.44281 84.38739 -17.60771 4294967295
188.44408 86.333344 -16.516655 4294967295
188.45435 85.842438 -16.952942 4294967295
188.49773 87.286217 -16.788961 4294967295
188.52826 87.760971 -16.982241 4294967295
188.5439 88.729202 -16.667542 4294967295
188.55814 88.235847 -17.165276 4294967295
188.60135 89.192245 -17.276381 4294967295
188.63051 89.667084 -17.449057 4294967295
188.64096 90.150063 -17.332247 4294967295
188.84111 83.425453 -16.898964 4294967295
188.8515 83.908035 -16.781055 4294967295
188.93906 86.308357 -16.742573 4294967295
188.94046 85.334335 -17.322876 4294967295
188.94461 85.819351 -17.108147 4294967295
188.96718 86.784218 -16.899158 4294967295
189.01065 87.740784 -17.015385 4294967295
189.01099 87.253555 -17.299992 4294967295
189.06607 89.667168 -16.757151 4294967295
189.06947 88.203491 -17.649004 4294967295
189.06972 89.177956 -17.093578 4294967295
189.08212 88.685295 -17.565849 4294967295
189.11765 90.132172 -17.278826 4294967295
189.27608 83.422562 -16.192984 4294967295
189.34344 84.371101 -16.681774 4294967295
189.35217 83.88147 -17.098457 4294967295
189.3784 85.818192 -16.384127 4294967295
189.39432 84.838608 -17.194452 4294967295
189.43314 86.770691 -16.676088 4294967295
189.46161 87.246315 -16.839508 4294967295
189.4675 86.270073 -17.493982 4294967295
189.50296 87.716461 -17.204384 4294967295
189.51256 88.687103 -16.791615 4294967295
189.52745 89.168304 -16.743086 4294967295
189.53149 88.191734 -17.368658 4294967295
189.5345 89.652985 -16.571638 4294967295
189.57494 90.61087 -16.640434 4294967295
189.77919 83.395294 -16.547697 4294967295
189.79111 82.90477 -17.017086 4294967295
189.83289 83.862122 -17.107962 4294967295
189.87724 84.332001 -17.521267 4294967295
189.88077 85.303581 -17.011522 4294967295
189.8812 85.790207 -16.73543 4294967295
189.89444 84.811836 -17.50872 4294967295
189.9111 86.265312 -16.922396 4294967295
189.95203 86.735832 -17.282532 4294967295
189.98264 87.697334 -17.197916 4294967295
189.99124 88.668442 -16.766829 4294967295
190.0018 89.151512 -16.649521 4294967295
190.04196 89.621613 -16.998194 4294967295
190.06032 90.101189 -17.003937 4294967295
190.07072 90.584389 -16.884432 4294967295
190.25183 83.378937 -16.426685 4294967295
190.25233 82.892403 -16.719131 4294967295
190.29474 83.849716 -16.819891 4294967295
190.341 84.318901 -17.26639 4294967295
190.36784 85.281693 -17.121523 4294967295
190.37462 84.792564 -17.512999 4294967295
190.41455 86.236755 -17.290453 4294967295
190.42548 87.206314 -16.894228 4294967295
190.44751 87.684395 -16.957905 4294967295
190.46155 89.141144 -16.324841 4294967295
190.46182 88.653252 -16.614489 4294967295
190.49191 88.152908 -17.375496 4294967295
190.5719 90.555367 -17.216999 4294967295
190.72527 82.875908 -16.603617 4294967295
190.76552 83.347656 -16.957075 4294967295
190.77556 84.316895 -16.544127 4294967295
190.78159 83.828102 -16.926109 4294967295
190.84056 85.752174 -16.718805 4294967295
190.85469 86.233551 -16.656979 4294967295
190.8609 85.257423 -17.328495 4294967295
190.86569 86.716255 -16.545517 4294967295
190.91084 87.672173 -16.690914 4294967295
190.91447 87.183357 -17.035334 4294967295
190.92438 88.641579 -16.332972 4294967295
190.96278 88.137466 -17.231346 4294967295
190.96442 89.111832 -16.683874 4294967295
191.02051 90.062393 -17.003679 4294967295
191.06155 90.531502 -17.371042 4294967295
191.19717 83.346298 -16.1833 4294967295
191.2088 82.855614 -16.657022 4294967295
191.24921 84.787071 -16.150887 4294967295
191.27444 85.264244 -16.26689 4294967295
191.34134 86.698868 -16.472437 4294967295
191.36185 86.2034 -17.088982 4294967295
191.41344 87.643356 -17.050344 4294967295
191.41586 87.155159 -17.37746 4294967295
191.42966 88.611313 -16.733246 4294967295
191.45238 88.113998 -17.385893 4294967295
191.47208 89.080276 -17.124651 4294967295
191.4991 90.043648 -16.980505 4294967295
191.53995 90.512756 -17.347275 4294967295
191.67926 82.840027 -16.501492 4294967295
191.69388 83.321136 -16.446613 4294967295
191.73409 84.279297 -16.513838 4294967295
191.74666 83.787979 -17.006123 4294967295
191.7652 84.754051 -16.725233 4294967295
191.78096 85.234711 -16.688774 4294967295
191.81203 86.196297 -16.60902 4294967295
191.81891 85.706497 -17.010183 4294967295
191.85237 86.666862 -16.968975 4294967295
191.86632 87.635605 -16.613806 4294967295
191.88388 88.603333 -16.316084 4294967295
191.88936 87.138565 -17.275021 4294967295
191.89307 88.111641 -16.75445 4294967295
191.89902 89.084549 -16.269745 4294967295
191.93832 89.554871 -16.613113 4294967295
191.94536 90.039711 -16.436258 4294967295
191.98129 90.511253 -16.725594 4294967295
192.11595 82.836769 -15.797779 4294967295
192.19196 84.268692 -16.153013 4294967295
192.20317 84.751297 -16.043242 4294967295
192.2197 83.771454 -16.894154 4294967295
192.30611 86.171318 -16.835896 4294967295
192.33893 86.644867 -17.075962 4294967295
192.35199 87.613922 -16.703697 4294967295
192.3924 89.059288 -16.482819 4294967295
192.41461 88.561668 -17.135645 4294967295
192.42249 89.533638 -16.679096 4294967295
192.46312 90.491005 -16.754251 4294967295
192.62106 83.295265 -15.907049 4294967295
192.63771 82.802513 -16.471586 4294967295
192.68564 84.244339 -16.372438 4294967295
192.71451 83.746704 -17.135818 4294967295
192.75304 86.165703 -16.296484 4294967295
192.79596 86.635178 -16.703072 4294967295
192.81343 88.090385 -16.106344 4294967295
192.82669 87.596916 -16.616966 4294967295
192.83463 88.568939 -16.157953 4294967295
192.84767 87.100594 -17.253229 4294967295
192.90346 89.02597 -16.98856 4294967295
192.93599 90.474937 -16.637642 4294967295
192.94412 89.495216 -17.359037 4294967295
192.94777 89.981361 -17.124228 4294967295
193.11488 82.7845 -16.423761 4294967295
193.13948 83.748497 -16.236769 4294967295
193.17239 84.222603 -16.481125 4294967295
193.18753 85.190582 -16.138351 4294967295
193.20094 84.698242 -16.654119 4294967295
193.2421 86.142776 -16.442984 4294967295
193.24779 85.653305 -16.831755 4294967295
193.26944 86.618668 -16.595968 4294967295
193.27423 87.104065 -16.378832 4294967295
193.29147 87.584229 -16.366524 4294967295
193.32169 88.546524 -16.271025 4294967295
193.35924 89.505592 -16.296049 4294967295
193.41132 89.969559 -16.856482 4294967295
193.42587 90.450836 -16.800133 4294967295
193.57277 82.773636 -16.058018 4294967295
193.60953 83.246498 -16.367405 4294967295
193.6347 84.210373 -16.188457 4294967295
193.65433 83.716049 -16.80965 4294967295
193.66284 84.686256 -16.35548 4294967295
193.70297 86.131523 -16.125914 4294967295
193.70767 85.642288 -16.501284 4294967295
193.77861 87.074333 -16.780931 4294967295
193.79901 88.528427 -16.224897 4294967295
193.80185 89.015236 -15.973963 4294967295
193.80717 87.5494 -16.955517 4294967295
193.82428 88.029381 -16.940763 4294967295
193.85069 90.457657 -15.887497 4294967295
193.88519 89.464973 -17.055223 4294967295
193.88792 89.951691 -16.8027 4294967295
194.07153 83.721107 -15.768509 4294967295
194.10739 84.194153 -16.064861 4294967295
194.14723 85.152435 -16.128569 4294967295
194.16827 84.656952 -16.777605 4294967295
194.20166 85.617317 -16.733946 4294967295
194.21036 86.100868 -16.579504 4294967295
194.2179 86.585052 -16.405172 4294967295
194.23447 87.065453 -16.381393 4294967295
194.23616 87.552406 -16.109707 4294967295
194.3356 88.483528 -17.166008 4294967295
194.33734 88.97049 -16.894936 4294967295
194.37102 90.418999 -16.556286 4294967295
194.52266 83.226189 -15.582909 4294967295
194.56107 84.185425 -15.622826 4294967295
194.57219 83.694038 -16.109985 4294967295
194.62215 85.135353 -16.041941 4294967295
194.62921 84.645378 -16.461266 4294967295
194.6973 86.56604 -16.39542 4294967295
194.76187 87.51297 -16.874067 4294967295
194.76801 87.997864 -16.674965 4294967295
194.80292 89.934143 -16.052645 4294967295
194.80688 88.468025 -17.025257 4294967295
194.88266 90.3843 -17.088736 4294967295
195.04115 83.192406 -16.226498 4294967295
195.05643 84.160263 -15.877077 4294967295
195.06435 84.644302 -15.707001 4294967295
195.08234 83.663162 -16.616583 4294967295
195.14282 86.561607 -15.815262 4294967295
195.15678 85.093758 -16.96105 4294967295
195.21039 87.019905 -16.651056 4294967295
195.22337 88.477631 -15.958422 4294967295
195.25224 87.976578 -16.749416 4294967295
195.25487 87.487801 -17.097387 4294967295
195.29211 88.933983 -16.814957 4294967295
195.30299 89.416931 -16.694786 4294967295
195.33357 89.890541 -16.907457 4294967295
195.35591 90.367989 -16.980431 4294967295
195.47496 83.191116 -15.444374 4294967295
195.51866 83.661133 -15.879251 4294967295
195.57053 85.10183 -15.842556 4294967295
195.57535 84.12561 -16.534864 4294967295
195.5764 84.612167 -16.247524 4294967295
195.61725 85.569725 -16.329292 4294967295
195.63077 86.538956 -15.948132 4294967295
195.63408 86.049965 -16.309784 4294967295
195.6525 87.505165 -15.705091 4294967295
195.65967 87.014069 -16.132751 4294967295
195.69385 88.462715 -15.795403 4294967295
195.7025 87.970642 -16.248569 4294967295
195.72266 88.93763 -15.979172 4294967295
195.8177 90.3573 -16.676525 4294967295
195.81856 89.868614 -16.997301 4294967295
195.97395 83.164711 -15.764418 4294967295
195.99229 83.644539 -15.769676 4294967295
196.04021 84.112473 -16.280107 4294967295
196.05188 85.082092 -15.864637 4294967295
196.05901 84.591904 -16.293295 4294967295
196.12201 87.002602 -15.831854 4294967295
196.12462 85.538902 -16.798977 4294967295
196.14798 86.503494 -16.583014 4294967295
196.15944 86.011223 -17.086353 4294967295
196.17274 87.467819 -16.390968 4294967295
196.17635 87.954102 -16.144739 4294967295
196.2041 88.429382 -16.311676 4294967295
196.22325 88.9086 -16.330841 4294967295
196.26022 89.867584 -16.3477 4294967295
196.27957 90.346657 -16.370649 4294967295
196.48335 83.134155 -16.267786 4294967295
196.50385 83.612892 -16.310627 4294967295
196.52707 85.064919 -15.781784 4294967295
196.5417 84.084579 -16.651703 4294967295
196.61005 86.979759 -15.969378 4294967295
196.62004 87.463242 -15.831375 4294967295
196.62434 86.485725 -16.524965 4294967295
196.65968 87.93322 -16.203691 4294967295
196.69997 88.402596 -16.587238 4294967295
196.73181 89.3638 -16.515869 4294967295
196.76306 89.836998 -16.744314 4294967295
196.77777 90.318169 -16.687336 4294967295
196.9617 84.089737 -15.619339 4294967295
196.97319 83.597954 -16.129675 4294967295
197.03621 85.033478 -16.285295 4294967295
197.03711 84.545952 -16.612339 4294967295
197.05191 86.001717 -15.933737 4294967295
197.08353 85.500648 -16.792843 4294967295
197.08957 86.4729 -16.273855 4294967295
197.11403 86.949715 -16.385893 4294967295
197.1158 87.436768 -16.10461 4294967295
197.14813 87.90992 -16.352961 4294967295
197.17047 88.387573 -16.428143 4294967295
197.20813 89.834534 -16.144566 4294967295
197.23112 89.334976 -16.8554 4294967295
197.2731 90.29097 -16.959513 4294967295
197.42323 83.10376 -15.92454 4294967295
197.43541 84.073174 -15.509138 4294967295
197.47588 83.569656 -16.527302 4294967295
197.53079 85.008034 -16.54344 4294967295
197.53282 84.520111 -16.891972 4294967295
197.5448 85.489326 -16.473768 4294967295
197.55255 86.461121 -15.981234 4294967295
197.58151 87.912186 -15.543385 4294967295
197.61279 87.409622 -16.403875 4294967295
197.62311 86.917206 -16.897758 4294967295
197.65843 88.852547 -16.257822 4294967295
197.66336 88.362022 -16.6581 4294967295
197.67497 89.821548 -15.917475 4294967295
197.68724 90.304245 -15.817413 4294967295
197.6963 89.322594 -16.604668 4294967295
197.94725 83.553886 -16.382481 4294967295
197.97499 84.029495 -16.553474 4294967295
197.99472 85.483002 -15.952068 4294967295
198.01663 84.986198 -16.652472 4294967295
198.05359 86.920204 -16.036917 4294967295
198.07704 87.397446 -16.132734 4294967295
198.0818 86.419769 -16.848747 4294967295
198.11142 87.869514 -16.420645 4294967295
198.12697 89.327164 -15.744183 4294967295
198.1398 88.83242 -16.286411 4294967295
198.1868 90.274948 -16.163052 4294967295
198.19803 89.780731 -16.677095 4294967295
198.39891 83.059166 -16.206276 4294967295
198.43094 84.020164 -16.13575 4294967295
198.44157 83.528778 -16.64188 4294967295
198.44537 84.501358 -16.072903 4294967295
198.46373 84.980942 -16.079134 4294967295
198.48779 85.945686 -15.867767 4294967295
198.49052 85.456833 -16.234514 4294967295
198.52271 86.905807 -15.848377 4294967295
198.5905 87.362534 -16.729095 4294967295
198.60724 88.330673 -16.388353 4294967295
198.60788 88.818695 -16.080923 4294967295
156.77455 100.57263 -17.937616 4294967295
156.78873 99.103088 -18.688438 4294967295
156.83662 100.05943 -18.81867 4294967295
156.8401 102.49889 -17.864832 4294967295
156.85556 102.00389 -18.233688 4294967295
156.88644 102.96761 -18.176443 4294967295
156.90128 101.49656 -18.935173 4294967295
156.90527 104.42555 -17.787916 4294967295
156.9222 103.92929 -18.172943 4294967295
156.92741 103.43841 -18.429214 4294967295
156.94687 105.3849 -17.84873 4294967295
157.00415 94.308365 -17.732426 4294967295
157.00964 93.81926 -17.991999 4294967295
157.01237 91.384903 -19.015301 4294967295
157.02296 92.354248 -18.734955 4294967295
157.02463 104.8611 -18.904003 4294967295
157.03951 92.835266 -18.718674 4294967295
157.05228 107.29288 -18.21533 4294967295
157.06671 106.30807 -18.772003 4294967295
157.0708 105.81744 -19.015757 4294967295
157.07845 106.79155 -18.702469 4294967295
157.09511 96.22509 -17.93977 4294967295
157.09682 95.73703 -18.157509 4294967295
157.10643 96.708435 -17.86574 4294967295
157.11682 107.75156 -18.728268 4294967295
157.13403 95.236336 -18.766993 4294967295
157.15541 98.153023 -17.808989 4294967295
157.16536 97.173813 -18.317062 4294967295
157.21449 97.642586 -18.660421 4294967295
157.24377 99.581978 -18.187145 4294967295
157.32068 101.50294 -18.239952 4294967295
157.32471 100.52508 -18.682976 4294967295
157.32773 101.01183 -18.517153 4294967295
157.37872 101.96675 -18.682159 4294967295
157.41185 103.90611 -18.25095 4294967295
157.42285 90.902367 -18.420965 4294967295
157.45534 104.37552 -18.532545 4294967295
157.45804 92.350586 -18.211746 4294967295
157.46687 103.39351 -19.059093 4294967295
157.47832 91.370743 -18.83498 4294967295
157.48537 105.33945 -18.465942 4294967295
157.48627 94.776306 -17.525553 4294967295
157.48711 104.84993 -18.684656 4294967295
157.49998 92.823158 -18.476206 4294967295
157.51855 94.277534 -18.082903 4294967295
157.55399 106.77457 -18.626707 4294967295
157.56712 95.72184 -18.021536 4294967295
157.57373 107.74348 -18.446056 4294967295
157.57988 93.769058 -18.961733 4294967295
157.58983 107.24673 -18.823921 4294967295
157.59375 96.199432 -18.116873 4294967295
157.61153 97.167877 -17.914083 4294967295
157.61781 95.216148 -18.782906 4294967295
157.6859 98.602386 -18.138691 4294967295
157.69324 98.111778 -18.420155 4294967295
157.70171 99.084015 -18.113895 4294967295
157.71034 100.05668 -17.809582 4294967295
157.72357 97.612541 -18.956345 4294967295
157.77458 99.542702 -18.72233 4294967295
157.79863 100.50865 -18.589212 4294967295
157.81166 100.99129 -18.533663 4294967295
157.83684 103.42266 -17.811968 4294967295
157.85823 101.948 -18.650532 4294967295
157.89311 91.373405 -18.085112 4294967295
157.89581 104.37418 -18.066355 4294967295
157.90822 103.87994 -18.404598 4294967295
157.90892 102.41452 -19.013111 4294967295
157.93227 105.82462 -17.870024 4294967295
157.9328 102.89237 -19.078175 4294967295
157.94855 92.328346 -18.300472 4294967295
157.97557 104.8271 -18.752357 4294967295
157.98039 93.2911 -18.253683 4294967295
157.98376 93.776924 -18.090393 4294967295
157.99091 106.2866 -18.321608 4294967295
157.99597 106.77335 -18.177299 4294967295
158.00583 105.30201 -18.888426 4294967295
158.02034 94.251068 -18.296627 4294967295
158.03345 95.70813 -17.840561 4294967295
158.03563 107.24384 -18.417929 4294967295
158.09467 96.660316 -18.120367 4294967295
158.10483 97.144043 -18.032833 4294967295
158.17154 97.606003 -18.574785 4294967295
158.18158 98.089676 -18.485785 4294967295
158.20721 98.567245 -18.570675 4294967295
158.22449 100.02393 -18.160328 4294967295
158.24991 101.47816 -17.840574 4294967295
158.25563 99.03566 -18.909201 4294967295
158.27324 102.44533 -17.698208 4294967295
158.29924 101.94566 -18.18943 4294967295
158.31268 100.9636 -18.74132 4294967295
158.31584 100.47436 -18.977686 4294967295
158.31656 102.91521 -17.980194 4294967295
158.32549 103.88883 -17.677324 4294967295
158.33662 103.3951 -18.002941 4294967295
158.40446 91.344398 -18.406826 4294967295
158.42113 105.31254 -18.140995 4294967295
158.42601 93.284332 -17.842043 4294967295
158.4353 104.81723 -18.500408 4294967295
158.43707 106.28336 -17.916187 4294967295
158.44803 94.250969 -17.684715 4294967295
158.4509 92.788795 -18.321373 4294967295
158.46019 94.733948 -17.619307 4294967295
158.46034 104.31731 -18.981295 4294967295
158.47583 105.77631 -18.550402 4294967295
158.49121 92.288422 -18.972643 4294967295
158.49236 107.72523 -17.929232 4294967295
158.49734 95.207863 -17.832964 4294967295
158.52463 96.172791 -17.734613 4294967295
158.53735 93.732292 -18.884398 4294967295
158.54451 107.21105 -18.713493 4294967295
158.55922 95.67247 -18.322895 4294967295
158.58214 96.638695 -18.175909 4294967295
158.60307 97.118279 -18.208139 4294967295
158.6619 98.070686 -18.462908 4294967295
158.66837 97.58062 -18.736984 4294967295
158.67964 99.039162 -18.258036 4294967295
158.70016 98.543221 -18.689581 4294967295
158.72781 99.507599 -18.59524 4294967295
158.74571 99.988159 -18.593792 4294967295
158.77016 101.93064 -18.060019 4294967295
158.78407 100.46025 -18.82156 4294967295
158.79823 102.89558 -17.970545 4294967295
158.80156 101.42896 -18.613525 4294967295
158.80284 100.94035 -18.829956 4294967295
158.86417 103.35521 -18.507044 4294967295
158.86584 102.37778 -18.929945 4294967295
158.86658 103.84272 -18.332201 4294967295
158.87689 90.84169 -18.497515 4294967295
158.8795 91.327332 -18.324606 4294967295
158.89435 91.808998 -18.288982 4294967295
158.92323 92.772697 -18.208384 4294967295
158.94037 104.78679 -18.755384 4294967295
158.96007 105.75529 -18.571789 4294967295
158.96628 107.21975 -18.034603 4294967295
158.97466 94.702774 -17.976162 4294967295
158.97673 92.267738 -19.010469 4294967295
158.98569 94.211647 -18.302172 4294967295
158.98613 95.185928 -17.902361 4294967295
158.992 107.69678 -18.120951 4294967295
158.99379 93.235023 -18.797562 4294967295
159.01259 93.715149 -18.80633 4294967295
159.0144 96.638054 -17.612123 4294967295
159.02196 106.21527 -19.06391 4294967295
159.03009 106.70029 -18.952902 4294967295
159.05833 96.133881 -18.308048 4294967295
159.0668 95.643433 -18.605606 4294967295
159.10925 97.576935 -18.272449 4294967295
159.13062 98.056244 -18.310041 4294967295
159.14777 97.07457 -18.907578 4294967295
159.18185 99.011353 -18.480547 4294967295
159.19072 99.495628 -18.377562 4294967295
159.20932 99.975967 -18.38402 4294967295
159.23163 101.43122 -18.026415 4294967295
159.23398 100.94192 -18.255623 4294967295
159.26384 101.90584 -18.186092 4294967295
159.26546 100.4407 -18.812437 4294967295
159.29471 90.843353 -17.771618 4294967295
159.32074 103.8353 -18.014429 4294967295
159.34587 103.33545 -18.500347 4294967295
159.36092 91.794792 -18.110931 4294967295
159.3824 104.2963 -18.505718 4294967295
159.39488 102.82549 -19.254883 4294967295
159.39716 91.296097 -18.72225 4294967295
159.40082 105.26551 -18.307037 4294967295
159.41014 92.264816 -18.462517 4294967295
159.42746 92.745583 -18.454376 4294967295
159.43979 104.75884 -18.948975 4294967295
159.45464 93.709785 -18.354313 4294967295
159.46002 107.19413 -18.161522 4294967295
159.46893 106.70067 -18.465275 4294967295
159.47151 105.72157 -18.900478 4294967295
159.48221 107.6728 -18.208353 4294967295
159.49796 95.155464 -18.232735 4294967295
159.49928 94.180809 -18.654337 4294967295
159.52303 96.120834 -18.108837 4294967295
159.5518 95.622719 -18.636854 4294967295
159.56575 96.592072 -18.387457 4294967295
159.58476 97.07225 -18.398533 4294967295
159.59828 97.554565 -18.347713 4294967295
159.60092 98.041214 -18.174067 4294967295
159.65009 99.485153 -18.118279 4294967295
159.70189 99.951851 -18.499655 4294967295
159.7384 100.91269 -18.504782 4294967295
159.73901 100.42439 -18.715403 4294967295
159.7581 101.39248 -18.523888 4294967295
159.77026 102.3639 -18.253817 4294967295
159.80766 103.81324 -18.064989 4294967295
159.80786 90.813789 -18.117819 4294967295
159.82423 91.294983 -18.099222 4294967295
159.8244 91.781662 -17.897232 4294967295
159.87318 105.25001 -18.194292 4294967295
159.91129 106.21032 -18.217297 4294967295
159.91141 104.255 -19.034466 4294967295
159.93112 104.73453 -19.05369 4294967295
159.93228 107.17882 -18.046824 4294967295
159.93701 93.203278 -18.559214 4294967295
159.93764 106.68697 -18.311554 4294967295
159.93924 93.689369 -18.380331 4294967295
159.97206 95.13884 -18.139566 4294967295
159.97768 94.649574 -18.407351 4294967295
159.99934 96.590996 -17.835808 4294967295
160.00909 95.612358 -18.354954 4294967295
160.0453 96.086014 -18.560982 4294967295
160.0547 97.057281 -18.258911 4294967295
160.071 98.514221 -17.830011 4294967295
160.0927 98.993477 -17.871855 4294967295
160.15982 100.43024 -18.019405 4294967295
160.16522 99.451843 -18.48991 4294967295
160.18684 99.930847 -18.530664 4294967295
160.24095 101.37228 -18.530937 4294967295
160.25201 100.87946 -18.861233 4294967295
160.25775 101.85329 -18.517084 4294967295
160.29889 102.32364 -18.779661 4294967295
160.30617 104.27473 -18.043085 4294967295
160.30721 90.788704 -18.310942 4294967295
160.33614 92.725906 -17.820124 4294967295
160.33698 105.23853 -17.983398 4294967295
160.34129 103.28155 -18.851921 4294967295
160.35182 91.260353 -18.613054 4294967295
160.35574 102.78685 -19.220524 4294967295
160.35684 103.76303 -18.823717 4294967295
160.35706 92.231789 -18.26281 4294967295
160.37936 91.737541 -18.721062 4294967295
160.40907 94.161308 -18.034206 4294967295
160.42287 106.17628 -18.549896 4294967295
160.43036 95.12809 -17.866028 4294967295
160.43425 106.65993 -18.474384 4294967295
160.43558 94.638855 -18.130541 4294967295
160.4418 93.175713 -18.816446 4294967295
160.44327 93.661972 -18.628189 4294967295
160.45125 107.63026 -18.257565 4294967295
160.5257 96.066986 -18.540554 4294967295
160.52858 95.578682 -18.778431 4294967295
160.53461 97.526138 -18.026134 4294967295
160.55713 98.004997 -18.077589 4294967295
160.58928 97.017174 -18.854115 4294967295
160.59244 98.478676 -18.274382 4294967295
160.63286 100.41426 -17.913095 4294967295
160.64381 98.945641 -18.654211 4294967295
160.68433 99.416771 -18.910475 4294967295
160.69363 100.87677 -18.40019 4294967295
160.72479 101.83991 -18.344387 4294967295
160.73105 102.32561 -18.210253 4294967295
160.74219 101.34413 -18.748398 4294967295
160.76556 91.26384 -17.832838 4294967295
160.79466 103.76305 -18.318768 4294967295
160.80219 104.24841 -18.198982 4294967295
160.82777 90.756523 -18.748426 4294967295
160.83179 102.76946 -19.153666 4294967295
160.8343 104.72249 -18.359777 4294967295
160.86655 92.20285 -18.573923 4294967295
160.86732 105.19601 -18.530903 4294967295
160.87718 92.685852 -18.489283 4294967295
160.89746 105.67075 -18.669317 4294967295
160.90956 106.64309 -18.395695 4294967295
160.91951 93.157684 -18.766966 4294967295
160.93002 106.14423 -18.835337 4294967295
160.94684 94.121521 -18.667618 4294967295
160.95215 107.11166 -18.676525 4294967295
160.97282 95.573265 -18.346437 4294967295
160.98697 97.030396 -17.889885 4294967295
160.99588 107.57947 -18.970125 4294967295
161.00409 96.536125 -18.291725 4294967295
161.00999 96.046455 -18.565496 4294967295
161.02304 97.991783 -17.889788 4294967295
161.08139 97.480873 -18.763533 4294967295
161.11456 99.41835 -18.318186 4294967295
161.13051 99.89975 -18.294355 4294967295
161.15175 98.915245 -18.949894 4294967295
161.1656 100.37305 -18.489574 4294967295
161.18993 101.33903 -18.355444 4294967295
161.22066 103.27971 -17.881147 4294967295
161.22758 100.8347 -18.993113 4294967295
161.22951 102.29848 -18.395844 4294967295
161.25851 101.79745 -18.934753 4294967295
161.26891 103.74664 -18.227547 4294967295
161.27333 91.722511 -17.917122 4294967295
161.28299 91.232521 -18.234444 4294967295
161.29408 104.2239 -18.309532 4294967295
161.295 90.741997 -18.578648 4294967295
161.35103 104.68636 -18.755785 4294967295
161.36685 92.663635 -18.575891 4294967295
161.39099 106.62326 -18.387306 4294967295
161.3933 94.602089 -18.052074 4294967295
161.39615 94.113861 -18.291918 4294967295
161.40656 106.12672 -18.772478 4294967295
161.41426 105.6342 -19.06753 4294967295
161.41959 93.131683 -18.974371 4294967295
161.43446 93.61306 -18.938133 4294967295
161.44424 107.08659 -18.791475 4294967295
161.44624 95.5569 -18.245974 4294967295
161.49077 95.052971 -18.964071 4294967295
161.53546 97.959892 -18.235567 4294967295
161.54236 97.46946 -18.521875 4294967295
161.54399 96.494019 -18.954615 4294967295
161.56528 98.923523 -18.163824 4294967295
161.59204 98.424759 -18.678558 4294967295
161.6214 99.38826 -18.601709 4294967295
161.66922 100.34402 -18.737347 4294967295
161.67734 101.31682 -18.415775 4294967295
161.71225 100.81363 -19.024893 4294967295
161.72966 90.738358 -18.033253 4294967295
161.75394 101.77158 -19.089981 4294967295
161.75815 102.25789 -18.931147 4294967295
161.76604 103.23115 -18.606897 4294967295
161.77248 91.210541 -18.318624 4294967295
161.77777 103.71442 -18.534662 4294967295
161.8073 104.18952 -18.667007 4294967295
161.80988 104.67708 -18.489073 4294967295
161.81815 92.654945 -18.22171 4294967295
161.83954 105.64098 -18.415506 4294967295
161.84921 93.617775 -18.164198 4294967295
161.85222 93.129715 -18.406727 4294967295
161.88808 105.12917 -19.182623 4294967295
161.89662 106.1027 -18.865793 4294967295
161.90231 94.572502 -18.361027 4294967295
161.90791 106.58624 -18.788202 4294967295
161.91161 95.056252 -18.260201 4294967295
161.91316 107.56209 -18.433064 4294967295
161.9248 107.06711 -18.774958 4294967295
161.92685 95.537811 -18.227976 4294967295
161.94691 94.069107 -19.082926 4294967295
161.96747 96.009621 -18.488653 4294967295
162.00166 98.434486 -17.843061 4294967295
162.01376 96.479019 -18.815016 4294967295
162.01738 98.916115 -17.816315 4294967295
162.04111 97.930641 -18.506578 4294967295
162.07826 99.378899 -18.311262 4294967295
162.09439 99.860176 -18.289257 4294967295
