# .PCD v0.7 - Point Cloud Data file format
VERSION 0.7
FIELDS x y z rgb
SIZE 4 4 4 4
TYPE F F F U
COUNT 1 1 1 1
WIDTH 1121
HEIGHT 1
VIEWPOINT 0 0 0 1 0 0 0
POINTS 1121
DATA ascii
74.29911 -22.18224 -77.883354 4294967295
74.369766 -34.835556 -75.502586 4294967295
74.437523 -26.416273 -76.846283 4294967295
74.45462 -32.981529 -75.59668 4294967295
74.45813 -27.315063 -77.177505 4294967295
74.475105 -24.130342 -76.552818 4294967295
74.479324 -32.062649 -75.537094 4294967295
74.513405 -25.476559 -77.094406 4294967295
74.532707 -23.198318 -76.691177 4294967295
74.533508 -22.743721 -76.592026 4294967295
74.561409 -33.839535 -76.446625 4294967295
74.574509 -24.543344 -77.253876 4294967295
74.609863 -37.678505 -74.758949 4294967295
74.639961 -22.246529 -77.127953 4294967295
74.644875 -31.534164 -76.428665 4294967295
74.648956 -20.425766 -76.766464 4294967295
74.658508 -29.713238 -76.094658 4294967295
74.669159 -21.780666 -77.199608 4294967295
74.686401 -23.589588 -77.718521 4294967295
74.686958 -30.608105 -76.473785 4294967295
74.748291 -27.4044 -76.114456 4294967295
74.807518 -35.316269 -75.428123 4294967295
74.851715 -28.721052 -77.049072 4294967295
74.880722 -34.828381 -75.764923 4294967295
74.886459 -25.075413 -76.425804 4294967295
74.995087 -34.321571 -76.34977 4294967295
75.006668 -24.571329 -77.045593 4294967295
75.041473 -30.217869 -75.691132 4294967295
75.056221 -32.479786 -76.301399 4294967295
75.098465 -29.284775 -75.826126 4294967295
75.125885 -37.668213 -75.05072 4294967295
75.134468 -27.452766 -75.625877 4294967295
75.14801 -20.426926 -76.960091 4294967295
75.195755 -27.880409 -76.099976 4294967295
75.20211 -36.724583 -75.301895 4294967295
75.447311 -31.166569 -75.528732 4294967295
75.458511 -26.406248 -77.372551 4294967295
75.461624 -24.58988 -76.97422 4294967295
75.476334 -25.491377 -77.271584 4294967295
75.478203 -34.327274 -76.446907 4294967295
75.482414 -32.058182 -75.950005 4294967295
75.489624 -23.21628 -76.830193 4294967295
75.498985 -23.666498 -76.991119 4294967295
75.506073 -22.301266 -76.720787 4294967295
75.506737 -31.593502 -75.99247 4294967295
75.519875 -21.387121 -76.595337 4294967295
75.549904 -30.666679 -76.04435 4294967295
75.592728 -37.228123 -74.941864 4294967295
75.595901 -20.448208 -76.845772 4294967295
75.64415 -27.448006 -75.882103 4294967295
75.647903 -29.715651 -76.427628 4294967295
75.666908 -28.346039 -76.228943 4294967295
75.673531 -36.282303 -75.221405 4294967295
75.682831 -26.523207 -75.906845 4294967295
75.693344 -34.45837 -74.922211 4294967295
75.734268 -35.346416 -75.379578 4294967295
75.740776 -25.136095 -75.94352 4294967295
75.755531 -33.06797 -74.984352 4294967295
75.764374 -36.692173 -75.8759 4294967295
75.771729 -24.668892 -76.026161 4294967295
75.844345 -23.275965 -76.151634 4294967295
75.888519 -32.099342 -75.580223 4294967295
75.994392 -30.236454 -75.80246 4294967295
76.087112 -35.86758 -74.789818 4294967295
76.127617 -20.436323 -77.238846 4294967295
76.318932 -33.036915 -75.566574 4294967295
76.448875 -29.347767 -75.515205 4294967295
76.464821 -36.831184 -74.453987 4294967295
76.469376 -31.607231 -76.165009 4294967295
76.483147 -23.672869 -77.298607 4294967295
76.501404 -30.231987 -76.044495 4294967295
76.539413 -28.399971 -75.85508 4294967295
76.547501 -36.337765 -74.85154 4294967295
76.548561 -27.942019 -75.805618 4294967295
76.584679 -29.741167 -76.44529 4294967295
76.602341 -35.85796 -75.079834 4294967295
76.607826 -27.462296 -76.060669 4294967295
76.614189 -37.212395 -75.467613 4294967295
76.670883 -26.527243 -76.233688 4294967295
76.698036 -33.998428 -75.240921 4294967295
76.737 -24.683126 -76.21524 4294967295
76.756157 -33.064091 -75.384018 4294967295
76.765823 -25.578934 -76.600708 4294967295
76.799095 -26.018566 -76.908127 4294967295
76.821594 -32.580238 -75.676979 4294967295
76.830963 -22.82752 -76.366066 4294967295
76.862801 -20.542767 -76.033806 4294967295
76.915863 -21.884525 -76.672279 4294967295
76.916473 -32.083096 -76.149223 4294967295
76.917015 -37.758957 -74.570969 4294967295
76.976997 -20.95154 -76.833954 4294967295
77.010429 -21.39222 -77.14257 4294967295
77.035965 -27.492712 -75.823837 4294967295
77.061218 -34.968025 -74.816895 4294967295
77.204895 -31.724655 -74.954224 4294967295
77.259888 -30.791801 -75.078636 4294967295
77.353775 -24.179981 -77.023293 4294967295
77.46769 -37.731316 -75.078934 4294967295
77.47673 -29.333004 -76.085556 4294967295
77.492172 -36.812737 -75.017044 4294967295
77.502731 -28.414055 -76.033195 4294967295
77.508804 -27.049755 -75.753387 4294967295
77.556236 -25.667164 -75.726128 4294967295
77.566978 -26.11665 -75.897461 4294967295
77.586891 -35.406975 -75.278648 4294967295
77.643944 -31.750988 -74.780922 4294967295
77.646606 -34.471771 -75.432266 4294967295
77.668938 -24.711201 -76.203468 4294967295
77.70752 -33.536243 -75.593117 4294967295
77.712784 -21.967669 -75.837273 4294967295
77.724213 -21.508566 -75.801437 4294967295
77.733139 -22.867949 -76.173195 4294967295
77.749741 -30.79495 -75.216423 4294967295
77.772766 -32.145466 -75.674828 4294967295
77.775238 -33.957767 -76.112946 4294967295
77.785728 -22.392155 -76.388939 4294967295
77.789436 -31.230625 -75.565147 4294967295
77.812538 -29.858904 -75.388977 4294967295
77.815872 -21.017151 -76.25621 4294967295
77.826561 -23.737251 -76.955551 4294967295
77.846962 -32.56456 -76.234474 4294967295
77.857803 -20.091618 -76.301224 4294967295
77.891846 -28.461927 -75.556717 4294967295
77.942291 -30.254124 -76.28878 4294967295
77.961151 -35.918228 -74.815025 4294967295
77.994171 -27.055334 -75.865501 4294967295
78.036484 -24.312557 -75.489037 4294967295
78.120384 -25.63924 -76.320778 4294967295
78.335495 -21.917828 -76.791634 4294967295
78.392136 -21.440779 -77.03286 4294967295
78.478424 -26.60745 -75.865402 4294967295
78.509666 -23.414982 -75.313713 4294967295
78.514549 -34.076187 -74.91832 4294967295
78.560913 -32.239723 -74.77774 4294967295
78.578522 -23.840502 -75.842972 4294967295
78.591499 -35.399586 -75.710075 4294967295
78.611053 -24.734892 -76.25518 4294967295
78.614136 -31.761337 -74.998573 4294967295
78.623322 -32.664398 -75.267807 4294967295
78.63485 -25.63238 -76.613571 4294967295
78.65918 -22.444368 -76.019768 4294967295
78.677139 -33.09272 -75.704895 4294967295
78.681816 -30.368973 -75.09549 4294967295
78.736679 -21.504196 -76.28344 4294967295
78.79174 -36.902058 -74.387283 4294967295
78.819466 -30.759958 -76.048355 4294967295
78.828163 -37.790901 -74.824631 4294967295
78.839119 -20.55439 -76.7006 4294967295
78.843315 -28.481167 -75.663284 4294967295
78.87339 -37.315403 -74.99649 4294967295
78.885742 -28.915966 -76.030632 4294967295
78.897476 -27.095764 -75.67717 4294967295
78.907303 -27.999065 -75.9505 4294967295
78.912659 -36.389698 -75.025215 4294967295
78.954987 -34.102158 -74.752975 4294967295
78.977127 -25.245417 -75.741753 4294967295
79.045219 -31.337545 -74.668999 4294967295
79.088608 -22.927805 -75.895752 4294967295
79.090553 -34.944225 -75.801216 4294967295
79.119843 -20.643167 -75.555443 4294967295
79.239105 -29.434029 -75.43763 4294967295
79.272552 -26.695433 -75.00367 4294967295
79.301941 -35.080162 -74.223618 4294967295
79.482399 -26.150261 -76.191666 4294967295
79.49691 -31.35812 -74.572418 4294967295
79.506767 -24.778246 -76.022003 4294967295
79.512642 -34.072411 -75.31102 4294967295
79.529823 -21.589167 -75.416908 4294967295
79.538925 -22.039848 -75.579956 4294967295
79.540451 -33.15247 -75.26902 4294967295
79.556511 -32.691463 -75.261421 4294967295
79.596451 -25.193707 -76.682121 4294967295
79.60672 -20.194452 -75.571396 4294967295
79.624863 -31.752644 -75.469864 4294967295
79.629776 -29.935778 -75.072685 4294967295
79.662392 -22.443045 -76.449104 4294967295
79.687859 -27.185886 -74.78981 4294967295
79.691559 -29.454039 -75.34761 4294967295
79.72464 -36.022263 -74.160812 4294967295
79.747017 -37.824806 -74.727707 4294967295
79.757469 -28.516937 -75.541206 4294967295
79.7854 -35.085659 -74.322548 4294967295
79.812531 -27.584927 -75.667801 4294967295
79.831581 -26.214901 -75.464699 4294967295
79.832016 -25.760677 -75.36042 4294967295
79.848564 -32.786938 -74.17762 4294967295
79.856216 -37.31765 -75.296295 4294967295
79.866364 -24.837685 -75.358856 4294967295
79.872734 -28.011927 -76.146935 4294967295
79.897705 -36.844212 -75.445953 4294967295
79.900391 -34.123451 -74.820053 4294967295
79.900665 -26.638668 -75.998978 4294967295
79.900833 -35.48333 -75.144226 4294967295
80.020576 -22.955942 -75.885071 4294967295
80.187874 -21.070538 -76.492615 4294967295
80.189262 -20.16169 -76.287216 4294967295
80.333023 -33.699635 -74.498154 4294967295
80.376236 -26.19463 -75.946404 4294967295
80.446236 -23.441034 -75.737137 4294967295
80.496254 -24.327753 -76.261902 4294967295
80.510811 -32.255116 -75.279564 4294967295
80.531471 -31.792007 -75.300446 4294967295
80.538513 -21.131733 -75.773232 4294967295
80.542732 -22.492493 -76.121307 4294967295
80.549408 -29.061562 -74.76709 4294967295
80.551857 -28.606489 -74.674767 4294967295
80.555573 -30.420158 -75.127853 4294967295
80.594917 -21.562778 -76.230659 4294967295
80.607864 -28.127428 -74.915199 4294967295
80.624733 -37.425941 -74.267456 4294967295
80.62748 -36.517765 -74.069267 4294967295
80.643585 -29.472704 -75.459663 4294967295
80.659943 -27.650288 -75.131371 4294967295
80.690445 -20.161556 -76.50174 4294967295
80.696709 -34.216087 -73.96125 4294967295
80.726089 -25.805202 -75.112312 4294967295
80.727951 -26.258442 -75.231438 4294967295
80.762726 -35.091423 -74.587456 4294967295
80.794785 -27.136759 -75.861839 4294967295
80.825516 -34.607712 -74.870384 4294967295
80.827988 -31.431095 -74.131699 4294967295
80.828194 -24.39892 -75.424561 4294967295
80.876984 -32.769363 -74.759949 4294967295
80.947868 -23.44001 -75.953712 4294967295
80.956551 -20.256594 -75.254524 4294967295
81.157867 -24.925699 -74.676956 4294967295
81.194145 -28.087543 -75.657654 4294967295
81.268799 -35.992126 -75.045662 4294967295
81.292107 -26.683126 -75.944824 4294967295
81.333801 -25.303749 -75.881454 4294967295
81.363792 -30.051012 -74.23465 4294967295
81.374969 -23.470461 -75.706924 4294967295
81.380859 -22.105532 -75.420143 4294967295
81.486183 -20.244959 -75.645622 4294967295
81.503052 -21.600662 -76.074478 4294967295
81.533142 -28.158401 -74.859688 4294967295
81.534485 -29.519098 -75.192238 4294967295
81.559219 -27.69281 -74.914497 4294967295
81.581306 -36.534634 -74.18824 4294967295
81.625488 -36.966 -74.572601 4294967295
81.638206 -26.749912 -75.191772 4294967295
81.642227 -35.14452 -74.244377 4294967295
81.672997 -37.395405 -74.977592 4294967295
81.67852 -24.916229 -75.011322 4294967295
81.703934 -34.20768 -74.41375 4294967295
81.728661 -32.835121 -74.243553 4294967295
81.774063 -35.533428 -75.176781 4294967295
81.7957 -23.503687 -75.419327 4294967295
81.843658 -33.233883 -75.071167 4294967295
81.871849 -22.109215 -75.571053 4294967295
81.877289 -30.950651 -74.740303 4294967295
81.901901 -23.0047 -75.975182 4294967295
81.913757 -31.840645 -75.185005 4294967295
81.92601 -22.540609 -76.017807 4294967295
81.970787 -30.45372 -75.217125 4294967295
82.005188 -20.237509 -75.972427 4294967295
82.037697 -37.45966 -74.336952 4294967295
82.058754 -25.875885 -74.684677 4294967295
82.121292 -33.791389 -73.992805 4294967295
82.22374 -34.64875 -74.852081 4294967295
82.266159 -23.969835 -75.550575 4294967295
82.293137 -21.233322 -75.069183 4294967295
82.340065 -30.058605 -74.496346 4294967295
82.393028 -36.621899 -73.416786 4294967295
82.496765 -27.264368 -74.828217 4294967295
82.501755 -29.077076 -75.293823 4294967295
82.55542 -20.217165 -76.496994 4294967295
82.567894 -26.324951 -75.05748 4294967295
82.591339 -37.429367 -74.879982 4294967295
82.59259 -34.256271 -74.126671 4294967295
82.596062 -25.404663 -75.017151 4294967295
82.600388 -27.671715 -75.587311 4294967295
82.608757 -24.490986 -74.879532 4294967295
82.61351 -35.152878 -74.475677 4294967295
82.634323 -36.048988 -74.823967 4294967295
82.661087 -35.582714 -74.883369 4294967295
82.682137 -25.820837 -75.666267 4294967295
82.682358 -31.49152 -74.037941 4294967295
82.693871 -32.393482 -74.328049 4294967295
82.711975 -33.745174 -74.768211 4294967295
82.732574 -22.167223 -75.113991 4294967295
82.755318 -30.095997 -74.170151 4294967295
82.762764 -21.700319 -75.194992 4294967295
82.77697 -23.056757 -75.61039 4294967295
82.798164 -23.955475 -75.960709 4294967295
82.842697 -31.869539 -75.155022 4294967295
82.849289 -23.479836 -76.173302 4294967295
82.8787 -20.743795 -75.706367 4294967295
82.93924 -21.172821 -76.195518 4294967295
82.964233 -37.48975 -74.287819 4294967295
83.011124 -28.164028 -75.344101 4294967295
83.01812 -25.437906 -74.73481 4294967295
83.040657 -24.519819 -74.658882 4294967295
83.22261 -33.284103 -74.934479 4294967295
83.248314 -32.365231 -74.878349 4294967295
83.269676 -29.633783 -74.358376 4294967295
83.287613 -20.781454 -75.342682 4294967295
83.320587 -22.130011 -75.877365 4294967295
83.358322 -28.231766 -74.590065 4294967295
83.386124 -26.403372 -74.32869 4294967295
83.513191 -33.382374 -73.820724 4294967295
83.520477 -36.098969 -74.522789 4294967295
83.549355 -34.271839 -74.267921 4294967295
83.549812 -32.911137 -73.942673 4294967295
83.55822 -23.14904 -74.65033 4294967295
83.563156 -24.055315 -74.900002 4294967295
83.582436 -25.862541 -75.458488 4294967295
83.583649 -32.441315 -74.047112 4294967295
83.589211 -23.589983 -74.955292 4294967295
83.67276 -30.584476 -74.172684 4294967295
83.684204 -22.641253 -75.336685 4294967295
83.698341 -20.818462 -74.988991 4294967295
83.769257 -31.446222 -75.001404 4294967295
83.797241 -30.072803 -74.850258 4294967295
83.806877 -29.161156 -74.692345 4294967295
83.809097 -28.706429 -74.596954 4294967295
83.823471 -29.607113 -74.906647 4294967295
83.825111 -27.791491 -74.47937 4294967295
83.848312 -25.965 -74.188164 4294967295
83.849808 -36.634064 -73.760933 4294967295
83.867844 -37.078247 -73.984665 4294967295
83.911156 -35.696857 -73.930092 4294967295
83.94722 -25.013187 -74.595055 4294967295
83.977966 -24.545666 -74.680046 4294967295
84.041084 -25.425911 -75.298576 4294967295
84.074203 -23.595856 -75.070267 4294967295
84.204582 -20.361616 -75.129211 4294967295
84.208786 -31.472467 -74.828674 4294967295
84.368149 -35.261742 -73.755493 4294967295
84.375854 -28.220594 -75.120163 4294967295
84.380348 -27.311293 -74.929276 4294967295
84.473618 -32.489208 -73.765533 4294967295
84.509918 -32.018181 -73.886169 4294967295
84.52095 -33.373383 -74.286072 4294967295
84.528053 -24.069103 -75.098206 4294967295
84.529205 -23.614618 -74.995697 4294967295
84.536835 -31.098009 -73.837151 4294967295
84.569016 -22.235262 -74.919044 4294967295
84.588676 -21.772738 -74.934021 4294967295
84.659348 -37.630108 -73.186615 4294967295
84.709175 -20.813908 -75.479523 4294967295
84.726227 -20.352697 -75.478073 4294967295
84.738068 -30.096268 -74.895859 4294967295
84.744858 -36.680164 -73.510239 4294967295
84.751389 -28.275785 -74.540756 4294967295
84.760521 -35.312054 -73.279243 4294967295
84.761917 -27.363369 -74.38765 4294967295
84.791313 -29.618031 -75.124313 4294967295
84.834282 -28.691345 -75.177567 4294967295
84.854126 -34.812263 -73.764786 4294967295
84.86525 -25.047405 -74.494522 4294967295
84.873833 -26.859072 -74.98922 4294967295
84.881653 -26.401842 -74.928963 4294967295
84.896004 -36.151073 -74.361786 4294967295
84.902863 -24.576849 -74.623726 4294967295
84.941437 -34.315948 -74.210373 4294967295
85.014786 -30.652548 -73.795616 4294967295
85.117805 -30.15045 -74.34153 4294967295
85.250786 -20.342422 -75.847504 4294967295
85.316299 -35.734486 -73.953903 4294967295
85.344452 -26.417168 -74.903893 4294967295
85.391319 -32.523869 -73.659264 4294967295
85.538712 -22.247311 -75.150124 4294967295
85.588562 -21.318096 -75.247574 4294967295
85.661346 -20.379484 -75.491379 4294967295
45.410854 -19.351465 -73.132164 4294967295
45.445709 -18.423538 -73.13266 4294967295
45.480568 -17.495611 -73.133148 4294967295
45.515423 -16.567684 -73.133636 4294967295
45.550278 -15.639757 -73.134125 4294967295
45.585136 -14.71183 -73.134621 4294967295
45.637421 -13.319937 -73.135353 4294967295
45.672276 -12.39201 -73.135841 4294967295
45.70713 -11.464083 -73.136337 4294967295
45.741989 -10.536157 -73.136826 4294967295
45.759415 -10.072197 -73.13707 4294967295
45.776844 -9.6082296 -73.137314 4294967295
45.811699 -8.6803036 -73.137802 4294967295
45.863983 -7.2884169 -73.138542 4294967295
45.898838 -6.3604898 -73.13903 4294967295
45.933693 -5.4325638 -73.139519 4294967295
45.968552 -4.5046368 -73.140015 4294967295
46.003407 -3.5767102 -73.140503 4294967295
46.038261 -2.6487834 -73.140991 4294967295
46.339592 -19.668163 -75.625946 4294967295
46.374374 -18.742273 -75.626434 4294967295
46.426544 -17.353426 -75.627167 4294967295
46.461323 -16.427528 -75.627655 4294967295
46.496101 -15.501629 -75.628143 4294967295
46.530884 -14.575738 -75.628632 4294967295
46.565662 -13.649839 -75.62912 4294967295
46.600441 -12.72394 -75.629608 4294967295
46.652611 -11.335096 -75.630341 4294967295
46.687389 -10.409205 -75.630829 4294967295
46.722168 -9.4833069 -75.631317 4294967295
46.75695 -8.5574083 -75.631805 4294967295
46.791729 -7.6315174 -75.632309 4294967295
46.826508 -6.7056189 -75.632797 4294967295
46.878677 -5.3167744 -75.63353 4294967295
46.91346 -4.3908753 -75.634018 4294967295
46.948238 -3.4649768 -75.634506 4294967295
46.983017 -2.5390859 -75.634995 4294967295
47.281631 -19.521542 -78.109131 4294967295
47.316334 -18.59767 -78.109619 4294967295
47.351036 -17.673792 -78.110107 4294967295
47.368389 -17.211861 -78.110352 4294967295
47.385742 -16.749922 -78.110588 4294967295
47.437798 -15.364113 -78.11132 4294967295
47.4725 -14.440234 -78.111809 4294967295
47.507206 -13.516363 -78.112297 4294967295
47.541908 -12.592485 -78.112785 4294967295
47.576614 -11.668614 -78.113274 4294967295
47.611317 -10.744736 -78.113762 4294967295
47.663372 -9.3589258 -78.114494 4294967295
47.698074 -8.4350471 -78.114983 4294967295
47.73278 -7.5111766 -78.115471 4294967295
47.767483 -6.5872984 -78.115959 4294967295
47.802185 -5.6634274 -78.116447 4294967295
47.85424 -4.2776179 -78.11718 4294967295
47.888947 -3.3537393 -78.117668 4294967295
47.923649 -2.4298687 -78.118156 4294967295
48.484486 -19.914087 -79.601166 4294967295
48.487186 -19.457785 -79.524162 4294967295
48.532181 -18.076134 -79.487961 4294967295
48.59729 -17.598862 -79.740623 4294967295
48.6213 -14.401138 -79.228096 4294967295
48.637386 -15.763367 -79.587234 4294967295
48.809704 -11.150591 -79.584618 4294967295
48.906616 -9.7532768 -79.822968 4294967295
48.912636 -17.208031 -78.840271 4294967295
48.987183 -6.0798755 -79.517761 4294967295
49.07793 -5.1416693 -79.815186 4294967295
49.303734 -19.982162 -78.980415 4294967295
49.31506 -18.611429 -78.765282 4294967295
49.329933 -19.517612 -79.02771 4294967295
49.341328 -10.233574 -79.737801 4294967295
49.399208 -9.304225 -79.861496 4294967295
49.411911 -17.667431 -79.095703 4294967295
49.44352 -8.8351059 -80.004807 4294967295
49.449097 -16.74367 -79.10955 4294967295
49.464653 -7.4606218 -79.84201 4294967295
49.488289 -6.0850487 -79.692467 4294967295
49.495319 -8.3639069 -80.187935 4294967295
49.551544 -5.1546116 -79.844681 4294967295
49.567867 -18.070501 -80.014877 4294967295
49.603485 -18.686485 -77.808372 4294967295
49.61375 -19.139004 -77.954933 4294967295
49.622112 -15.320047 -79.752708 4294967295
49.803383 -17.707146 -78.687294 4294967295
49.833321 -16.785501 -78.662506 4294967295
49.872242 -8.4048901 -79.70462 4294967295
49.909294 -18.127121 -79.342384 4294967295
49.983009 -3.8096793 -79.37471 4294967295
50.046623 -2.8792114 -79.529228 4294967295
50.077835 -17.159792 -80.054871 4294967295
50.106663 -13.961836 -79.564896 4294967295
50.12405 -11.22082 -79.105499 4294967295
50.221886 -12.102562 -79.810272 4294967295
50.296726 -18.623945 -79.004471 4294967295
50.308456 -6.1467643 -79.074837 4294967295
50.330658 -10.70181 -80.113403 4294967295
50.348091 -6.5919633 -79.378075 4294967295
50.36269 -4.3051057 -78.995316 4294967295
50.371304 -7.9540367 -79.777931 4294967295
50.383499 -19.504997 -79.650932 4294967295
50.420502 -7.0275145 -79.855919 4294967295
50.446762 -16.75131 -79.435539 4294967295
50.447605 -5.1947169 -79.632111 4294967295
50.501392 -13.999361 -79.173943 4294967295
50.50219 -15.366334 -79.454689 4294967295
50.503502 -5.635365 -80.02198 4294967295
50.547325 -16.262552 -79.879471 4294967295
50.565136 -19.617792 -78.122231 4294967295
50.602692 -2.8701897 -79.998291 4294967295
50.643524 -14.409456 -80.02401 4294967295
50.677788 -17.756046 -78.354271 4294967295
50.748795 -10.275312 -79.756172 4294967295
50.7728 -8.9001284 -79.607674 4294967295
50.777222 -16.355278 -78.608208 4294967295
50.811447 -16.799709 -78.88343 4294967295
50.96714 -3.3691852 -79.538155 4294967295
50.992985 -2.4490416 -79.4916 4294967295
51.095703 -10.782402 -79.201538 4294967295
51.10989 -11.234063 -79.369774 4294967295
51.221893 -5.7256393 -78.859314 4294967295
51.364056 -18.151709 -79.612495 4294967295
51.365955 -4.3157401 -79.352852 4294967295
51.371151 -2.4876986 -79.01049 4294967295
51.405125 -14.949579 -79.184792 4294967295
51.415779 -17.678904 -79.796867 4294967295
51.419029 -4.7574511 -79.729393 4294967295
51.43441 -6.1217442 -80.089096 4294967295
51.444653 -15.847818 -79.581451 4294967295
51.45525 -3.3782859 -79.645889 4294967295
51.501232 -11.727991 -79.051468 4294967295
51.524052 -2.9032164 -79.921722 4294967295
51.56971 -12.16256 -79.510956 4294967295
51.572929 -19.620966 -78.501534 4294967295
51.596901 -16.422176 -77.980659 4294967295
51.639503 -18.686832 -78.67305 4294967295
51.694824 -8.9329052 -79.533241 4294967295
51.753475 -15.458566 -78.635155 4294967295
51.827686 -19.253119 -77.260857 4294967295
51.9655 -14.478017 -79.587402 4294967295
51.985142 -13.560493 -79.50737 4294967295
52.030571 -2.9073277 -80.129486 4294967295
52.126247 -19.605236 -78.958282 4294967295
52.167137 -7.1213164 -79.185471 4294967295
52.173279 -10.311725 -79.86821 4294967295
52.209488 -9.3891516 -79.877121 4294967295
52.214886 -8.4757175 -79.720551 4294967295
52.31955 -14.529052 -78.975288 4294967295
52.324596 -4.7948861 -79.56736 4294967295
52.354984 -13.606028 -78.979874 4294967295
52.356533 -3.8732858 -79.553284 4294967295
52.367226 -17.246199 -79.789146 4294967295
52.371243 -16.334274 -79.624977 4294967295
52.380642 -2.497242 -79.404175 4294967295
52.432861 -18.763935 -77.902344 4294967295
52.506912 -19.194033 -78.394402 4294967295
52.535725 -12.637057 -79.766304 4294967295
52.576244 -6.6964207 -78.775063 4294967295
52.597565 -11.250781 -79.820236 4294967295
52.601318 -12.160821 -80.026291 4294967295
52.689568 -15.486764 -78.63311 4294967295
52.696289 -7.5740328 -79.607704 4294967295
52.702484 -8.4841719 -79.82711 4294967295
52.76384 -13.183213 -78.567398 4294967295
52.7729 -6.1835656 -79.741188 4294967295
52.787155 -7.0915112 -80.004051 4294967295
52.853294 -3.4235017 -79.615906 4294967295
52.907028 -12.681788 -79.246262 4294967295
52.97224 -14.483039 -79.970367 4294967295
53.012589 -9.9137468 -79.256393 4294967295
53.029472 -16.910954 -78.220596 4294967295
53.046452 -14.625473 -77.845177 4294967295
53.098583 -9.4317398 -79.627129 4294967295
53.132545 -18.242649 -79.057159 4294967295
53.133453 -16.420298 -78.688713 4294967295
53.151329 -19.601837 -79.438362 4294967295
53.230148 -14.109743 -78.744102 4294967295
53.263191 -18.828642 -77.325821 4294967295
53.269821 -15.463759 -79.238457 4294967295
53.303711 -12.718581 -78.861359 4294967295
53.335384 -3.8904345 -79.786392 4294967295
53.335793 -4.3465405 -79.881836 4294967295
53.339367 -15.896098 -79.70742 4294967295
53.343643 -18.344944 -77.667458 4294967295
53.366879 -16.513056 -77.418648 4294967295
53.370789 -2.5117698 -79.697701 4294967295
53.374462 -13.151793 -79.337059 4294967295
53.376656 -10.415832 -78.788422 4294967295
53.392319 -2.9622707 -79.907249 4294967295
53.449074 -17.852972 -78.144272 4294967295
53.450783 -10.848968 -79.282539 4294967295
53.458626 -9.4786634 -79.044701 4294967295
53.463066 -16.936655 -78.032799 4294967295
53.484184 -6.7334914 -78.621979 4294967295
53.514519 -15.095754 -77.93676 4294967295
53.557877 -12.182429 -80.141502 4294967295
53.576603 -11.265616 -80.056038 4294967295
53.585434 -19.349569 -76.626129 4294967295
53.598591 -8.5245695 -79.614655 4294967295
53.614868 -9.8870373 -79.982857 4294967295
53.684135 -15.495538 -78.948509 4294967295
53.712898 -6.2111311 -79.765732 4294967295
53.714779 -7.5783849 -80.056183 4294967295
53.718445 -4.8411012 -79.515381 4294967295
53.718449 -12.749712 -78.572723 4294967295
53.770447 -14.100378 -79.135094 4294967295
53.839409 -9.5194311 -78.572372 4294967295
53.844261 -2.9811339 -79.822334 4294967295
53.88092 -2.514883 -79.927292 4294967295
53.89431 -15.595197 -77.550079 4294967295
53.904785 -8.1309919 -78.645576 4294967295
53.90934 -10.410198 -79.138618 4294967295
53.932098 -18.669836 -73.218788 4294967295
54.014339 -4.9041128 -78.583359 4294967295
54.028694 -7.6380877 -79.223503 4294967295
54.061768 -4.4341974 -78.746834 4294967295
54.080486 -14.165886 -78.278633 4294967295
54.082195 -16.444061 -78.756889 4294967295
54.130775 -17.338484 -79.207825 4294967295
54.156715 -17.503328 -76.806282 4294967295
54.257904 -12.741093 -78.959999 4294967295
54.329376 -9.9831858 -78.784981 4294967295
54.344753 -2.5305011 -79.906898 4294967295
54.369797 -13.616293 -79.754738 4294967295
54.387047 -7.6848502 -78.628738 4294967295
54.410156 -18.223557 -73.167175 4294967295
54.433212 -10.862909 -79.536392 4294967295
54.440372 -9.4932947 -79.293831 4294967295
54.445728 -16.948994 -78.283073 4294967295
54.464657 -8.1180058 -79.144211 4294967295
54.4688 -10.396189 -79.635826 4294967295
54.495174 -11.754644 -80.060287 4294967295
54.523396 -16.011469 -78.517235 4294967295
54.549889 -6.724597 -79.325638 4294967295
54.568691 -7.1751566 -79.521599 4294967295
54.570274 -4.8937697 -79.060799 4294967295
54.583961 -14.168468 -78.470535 4294967295
54.588501 -13.711127 -78.401184 4294967295
54.598629 -3.0599132 -78.839073 4294967295
54.621246 -16.43409 -79.143112 4294967295
54.654572 -4.4136872 -79.425079 4294967295
54.661339 -3.4991465 -79.274002 4294967295
54.667366 -15.50784 -79.205963 4294967295
54.693844 -14.588141 -79.162025 4294967295
54.707214 -6.2229214 -80.086563 4294967295
54.772057 -12.284765 -79.1175 4294967295
54.855083 -8.6116571 -78.816917 4294967295
54.904598 -11.331602 -79.650574 4294967295
54.921017 -15.593328 -78.039299 4294967295
54.934883 -4.9375625 -78.498398 4294967295
55.035881 -16.921467 -78.947647 4294967295
55.15416 -2.5939837 -79.222176 4294967295
55.171658 -5.3264146 -79.882118 4294967295
55.218567 -16.57667 -77.296448 4294967295
55.26667 -9.5552835 -78.69825 4294967295
55.34375 -9.9875784 -79.212914 4294967295
55.352932 -16.075365 -77.935638 4294967295
55.356903 -8.615778 -79.001877 4294967295
55.382401 -15.609648 -78.002098 4294967295
55.389305 -7.6939363 -78.990082 4294967295
55.427036 -11.328564 -79.949699 4294967295
55.447014 -4.9395275 -78.739082 4294967295
55.473915 -9.0362358 -79.734451 4294967295
55.475189 -5.3878551 -78.987206 4294967295
55.536182 -5.8265085 -79.414467 4294967295
55.550621 -3.0846415 -78.927269 4294967295
55.56395 -14.637884 -78.80468 4294967295
55.595383 -4.4411941 -79.454689 4294967295
55.601311 -14.169996 -78.914352 4294967295
55.610336 -10.976271 -78.302521 4294967295
55.614899 -6.715487 -80.032555 4294967295
55.625393 -12.795172 -78.762657 4294967295
55.704281 -8.6665154 -78.343468 4294967295
55.711575 -17.038248 -77.525421 4294967295
55.732738 -13.216133 -79.443512 4294967295
55.745209 -2.574863 -79.895576 4294967295
55.772415 -11.836863 -79.377182 4294967295
55.823002 -14.265038 -77.567101 4294967295
55.852745 -9.5333576 -79.344086 4294967295
56.03595 -2.1813586 -78.833893 4294967295
56.118252 -11.889782 -78.71022 4294967295
56.172279 -16.598953 -77.388756 4294967295
56.183098 -2.5975552 -79.733849 4294967295
56.187542 -10.956263 -78.900459 4294967295
56.202118 -9.583992 -78.696266 4294967295
56.277225 -15.651675 -77.774551 4294967295
56.338055 -15.17547 -78.013321 4294967295
56.353653 -14.258591 -77.909172 4294967295
56.375687 -10.441774 -79.836349 4294967295
56.386925 -7.2482133 -79.235443 4294967295
56.403107 -13.330522 -77.990692 4294967295
56.47366 -6.31075 -79.521523 4294967295
56.492126 -3.1121759 -78.959625 4294967295
56.498413 -5.3915854 -79.467827 4294967295
56.560486 -4.0056467 -79.524063 4294967295
56.561478 -5.8292928 -79.908257 4294967295
56.566399 -16.638285 -76.980782 4294967295
56.591244 -12.813736 -78.9282 4294967295
56.605282 -15.712927 -77.004272 4294967295
56.61068 -9.6165514 -78.370728 4294967295
56.614979 -11.439012 -78.773964 4294967295
56.654903 -10.970626 -78.898216 4294967295
56.663597 -11.879265 -79.135666 4294967295
56.701591 -14.768499 -77.343483 4294967295
56.704838 -8.2195044 -78.602997 4294967295
56.71542 -9.1283731 -78.850922 4294967295
56.777855 -6.3730168 -78.624329 4294967295
56.786697 -6.8266401 -78.767845 4294967295
56.837456 -5.4431367 -78.761833 4294967295
56.847759 -3.1578937 -78.343437 4294967295
56.971127 -16.674101 -76.629745 4294967295
57.098175 -17.086477 -77.424858 4294967295
57.115997 -10.531134 -78.76667 4294967295
57.170475 -9.6024818 -78.876251 4294967295
57.301254 -8.6507702 -79.405823 4294967295
57.340256 -8.1832018 -79.525406 4294967295
57.362728 -4.072248 -78.792961 4294967295
57.363346 -4.5283866 -78.891579 4294967295
57.388336 -14.254165 -78.451813 4294967295
57.443577 -2.6805034 -78.952759 4294967295
57.459068 -16.681469 -76.736755 4294967295
57.475986 -3.5840716 -79.321693 4294967295
57.495461 -4.9466958 -79.714348 4294967295
57.506683 -11.937165 -78.627754 4294967295
57.525944 -10.563534 -78.447983 4294967295
57.538696 -9.6475706 -78.327682 4294967295
57.548824 -9.1883621 -78.288193 4294967295
57.56271 -17.10174 -77.404388 4294967295
57.598625 -11.452112 -79.039345 4294967295
57.606319 -12.816145 -79.367477 4294967295
57.626789 -15.256456 -77.376091 4294967295
57.633244 -14.342283 -77.220642 4294967295
57.66486 -12.34184 -79.594948 4294967295
57.67485 -5.9569435 -78.315796 4294967295
57.678722 -7.7806234 -78.718697 4294967295
57.691509 -10.055952 -79.265739 4294967295
57.69492 -16.144972 -77.943291 4294967295
57.695374 -6.8634281 -78.619835 4294967295
57.736755 -7.3071918 -78.94352 4294967295
57.748333 -5.4792356 -78.625992 4294967295
57.888542 -13.346307 -78.43969 4294967295
58.042519 -16.655949 -77.372841 4294967295
58.229568 -4.1208024 -78.413742 4294967295
58.358852 -13.815208 -78.549332 4294967295
58.361351 -12.903119 -78.371826 4294967295
58.377338 -5.4468293 -79.518021 4294967295
58.390854 -10.158285 -77.960701 4294967295
58.419289 -15.789382 -76.673973 4294967295
58.421349 -11.516471 -78.41687 4294967295
58.464314 -12.413994 -78.846199 4294967295
58.490009 -11.950132 -78.892807 4294967295
58.503017 -16.216782 -77.234352 4294967295
58.555893 -14.83112 -77.239655 4294967295
58.564205 -14.372342 -77.189804 4294967295
58.582031 -17.100931 -77.864334 4294967295
58.601952 -5.0756135 -78.076462 4294967295
58.616791 -6.4402733 -78.446297 4294967295
58.622074 -9.6302233 -79.145844 4294967295
58.622082 -16.631559 -77.990562 4294967295
58.65089 -7.3423004 -78.826836 4294967295
58.7006 -4.1344209 -78.431732 4294967295
58.729076 -6.8629818 -79.164413 4294967295
58.769371 -2.7457378 -78.525558 4294967295
58.81076 -3.6468458 -78.946808 4294967295
58.84753 -4.5486069 -79.342293 4294967295
58.873756 -2.2603879 -79.00872 4294967295
58.90535 -13.347795 -78.890709 4294967295
58.934849 -9.6927481 -78.286995 4294967295
58.954937 -13.786747 -79.26165 4294967295
59.05727 -11.02133 -79.254433 4294967295
59.124344 -7.3549261 -78.859428 4294967295
59.159695 -6.4324169 -78.863892 4294967295
59.218655 -2.3089504 -78.327141 4294967295
59.283691 -10.656462 -77.817688 4294967295
59.361069 -13.365818 -78.825027 4294967295
59.377087 -12.449612 -78.721939 4294967295
59.40073 -16.713942 -77.115486 4294967295
59.407253 -17.167425 -77.248215 4294967295
59.432709 -10.153466 -78.550682 4294967295
59.450378 -11.514829 -78.937408 4294967295
59.463135 -15.780869 -77.270386 4294967295
59.528126 -9.667799 -78.985474 4294967295
59.559254 -6.0108933 -78.389206 4294967295
59.574814 -8.7419329 -79.053047 4294967295
59.58609 -14.371874 -77.666298 4294967295
59.589169 -4.1769214 -78.170731 4294967295
59.605217 -6.9093781 -78.837593 4294967295
59.606644 -7.3648558 -78.941765 4294967295
59.663483 -6.4360714 -79.065826 4294967295
59.680374 -2.7817492 -78.389946 4294967295
59.687611 -5.0610256 -78.911552 4294967295
59.722843 -2.3134601 -78.530258 4294967295
59.750076 -3.6747215 -78.970818 4294967295
59.76659 -11.577758 -78.094131 4294967295
59.843143 -9.2738552 -78.038986 4294967295
59.843628 -15.824932 -76.78125 4294967295
59.883457 -12.906469 -79.034683 4294967295
59.991119 -8.3162241 -78.67157 4294967295
60.09417 -14.828075 -77.987083 4294967295
60.098686 -13.003716 -77.625992 4294967295
60.112637 -16.643318 -78.476341 4294967295
60.121403 -6.9091678 -79.109276 4294967295
60.358555 -8.8173695 -78.208633 4294967295
60.370541 -8.3576708 -78.179008 4294967295
60.397827 -15.809448 -77.26223 4294967295
60.433071 -14.430004 -77.169006 4294967295
60.436714 -14.884617 -77.286201 4294967295
60.44268 -9.7027426 -78.872192 4294967295
60.463757 -6.9611988 -78.410278 4294967295
60.472355 -6.5025396 -78.361732 4294967295
60.498524 -5.1262245 -78.218048 4294967295
60.517792 -16.67902 -78.127098 4294967295
60.523094 -17.132448 -78.253456 4294967295
60.541222 -7.3937149 -78.940132 4294967295
60.552719 -13.022448 -77.548325 4294967295
60.581524 -2.3640335 -78.102074 4294967295
60.623711 -4.6336107 -78.821747 4294967295
60.640137 -5.9966345 -79.203568 4294967295
60.648052 -3.2581308 -78.667946 4294967295
60.688999 -11.610414 -78.021011 4294967295
60.72036 -12.511538 -78.390198 4294967295
60.730446 -9.7736025 -77.865753 4294967295
60.796192 -7.9288583 -77.846611 4294967295
60.901382 -17.633137 -77.849495 4294967295
60.908691 -15.808716 -77.502579 4294967295
60.968056 -10.154195 -79.293755 4294967295
61.096344 -5.558517 -79.0448 4294967295
61.122967 -11.635571 -77.831581 4294967295
61.132996 -12.99938 -78.178986 4294967295
61.169994 -13.897963 -78.580597 4294967295
61.226475 -8.8670111 -77.830276 4294967295
61.313446 -12.484402 -79.094734 4294967295
61.367683 -7.9114056 -78.429214 4294967295
61.375427 -14.911831 -77.301682 4294967295
61.394276 -16.272137 -77.699333 4294967295
61.412079 -10.175821 -79.163651 4294967295
61.423161 -17.172733 -78.05603 4294967295
61.425102 -6.0700803 -78.363449 4294967295
61.44894 -7.4307022 -78.788666 4294967295
61.459602 -5.1476364 -78.363098 4294967295
61.486462 -4.6836247 -78.416946 4294967295
61.501297 -6.9590344 -78.985748 4294967295
61.514 -13.953592 -77.886436 4294967295
61.582378 -6.4788971 -79.344238 4294967295
61.614838 -11.641932 -77.967407 4294967295
61.644226 -4.1817818 -79.206573 4294967295
61.672813 -10.711692 -78.099075 4294967295
61.676521 -2.3485162 -78.999748 4294967295
61.678543 -12.987649 -78.617432 4294967295
61.764614 -9.3152008 -78.323875 4294967295
61.783978 -12.042215 -79.016182 4294967295
61.793007 -17.22118 -77.505295 4294967295
61.808796 -10.212547 -78.767067 4294967295
61.840721 -11.113153 -79.141106 4294967295
61.955643 -14.432045 -77.837097 4294967295
62.078194 -12.568814 -78.138168 4294967295
62.105984 -10.281167 -77.807487 4294967295
62.1301 -18.192575 -76.962708 4294967295
62.307289 -8.3944836 -78.553093 4294967295
62.379066 -7.005084 -78.665627 4294967295
62.391945 -5.1774054 -78.348198 4294967295
62.398258 -4.2632332 -78.188698 4294967295
62.403397 -13.997332 -77.627052 4294967295
62.471313 -14.429791 -78.108353 4294967295
62.47406 -6.5205641 -79.104263 4294967295
62.520401 -13.502381 -78.190407 4294967295
62.536736 -11.218972 -77.794289 4294967295
62.547035 -3.3080204 -78.83371 4294967295
62.560326 -2.3920081 -78.7136 4294967295
62.596642 -12.110651 -78.328247 4294967295
62.613644 -11.64956 -78.326675 4294967295
62.622215 -8.9123096 -77.788879 4294967295
62.630138 -9.3657455 -77.931412 4294967295
62.656544 -16.363466 -76.902039 4294967295
62.669704 -7.5294752 -77.764076 4294967295
62.675926 -17.723206 -77.305397 4294967295
62.74078 -10.241899 -78.752342 4294967295
62.779045 -10.684998 -79.066292 4294967295
62.793304 -18.136425 -78.067337 4294967295
62.844597 -8.3870392 -78.948601 4294967295
62.875065 -15.376444 -77.94313 4294967295
62.952484 -6.9871559 -79.265831 4294967295
63.048523 -17.315594 -76.667351 4294967295
63.060043 -2.3974543 -78.897194 4294967295
63.088173 -3.7572055 -79.349693 4294967295
63.134735 -12.556765 -78.826401 4294967295
63.139271 -8.4552345 -77.971001 4294967295
63.14325 -20.013149 -77.792931 4294967295
63.269329 -17.69223 -78.017776 4294967295
63.302837 -16.77009 -78.011749 4294967295
63.305286 -6.5806437 -78.520294 4294967295
63.412582 -15.366243 -78.340218 4294967295
63.46447 -2.8859801 -78.639229 4294967295
63.482841 -4.7043757 -79.135361 4294967295
63.488579 -19.61692 -77.000153 4294967295
63.492912 -12.151753 -78.109619 4294967295
63.49295 -13.062595 -78.306007 4294967295
63.495613 -2.4210119 -78.717911 4294967295
63.522247 -13.963187 -78.668434 4294967295
63.523155 -11.230709 -78.085045 4294967295
63.574638 -8.9355469 -77.88662 4294967295
63.596649 -18.211725 -77.319473 4294967295
63.601887 -10.749556 -78.43399 4294967295
63.635143 -17.287306 -77.34166 4294967295
63.696045 -8.4416409 -78.478096 4294967295
63.698383 -10.262951 -78.883888 4294967295
63.725761 -7.5209723 -78.450623 4294967295
63.726055 -16.344467 -77.661934 4294967295
63.738289 -18.615553 -78.222694 4294967295
63.769691 -6.5959415 -78.503883 4294967295
63.827625 -15.85362 -78.141136 4294967295
63.8461 -3.8374376 -78.348953 4294967295
63.882885 -12.647234 -77.767265 4294967295
63.883064 -19.657804 -76.582428 4294967295
63.890045 -5.192358 -78.89344 4294967295
63.901768 -4.7330761 -78.86187 4294967295
63.953026 -4.2621908 -79.05513 4294967295
63.996284 -17.79484 -76.833076 4294967295
63.998058 -9.875514 -77.832474 4294967295
64.076591 -2.4033089 -79.365036 4294967295
64.257629 -8.4263878 -79.015244 4294967295
64.302925 -14.043859 -77.792282 4294967295
64.359039 -6.5731421 -79.199356 4294967295
64.383766 -12.650223 -77.957611 4294967295
64.393898 -13.102222 -78.113899 4294967295
64.405983 -15.373838 -78.675293 4294967295
64.409531 -4.2798028 -78.995132 4294967295
64.470108 -2.894721 -79.045151 4294967295
64.476158 -11.253186 -78.188858 4294967295
64.487732 -19.166082 -77.264046 4294967295
64.49498 -17.79767 -77.009186 4294967295
64.511429 -11.696982 -78.488533 4294967295
64.531158 -9.413084 -78.108246 4294967295
64.574486 -9.8547945 -78.454079 4294967295
64.578613 -17.312317 -77.388054 4294967295
64.604561 -19.578053 -78.029724 4294967295
64.650703 -8.4639721 -78.593262 4294967295
64.671188 -6.1789956 -78.217087 4294967295
64.681244 -7.5432301 -78.570381 4294967295
64.704758 -5.7129507 -78.310112 4294967295
64.72789 -16.803907 -78.14193 4294967295
64.751717 -14.064356 -77.685593 4294967295
64.75721 -4.3294401 -78.313622 4294967295
64.765938 -7.0614705 -78.955254 4294967295
64.76889 -15.879345 -78.178696 4294967295
64.840698 -14.489055 -78.292816 4294967295
64.845497 -3.3916574 -78.620537 4294967295
64.851212 -2.4779174 -78.455811 4294967295
65.151237 -15.468012 -77.593483 4294967295
65.155151 -15.921888 -77.714836 4294967295
65.165611 -18.193159 -78.269409 4294967295
65.190811 -14.99892 -77.721107 4294967295
65.295151 -11.319736 -77.526512 4294967295
65.398834 -13.10669 -78.516724 4294967295
65.407654 -18.744339 -77.077019 4294967295
65.425201 -12.642644 -78.568787 4294967295
65.437584 -9.9063606 -78.04567 4294967295
65.441208 -17.366343 -76.971825 4294967295
65.44548 -11.725464 -78.487083 4294967295
65.472633 -19.630445 -77.648018 4294967295
65.57502 -9.4066486 -78.734505 4294967295
65.577255 -8.4950733 -78.549294 4294967295
65.586182 -6.669682 -78.204163 4294967295
65.588875 -18.22308 -78.017403 4294967295
65.596054 -17.765583 -77.959442 4294967295
65.602898 -7.575911 -78.498192 4294967295
65.626244 -4.3778419 -77.938332 4294967295
65.664612 -14.555468 -77.658539 4294967295
65.665604 -15.92071 -77.961861 4294967295
65.674301 -15.462549 -77.912575 4294967295
65.711639 -2.5283222 -78.031738 4294967295
65.712044 -3.440486 -78.232376 4294967295
65.728989 -6.1703024 -78.92421 4294967295
65.734856 -14.075948 -77.962593 4294967295
65.764305 -5.2484188 -78.928673 4294967295
65.827011 -10.401536 -77.697723 4294967295
65.932404 -17.371824 -77.107117 4294967295
66.061249 -9.8700008 -78.944214 4294967295
66.068695 -15.046917 -77.393723 4294967295
66.092621 -5.304635 -78.131729 4294967295
66.153084 -7.108901 -78.876617 4294967295
66.256546 -11.794913 -77.778435 4294967295
66.298645 -10.869968 -77.821823 4294967295
66.388222 -7.1953683 -77.54129 4294967295
66.389511 -2.4823685 -79.243378 4294967295
66.404633 -9.4688654 -78.133629 4294967295
66.424294 -9.9179688 -78.346336 4294967295
66.42955 -8.5497427 -78.078072 4294967295
66.432777 -18.739012 -77.595062 4294967295
66.535011 -17.336946 -77.885422 4294967295
66.562149 -6.2300062 -78.344315 4294967295
66.58522 -7.589572 -78.775894 4294967295
66.586311 -3.4872141 -77.885994 4294967295
66.591545 -16.406763 -78.0121 4294967295
66.605759 -4.3935328 -78.197411 4294967295
66.637802 -18.208981 -78.677032 4294967295
66.64476 -15.93289 -78.219284 4294967295
66.655914 -4.8344002 -78.58609 4294967295
66.662369 -15.47174 -78.221214 4294967295
66.678787 -12.735091 -77.717911 4294967295
66.690483 -5.2796664 -78.88485 4294967295
66.696381 -5.7334104 -79.018387 4294967295
66.717232 -11.355845 -77.640541 4294967295
66.754311 -13.619745 -78.352951 4294967295
66.765114 -14.525926 -78.614494 4294967295
66.776787 -2.5198679 -78.785072 4294967295
66.86026 -10.853079 -78.366226 4294967295
66.863441 -17.40122 -77.083511 4294967295
66.908905 -19.204479 -77.745575 4294967295
66.968483 -19.636944 -78.189499 4294967295
67.066299 -14.597835 -77.656418 4294967295
67.191345 -12.733869 -77.979691 4294967295
67.192513 -11.822838 -77.786613 4294967295
67.260345 -2.9853885 -78.981316 4294967295
67.304871 -8.1415272 -77.636688 4294967295
67.449051 -17.372242 -77.767525 4294967295
67.459412 -8.5478897 -78.631065 4294967295
67.464722 -5.3569865 -77.961777 4294967295
67.469955 -18.728828 -78.188667 4294967295
67.509628 -15.07547 -77.617836 4294967295
67.516731 -3.5175326 -77.862709 4294967295
67.517952 -6.7077465 -78.570084 4294967295
67.522102 -7.6173229 -78.794022 4294967295
67.547493 -16.426973 -78.137451 4294967295
67.552635 -4.4187942 -78.270821 4294967295
67.589188 -6.2302451 -78.882507 4294967295
67.595009 -2.5825369 -78.115944 4294967295
67.598656 -15.499028 -78.23365 4294967295
67.637123 -11.84463 -77.655571 4294967295
67.646095 -10.475088 -77.406914 4294967295
67.655914 -13.659155 -78.16507 4294967295
67.711639 -9.5423927 -77.586517 4294967295
67.717407 -14.547585 -78.721588 4294967295
67.723671 -12.270707 -78.257416 4294967295
67.738098 -19.271532 -77.134903 4294967295
67.751007 -8.6183605 -77.614372 4294967295
67.786873 -7.2396498 -77.521561 4294967295
67.809479 -9.9659901 -78.254166 4294967295
67.860649 -18.316263 -77.645393 4294967295
67.915932 -4.464395 -77.668762 4294967295
67.947388 -17.37484 -77.948334 4294967295
67.95768 -16.461407 -77.807419 4294967295
68.021866 -14.618592 -77.778748 4294967295
68.052063 -3.511976 -78.25843 4294967295
68.247482 -9.5343533 -77.98526 4294967295
68.253822 -10.898228 -78.323364 4294967295
68.390198 -19.21623 -78.20919 4294967295
68.424858 -19.657625 -78.511162 4294967295
68.427788 -6.7440257 -78.431038 4294967295
68.429413 -16.928577 -77.934715 4294967295
68.432716 -8.108613 -78.760948 4294967295
68.438759 -5.3738012 -78.193459 4294967295
68.442902 -4.4609575 -78.01651 4294967295
68.451973 -5.8254232 -78.370773 4294967295
68.465691 -18.279177 -78.447281 4294967295
68.495438 -15.995154 -78.117958 4294967295
68.496254 -14.175035 -77.720398 4294967295
68.52993 -2.6114969 -78.120789 4294967295
68.560066 -15.517294 -78.393532 4294967295
68.574997 -3.0542135 -78.483612 4294967295
68.587517 -4.873004 -78.95842 4294967295
68.587608 -13.23315 -78.051071 4294967295
68.641342 -3.4903433 -78.970238 4294967295
68.643425 -9.5718651 -77.570946 4294967295
68.650703 -14.575801 -78.7201 4294967295
68.669441 -8.1964731 -77.420387 4294967295
68.681175 -11.380849 -78.193558 4294967295
68.698578 -10.464589 -78.093643 4294967295
68.69873 -11.830044 -78.396439 4294967295
68.728004 -19.73328 -77.557144 4294967295
68.74176 -17.908907 -77.2342 4294967295
68.787804 -17.43705 -77.401886 4294967295
68.868164 -4.9439516 -77.873665 4294967295
68.913506 -15.571815 -77.73185 4294967295
69.12207 -10.037874 -77.738869 4294967295
69.240623 -9.0883236 -78.229523 4294967295
69.316231 -6.7870312 -78.166611 4294967295
69.352654 -16.050785 -77.669647 4294967295
69.417206 -17.391434 -78.350067 4294967295
69.419403 -4.9328294 -78.365891 4294967295
69.421814 -5.8431759 -78.581795 4294967295
69.454842 -4.010798 -78.371078 4294967295
69.498032 -10.53782 -77.306801 4294967295
69.50045 -2.1741068 -78.23378 4294967295
69.511642 -13.719809 -78.094269 4294967295
69.584999 -12.32955 -78.220261 4294967295
69.608955 -2.5982091 -78.969391 4294967295
69.652649 -11.396553 -78.414001 4294967295
69.67334 -19.756762 -77.622009 4294967295
69.680367 -7.2894516 -77.665955 4294967295
69.715607 -9.5552149 -78.378204 4294967295
69.733315 -4.9939718 -77.46994 4294967295
69.750679 -17.454456 -77.568863 4294967295
69.762138 -19.268646 -78.040848 4294967295
69.766296 -6.8067322 -78.068138 4294967295
69.766563 -8.6281872 -78.474289 4294967295
69.81012 -15.613325 -77.512085 4294967295
69.821716 -17.882891 -78.086311 4294967295
69.843399 -16.056244 -77.808426 4294967295
69.866661 -14.683198 -77.640976 4294967295
69.910988 -3.572798 -78.207397 4294967295
69.913116 -16.485672 -78.318283 4294967295
69.947433 -12.379503 -77.607941 4294967295
69.971031 -14.19141 -78.151558 4294967295
69.993172 -15.093031 -78.483826 4294967295
70.128372 -10.042496 -78.162666 4294967295
70.142426 -18.405893 -77.329529 4294967295
70.146141 -8.6707907 -77.962784 4294967295
70.277756 -4.5290527 -77.822586 4294967295
70.299606 -3.6107368 -77.747971 4294967295
70.431137 -2.6600206 -78.317757 4294967295
70.432518 -16.025995 -78.52607 4294967295
70.46888 -11.009462 -77.623039 4294967295
70.476082 -15.101265 -78.579124 4294967295
70.499992 -13.728862 -78.415283 4294967295
70.537277 -8.2541866 -77.415428 4294967295
70.538795 -9.1647577 -77.627747 4294967295
70.543137 -11.439534 -78.161255 4294967295
70.547249 -19.352722 -77.166397 4294967295
70.549484 -10.527169 -77.995476 4294967295
70.597229 -11.876062 -78.580826 4294967295
70.643959 -8.6750574 -78.144745 4294967295
70.647804 -6.3964224 -77.659119 4294967295
70.70285 -17.930286 -77.777107 4294967295
70.710854 -17.017996 -77.620735 4294967295
70.729233 -4.5482769 -77.731583 4294967295
70.736588 -2.7222219 -77.367836 4294967295
70.761154 -14.725401 -77.408173 4294967295
70.801414 -15.165947 -77.747108 4294967295
70.819267 -4.0652218 -78.159973 4294967295
70.844315 -4.9687481 -78.510818 4294967295
70.855927 -12.871805 -77.559265 4294967295
70.86097 -14.235024 -77.894325 4294967295
70.874397 -3.592978 -78.382896 4294967295
70.944275 -11.931167 -77.876259 4294967295
71.127975 -19.777771 -77.938354 4294967295
71.165932 -16.58157 -77.448685 4294967295
71.179665 -6.8458996 -78.143829 4294967295
71.186005 -6.3884521 -78.07933 4294967295
71.194725 -17.934877 -77.924484 4294967295
71.260231 -2.2640924 -77.599709 4294967295
71.425575 -14.668984 -78.573586 4294967295
71.43029 -11.028614 -77.785385 4294967295
71.437035 -11.481432 -77.927292 4294967295
71.48732 -12.374022 -78.428421 4294967295
71.530319 -10.084741 -78.172318 4294967295
71.540268 -9.1711397 -78.027023 4294967295
71.541412 -7.8047357 -77.727394 4294967295
71.555328 -4.6102734 -77.094254 4294967295
71.563942 -18.43996 -77.449539 4294967295
71.581505 -5.5139613 -77.453568 4294967295
71.594185 -8.6982441 -78.243584 4294967295
71.597092 -19.790705 -77.952133 4294967295
71.608459 -18.877666 -77.815033 4294967295
71.608482 -16.149658 -77.201874 4294967295
71.618866 -3.6789794 -77.265594 4294967295
71.651436 -17.498043 -77.762711 4294967295
