# .PCD v0.7 - Point Cloud Data file format
VERSION 0.7
FIELDS x y z rgb
SIZE 4 4 4 4
TYPE F F F U
COUNT 1 1 1 1
WIDTH 1120
HEIGHT 1
VIEWPOINT 0 0 0 1 0 0 0
POINTS 1120
DATA ascii
310.93124 -12.050405 -61.064934 4294967295
310.93265 -11.568951 -61.493938 4294967295
310.9361 -26.391613 -58.757378 4294967295
310.95108 -11.114065 -61.459133 4294967295
310.95126 -24.950466 -59.74585 4294967295
310.96017 -10.644855 -61.678883 4294967295
310.97977 -24.024731 -59.904766 4294967295
310.98642 -24.525974 -59.25943 4294967295
310.98828 -9.7220688 -61.845322 4294967295
310.99536 -23.075787 -60.415348 4294967295
311.01529 -22.623533 -60.340084 4294967295
311.0209 -23.610744 -59.256958 4294967295
311.02551 -9.2951488 -61.303654 4294967295
311.02893 -8.8179483 -61.674664 4294967295
311.04501 -22.188671 -60.000008 4294967295
311.04688 -21.704029 -60.415585 4294967295
311.05786 -8.3784065 -61.356823 4294967295
311.08011 -21.275017 -59.981979 4294967295
311.11267 -19.86998 -60.494408 4294967295
311.11792 -19.392296 -60.816334 4294967295
311.12701 -20.381935 -59.644119 4294967295
311.13995 -18.457214 -61.148991 4294967295
311.15289 -18.965466 -60.337444 4294967295
311.18341 -18.044447 -60.440968 4294967295
311.19144 -17.571896 -60.687737 4294967295
311.19339 -17.089487 -61.097641 4294967295
311.20178 -16.618059 -61.333439 4294967295
311.24942 -16.210999 -60.514614 4294967295
311.26947 -15.27343 -60.899826 4294967295
311.27008 -15.759442 -60.421074 4294967295
311.28128 -28.652401 -59.346848 4294967295
311.28381 -28.166729 -59.741837 4294967295
311.28741 -14.33319 -61.340073 4294967295
311.29294 -14.826488 -60.730282 4294967295
311.30103 -13.870672 -61.435577 4294967295
311.30258 -27.712219 -59.699619 4294967295
311.31122 -13.402852 -61.622875 4294967295
311.34174 -12.000199 -62.18602 4294967295
311.34674 -12.491119 -61.591152 4294967295
311.36267 -25.866098 -59.932831 4294967295
311.36893 -26.857201 -58.840282 4294967295
311.38388 -26.395157 -58.900864 4294967295
311.39127 -24.940668 -60.088055 4294967295
311.39346 -10.630918 -62.178722 4294967295
311.39362 -11.113654 -61.716255 4294967295
311.41586 -25.475029 -58.966377 4294967295
311.41943 -9.7053251 -62.403404 4294967295
311.43951 -10.217488 -61.405796 4294967295
311.45142 -24.561512 -58.936016 4294967295
311.45325 -8.7916775 -62.415974 4294967295
311.45386 -23.58847 -59.792007 4294967295
311.46838 -9.2956409 -61.553112 4294967295
311.47791 -22.655113 -60.069771 4294967295
311.4888 -8.3618584 -61.924629 4294967295
311.49472 -22.1971 -60.079628 4294967295
311.51419 -21.25639 -60.478436 4294967295
311.51981 -21.753609 -59.867878 4294967295
311.57782 -20.392315 -59.696461 4294967295
311.58243 -19.913303 -60.032711 4294967295
311.58963 -18.466705 -61.218052 4294967295
311.59714 -19.451725 -60.098606 4294967295
311.59912 -18.968702 -60.504704 4294967295
311.65765 -16.638 -61.234806 4294967295
311.67117 -17.145346 -60.416695 4294967295
311.69962 -15.736506 -61.030834 4294967295
311.71774 -15.281011 -61.006016 4294967295
311.72467 -14.807706 -61.278965 4294967295
311.73541 -13.856989 -61.905567 4294967295
311.74518 -14.356092 -61.189991 4294967295
311.75217 -28.209663 -59.326115 4294967295
311.7659 -28.726154 -58.501541 4294967295
311.77002 -13.427433 -61.442581 4294967295
311.77118 -27.755487 -59.277126 4294967295
311.78101 -26.794588 -59.930161 4294967295
311.78638 -12.969333 -61.464531 4294967295
311.79089 -12.493101 -61.800411 4294967295
311.80783 -12.036051 -61.806576 4294967295
311.82568 -26.38792 -59.199612 4294967295
311.83292 -11.108803 -62.051636 4294967295
311.85522 -25.463665 -59.329048 4294967295
311.86465 -24.503351 -59.99295 4294967295
311.88248 -10.700459 -61.193157 4294967295
311.88342 -23.560875 -60.406086 4294967295
311.89627 -9.7564707 -61.736584 4294967295
311.90295 -10.248425 -61.105293 4294967295
311.92209 -8.8306704 -61.962761 4294967295
311.93036 -9.3243971 -61.28878 4294967295
311.94412 -21.71809 -60.61869 4294967295
311.94812 -23.187727 -59.146145 4294967295
311.95096 -22.704769 -59.526836 4294967295
311.95538 -21.250711 -60.775906 4294967295
311.96448 -8.4102459 -61.295544 4294967295
311.9686 -20.786863 -60.880665 4294967295
311.96991 -22.250248 -59.480923 4294967295
312.0289 -19.916698 -60.194782 4294967295
312.03192 -20.40847 -59.659344 4294967295
312.03995 -19.449112 -60.356556 4294967295
312.05695 -18.505808 -60.815483 4294967295
312.08405 -18.065098 -60.553745 4294967295
312.10632 -17.616314 -60.418861 4294967295
312.1084 -16.649668 -61.271187 4294967295
312.11435 -17.144203 -60.660343 4294967295
312.116 -16.177456 -61.522923 4294967295
312.14822 -15.744649 -61.126667 4294967295
312.16714 -15.290516 -61.080143 4294967295
312.18851 -14.840137 -60.96994 4294967295
312.19073 -28.196461 -59.700928 4294967295
312.21341 -14.39524 -60.766079 4294967295
312.2179 -27.757504 -59.438927 4294967295
312.22751 -13.449834 -61.299774 4294967295
312.23041 -13.93784 -60.771614 4294967295
312.24283 -12.990181 -61.347656 4294967295
312.24323 -26.336826 -60.129623 4294967295
312.25159 -27.330374 -59.005508 4294967295
312.26178 -12.535988 -61.301735 4294967295
312.27353 -26.881443 -58.879379 4294967295
312.28564 -12.089202 -61.125881 4294967295
312.29422 -11.137024 -61.802608 4294967295
312.30496 -11.635507 -61.069122 4294967295
312.30945 -25.479763 -59.291924 4294967295
312.34839 -10.734994 -60.83057 4294967295
312.34879 -10.253357 -61.270992 4294967295
312.349 -24.085495 -59.608822 4294967295
312.3559 -23.60981 -59.879818 4294967295
312.35989 -9.7876339 -61.43042 4294967295
312.37305 -8.8436489 -61.985588 4294967295
312.3775 -9.3314228 -61.419426 4294967295
312.38419 -23.171877 -59.588074 4294967295
312.39832 -22.221832 -60.119091 4294967295
312.41229 -22.733339 -59.302013 4294967295
312.42096 -8.4308052 -61.179276 4294967295
312.42676 -21.297058 -60.275063 4294967295
312.43436 -21.796864 -59.625942 4294967295
312.45013 -20.850315 -60.113026 4294967295
312.46671 -19.905899 -60.578506 4294967295
312.46902 -20.395939 -60.067478 4294967295
312.49799 -19.472233 -60.209759 4294967295
312.52917 -19.038097 -59.843975 4294967295
312.5466 -17.610443 -60.736813 4294967295
312.54688 -17.126169 -61.17799 4294967295
312.57901 -16.693247 -60.786781 4294967295
312.58017 -16.210688 -61.205746 4294967295
312.59802 -15.754935 -61.187107 4294967295
312.63602 -14.846835 -61.091827 4294967295
312.64987 -15.352372 -60.28339 4294967295
312.68002 -14.431374 -60.393082 4294967295
312.69894 -28.312807 -58.251587 4294967295
312.70004 -13.495176 -60.765148 4294967295
312.70059 -27.336788 -59.105846 4294967295
312.70288 -13.016315 -61.140053 4294967295
312.7168 -12.072001 -61.671314 4294967295
312.71869 -12.557382 -61.17498 4294967295
312.73245 -26.905807 -58.723633 4294967295
312.73819 -11.621563 -61.56123 4294967295
312.73975 -25.453037 -59.878151 4294967295
312.74887 -25.957724 -59.193207 4294967295
312.75287 -26.453751 -58.640694 4294967295
312.76703 -10.218463 -62.149616 4294967295
312.77472 -25.027208 -59.416206 4294967295
312.78058 -9.75669 -62.244392 4294967295
312.78784 -10.730422 -61.163731 4294967295
312.79385 -24.085348 -59.812359 4294967295
312.80112 -24.585951 -59.176167 4294967295
312.81854 -23.641012 -59.617729 4294967295
312.83725 -22.699051 -60.024738 4294967295
312.84042 -23.191669 -59.495792 4294967295
312.84512 -22.225742 -60.267117 4294967295
312.85959 -8.426096 -61.528614 4294967295
312.8779 -21.795013 -59.862934 4294967295
312.87808 -21.308918 -60.303387 4294967295
312.88461 -20.833771 -60.580196 4294967295
312.91458 -20.398081 -60.247715 4294967295
312.93958 -19.46814 -60.490833 4294967295
312.94431 -18.990551 -60.814049 4294967295
312.95282 -19.975735 -59.702724 4294967295
312.9783 -18.075958 -60.823044 4294967295
312.98596 -18.573425 -60.179455 4294967295
312.98798 -17.606894 -61.017292 4294967295
313.04114 -16.238693 -60.974442 4294967295
313.04575 -15.762039 -61.299881 4294967295
313.08713 -14.376058 -61.560886 4294967295
313.09274 -15.35154 -60.529415 4294967295
313.09708 -14.87462 -60.860767 4294967295
313.09964 -28.719074 -59.163879 4294967295
313.11899 -28.265442 -59.107479 4294967295
313.14035 -13.491188 -61.073032 4294967295
313.1673 -12.084026 -61.707226 4294967295
313.18234 -26.913662 -58.804218 4294967295
313.19333 -26.444752 -58.964542 4294967295
313.20224 -25.972248 -59.178665 4294967295
313.2023 -24.996552 -60.063446 4294967295
313.20572 -11.658594 -61.159393 4294967295
313.21469 -11.189749 -61.370548 4294967295
313.22116 -25.517721 -59.133488 4294967295
313.22876 -24.555456 -59.825119 4294967295
313.23773 -10.259905 -61.661293 4294967295
313.26712 -23.647573 -59.722794 4294967295
313.27289 -9.8288603 -61.19886 4294967295
313.27994 -23.182621 -59.835598 4294967295
313.29019 -22.713478 -60.012943 4294967295
313.30109 -8.9065619 -61.355335 4294967295
313.31689 -22.272243 -59.76931 4294967295
313.32156 -21.307713 -60.53215 4294967295
313.35193 -20.872629 -60.192253 4294967295
313.37384 -20.423164 -60.071663 4294967295
313.38577 -19.957214 -60.207047 4294967295
313.38879 -19.476841 -60.570633 4294967295
313.42593 -18.082537 -60.939392 4294967295
313.43341 -18.579269 -60.306515 4294967295
313.43509 -19.067015 -59.823452 4294967295
313.46799 -17.180756 -60.743019 4294967295
313.4866 -16.726044 -60.705254 4294967295
313.50452 -16.270145 -60.686607 4294967295
313.5184 -15.808023 -60.770401 4294967295
313.57047 -28.276455 -59.141312 4294967295
313.57446 -13.960866 -61.094231 4294967295
313.57767 -14.448666 -60.573544 4294967295
313.57867 -27.80262 -59.370884 4294967295
313.60205 -13.03707 -61.266262 4294967295
313.60501 -12.559338 -61.627995 4294967295
313.61005 -12.084845 -61.938137 4294967295
313.61945 -13.545612 -60.383579 4294967295
313.62103 -27.390198 -58.728825 4294967295
313.6376 -26.443073 -59.183014 4294967295
313.65277 -26.958431 -58.356564 4294967295
313.65881 -25.504696 -59.520069 4294967295
313.66226 -11.197587 -61.481613 4294967295
313.66373 -26.001133 -58.956276 4294967295
313.67401 -11.696383 -60.74419 4294967295
313.67978 -10.741315 -61.473335 4294967295
313.6972 -10.284971 -61.466171 4294967295
313.70502 -24.610117 -59.220261 4294967295
313.72263 -23.179539 -60.085949 4294967295
313.72855 -24.163479 -59.058079 4294967295
313.73004 -9.8503151 -61.06802 4294967295
313.73776 -8.8995247 -61.744099 4294967295
313.73898 -9.3819218 -61.276585 4294967295
313.74991 -23.712988 -58.951309 4294967295
313.75244 -22.743704 -59.763187 4294967295
313.77026 -22.287399 -59.746891 4294967295
313.78598 -8.4857168 -60.955574 4294967295
313.78726 -21.34376 -60.189476 4294967295
313.80331 -20.884665 -60.218357 4294967295
313.84143 -20.461758 -59.686024 4294967295
313.86777 -19.533916 -59.89053 4294967295
313.88287 -19.073235 -59.943466 4294967295
313.89709 -18.611109 -60.019855 4294967295
313.90381 -17.653057 -60.720158 4294967295
313.90686 -18.142097 -60.207588 4294967295
313.93112 -17.211901 -60.463062 4294967295
313.94324 -16.74687 -60.592285 4294967295
313.94406 -16.264557 -61.006729 4294967295
313.98608 -15.845729 -60.377754 4294967295
314.00562 -14.909042 -60.752464 4294967295
314.01852 -28.281424 -59.260326 4294967295
314.02524 -14.455713 -60.69062 4294967295
314.03604 -27.824442 -59.252178 4294967295
314.06476 -12.584953 -61.428307 4294967295
314.07263 -26.913202 -59.196743 4294967295
314.07913 -13.570591 -60.196918 4294967295
314.07956 -13.088695 -60.620872 4294967295
314.09961 -12.153883 -60.981388 4294967295
314.11063 -26.492191 -58.670437 4294967295
314.11154 -11.689404 -61.113937 4294967295
314.12561 -10.746919 -61.625019 4294967295
314.13776 -25.076509 -59.289909 4294967295
314.15747 -9.8301277 -61.687466 4294967295
314.16071 -24.628904 -59.14352 4294967295
314.17685 -23.682722 -59.604763 4294967295
314.17807 -10.340042 -60.73402 4294967295
314.17841 -24.172117 -59.131546 4294967295
314.18961 -9.3942938 -61.309906 4294967295
314.19543 -23.227673 -59.569092 4294967295
314.20267 -8.9318237 -61.413815 4294967295
314.2103 -8.4620037 -61.654484 4294967295
314.2178 -22.778831 -59.439602 4294967295
314.25247 -22.350492 -58.997971 4294967295
314.26154 -21.879372 -59.203106 4294967295
314.27258 -21.411674 -59.358257 4294967295
314.28815 -20.951504 -59.399105 4294967295
314.29669 -20.479939 -59.617317 4294967295
314.30289 -20.004723 -59.895149 4294967295
314.31888 -19.060917 -60.356274 4294967295
314.34647 -18.620157 -60.095833 4294967295
314.38254 -18.192616 -59.620872 4294967295
314.38449 -17.227564 -60.434258 4294967295
314.39813 -17.732716 -59.66074 4294967295
314.40424 -16.774401 -60.370075 4294967295
314.43597 -14.890406 -61.297985 4294967295
314.43655 -15.856963 -60.422516 4294967295
314.45755 -14.440227 -61.187019 4294967295
314.46231 -13.965044 -61.498425 4294967295
314.4747 -15.431595 -59.894978 4294967295
314.48056 -13.50998 -61.470657 4294967295
314.49158 -28.819759 -58.317196 4294967295
314.49597 -27.362843 -59.501175 4294967295
314.51865 -13.083785 -60.946564 4294967295
314.52148 -26.432514 -59.723221 4294967295
314.52277 -27.898275 -58.397541 4294967295
314.53024 -26.935326 -59.072968 4294967295
314.54468 -25.985481 -59.573978 4294967295
314.55127 -12.167402 -60.99136 4294967295
314.56003 -11.217441 -61.629723 4294967295
314.56021 -12.662104 -60.337563 4294967295
314.56363 -25.531145 -59.529175 4294967295
314.56512 -11.705841 -61.073307 4294967295
314.58701 -25.084291 -59.374382 4294967295
314.59302 -10.783052 -61.234375 4294967295
314.60522 -9.8387928 -61.786953 4294967295
314.62424 -9.384778 -61.740292 4294967295
314.63211 -24.187414 -59.10627 4294967295
314.63809 -10.365191 -60.537861 4294967295
314.64941 -23.243677 -59.533585 4294967295
314.66092 -22.291119 -60.104713 4294967295
314.66275 -23.752403 -58.770031 4294967295
314.66956 -8.9665318 -61.039581 4294967295
314.67776 -8.497592 -61.261627 4294967295
314.70633 -21.880112 -59.400631 4294967295
314.70697 -21.39566 -59.814007 4294967295
314.72034 -20.932209 -59.908436 4294967295
314.76147 -20.513458 -59.310516 4294967295
314.7738 -19.563314 -59.861759 4294967295
314.8013 -19.122295 -59.604385 4294967295
314.81009 -18.651741 -59.813488 4294967295
314.81314 -18.17244 -60.16502 4294967295
314.85016 -17.262096 -60.099716 4294967295
314.85425 -16.784897 -60.425449 4294967295
314.8562 -16.304729 -60.80415 4294967295
314.88281 -15.861985 -60.569733 4294967295
314.90903 -14.453586 -61.197636 4294967295
314.91199 -15.422901 -60.271519 4294967295
314.91843 -28.786739 -58.966858 4294967295
314.9274 -14.963095 -60.315941 4294967295
314.93634 -14.011595 -60.946926 4294967295
314.95065 -28.355701 -58.592705 4294967295
314.96539 -27.893547 -58.654667 4294967295
314.97662 -13.10643 -60.799042 4294967295
314.98334 -27.437122 -58.63578 4294967295
314.98489 -13.600409 -60.167439 4294967295
314.99124 -26.963161 -58.86747 4294967295
314.99643 -12.653268 -60.733734 4294967295
315.00784 -26.017275 -59.309502 4294967295
315.02664 -25.562584 -59.268517 4294967295
315.03467 -26.550812 -58.215698 4294967295
315.03619 -25.092093 -59.458485 4294967295
315.03949 -11.270482 -60.943195 4294967295
315.06793 -10.348507 -61.089821 4294967295
315.0788 -24.190933 -59.255413 4294967295
315.0838 -24.685909 -58.70438 4294967295
315.09323 -23.242954 -59.748421 4294967295
315.09616 -9.4265652 -61.239914 4294967295
315.09793 -23.736656 -59.207142 4294967295
315.11313 -8.9695148 -61.244972 4294967295
315.13669 -22.828737 -59.099369 4294967295
315.15408 -8.5446501 -60.657909 4294967295
315.17712 -20.953014 -59.799385 4294967295
315.18524 -21.451096 -59.174278 4294967295
315.21475 -20.043526 -59.719257 4294967295
315.22302 -20.541382 -59.090702 4294967295
315.2572 -19.141415 -59.520626 4294967295
315.25824 -18.658909 -59.919334 4294967295
315.26624 -18.1875 -60.145588 4294967295
315.28531 -17.733244 -60.098564 4294967295
315.30255 -17.276155 -60.096828 4294967295
315.31921 -16.818159 -60.109905 4294967295
315.34259 -16.370255 -59.957573 4294967295
315.34402 -15.889492 -60.345791 4294967295
315.36819 -14.960356 -60.595497 4294967295
315.37286 -15.449667 -60.058662 4294967295
315.38538 -14.021392 -61.018265 4294967295
315.39438 -14.516489 -60.374413 4294967295
315.40106 -13.081022 -61.476463 4294967295
315.40567 -13.56905 -60.941605 4294967295
315.41049 -27.893574 -58.844421 4294967295
315.41177 -28.383591 -58.38916 4294967295
315.431 -27.441605 -58.763439 4294967295
315.43411 -12.165925 -61.507427 4294967295
315.44006 -26.482882 -59.386829 4294967295
315.45749 -26.999878 -58.535183 4294967295
315.48193 -11.271399 -61.176235 4294967295
315.48666 -25.588692 -59.085735 4294967295
315.4906 -25.108793 -59.412365 4294967295
315.49976 -10.335236 -61.580494 4294967295
315.51135 -10.831482 -60.876888 4294967295
315.52173 -24.188557 -59.491608 4294967295
315.52631 -23.710375 -59.800838 4294967295
315.54327 -24.710554 -58.541454 4294967295
315.54666 -9.4389038 -61.273849 4294967295
315.55273 -9.9272842 -60.70406 4294967295
315.55963 -22.794054 -59.827 4294967295
315.58823 -8.5350828 -61.096088 4294967295
315.60568 -22.383476 -59.119896 4294967295
315.61752 -21.917307 -59.251106 4294967295
315.63657 -21.462776 -59.205551 4294967295
315.64069 -20.98448 -59.525768 4294967295
315.65677 -20.525358 -59.552673 4294967295
315.66824 -20.058996 -59.692654 4294967295
315.6839 -19.115341 -60.150505 4294967295
315.71051 -18.189222 -60.339355 4294967295
315.74698 -17.761398 -59.86866 4294967295
315.7561 -17.291931 -60.06617 4294967295
315.75836 -16.812469 -60.429092 4294967295
315.77585 -16.355824 -60.422543 4294967295
315.79987 -15.908895 -60.255516 4294967295
315.82806 -14.503799 -60.823475 4294967295
315.83609 -28.834969 -58.666935 4294967295
315.83963 -15.484924 -59.704948 4294967295
315.8562 -15.026698 -59.719994 4294967295
315.86179 -28.39204 -58.459164 4294967295
315.87073 -13.601879 -60.621014 4294967295
315.88773 -27.461941 -58.665688 4294967295
315.89822 -26.992805 -58.82901 4294967295
315.90622 -26.519579 -59.053192 4294967295
315.9155 -26.048641 -59.246513 4294967295
315.91776 -13.187197 -59.895153 4294967295
315.94675 -11.784129 -60.443356 4294967295
315.95447 -10.353483 -61.507431 4294967295
315.95734 -25.146076 -59.065155 4294967295
315.96268 -25.641354 -58.51667 4294967295
315.96851 -24.678555 -59.211803 4294967295
315.97018 -10.855096 -60.70874 4294967295
315.97717 -11.345324 -60.121765 4294967295
315.99014 -24.228323 -59.104397 4294967295
315.99637 -9.9302158 -60.906738 4294967295
315.99973 -23.758371 -59.289078 4294967295
316.00201 -9.4578714 -61.187447 4294967295
316.01492 -23.297668 -59.337467 4294967295
316.02505 -8.5294933 -61.460865 4294967295
316.04703 -22.37912 -59.392876 4294967295
316.05225 -22.8727 -58.848591 4294967295
316.05527 -9.0490646 -60.31197 4294967295
316.06271 -21.434694 -59.845818 4294967295
316.0632 -21.920073 -59.417439 4294967295
316.08804 -20.990211 -59.649033 4294967295
316.10889 -20.53862 -59.560139 4294967295
316.15887 -19.647966 -59.182251 4294967295
316.16736 -18.210169 -60.225754 4294967295
316.1817 -19.199116 -59.045464 4294967295
316.19174 -17.763954 -60.050457 4294967295
316.22012 -16.358265 -60.610649 4294967295
316.22754 -17.33456 -59.600838 4294967295
316.2327 -16.859383 -59.891197 4294967295
316.31332 -14.565579 -60.019428 4294967295
316.31348 -15.047843 -59.600323 4294967295
316.3252 -28.911184 -57.788441 4294967295
316.32739 -28.427444 -58.149929 4294967295
316.33051 -27.458513 -58.905716 4294967295
316.33234 -14.11097 -59.975723 4294967295
316.3353 -12.671628 -61.145775 4294967295
316.33984 -13.158819 -60.623455 4294967295
316.34171 -13.642731 -60.163849 4294967295
316.35336 -27.010414 -58.770031 4294967295
316.37616 -25.589697 -59.464581 4294967295
316.38928 -11.785115 -60.673187 4294967295
316.39343 -12.271556 -60.16013 4294967295
316.39703 -25.138416 -59.37545 4294967295
316.41095 -11.334351 -60.564423 4294967295
316.42249 -24.694504 -59.176792 4294967295
316.42365 -10.871302 -60.672318 4294967295
316.44568 -9.4613714 -61.381519 4294967295
316.44949 -9.9460993 -60.87624 4294967295
316.45584 -8.9954987 -61.549648 4294967295
316.46478 -10.446568 -60.096661 4294967295
316.46912 -24.284962 -58.467663 4294967295
316.48413 -23.338276 -58.933815 4294967295
316.48755 -23.829155 -58.438511 4294967295
316.51849 -22.908081 -58.521591 4294967295
316.52518 -21.464342 -59.601566 4294967295
316.53311 -22.446247 -58.583439 4294967295
316.56836 -20.07946 -59.802792 4294967295
316.57068 -20.566921 -59.3344 4294967295
316.60611 -19.653702 -59.308582 4294967295
316.63943 -19.220718 -58.922531 4294967295
316.64774 -18.266396 -59.548073 4294967295
316.65176 -17.306784 -60.275101 4294967295
316.65527 -18.761091 -58.95475 4294967295
316.66937 -17.815702 -59.441036 4294967295
316.67786 -16.862833 -60.061398 4294967295
316.69873 -16.411049 -59.97348 4294967295
316.75259 -15.042868 -59.917057 4294967295
316.75891 -14.570176 -60.177532 4294967295
316.77319 -13.146984 -61.067513 4294967295
316.77621 -27.946938 -58.659698 4294967295
316.77972 -28.927208 -57.751774 4294967295
316.7818 -14.121109 -60.041481 4294967295
316.79745 -27.009575 -58.97464 4294967295
316.80023 -28.47476 -57.673374 4294967295
316.80804 -13.676657 -59.82481 4294967295
316.8244 -26.082209 -59.15192 4294967295
316.83398 -12.269783 -60.435902 4294967295
316.84119 -11.799143 -60.67466 4294967295
316.84991 -26.61067 -58.131519 4294967295
316.85187 -11.333478 -60.828979 4294967295
316.85486 -25.16073 -59.247223 4294967295
316.88187 -9.9344282 -61.341545 4294967295
316.89877 -10.436483 -60.530205 4294967295
316.91583 -23.803484 -59.022877 4294967295
316.92233 -24.299225 -58.457924 4294967295
316.93597 -9.0468969 -60.871044 4294967295
316.94098 -22.873829 -59.242512 4294967295
316.94189 -8.575551 -61.137711 4294967295
316.96552 -23.3978 -58.247162 4294967295
316.98856 -22.464146 -58.519512 4294967295
316.99124 -21.499405 -59.274475 4294967295
317.00464 -21.036074 -59.36533 4294967295
317.03125 -20.593138 -59.141243 4294967295
317.04288 -19.643734 -59.681255 4294967295
317.05115 -20.139835 -59.075809 4294967295
317.08878 -18.746382 -59.408142 4294967295
317.09967 -19.246096 -58.739857 4294967295
317.12601 -18.318806 -58.931824 4294967295
317.13174 -17.361612 -59.612335 4294967295
317.13779 -16.88805 -59.877151 4294967295
317.14069 -17.857515 -58.991577 4294967295
317.15988 -15.956026 -60.16777 4294967295
317.18213 -16.470188 -59.232433 4294967295
317.19681 -28.879622 -58.604557 4294967295
317.21393 -15.069786 -59.700958 4294967295
317.24319 -14.629506 -59.415138 4294967295
317.25061 -13.677294 -60.053169 4294967295
317.25125 -28.484795 -57.72102 4294967295
317.2514 -27.025433 -58.940491 4294967295
317.25357 -14.16258 -59.57674 4294967295
317.26517 -13.216527 -60.115513 4294967295
317.26965 -27.542038 -58.101048 4294967295
317.26968 -12.742079 -60.415028 4294967295
317.28378 -26.592888 -58.581192 4294967295
317.28418 -28.053165 -57.348141 4294967295
317.30963 -11.835636 -60.282909 4294967295
317.31674 -25.189644 -59.022575 4294967295
317.32974 -25.696327 -58.307953 4294967295
317.33383 -24.731941 -59.025532 4294967295
317.35529 -24.281265 -58.924404 4294967295
317.36044 -9.9839439 -60.705868 4294967295
317.36795 -9.5144911 -60.933651 4294967295
317.3887 -8.5834312 -61.254631 4294967295
317.39243 -9.0671577 -60.760921 4294967295
317.40082 -23.868731 -58.254963 4294967295
317.40967 -22.428526 -59.26553 4294967295
317.41483 -22.921074 -58.736973 4294967295
317.42984 -23.429598 -57.975674 4294967295
317.4501 -22.007164 -58.716835 4294967295
317.46423 -21.060898 -59.194389 4294967295
317.47855 -21.566902 -58.450752 4294967295
317.48911 -20.615154 -59.012894 4294967295
317.50711 -20.15885 -58.994007 4294967295
317.51694 -19.690201 -59.168694 4294967295
317.54059 -18.759413 -59.420681 4294967295
317.54651 -19.25127 -58.876209 4294967295
317.55933 -17.821775 -59.789341 4294967295
317.57202 -18.323006 -59.085964 4294967295
317.58179 -17.372208 -59.665501 4294967295
317.60608 -16.925222 -59.498199 4294967295
317.62436 -16.469429 -59.473003 4294967295
317.64072 -15.529272 -59.895866 4294967295
317.65826 -14.59146 -60.290333 4294967295
317.68155 -28.947021 -57.849556 4294967295
317.69464 -28.482193 -57.946354 4294967295
317.69601 -14.162944 -59.807823 4294967295
317.7218 -28.040791 -57.712982 4294967295
317.72662 -27.076191 -58.407635 4294967295
317.73117 -13.730455 -59.386669 4294967295
317.73615 -26.605904 -58.58802 4294967295
317.74011 -13.261844 -59.579521 4294967295
317.74408 -27.591198 -57.593578 4294967295
317.75195 -26.145964 -58.621101 4294967295
317.7562 -12.803078 -59.604706 4294967295
317.7749 -11.867462 -59.972996 4294967295
317.78723 -10.924143 -60.487713 4294967295
317.78824 -10.446016 -60.866257 4294967295
317.80527 -25.261005 -58.177711 4294967295
317.81113 -24.785101 -58.443542 4294967295
317.81491 -10.001502 -60.645115 4294967295
317.83127 -9.0646887 -61.06551 4294967295
317.83517 -24.338272 -58.282654 4294967295
317.84366 -23.38209 -58.890125 4294967295
317.84979 -9.5675182 -60.23027 4294967295
317.85327 -8.6142063 -60.950809 4294967295
317.86243 -23.896309 -58.04755 4294967295
317.88275 -22.95858 -58.378323 4294967295
317.89435 -22.49221 -58.508705 4294967295
317.91849 -22.045139 -58.347198 4294967295
317.93951 -21.109337 -58.659698 4294967295
317.94562 -21.602575 -58.114574 4294967295
317.95093 -20.159641 -59.196304 4294967295
317.96255 -20.660549 -58.52264 4294967295
317.97919 -19.718666 -58.938477 4294967295
317.98346 -19.242023 -59.23999 4294967295
317.98386 -18.759943 -59.631767 4294967295
318.02652 -17.857433 -59.43877 4294967295
318.03244 -18.348476 -58.900311 4294967295
318.03836 -17.392382 -59.563717 4294967295
318.06854 -16.471867 -59.661129 4294967295
318.09064 -16.985346 -58.745712 4294967295
318.09973 -16.034409 -59.334915 4294967295
318.134 -15.601006 -58.93708 4294967295
318.13495 -14.639624 -59.715927 4294967295
318.14041 -15.12842 -59.188583 4294967295
318.15359 -14.184418 -59.681725 4294967295
318.17407 -28.539614 -57.327988 4294967295
318.17554 -29.028927 -56.892117 4294967295
318.17932 -13.738852 -59.482925 4294967295
318.2016 -27.125954 -57.889187 4294967295
318.20483 -26.159939 -58.614361 4294967295
318.2074 -13.296315 -59.229435 4294967295
318.21063 -11.859858 -60.352894 4294967295
318.21341 -12.823833 -59.489582 4294967295
318.21384 -12.34407 -59.879627 4294967295
318.2153 -26.662331 -57.971165 4294967295
318.22952 -11.405186 -60.312138 4294967295
318.2421 -10.942132 -60.419796 4294967295
318.26865 -10.497356 -60.202229 4294967295
318.28079 -25.31076 -57.648746 4294967295
318.28796 -23.382977 -59.080704 4294967295
318.29172 -24.35783 -58.194511 4294967295
318.29779 -8.6192989 -61.11887 4294967295
318.30182 -9.581768 -60.229511 4294967295
318.3035 -24.861462 -57.520828 4294967295
318.30566 -10.065893 -59.742298 4294967295
318.30844 -23.899286 -58.20562 4294967295
318.31613 -9.1211271 -60.295437 4294967295
318.34329 -22.984373 -58.19574 4294967295
318.3559 -22.03553 -58.701733 4294967295
318.36612 -22.535221 -58.064846 4294967295
318.38385 -21.594242 -58.452061 4294967295
318.40952 -20.182623 -59.052635 4294967295
318.40955 -21.149324 -58.255356 4294967295
318.41293 -20.67095 -58.574539 4294967295
318.44846 -19.274401 -58.947052 4294967295
318.45074 -18.795158 -59.292049 4294967295
318.46173 -18.328827 -59.435154 4294967295
318.51328 -16.475281 -59.833214 4294967295
318.51654 -17.925608 -58.565865 4294967295
318.52545 -16.974144 -59.154469 4294967295
318.53076 -17.463686 -58.63488 4294967295
318.55368 -16.050638 -59.297077 4294967295
318.56763 -15.107693 -59.768257 4294967295
318.56979 -14.629858 -60.115341 4294967295
318.58966 -15.61941 -58.863422 4294967295
318.60226 -28.026205 -58.299042 4294967295
318.6207 -14.218784 -59.337311 4294967295
318.62433 -13.743088 -59.649696 4294967295
318.63828 -13.281481 -59.724766 4294967295
318.65396 -12.822261 -59.759697 4294967295
318.65454 -27.139637 -57.886238 4294967295
318.66809 -12.361078 -59.828968 4294967295
318.67191 -26.196655 -58.279148 4294967295
318.67523 -26.687309 -57.806332 4294967295
318.67639 -11.892196 -60.034061 4294967295
318.68799 -25.73711 -58.305325 4294967295
318.70572 -10.492349 -60.544628 4294967295
318.72754 -24.829681 -58.187382 4294967295
318.74121 -24.366379 -58.269001 4294967295
318.74777 -10.067269 -59.972797 4294967295
318.74911 -25.348642 -57.293495 4294967295
318.76328 -23.916162 -58.157242 4294967295
318.76773 -9.1349649 -60.302597 4294967295
318.78717 -8.6808004 -60.250847 4294967295
318.80188 -23.491318 -57.664665 4294967295
318.80368 -23.009773 -58.019058 4294967295
318.82159 -21.585625 -58.793903 4294967295
318.83594 -22.090805 -58.069057 4294967295
318.84329 -21.134804 -58.690414 4294967295
318.84937 -20.660734 -58.945774 4294967295
318.86768 -20.20491 -58.919956 4294967295
318.89615 -19.281342 -59.055283 4294967295
318.90332 -19.774399 -58.496902 4294967295
318.92822 -18.845375 -58.714462 4294967295
318.96112 -17.928074 -58.749157 4294967295
318.99106 -16.043892 -59.638081 4294967295
318.99265 -17.490826 -58.420685 4294967295
318.99918 -16.536457 -59.0592 4294967295
319.01126 -15.590897 -59.568066 4294967295
319.03757 -15.146049 -59.361221 4294967295
319.05237 -14.685509 -59.41518 4294967295
319.05908 -29.018318 -57.415161 4294967295
319.07303 -14.232904 -59.335781 4294967295
319.08716 -13.771462 -59.405666 4294967295
319.08719 -27.606237 -57.953686 4294967295
319.08926 -28.095335 -57.512215 4294967295
319.10815 -13.319234 -59.318726 4294967295
319.11148 -12.843534 -59.635334 4294967295
319.11206 -28.618439 -56.597908 4294967295
319.11789 -26.684597 -58.039249 4294967295
319.13257 -26.222841 -58.096054 4294967295
319.13428 -27.196186 -57.27103 4294967295
319.14062 -10.963769 -60.537842 4294967295
319.14847 -12.412329 -59.183502 4294967295
319.17932 -10.055571 -60.438183 4294967295
319.18979 -10.547736 -59.8088 4294967295
319.19595 -24.383261 -58.220509 4294967295
319.19891 -25.357119 -57.367828 4294967295
319.20163 -24.876511 -57.698895 4294967295
319.20639 -9.1326752 -60.603764 4294967295
319.20779 -23.433319 -58.735569 4294967295
319.22675 -8.6796932 -60.532875 4294967295
319.23318 -23.956228 -57.764091 4294967295
319.2392 -9.6523285 -59.466614 4294967295
319.26788 -23.040798 -57.757904 4294967295
319.27655 -22.086384 -58.344589 4294967295
319.28809 -21.620308 -58.472885 4294967295
319.31451 -21.176228 -58.264061 4294967295
319.3381 -20.7279 -58.118462 4294967295
319.33923 -19.764015 -58.875801 4294967295
319.36008 -20.277046 -58.010525 4294967295
319.38715 -18.386349 -58.958775 4294967295
319.39053 -19.3557 -58.100296 4294967295
319.39752 -17.919273 -59.113255 4294967295
319.40457 -18.893429 -58.171417 4294967295
319.44583 -16.061502 -59.577545 4294967295
319.44894 -17.509907 -58.33675 4294967295
319.44913 -16.547127 -59.112503 4294967295
319.4761 -15.622208 -59.280312 4294967295
319.49149 -15.162368 -59.32217 4294967295
319.50269 -14.69698 -59.457626 4294967295
319.50735 -29.024141 -57.521 4294967295
319.52325 -28.564026 -57.55088 4294967295
319.53064 -14.254145 -59.2136 4294967295
319.53165 -13.77524 -59.580364 4294967295
319.54163 -28.107891 -57.524696 4294967295
319.56525 -26.689701 -58.159687 4294967295
319.57022 -27.668087 -57.266472 4294967295
319.57339 -27.187653 -57.585567 4294967295
319.57654 -13.354667 -58.952423 4294967295
319.5914 -11.934756 -59.783234 4294967295
319.59448 -11.459484 -60.102558 4294967295
319.59854 -12.423588 -59.232853 4294967295
319.62436 -26.297642 -57.211121 4294967295
319.6358 -25.345846 -57.730537 4294967295
319.64487 -24.391121 -58.30526 4294967295
319.64557 -11.045721 -59.335819 4294967295
319.65909 -23.92894 -58.371941 4294967295
319.66278 -10.588434 -59.33532 4294967295
319.67163 -10.12064 -59.523636 4294967295
319.67902 -9.1727276 -60.132912 4294967295
319.68533 -8.7023611 -60.378159 4294967295
319.68756 -9.6618299 -59.55191 4294967295
319.71402 -23.044458 -57.908211 4294967295
319.71713 -23.533012 -57.449314 4294967295
319.79868 -20.753231 -57.939308 4294967295
319.8111 -20.28846 -58.047241 4294967295
319.82562 -19.826813 -58.107746 4294967295
319.83911 -18.399687 -58.966755 4294967295
319.84799 -18.89414 -58.379536 4294967295
319.85608 -19.387905 -57.810356 4294967295
319.85925 -17.946362 -58.900795 4294967295
319.88382 -17.499165 -58.734936 4294967295
319.89053 -16.54607 -59.357712 4294967295
319.90207 -17.04311 -58.710976 4294967295
319.91104 -15.612685 -59.669636 4294967295
319.91885 -16.10404 -59.10627 4294967295
319.94092 -15.172634 -59.383995 4294967295
319.97202 -14.733989 -59.071175 4294967295
319.99265 -28.603931 -57.178913 4294967295
319.99823 -14.288544 -58.869019 4294967295
320.00647 -13.339352 -59.455727 4294967295
320.02383 -27.682537 -57.252506 4294967295
320.04105 -28.195457 -56.477921 4294967295
320.0451 -26.745781 -57.548286 4294967295
320.05865 -12.447832 -59.056831 4294967295
320.06259 -27.258421 -56.767517 4294967295
320.07178 -11.985231 -59.147591 4294967295
320.08536 -10.565444 -59.998444 4294967295
320.08612 -26.3249 -57.012787 4294967295
320.08746 -24.873466 -58.14241 4294967295
320.09082 -25.847332 -57.294476 4294967295
320.09628 -11.537188 -58.983467 4294967295
320.09909 -11.061548 -59.306026 4294967295
320.09933 -25.375904 -57.489605 4294967295
320.10138 -10.10702 -60.023388 4294967295
320.11142 -24.42598 -57.990997 4294967295
320.13824 -9.6742754 -59.583992 4294967295
320.15765 -9.2197886 -59.53458 4294967295
320.17459 -24.037571 -56.960388 4294967295
320.1752 -22.587322 -58.104233 4294967295
320.18219 -23.564949 -57.175892 4294967295
320.18469 -22.118225 -58.276875 4294967295
320.23627 -20.745094 -58.278088 4294967295
320.29193 -18.895906 -58.570885 4294967295
320.29385 -19.862867 -57.758888 4294967295
320.32092 -18.454803 -58.308079 4294967295
320.32379 -17.495926 -59.011639 4294967295
320.32797 -17.983053 -58.534199 4294967295
320.3364 -17.032213 -59.114262 4294967295
320.36276 -16.587324 -58.910236 4294967295
320.36542 -16.110254 -59.233673 4294967295
320.39301 -15.666916 -59.001865 4294967295
320.41559 -15.2167 -58.882061 4294967295
320.41837 -14.260171 -59.585747 4294967295
320.43121 -14.757164 -58.917133 4294967295
320.44312 -28.613443 -57.233757 4294967295
320.4566 -13.350871 -59.499043 4294967295
320.47824 -12.899408 -59.39999 4294967295
320.48456 -12.42821 -59.64204 4294967295
320.49008 -26.747122 -57.722809 4294967295
320.49197 -27.234806 -57.297096 4294967295
320.51349 -11.985999 -59.380962 4294967295
320.52036 -25.825081 -57.814072 4294967295
320.52466 -27.771173 -56.185184 4294967295
320.54422 -11.545856 -59.079739 4294967295
320.54688 -11.070245 -59.402931 4294967295
320.55048 -25.386913 -57.526794 4294967295
320.55194 -10.119523 -60.053761 4294967295
320.55829 -10.605798 -59.531242 4294967295
320.55896 -26.368921 -56.572605 4294967295
320.59024 -24.479013 -57.408588 4294967295
320.59625 -24.004213 -57.65831 4294967295
320.59833 -9.6983614 -59.40538 4294967295
320.60071 -9.2231188 -59.733143 4294967295
320.60361 -23.048397 -58.259396 4294967295
320.60748 -23.537434 -57.790821 4294967295
320.61401 -8.7612915 -59.819584 4294967295
320.63477 -22.611277 -57.948895 4294967295
320.65955 -22.164568 -57.780308 4294967295
320.69437 -20.284698 -58.534775 4294967295
320.69626 -21.734978 -57.348042 4294967295
320.70554 -21.265484 -57.524529 4294967295
320.7077 -19.821638 -58.620857 4294967295
320.71024 -20.789604 -57.801903 4294967295
320.73328 -19.375858 -58.435715 4294967295
320.74512 -18.910782 -58.554153 4294967295
320.75943 -18.449251 -58.617752 4294967295
320.76193 -17.971504 -58.942204 4294967295
320.80719 -17.071386 -58.703327 4294967295
320.81204 -17.55909 -58.215363 4294967295
320.84164 -16.156523 -58.70121 4294967295
320.84439 -15.679735 -59.02084 4294967295
320.86029 -15.22068 -59.04887 4294967295
320.87143 -14.755302 -59.183357 4294967295
320.88962 -14.299339 -59.160633 4294967295
320.8996 -13.832619 -59.320557 4294967295
320.91699 -28.659821 -56.771095 4294967295
320.9202 -13.379824 -59.243984 4294967295
320.93484 -12.440167 -59.679203 4294967295
320.94336 -28.215986 -56.567909 4294967295
320.94998 -12.938604 -58.966961 4294967295
320.96338 -27.276981 -56.887669 4294967295
320.97989 -12.018163 -59.065506 4294967295
320.99036 -25.864925 -57.432209 4294967295
320.99796 -11.083176 -59.424652 4294967295
321.00113 -26.85043 -56.433643 4294967295
321.00751 -11.573865 -58.835789 4294967295
321.00949 -10.618978 -59.549007 4294967295
321.01605 -26.388542 -56.484642 4294967295
321.01666 -25.4207 -57.231625 4294967295
321.03668 -9.6958761 -59.707458 4294967295
321.04514 -24.012171 -57.742195 4294967295
321.05359 -9.238471 -59.712753 4294967295
321.06799 -23.562651 -57.617821 4294967295
321.06839 -8.7784863 -59.765488 4294967295
321.07782 -24.544489 -56.642723 4294967295
321.11276 -22.661942 -57.389812 4294967295
321.14368 -21.740891 -57.467369 4294967295
321.15106 -22.234465 -56.926033 4294967295
321.16238 -21.285027 -57.435238 4294967295
321.16965 -20.812967 -57.65324 4294967295
321.17731 -20.341576 -57.863571 4294967295
321.1857 -19.871422 -58.056976 4294967295
321.22723 -18.003176 -58.656353 4294967295
321.2395 -18.982782 -57.631851 4294967295
321.2579 -17.083183 -58.73761 4294967295
321.26999 -16.618904 -58.849007 4294967295
321.29556 -16.172607 -58.665836 4294967295
321.29617 -15.693152 -59.029816 4294967295
321.31873 -15.242907 -58.911243 4294967295
321.34204 -14.793427 -58.778339 4294967295
321.35419 -14.329411 -58.889252 4294967295
321.37027 -13.87066 -58.912216 4294967295
321.37311 -28.678085 -56.703148 4294967295
321.41412 -28.256788 -56.181786 4294967295
321.43115 -27.798061 -56.185986 4294967295
321.4324 -12.991047 -58.305653 4294967295
321.44302 -12.525082 -58.450275 4294967295
321.44412 -27.333122 -56.278736 4294967295
321.44556 -11.091918 -59.52034 4294967295
321.45471 -12.060635 -58.570198 4294967295
321.46124 -26.390003 -56.658779 4294967295
321.46304 -10.635079 -59.514534 4294967295
321.46552 -26.881042 -56.18819 4294967295
321.46619 -10.160882 -59.820339 4294967295
321.48227 -9.7024689 -59.845154 4294967295
321.48535 -25.457966 -56.885544 4294967295
321.48663 -24.976074 -57.23386 4294967295
321.50037 -24.029585 -57.685783 4294967295
321.51569 -8.7872486 -59.86602 4294967295
321.5379 -24.568493 -56.489178 4294967295
321.54105 -22.640144 -57.925888 4294967295
321.54172 -9.2960291 -58.923653 4294967295
321.55988 -23.633568 -56.762383 4294967295
321.56644 -21.711815 -58.121647 4294967295
321.57211 -23.168167 -56.870453 4294967295
321.58661 -21.258335 -58.057041 4294967295
321.5885 -22.225895 -57.264454 4294967295
321.60754 -20.805895 -57.975521 4294967295
321.62057 -20.342262 -58.067284 4294967295
321.66055 -19.434565 -57.94574 4294967295
321.67291 -19.93346 -57.301361 4294967295
321.69073 -18.032223 -58.412613 4294967295
321.69449 -18.518429 -57.955849 4294967295
321.69806 -19.00465 -57.50441 4294967295
321.73074 -17.605429 -57.915447 4294967295
321.76001 -16.202564 -58.402206 4294967295
321.77994 -15.748617 -58.342178 4294967295
321.79169 -14.324606 -59.20726 4294967295
321.81146 -14.829699 -58.404541 4294967295
321.82175 -28.684742 -56.798126 4294967295
321.8555 -13.447368 -58.568802 4294967295
321.86279 -12.977407 -58.783463 4294967295
321.87515 -28.282299 -56.011539 4294967295
321.87991 -27.320137 -56.656689 4294967295
321.88831 -12.53037 -58.603127 4294967295
321.89066 -11.097623 -59.669903 4294967295
321.90411 -26.388226 -56.879623 4294967295
321.90445 -10.636436 -59.743019 4294967295
321.91833 -12.088808 -58.324837 4294967295
321.92435 -11.617393 -58.567425 4294967295
321.92929 -10.18863 -59.576889 4294967295
321.93152 -25.945297 -56.658768 4294967295
321.94409 -25.480169 -56.75943 4294967295
321.94882 -25.003492 -57.0308 4294967295
321.9866 -9.3015814 -59.081707 4294967295
321.99234 -24.584082 -56.459888 4294967295
321.99884 -8.3611021 -59.559082 4294967295
322.00781 -8.8490324 -58.994381 4294967295
322.0098 -23.1598 -57.201241 4294967295
322.0166 -24.136017 -56.307827 4294967295
322.01688 -22.687223 -57.421227 4294967295
322.02222 -23.660809 -56.559311 4294967295
322.03336 -22.228275 -57.436539 4294967295
322.03683 -21.750908 -57.733601 4294967295
322.09232 -21.346905 -56.906128 4294967295
322.10709 -20.403324 -57.33128 4294967295
322.13943 -19.966259 -57.003822 4294967295
322.14246 -19.007254 -57.682426 4294967295
322.17596 -18.571449 -57.331139 4294967295
322.18726 -16.663666 -58.57225 4294967295
322.18887 -18.107704 -57.423771 4294967295
322.20453 -17.647718 -57.456871 4294967295
322.20761 -16.210354 -58.503441 4294967295
322.2645 -15.804441 -57.648796 4294967295
322.28113 -13.906929 -58.772812 4294967295
322.31543 -12.992062 -58.773422 4294967295
322.31866 -28.280872 -56.221626 4294967295
322.3197 -13.476412 -58.312565 4294967295
322.33502 -12.5376 -58.722275 4294967295
322.33533 -26.853161 -56.975861 4294967295
322.33582 -27.822376 -56.223228 4294967295
322.33603 -28.792421 -55.475414 4294967295
322.34555 -12.071968 -58.865559 4294967295
322.35477 -26.398376 -56.928181 4294967295
322.37061 -10.667869 -59.435219 4294967295
322.38376 -11.640249 -58.41433 4294967295
322.38956 -25.482681 -56.920757 4294967295
322.39157 -25.002304 -57.247482 4294967295
322.42401 -10.254003 -58.658146 4294967295
322.42499 -24.567934 -56.899017 4294967295
322.42703 -9.7797108 -58.962486 4294967295
322.43307 -8.8319321 -59.569214 4294967295
322.439 -8.3617229 -59.811058 4294967295
322.44351 -23.628817 -57.240555 4294967295
322.45538 -23.163113 -57.356659 4294967295
322.46384 -24.141144 -56.434048 4294967295
322.48898 -21.764034 -57.742668 4294967295
322.49942 -22.743298 -56.780777 4294967295
322.50339 -22.266424 -57.065002 4294967295
322.54395 -20.876942 -57.302036 4294967295
322.57343 -19.954189 -57.408878 4294967295
322.59177 -19.497803 -57.384663 4294967295
322.61292 -19.045153 -57.301025 4294967295
322.62244 -17.615498 -58.201389 4294967295
322.6235 -18.578339 -57.442207 4294967295
322.63361 -18.110931 -57.594639 4294967295
322.63547 -17.152397 -58.290447 4294967295
322.66913 -16.71637 -57.938145 4294967295
322.6897 -16.262995 -57.866623 4294967295
322.69775 -15.313705 -58.430004 4294967295
322.75052 -13.942653 -58.404175 4294967295
322.75952 -28.760263 -56.115131 4294967295
322.76343 -27.797445 -56.76799 4294967295
322.77243 -14.449609 -57.569637 4294967295
322.77325 -13.013081 -58.653938 4294967295
322.77423 -12.535668 -59.000298 4294967295
322.78961 -28.321348 -55.840271 4294967295
322.78983 -26.86916 -56.939934 4294967295
322.80249 -12.091925 -58.763485 4294967295
322.83862 -10.701302 -59.09193 4294967295
322.8515 -25.509588 -56.725967 4294967295
322.85825 -26.00296 -56.215286 4294967295
322.86313 -25.043243 -56.846031 4294967295
322.8649 -9.7772436 -59.26387 4294967295
322.88525 -10.278946 -58.465405 4294967295
322.88553 -9.3240347 -59.191105 4294967295
322.9014 -8.8652496 -59.219631 4294967295
322.90613 -24.622391 -56.296188 4294967295
322.91412 -22.703152 -57.59362 4294967295
322.91675 -8.4059086 -59.258656 4294967295
322.92212 -23.196726 -57.056999 4294967295
322.92828 -24.171148 -56.190929 4294967295
322.95084 -22.272665 -57.178299 4294967295
322.95474 -21.796139 -57.461552 4294967295
322.99231 -21.366413 -57.028809 4294967295
323.00735 -20.90539 -57.074764 4294967295
323.02728 -20.451082 -57.016823 4294967295
323.03677 -19.982536 -57.180988 4294967295
323.03973 -19.505276 -57.484623 4294967295
323.0531 -19.042259 -57.566151 4294967295
323.08148 -17.63817 -58.059525 4294967295
323.08527 -18.604355 -57.248302 4294967295
323.09192 -18.132452 -57.471889 4294967295
323.09634 -17.1775 -58.108673 4294967295
323.14362 -16.758888 -57.470764 4294967295
323.1474 -16.283672 -57.755985 4294967295
323.16064 -15.82082 -57.840107 4294967295
323.19278 -15.38206 -57.523987 4294967295
323.19562 -13.947748 -58.556194 4294967295
323.20929 -14.443871 -57.903461 4294967295
323.23401 -12.559258 -58.835606 4294967295
323.23862 -13.043439 -58.373489 4294967295
323.25037 -13.536686 -57.762383 4294967295
323.25488 -28.352875 -55.585266 4294967295
323.25903 -27.874737 -55.862598 4294967295
323.27325 -12.128633 -58.369026 4294967295
323.28891 -26.950966 -55.96043 4294967295
323.2919 -10.717015 -59.064369 4294967295
323.29492 -11.676487 -58.274395 4294967295
323.30405 -26.489487 -56.004154 4294967295
323.30548 -11.210953 -58.415459 4294967295
323.30649 -10.256642 -59.120197 4294967295
323.30688 -25.526741 -56.673717 4294967295
323.33859 -26.056324 -55.637863 4294967295
323.35342 -24.627726 -56.41811 4294967295
323.35965 -9.3639698 -58.723404 4294967295
323.3656 -8.8935976 -58.961311 4294967295
323.38318 -24.187307 -56.153358 4294967295
323.3945 -23.238026 -56.641945 4294967295
323.40533 -22.77092 -56.776833 4294967295
323.41263 -21.817158 -57.349915 4294967295
323.41394 -22.300747 -56.959789 4294967295
323.41525 -8.4734316 -58.275841 4294967295
323.42157 -21.347895 -57.524467 4294967295
323.47131 -20.934479 -56.837605 4294967295
323.48923 -19.515011 -57.548786 4294967295
323.49997 -20.010401 -56.961002 4294967295
323.51813 -19.072714 -57.302689 4294967295
323.52649 -18.603077 -57.489479 4294967295
323.57288 -17.222715 -57.600147 4294967295
323.5744 -16.74472 -57.930115 4294967295
323.63345 -15.381124 -57.772709 4294967295
323.65216 -15.884382 -57.019138 4294967295
323.65985 -14.455617 -57.941818 4294967295
323.6604 -14.935523 -57.569111 4294967295
323.68039 -12.566477 -58.954792 4294967295
323.68359 -14.006015 -57.804688 4294967295
323.69437 -12.105363 -59.021622 4294967295
323.71841 -27.897369 -55.732727 4294967295
323.72827 -13.103057 -57.589355 4294967295
323.73798 -26.958542 -56.04541 4294967295
323.75305 -25.530664 -56.81419 4294967295
323.7532 -26.013882 -56.449749 4294967295
323.754 -11.698688 -58.132893 4294967295
323.75415 -10.265833 -59.209988 4294967295
323.75955 -27.474125 -55.229786 4294967295
323.76871 -10.760334 -58.545128 4294967295
323.77533 -11.246044 -58.045059 4294967295
323.78882 -26.549053 -55.340343 4294967295
323.82458 -9.3929825 -58.454563 4294967295
323.83527 -8.4511089 -58.95116 4294967295
323.84256 -23.244938 -56.743256 4294967295
323.85986 -8.9561272 -58.076778 4294967295
323.862 -23.754549 -55.974957 4294967295
323.86884 -22.799427 -56.552879 4294967295
323.88129 -22.334663 -56.652817 4294967295
323.89639 -20.910656 -57.418633 4294967295
323.93506 -20.48173 -56.968689 4294967295
323.94214 -19.529301 -57.541176 4294967295
323.94821 -20.018211 -57.054546 4294967295
323.98334 -19.103121 -57.040207 4294967295
324.02054 -17.710413 -57.341751 4294967295
324.02698 -16.758945 -57.92511 4294967295
324.05884 -17.279682 -56.900837 4294967295
324.08557 -15.874079 -57.420925 4294967295
324.1123 -15.428167 -57.222023 4294967295
324.12607 -14.007857 -58.011925 4294967295
324.13602 -14.978283 -57.086975 4294967295
324.14465 -14.509706 -57.265621 4294967295
324.16245 -13.573586 -57.612507 4294967295
324.18216 -12.640374 -57.918262 4294967295
324.18509 -13.122382 -57.499218 4294967295
324.19061 -11.694325 -58.45789 4294967295
324.22095 -10.29735 -58.899036 4294967295
324.22711 -11.259516 -58.057358 4294967295
324.23605 -10.79232 -58.22784 4294967295
324.24103 -26.561028 -55.362785 4294967295
324.24387 -24.633118 -56.739948 4294967295
324.24875 -25.122646 -56.278999 4294967295
324.25449 -25.613747 -55.800385 4294967295
324.26074 -9.3889046 -58.787708 4294967295
324.27307 -24.191847 -56.490253 4294967295
324.28699 -9.896224 -57.88488 4294967295
324.29758 -23.743809 -56.338776 4294967295
324.30042 -22.783825 -56.994934 4294967295
324.32101 -23.294216 -56.208809 4294967295
324.32166 -8.9812031 -57.878571 4294967295
324.33908 -22.355095 -56.550529 4294967295
324.35092 -21.408253 -57.019131 4294967295
324.39444 -20.985546 -56.473785 4294967295
324.40231 -20.033909 -57.024796 4294967295
324.41583 -20.532921 -56.386936 4294967295
324.47144 -18.202263 -57.019714 4294967295
324.47983 -18.693573 -56.488838 4294967295
324.49957 -17.758345 -56.792637 4294967295
324.50613 -17.28665 -57.013653 4294967295
324.53763 -15.887468 -57.430477 4294967295
324.5416 -14.934229 -58.060318 4294967295
324.55084 -16.383587 -56.801014 4294967295
324.55676 -15.432018 -57.390823 4294967295
324.5737 -14.016249 -58.107994 4294967295
324.61484 -13.587572 -57.61393 4294967295
324.61835 -12.157356 -58.606857 4294967295
324.62546 -12.643741 -58.104275 4294967295
