# .PCD v0.7 - Point Cloud Data file format
VERSION 0.7
FIELDS x y z rgb
SIZE 4 4 4 4
TYPE F F F U
COUNT 1 1 1 1
WIDTH 1120
HEIGHT 1
VIEWPOINT 0 0 0 1 0 0 0
POINTS 1120
DATA ascii
198.4422 -78.283508 -57.724083 4294967295
198.44939 -77.840057 -57.549973 4294967295
198.4615 -77.38694 -57.460342 4294967295
198.50441 -76.87487 -57.895767 4294967295
198.507 -76.44001 -57.643501 4294967295
198.83603 -78.859673 -56.830475 4294967295
198.85861 -78.386169 -56.919113 4294967295
198.87878 -77.91729 -56.967232 4294967295
198.88617 -79.190781 -57.989628 4294967295
198.93057 -77.387398 -57.557987 4294967295
198.979 -76.864342 -58.091587 4294967295
199.00888 -76.377357 -58.306374 4294967295
199.31772 -79.264442 -57.443882 4294967295
199.35226 -78.767479 -57.740608 4294967295
199.37941 -77.856239 -57.608608 4294967295
199.38373 -77.418571 -57.382584 4294967295
199.42038 -76.917938 -57.715942 4294967295
199.44293 -76.444839 -57.805458 4294967295
199.44849 -76.004623 -57.600559 4294967295
199.80881 -79.220589 -57.927296 4294967295
199.82878 -77.465813 -57.064545 4294967295
199.84326 -77.866417 -57.619568 4294967295
199.84441 -78.292961 -57.94183 4294967295
199.92459 -75.991058 -57.825333 4294967295
199.92673 -76.416107 -58.164936 4294967295
200.24075 -78.436966 -56.772484 4294967295
200.25548 -78.836304 -57.335716 4294967295
200.26794 -79.239792 -57.858398 4294967295
200.29289 -77.904671 -57.381996 4294967295
200.30408 -77.453728 -57.273315 4294967295
200.3764 -76.882385 -58.23674 4294967295
200.69279 -79.32814 -57.184227 4294967295
200.71695 -78.851295 -57.303795 4294967295
200.74075 -78.375259 -57.417015 4294967295
200.76852 -77.891335 -57.600822 4294967295
200.78371 -77.432693 -57.561485 4294967295
200.84653 -76.0224 -57.750179 4294967295
201.13776 -79.37661 -56.859196 4294967295
201.16887 -78.457344 -56.793724 4294967295
201.19278 -78.837151 -57.527874 4294967295
201.23001 -77.049286 -56.953606 4294967295
201.25226 -77.861336 -57.967072 4294967295
201.27408 -76.532913 -57.427975 4294967295
201.27702 -77.383614 -58.09861 4294967295
201.27725 -76.097969 -57.175159 4294967295
201.63588 -78.461357 -56.858772 4294967295
201.65163 -78.857216 -57.451515 4294967295
201.68304 -77.93779 -57.39167 4294967295
201.6909 -77.493881 -57.221283 4294967295
201.70567 -77.035973 -57.174263 4294967295
201.71834 -76.58226 -57.089497 4294967295
201.75807 -76.074341 -57.490234 4294967295
202.09013 -78.491241 -56.695656 4294967295
202.09811 -79.33004 -57.46566 4294967295
202.10049 -78.897705 -57.195477 4294967295
202.14107 -77.959541 -57.30003 4294967295
202.18559 -77.013542 -57.475922 4294967295
202.1917 -77.428848 -57.899765 4294967295
202.21721 -76.521751 -57.732796 4294967295
202.22479 -76.078453 -57.556423 4294967295
202.52766 -79.410805 -56.857822 4294967295
202.56645 -78.048401 -56.61499 4294967295
202.59395 -77.564354 -56.798462 4294967295
202.61156 -78.383095 -57.749275 4294967295
202.61905 -77.085358 -56.938324 4294967295
202.67261 -76.12072 -57.280228 4294967295
203.01295 -79.376099 -57.260902 4294967295
203.0406 -78.89164 -57.448402 4294967295
203.04973 -77.591209 -56.661606 4294967295
203.05199 -78.441025 -57.338951 4294967295
203.06082 -77.995674 -57.182228 4294967295
203.09714 -77.066147 -57.211189 4294967295
203.10101 -76.630714 -56.963699 4294967295
203.14215 -76.119034 -57.398445 4294967295
203.4514 -79.439178 -56.808029 4294967295
203.49724 -78.916298 -57.331734 4294967295
203.52426 -78.006264 -57.189301 4294967295
203.5356 -77.555687 -57.078133 4294967295
203.56592 -77.065826 -57.316101 4294967295
203.57518 -76.619476 -57.16658 4294967295
203.59785 -76.14547 -57.264183 4294967295
203.9252 -79.001572 -56.682537 4294967295
203.93835 -78.54718 -56.604099 4294967295
203.97092 -78.052055 -56.885334 4294967295
203.97293 -77.620972 -56.600201 4294967295
203.99715 -77.143463 -56.726639 4294967295
204.04938 -76.607796 -57.373505 4294967295
204.4071 -78.973099 -57.03215 4294967295
204.42751 -78.50354 -57.088848 4294967295
204.44533 -77.186371 -56.446472 4294967295
204.45094 -78.027657 -57.201729 4294967295
204.51201 -76.193069 -57.043274 4294967295
204.82927 -79.498062 -56.590591 4294967295
204.87579 -78.972298 -57.139046 4294967295
204.88335 -77.677734 -56.299454 4294967295
204.89899 -78.070786 -56.921329 4294967295
204.90134 -78.491791 -57.292747 4294967295
204.94296 -76.271965 -56.438972 4294967295
204.95772 -77.093773 -57.372776 4294967295
205.30492 -79.482323 -56.827477 4294967295
205.3233 -78.591263 -56.51664 4294967295
205.32632 -79.010422 -56.904083 4294967295
205.36124 -78.083885 -56.90641 4294967295
205.38928 -76.745674 -56.448715 4294967295
205.39456 -77.160629 -56.879402 4294967295
205.4005 -76.295403 -56.331787 4294967295
205.40552 -77.563171 -57.417007 4294967295
205.71832 -79.601906 -55.880634 4294967295
205.7863 -78.602852 -56.514778 4294967295
205.82881 -77.233818 -56.329796 4294967295
205.85797 -77.596863 -57.219559 4294967295
205.86731 -76.299194 -56.400787 4294967295
205.87332 -76.712425 -56.848236 4294967295
206.20247 -79.567482 -56.280884 4294967295
206.22559 -78.66629 -56.056293 4294967295
206.23138 -79.078949 -56.502052 4294967295
206.28175 -77.693016 -56.46785 4294967295
206.29834 -78.082291 -57.121819 4294967295
206.31613 -77.192978 -56.795067 4294967295
206.35954 -76.673683 -57.296551 4294967295
206.37108 -76.223305 -57.183891 4294967295
206.66246 -79.160912 -55.882366 4294967295
206.68336 -79.539459 -56.625088 4294967295
206.69505 -78.664001 -56.176743 4294967295
206.73444 -78.152336 -56.603584 4294967295
206.7626 -77.240326 -56.475517 4294967295
206.76772 -77.65435 -56.91201 4294967295
206.82936 -76.669724 -57.434162 4294967295
206.84187 -76.2174 -57.339581 4294967295
207.07639 -80.131805 -55.598206 4294967295
207.12343 -79.601982 -56.177574 4294967295
207.15685 -78.678314 -56.150932 4294967295
207.18634 -78.188187 -56.387516 4294967295
207.21332 -77.278885 -56.23428 4294967295
207.22432 -77.67955 -56.78981 4294967295
207.57733 -80.058182 -56.33849 4294967295
207.59171 -79.601715 -56.279099 4294967295
207.60356 -79.150803 -56.17046 4294967295
207.6116 -78.283859 -55.643005 4294967295
207.64482 -78.63414 -56.640228 4294967295
207.65384 -77.765068 -56.132816 4294967295
207.69127 -77.257362 -56.52755 4294967295
207.69463 -76.825111 -56.251236 4294967295
207.74263 -76.294403 -56.855198 4294967295
208.03964 -80.071075 -56.324921 4294967295
208.06029 -78.75238 -55.699181 4294967295
208.07217 -78.301292 -55.589554 4294967295
208.11983 -77.770004 -56.190357 4294967295
208.15401 -77.269211 -56.52401 4294967295
208.19183 -76.336067 -56.584866 4294967295
208.19806 -76.746651 -57.054173 4294967295
208.45042 -80.202141 -55.281521 4294967295
208.47986 -79.710991 -55.522053 4294967295
208.50731 -79.224472 -55.723457 4294967295
208.5621 -78.676064 -56.471325 4294967295
208.56516 -78.245354 -56.184597 4294967295
208.60805 -77.724495 -56.695114 4294967295
208.63115 -77.248543 -56.809509 4294967295
208.65231 -76.777039 -56.88504 4294967295
208.96164 -80.102676 -56.246681 4294967295
208.97716 -78.796944 -55.507339 4294967295
208.9819 -79.63282 -56.304489 4294967295
209.02419 -77.418076 -55.403091 4294967295
209.03334 -78.244858 -56.289711 4294967295
209.06375 -77.751999 -56.55249 4294967295
209.06627 -76.898727 -55.901154 4294967295
209.0721 -76.461411 -55.66758 4294967295
209.38385 -79.785797 -55.066422 4294967295
209.39177 -80.190437 -55.580643 4294967295
209.40875 -78.881302 -54.864983 4294967295
209.42621 -79.264275 -55.573677 4294967295
209.4362 -78.394409 -55.069359 4294967295
209.47736 -77.876274 -55.552048 4294967295
209.49904 -77.402969 -55.639317 4294967295
209.5264 -76.49295 -55.487999 4294967295
209.5475 -76.868713 -56.27137 4294967295
209.84962 -79.791428 -55.116371 4294967295
209.88364 -78.865982 -55.100113 4294967295
209.92375 -78.34964 -55.56559 4294967295
209.94208 -77.884056 -55.584412 4294967295
209.96544 -76.983398 -55.350082 4294967295
209.981 -77.370964 -56.025795 4294967295
210.00504 -76.469048 -55.805046 4294967295
210.02556 -75.998512 -55.869331 4294967295
210.26431 -80.340271 -54.472847 4294967295
210.3078 -79.392113 -54.651806 4294967295
210.32101 -79.783615 -55.283791 4294967295
210.34952 -78.871246 -55.154102 4294967295
210.37799 -78.381805 -55.382324 4294967295
210.38025 -77.953583 -55.069386 4294967295
210.42743 -77.420708 -55.685112 4294967295
210.45204 -76.517418 -55.474495 4294967295
210.46286 -76.915543 -56.057945 4294967295
210.49046 -76.005531 -55.909546 4294967295
210.78426 -79.794762 -55.285599 4294967295
210.80339 -79.327118 -55.321529 4294967295
210.82988 -78.842117 -55.510654 4294967295
210.90459 -76.553482 -55.254547 4294967295
210.93517 -76.059357 -55.529358 4294967295
211.21365 -80.308945 -54.943012 4294967295
211.21854 -79.875374 -54.680176 4294967295
211.28432 -79.295837 -55.695358 4294967295
211.30687 -78.820152 -55.803917 4294967295
211.34801 -77.456383 -55.571274 4294967295
211.35506 -76.594727 -54.988014 4294967295
211.43097 -75.994087 -56.219082 4294967295
211.69014 -80.288055 -55.223434 4294967295
211.71696 -79.380318 -55.054359 4294967295
211.73523 -79.757484 -55.809296 4294967295
211.80977 -78.735321 -56.650547 4294967295
211.89178 -76.432091 -56.546993 4294967295
212.17857 -80.237297 -55.764061 4294967295
212.22987 -79.691269 -56.487122 4294967295
212.24397 -79.236176 -56.417683 4294967295
212.27394 -78.742622 -56.686295 4294967295
212.3541 -76.444107 -56.542027 4294967295
212.71695 -79.221977 -56.64159 4294967295
213.09454 -80.283859 -55.555607 4294967295
213.12848 -79.779503 -55.914108 4294967295
213.21822 -78.717468 -57.107506 4294967295
213.66516 -79.605423 -57.533714 4294967295
222.83481 -80.431511 -56.335594 4294967295
223.30621 -80.412903 -56.595329 4294967295
223.35803 -79.844963 -57.515095 4294967295
223.70782 -80.609985 -54.980816 4294967295
223.77724 -79.577003 -55.915321 4294967295
223.78552 -79.960358 -56.607231 4294967295
224.16959 -80.622337 -54.971596 4294967295
224.19627 -80.130203 -55.224972 4294967295
224.26317 -78.695686 -55.626942 4294967295
224.27267 -79.48336 -56.83358 4294967295
224.2809 -79.049408 -56.584366 4294967295
224.30655 -76.924362 -54.91309 4294967295
224.63646 -80.618462 -55.103531 4294967295
224.65225 -80.160423 -55.060204 4294967295
224.65897 -79.731079 -54.765678 4294967295
224.69011 -78.816177 -54.665798 4294967295
224.69492 -79.209648 -55.277588 4294967295
224.7243 -77.891632 -54.649887 4294967295
224.78526 -76.884415 -55.372078 4294967295
224.80017 -76.4291 -55.30415 4294967295
225.06868 -80.317299 -53.791367 4294967295
225.11118 -80.588943 -55.458015 4294967295
225.12007 -79.745628 -54.737736 4294967295
225.15099 -79.239548 -55.114651 4294967295
225.18863 -78.71244 -55.679581 4294967295
225.22112 -78.202034 -56.100807 4294967295
225.22908 -77.36084 -55.353348 4294967295
225.24989 -77.703568 -56.418953 4294967295
225.26967 -76.41684 -55.516891 4294967295
225.52284 -80.762634 -54.04726 4294967295
225.5742 -79.782547 -54.513805 4294967295
225.5874 -79.332886 -54.395176 4294967295
225.61971 -78.414246 -54.326012 4294967295
225.62845 -78.793884 -55.062477 4294967295
225.65605 -77.890747 -54.860245 4294967295
225.67574 -77.420418 -54.925007 4294967295
225.76532 -76.321655 -56.472733 4294967295
226.02551 -80.641777 -55.195171 4294967295
226.0452 -78.951424 -53.775311 4294967295
226.11113 -77.924423 -54.662754 4294967295
226.11864 -77.492905 -54.381668 4294967295
226.54564 -78.838211 -54.872448 4294967295
226.55508 -79.21315 -55.645096 4294967295
226.55946 -77.980316 -54.268387 4294967295
226.56416 -79.588722 -56.407089 4294967295
226.57816 -77.512909 -54.305603 4294967295
226.58749 -78.295349 -55.578007 4294967295
226.63905 -76.909035 -55.561363 4294967295
226.65173 -76.461395 -55.426075 4294967295
226.98395 -80.143135 -55.703766 4294967295
226.98479 -80.544792 -56.23354 4294967295
227.01472 -79.63591 -56.093597 4294967295
227.06529 -78.658478 -56.555046 4294967295
227.09109 -77.76313 -56.29525 4294967295
227.13904 -75.983368 -55.666298 4294967295
227.15807 -76.327324 -56.730003 4294967295
227.41904 -80.243958 -54.923855 4294967295
227.42128 -79.83197 -54.478168 4294967295
227.44695 -79.341049 -54.722187 4294967295
227.51031 -78.724037 -56.077843 4294967295
227.53931 -78.222687 -56.421043 4294967295
227.54721 -77.791847 -56.141758 4294967295
227.57579 -76.481964 -55.447166 4294967295
227.58447 -77.263336 -56.729351 4294967295
227.59775 -76.004158 -55.582703 4294967295
227.88698 -79.830612 -54.589214 4294967295
227.88997 -79.416504 -54.159794 4294967295
227.90097 -80.186378 -55.523834 4294967295
227.90874 -80.562836 -56.272705 4294967295
227.95071 -78.806358 -55.453056 4294967295
227.96477 -78.354843 -55.354126 4294967295
228.00993 -77.394409 -55.664886 4294967295
228.05869 -76.017624 -55.564728 4294967295
228.0817 -76.345596 -56.771416 4294967295
228.33118 -80.306007 -54.580132 4294967295
228.34439 -80.662941 -55.50145 4294967295
228.39789 -79.672897 -56.067047 4294967295
228.4075 -79.237167 -55.832558 4294967295
228.41219 -78.818031 -55.450512 4294967295
228.44217 -78.312271 -55.830719 4294967295
228.45108 -77.878555 -55.575287 4294967295
228.46001 -77.444565 -55.320343 4294967295
228.47142 -77.002022 -55.139977 4294967295
228.53375 -75.983513 -55.974724 4294967295
228.53952 -76.367935 -56.673912 4294967295
228.77223 -80.792435 -54.475311 4294967295
228.82573 -80.202965 -55.576427 4294967295
228.85649 -79.69355 -55.98531 4294967295
228.87953 -78.809181 -55.628227 4294967295
228.88774 -79.182808 -56.408882 4294967295
228.89537 -77.949173 -55.050362 4294967295
228.90527 -78.317589 -55.884277 4294967295
228.92603 -77.440674 -55.456543 4294967295
228.9637 -76.908447 -56.077271 4294967295
228.97206 -76.476784 -55.80175 4294967295
228.9976 -75.986351 -56.052292 4294967295
229.25616 -80.725266 -55.1563 4294967295
229.30493 -80.151299 -56.124847 4294967295
229.31947 -78.895973 -54.964527 4294967295
229.32111 -79.693108 -56.08799 4294967295
229.34941 -79.1922 -56.425858 4294967295
229.36118 -78.347969 -55.71656 4294967295
229.38918 -77.848228 -56.045986 4294967295
229.4109 -77.370636 -56.180931 4294967295
229.43015 -76.901794 -56.238609 4294967295
229.44591 -76.444984 -56.18914 4294967295
229.45619 -76.00695 -55.970417 4294967295
229.73817 -80.66291 -55.795486 4294967295
229.7455 -80.236465 -55.481487 4294967295
229.75131 -79.815193 -55.120087 4294967295
229.78754 -79.285225 -55.709389 4294967295
229.80043 -78.838638 -55.569168 4294967295
229.81918 -77.969818 -55.069496 4294967295
229.83134 -78.328064 -55.992779 4294967295
229.85257 -77.450729 -55.570267 4294967295
229.88167 -76.946938 -55.937904 4294967295
229.8853 -76.532532 -55.507687 4294967295
229.90848 -76.049637 -55.690044 4294967295
230.18687 -80.720032 -55.397511 4294967295
230.20744 -80.245766 -55.498795 4294967295
230.24023 -79.327629 -55.436947 4294967295
230.27634 -78.797562 -56.030315 4294967295
230.30371 -77.498573 -55.246376 4294967295
230.31001 -77.876595 -55.996635 4294967295
230.33281 -76.99411 -55.619057 4294967295
230.36015 -76.496216 -55.935524 4294967295
230.37209 -76.053024 -55.762726 4294967295
230.65651 -80.700897 -55.661495 4294967295
230.66933 -80.255119 -55.515751 4294967295
230.68997 -79.78054 -55.620834 4294967295
230.71141 -78.903885 -55.194855 4294967295
230.71791 -79.27932 -55.959976 4294967295
230.75385 -78.350098 -55.999046 4294967295
230.76482 -77.910889 -55.79377 4294967295
230.77927 -77.05899 -55.142311 4294967295
230.82509 -76.494118 -56.056725 4294967295
230.83429 -76.061012 -55.794014 4294967295
231.1275 -80.278099 -55.414143 4294967295
231.15176 -79.39164 -55.074623 4294967295
231.19124 -78.448715 -55.228825 4294967295
231.20488 -77.999832 -55.106831 4294967295
231.25656 -77.411583 -56.222775 4294967295
231.26495 -76.582825 -55.365265 4294967295
231.26836 -76.969635 -56.041489 4294967295
231.29053 -76.090401 -55.633133 4294967295
231.58542 -80.698898 -55.874508 4294967295
231.58826 -80.291428 -55.396442 4294967295
231.60794 -79.820053 -55.473236 4294967295
231.61745 -79.386925 -55.215282 4294967295
231.64656 -78.482635 -55.029839 4294967295
231.68607 -77.937729 -55.757904 4294967295
231.68948 -77.526955 -55.298691 4294967295
231.71368 -77.039078 -55.524071 4294967295
231.714 -76.639336 -54.961967 4294967295
231.74756 -76.11721 -55.495411 4294967295
232.01888 -80.816048 -54.955891 4294967295
232.08394 -79.378738 -55.386578 4294967295
232.11281 -78.4758 -55.190704 4294967295
232.11423 -78.867256 -55.816772 4294967295
232.15068 -77.935898 -55.875084 4294967295
232.16135 -77.101166 -55.072258 4294967295
232.16405 -77.488571 -55.74144 4294967295
232.18823 -76.603073 -55.389145 4294967295
232.20192 -76.154243 -55.265915 4294967295
232.49547 -80.76828 -55.468105 4294967295
232.50964 -80.318108 -55.360794 4294967295
232.53864 -79.810776 -55.752052 4294967295
232.54817 -79.378448 -55.488312 4294967295
232.56027 -78.936134 -55.310944 4294967295
232.57867 -78.469742 -55.344742 4294967295
232.60046 -77.99025 -55.49456 4294967295
232.60461 -77.577995 -55.047935 4294967295
232.632 -77.077385 -55.386398 4294967295
232.64252 -76.640724 -55.154877 4294967295
232.65076 -76.212616 -54.844704 4294967295
232.93416 -80.867966 -54.701057 4294967295
232.95621 -80.386826 -54.860916 4294967295
233.01451 -79.36956 -55.665779 4294967295
233.01559 -78.970459 -55.108875 4294967295
233.03528 -78.498795 -55.188499 4294967295
233.05496 -78.027351 -55.266899 4294967295
233.0883 -77.503174 -55.814491 4294967295
233.10777 -77.032661 -55.88726 4294967295
233.11571 -76.606537 -55.563232 4294967295
233.13203 -76.148094 -55.527336 4294967295
233.40302 -80.849594 -54.958374 4294967295
233.42491 -80.368896 -55.115311 4294967295
233.46992 -79.403099 -55.470951 4294967295
233.49333 -78.916824 -55.680321 4294967295
233.50595 -78.473038 -55.516151 4294967295
233.53061 -77.982063 -55.768883 4294967295
233.53487 -77.570938 -55.313766 4294967295
233.56773 -76.653084 -55.249321 4294967295
233.85545 -80.896568 -54.648838 4294967295
233.89952 -80.326248 -55.584846 4294967295
233.8998 -79.932487 -54.98526 4294967295
233.91437 -79.48111 -54.886765 4294967295
233.97742 -78.442932 -55.882313 4294967295
233.99635 -77.58094 -55.326336 4294967295
234.00568 -77.150177 -55.043205 4294967295
234.02901 -76.664062 -55.253441 4294967295
234.05212 -76.17894 -55.456322 4294967295
234.32054 -80.892517 -54.7817 4294967295
234.33612 -80.437126 -54.718109 4294967295
234.38864 -79.43943 -55.351173 4294967295
234.39217 -79.033081 -54.85778 4294967295
234.43776 -78.456436 -55.863426 4294967295
234.44336 -78.041603 -55.44355 4294967295
234.45131 -77.616905 -55.108212 4294967295
234.46152 -77.182991 -54.852631 4294967295
234.49529 -76.654854 -55.438278 4294967295
234.51483 -76.183739 -55.516193 4294967295
234.77708 -80.923409 -54.611572 4294967295
234.80663 -80.410271 -55.050091 4294967295
234.82112 -79.959518 -54.946915 4294967295
234.84702 -79.461784 -55.254704 4294967295
234.86218 -79.008362 -55.174942 4294967295
234.86551 -78.603363 -54.667564 4294967295
234.89764 -78.080368 -55.201035 4294967295
234.91786 -77.214279 -54.675774 4294967295
234.94322 -76.719254 -54.964676 4294967295
234.97336 -76.205063 -55.427826 4294967295
235.24222 -80.918465 -54.752296 4294967295
235.28116 -80.365051 -55.541882 4294967295
235.29706 -79.908844 -55.488091 4294967295
235.31026 -79.073799 -54.699478 4294967295
235.32635 -78.616425 -54.65255 4294967295
235.36722 -78.056351 -55.514549 4294967295
235.39156 -77.56517 -55.770397 4294967295
235.3972 -77.151169 -55.340191 4294967295
235.41269 -76.696419 -55.27145 4294967295
235.43346 -76.220062 -55.396187 4294967295
235.70238 -80.934128 -54.714256 4294967295
235.71408 -80.495613 -54.503975 4294967295
235.73706 -80.009094 -54.711678 4294967295
235.7543 -79.546951 -54.70702 4294967295
235.77679 -79.062691 -54.89695 4294967295
235.79773 -78.585083 -55.029533 4294967295
235.82283 -77.700394 -54.670624 4294967295
235.825 -78.080803 -55.398857 4294967295
235.84329 -77.224815 -54.785686 4294967295
235.87956 -76.683411 -55.490265 4294967295
235.90262 -76.197289 -55.703484 4294967295
236.15965 -80.962296 -54.56776 4294967295
236.17719 -80.498886 -54.573891 4294967295
236.20857 -79.975693 -55.101921 4294967295
236.22218 -79.529388 -54.960262 4294967295
236.25194 -78.625595 -54.772408 4294967295
236.25352 -79.006905 -55.48719 4294967295
236.27292 -78.147522 -54.909039 4294967295
236.28835 -77.693321 -54.83477 4294967295
236.31694 -77.18309 -55.259384 4294967295
236.34644 -76.66935 -55.718292 4294967295
236.35298 -76.252724 -55.308887 4294967295
236.62004 -80.977036 -54.537567 4294967295
236.64255 -80.491844 -54.733276 4294967295
236.66339 -80.013969 -54.866604 4294967295
236.69229 -79.500992 -55.308136 4294967295
236.71057 -79.034683 -55.34269 4294967295
236.7299 -78.563705 -55.418427 4294967295
236.74318 -78.119034 -55.262058 4294967295
236.77002 -77.615639 -55.626022 4294967295
236.7774 -76.808586 -54.575546 4294967295
236.78452 -77.16584 -55.515114 4294967295
236.7997 -76.324837 -54.764511 4294967295
237.08742 -80.960442 -54.779194 4294967295
237.10387 -80.501991 -54.743279 4294967295
237.13966 -79.95739 -55.459225 4294967295
237.15442 -79.506653 -55.35788 4294967295
237.17358 -78.650574 -54.752716 4294967295
237.23216 -77.620842 -55.681168 4294967295
237.24402 -76.796211 -54.78862 4294967295
237.24631 -77.172745 -55.555305 4294967295
237.27466 -76.275871 -55.306892 4294967295
237.55869 -80.925247 -55.181999 4294967295
237.56439 -80.515617 -54.723145 4294967295
237.59477 -79.99424 -55.236176 4294967295
237.61407 -79.523132 -55.312637 4294967295
237.62674 -79.081909 -55.127213 4294967295
237.64668 -78.223122 -54.542732 4294967295
237.69582 -77.23391 -55.112137 4294967295
237.71349 -76.770111 -55.124512 4294967295
237.73016 -76.310684 -55.097557 4294967295
238.0177 -80.944733 -55.110775 4294967295
238.02229 -80.541084 -54.599689 4294967295
238.04443 -80.056625 -54.790398 4294967295
238.07698 -79.524658 -55.39843 4294967295
238.08391 -79.109932 -54.980614 4294967295
238.12018 -78.178108 -55.041771 4294967295
238.14319 -77.690102 -55.268753 4294967295
238.1633 -77.215408 -55.378815 4294967295
238.1869 -76.724976 -55.63031 4294967295
238.19601 -76.299744 -55.298538 4294967295
238.47684 -80.963905 -55.042126 4294967295
238.4994 -80.477066 -55.254543 4294967295
238.51093 -80.042023 -55.016514 4294967295
238.52942 -79.574348 -55.062469 4294967295
238.58737 -78.160141 -55.30135 4294967295
238.62692 -77.213417 -55.498203 4294967295
238.64304 -76.756821 -55.447819 4294967295
238.66898 -76.255493 -55.798363 4294967295
238.95056 -80.913506 -55.576668 4294967295
238.9767 -80.029762 -55.222179 4294967295
238.99208 -79.576805 -55.140171 4294967295
239.01372 -78.713577 -54.598152 4294967295
239.03244 -78.244667 -54.654289 4294967295
239.08797 -76.841125 -54.796478 4294967295
239.08914 -77.217224 -55.566116 4294967295
239.12613 -76.282303 -55.660614 4294967295
239.39276 -81.013557 -54.807129 4294967295
239.4231 -80.109932 -54.621414 4294967295
239.44713 -79.615334 -54.90213 4294967295
239.46356 -79.157387 -54.86277 4294967295
239.48624 -78.669548 -55.086601 4294967295
239.50336 -78.208389 -55.075935 4294967295
239.53011 -77.701431 -55.471863 4294967295
239.54022 -77.27356 -55.166035 4294967295
239.56772 -76.763443 -55.593216 4294967295
239.58261 -76.312721 -55.490623 4294967295
239.84921 -81.046295 -54.621159 4294967295
239.87038 -80.565056 -54.783829 4294967295
239.88206 -80.130486 -54.540615 4294967295
239.91273 -79.603035 -55.108917 4294967295
239.92538 -79.163635 -54.907387 4294967295
239.96289 -78.603462 -55.76915 4294967295
239.9697 -78.192474 -55.317429 4294967295
240.00162 -77.281387 -55.198036 4294967295
240.05009 -76.291092 -55.787533 4294967295
240.34027 -80.530876 -55.179047 4294967295
240.36859 -80.01403 -55.65519 4294967295
240.37221 -79.620125 -55.058296 4294967295
240.39296 -78.764542 -54.449635 4294967295
240.40387 -79.08696 -55.680561 4294967295
240.43477 -78.181564 -55.51445 4294967295
240.46107 -77.675552 -55.903793 4294967295
240.46507 -77.278946 -55.321613 4294967295
240.47516 -76.852188 -55.004589 4294967295
240.51236 -76.293213 -55.871185 4294967295
240.77538 -81.045853 -54.820099 4294967295
240.80263 -80.533096 -55.257889 4294967295
240.8206 -80.067833 -55.284496 4294967295
240.82864 -79.652664 -54.872574 4294967295
240.85808 -78.754456 -54.638538 4294967295
240.86189 -79.110237 -55.575531 4294967295
240.91629 -77.336632 -54.909592 4294967295
240.9286 -76.899422 -54.684746 4294967295
240.96103 -76.362274 -55.354614 4294967295
241.24551 -81.008049 -55.245163 4294967295
241.25679 -80.577232 -54.972382 4294967295
241.27911 -80.08934 -55.195263 4294967295
241.32555 -78.731537 -54.940865 4294967295
241.32562 -79.104317 -55.727104 4294967295
241.3445 -78.261101 -55.012581 4294967295
241.37085 -77.75309 -55.418026 4294967295
241.3891 -77.286331 -55.459099 4294967295
241.42349 -76.363708 -55.444626 4294967295
241.6973 -81.065094 -54.848557 4294967295
241.72255 -80.561279 -55.209023 4294967295
241.74547 -80.069794 -55.464283 4294967295
241.75569 -79.64502 -55.137661 4294967295
241.78702 -79.109947 -55.777172 4294967295
241.79449 -78.699326 -55.324757 4294967295
241.81535 -78.218933 -55.485855 4294967295
241.83957 -77.721405 -55.80022 4294967295
241.85251 -76.909424 -54.799873 4294967295
241.88391 -76.374863 -55.447113 4294967295
242.15242 -81.105728 -54.594032 4294967295
242.1685 -80.650116 -54.534935 4294967295
242.18773 -80.177757 -54.621246 4294967295
242.20444 -79.718918 -54.590233 4294967295
242.22432 -79.243134 -54.707443 4294967295
242.25911 -78.68824 -55.52232 4294967295
242.29138 -77.406166 -54.595623 4294967295
242.29929 -77.735367 -55.777351 4294967295
242.31932 -76.888252 -55.091209 4294967295
242.34007 -76.408264 -55.250481 4294967295
242.35115 -75.978897 -54.95536 4294967295
242.62727 -81.039154 -55.268181 4294967295
242.63116 -80.650475 -54.629841 4294967295
242.64645 -80.199417 -54.531013 4294967295
242.69847 -79.181091 -55.351559 4294967295
242.70461 -78.779457 -54.81879 4294967295
242.73615 -78.240829 -55.493423 4294967295
242.77052 -76.949127 -54.649696 4294967295
242.79973 -76.423706 -55.214714 4294967295
243.08618 -80.69278 -54.360336 4294967295
243.12769 -80.096481 -55.527081 4294967295
243.14575 -79.630524 -55.561539 4294967295
243.16418 -79.162445 -55.614754 4294967295
243.16498 -78.791573 -54.812309 4294967295
243.21622 -77.409271 -54.771229 4294967295
243.2504 -76.855484 -55.588257 4294967295
243.26711 -76.397087 -55.556011 4294967295
243.56206 -80.617821 -55.109467 4294967295
243.59663 -79.694397 -55.101742 4294967295
243.61929 -79.202362 -55.363789 4294967295
243.6349 -78.750061 -55.277706 4294967295
243.64563 -78.324997 -54.950661 4294967295
243.66905 -77.828873 -55.251095 4294967295
243.67787 -77.414383 -54.827415 4294967295
243.70023 -76.924408 -55.074883 4294967295
243.72043 -76.446381 -55.216881 4294967295
243.989 -81.184174 -54.304798 4294967295
244.02391 -80.620377 -55.185425 4294967295
244.05154 -79.736763 -54.830147 4294967295
244.08206 -79.198967 -55.492989 4294967295
244.09967 -78.735687 -55.504509 4294967295
244.13002 -77.836342 -55.285973 4294967295
244.1516 -77.350227 -55.499851 4294967295
244.16985 -76.883179 -55.544975 4294967295
244.18477 -76.434883 -55.422581 4294967295
244.4664 -81.096031 -55.165356 4294967295
244.48586 -80.621582 -55.272789 4294967295
244.48735 -80.252754 -54.460068 4294967295
244.51447 -79.733223 -54.959938 4294967295
244.52715 -79.298409 -54.719814 4294967295
244.54703 -78.821426 -54.849319 4294967295
244.57184 -78.31588 -55.232193 4294967295
244.58708 -77.866074 -55.123531 4294967295
244.62151 -76.943359 -55.109676 4294967295
244.64255 -76.460129 -55.298897 4294967295
244.66447 -75.971703 -55.536079 4294967295
244.90318 -81.248772 -53.940697 4294967295
244.93463 -80.701431 -54.677048 4294967295
244.95512 -80.220352 -54.841019 4294967295
244.98308 -79.694771 -55.395248 4294967295
244.99133 -79.287056 -54.9189 4294967295
245.0118 -78.806374 -55.081886 4294967295
245.03123 -78.332001 -55.190182 4294967295
245.0403 -77.918907 -54.755901 4294967295
245.07912 -76.970215 -54.971992 4294967295
245.10626 -76.450668 -55.486362 4294967295
245.11583 -76.034348 -55.075989 4294967295
245.37082 -81.216896 -54.313919 4294967295
245.38383 -80.781357 -54.080757 4294967295
245.42154 -80.194298 -55.166451 4294967295
245.43298 -79.768295 -54.85112 4294967295
245.43861 -79.377548 -54.224262 4294967295
245.47153 -78.820724 -55.05545 4294967295
245.485 -78.382072 -54.848297 4294967295
245.50311 -77.915337 -54.888649 4294967295
245.5246 -77.428307 -55.109787 4294967295
245.53728 -76.994247 -54.859703 4294967295
245.58302 -76.004028 -55.451721 4294967295
245.83722 -81.191055 -54.635052 4294967295
245.84161 -80.810066 -53.929428 4294967295
245.85699 -80.359955 -53.821243 4294967295
245.90762 -79.335938 -54.688774 4294967295
245.964 -77.922714 -54.924149 4294967295
245.98212 -77.455986 -54.965111 4294967295
246.02623 -76.474098 -55.481483 4294967295
246.31604 -80.381203 -53.734539 4294967295
246.34485 -79.845871 -54.370647 4294967295
246.3546 -79.431992 -53.945629 4294967295
246.37013 -78.981026 -53.84407 4294967295
246.39293 -78.484276 -54.146297 4294967295
246.41322 -78.003319 -54.310661 4294967295
246.42581 -77.571083 -54.04277 4294967295
246.45381 -77.041847 -54.638775 4294967295
246.48434 -76.497108 -55.377918 4294967295
246.74847 -81.274658 -54.106346 4294967295
246.76964 -80.787415 -54.321991 4294967295
246.78671 -80.32692 -54.305916 4294967295
246.80418 -79.863892 -54.31205 4294967295
246.82051 -79.408356 -54.252426 4294967295
246.84163 -78.921562 -54.467468 4294967295
246.87079 -78.383087 -55.140644 4294967295
246.89456 -77.529243 -54.516399 4294967295
246.91693 -77.034988 -54.802094 4294967295
246.93617 -76.560669 -54.911133 4294967295
246.95314 -76.10099 -54.889301 4294967295
247.21922 -81.216591 -54.70623 4294967295
247.24655 -80.341705 -54.275536 4294967295
247.25887 -79.913025 -53.981483 4294967295
247.27277 -79.47361 -53.779579 4294967295
247.29727 -78.963753 -54.196159 4294967295
247.31998 -78.466187 -54.507133 4294967295
247.34642 -77.943878 -55.039398 4294967295
247.3584 -77.517365 -54.72364 4294967295
247.37497 -77.060219 -54.678986 4294967295
247.39082 -76.607964 -54.590172 4294967295
247.40852 -76.14357 -54.609795 4294967295
247.68742 -80.829521 -54.152039 4294967295
247.70175 -80.388 -53.970608 4294967295
247.7193 -79.924294 -53.981892 4294967295
247.73102 -79.500336 -53.644405 4294967295
247.75301 -79.006638 -53.918709 4294967295
247.76863 -78.555954 -53.814804 4294967295
247.83963 -77.041435 -54.948452 4294967295
247.85872 -76.567848 -55.051979 4294967295
247.86441 -76.183777 -54.351624 4294967295
191.51369 -67.297729 -59.106499 4294967295
191.5267 -65.535934 -58.230801 4294967295
191.60107 -63.675331 -58.305717 4294967295
191.61412 -74.861588 -57.787388 4294967295
191.6162 -75.291481 -58.089638 4294967295
191.62273 -64.077164 -58.911034 4294967295
191.62659 -63.199387 -58.432007 4294967295
191.64198 -64.482323 -59.479134 4294967295
191.66763 -73.902863 -58.078293 4294967295
191.67551 -62.687134 -58.921532 4294967295
191.67874 -73.450195 -57.980915 4294967295
191.68559 -73.004723 -57.816921 4294967295
191.70456 -61.333683 -58.563049 4294967295
191.72189 -72.075378 -57.840469 4294967295
191.73274 -61.72646 -59.270496 4294967295
191.74055 -72.477936 -58.401039 4294967295
191.74724 -71.598656 -57.964325 4294967295
191.7558 -60.818684 -59.088814 4294967295
191.77246 -59.920326 -58.807938 4294967295
191.77676 -59.477112 -58.604664 4294967295
191.7805 -70.6745 -57.940773 4294967295
191.79404 -60.323883 -59.413128 4294967295
191.80008 -71.076149 -58.515621 4294967295
191.81955 -70.175255 -58.277679 4294967295
191.82167 -58.972458 -59.032566 4294967295
191.85025 -68.820801 -57.943588 4294967295
191.85428 -68.379303 -57.735416 4294967295
191.85916 -69.675308 -58.623604 4294967295
191.87862 -69.208809 -58.655941 4294967295
191.88196 -58.008301 -59.429726 4294967295
191.88855 -57.124561 -58.991821 4294967295
191.90582 -67.860252 -58.267303 4294967295
191.92395 -67.395775 -58.279259 4294967295
191.96429 -56.575161 -59.900459 4294967295
191.98169 -65.997162 -58.366272 4294967295
191.99002 -65.548462 -58.22509 4294967295
191.99248 -66.849869 -59.076057 4294967295
192.01663 -66.376038 -59.181602 4294967295
192.02467 -75.832047 -57.49844 4294967295
192.05203 -65.014099 -58.920979 4294967295
192.07835 -75.305725 -58.065018 4294967295
192.10577 -74.391815 -57.950058 4294967295
192.1127 -74.813156 -58.330055 4294967295
192.11385 -63.609894 -59.072403 4294967295
192.11505 -64.043388 -59.362328 4294967295
192.12088 -63.163231 -58.910973 4294967295
192.12515 -73.925079 -57.9813 4294967295
192.15529 -73.439995 -58.180447 4294967295
192.15848 -62.668625 -59.226517 4294967295
192.16911 -72.982819 -58.124809 4294967295
192.1754 -72.538383 -57.951283 4294967295
192.19464 -62.176487 -59.519852 4294967295
192.20753 -61.284813 -59.17881 4294967295
192.22426 -61.694687 -59.711548 4294967295
192.2316 -71.141655 -58.014252 4294967295
192.24544 -71.986038 -58.774601 4294967295
192.24913 -60.784599 -59.55732 4294967295
192.25606 -59.901688 -59.122803 4294967295
192.26151 -60.329536 -59.479347 4294967295
192.27281 -59.003273 -58.841057 4294967295
192.27905 -70.628036 -58.484795 4294967295
192.2942 -70.16864 -58.44989 4294967295
192.31068 -59.382015 -59.705208 4294967295
192.32198 -58.055534 -59.066677 4294967295
192.33823 -57.594322 -59.048981 4294967295
192.33899 -69.2258 -58.606697 4294967295
192.35463 -57.132851 -59.033852 4294967295
192.35596 -58.440731 -59.870171 4294967295
192.36781 -68.30941 -58.513832 4294967295
192.37749 -56.661751 -59.119755 4294967295
192.38629 -67.844513 -58.531044 4294967295
192.39606 -66.959007 -58.138969 4294967295
192.44066 -66.016586 -58.293457 4294967295
192.4424 -67.318146 -59.138123 4294967295
192.46228 -66.416534 -58.905052 4294967295
192.47801 -65.521271 -58.606583 4294967295
192.47891 -75.860489 -57.346275 4294967295
192.5094 -75.374107 -57.552147 4294967295
192.53905 -64.988144 -59.291756 4294967295
192.54002 -64.551529 -59.034645 4294967295
192.57442 -64.061531 -59.301765 4294967295
192.59059 -73.933731 -58.008049 4294967295
192.59431 -63.159428 -59.068321 4294967295
192.59503 -74.792175 -58.624435 4294967295
192.60118 -62.713081 -58.903347 4294967295
192.60432 -63.578865 -59.498459 4294967295
192.61423 -74.326027 -58.652748 4294967295
192.62482 -62.240299 -59.001823 4294967295
192.63387 -72.992592 -58.141804 4294967295
192.63521 -73.423637 -58.436264 4294967295
192.67671 -61.287758 -59.271378 4294967295
192.70107 -71.577423 -58.378422 4294967295
192.70253 -72.008469 -58.675087 4294967295
192.7394 -60.754627 -59.983879 4294967295
192.74748 -60.306389 -59.838432 4294967295
192.75827 -69.745453 -58.184395 4294967295
192.76404 -59.845058 -59.825623 4294967295
192.77617 -59.390491 -59.743252 4294967295
192.77643 -58.081264 -58.92691 4294967295
192.78386 -70.136551 -58.861183 4294967295
192.78587 -57.630295 -58.802071 4294967295
192.79134 -58.495022 -59.435379 4294967295
192.79887 -68.374954 -58.002209 4294967295
192.80379 -58.912212 -59.904572 4294967295
192.81557 -69.215698 -58.813469 4294967295
192.826 -67.895622 -58.155602 4294967295
192.85732 -57.085896 -59.654053 4294967295
192.86656 -56.635429 -59.525928 4294967295
192.88893 -66.053444 -58.051392 4294967295
192.90865 -67.325096 -59.185181 4294967295
192.91609 -66.878555 -59.028496 4294967295
192.92619 -66.427521 -58.913902 4294967295
192.95183 -65.516426 -58.770035 4294967295
192.97385 -75.384644 -57.561184 4294967295
192.98694 -64.589882 -58.775642 4294967295
193.00143 -75.768959 -58.272049 4294967295
193.01239 -64.983734 -59.451813 4294967295
193.02051 -74.870056 -58.023945 4294967295
193.04739 -63.622864 -59.181885 4294967295
193.05063 -73.518433 -57.675293 4294967295
193.05936 -63.168682 -59.096104 4294967295
193.06093 -62.730858 -58.846424 4294967295
193.06561 -73.925613 -58.187355 4294967295
193.07785 -73.038078 -57.830894 4294967295
193.11554 -72.539848 -58.152344 4294967295
193.12686 -71.65345 -57.780975 4294967295
193.14886 -72.049393 -58.404469 4294967295
193.15628 -60.402863 -58.980785 4294967295
193.15836 -61.270939 -59.563354 4294967295
193.16689 -60.822079 -59.423389 4294967295
193.20248 -59.89529 -59.436939 4294967295
193.21187 -71.075096 -58.852219 4294967295
193.2193 -58.561203 -58.877914 4294967295
193.22005 -70.194153 -58.430828 4294967295
193.22951 -69.7444 -58.305122 4294967295
193.23732 -70.598488 -58.98011 4294967295
193.23885 -69.294731 -58.177727 4294967295
193.25261 -59.381947 -59.955929 4294967295
193.26996 -58.919441 -59.955811 4294967295
193.28648 -67.912621 -58.106216 4294967295
193.30826 -67.442169 -58.175659 4294967295
193.32346 -68.285332 -58.968285 4294967295
193.32758 -68.712265 -59.309368 4294967295
193.3338 -57.514 -60.142155 4294967295
193.34232 -66.516914 -58.164547 4294967295
193.347 -56.621559 -59.801079 4294967295
193.38202 -66.017197 -58.518944 4294967295
193.38417 -65.578972 -58.277069 4294967295
193.40985 -66.840134 -59.51281 4294967295
193.42354 -65.080093 -58.626339 4294967295
193.42416 -75.852684 -57.623077 4294967295
193.42543 -75.41777 -57.366302 4294967295
193.48376 -63.242874 -58.478683 4294967295
193.49158 -64.535065 -59.431534 4294967295
193.49629 -63.657871 -58.954369 4294967295
193.49821 -74.856834 -58.248066 4294967295
193.51462 -64.063194 -59.521843 4294967295
193.53671 -62.723053 -59.044441 4294967295
193.54265 -74.346298 -58.678383 4294967295
193.54572 -72.609261 -57.620155 4294967295
193.54872 -73.903069 -58.498493 4294967295
193.55746 -73.455055 -58.36095 4294967295
193.57516 -61.791466 -59.103504 4294967295
193.58076 -72.115463 -57.90134 4294967295
193.58321 -61.343334 -58.955109 4294967295
193.59894 -72.950127 -58.744774 4294967295
193.60242 -62.183365 -59.813633 4294967295
193.61148 -60.427711 -58.851746 4294967295
193.6134 -59.988876 -58.605721 4294967295
193.6333 -70.724976 -57.907322 4294967295
193.66035 -59.479847 -59.077271 4294967295
193.66556 -70.23642 -58.144455 4294967295
193.67598 -71.085426 -58.864986 4294967295
193.70856 -69.729836 -58.553051 4294967295
193.70869 -58.533207 -59.293766 4294967295
193.72169 -58.077156 -59.224083 4294967295
193.73167 -69.257118 -58.644577 4294967295
193.76331 -68.336395 -58.594543 4294967295
193.77524 -68.750084 -59.062458 4294967295
193.77644 -67.880447 -58.527054 4294967295
193.78888 -56.665897 -59.464611 4294967295
193.78972 -66.98999 -58.183998 4294967295
193.79053 -57.53558 -60.045135 4294967295
193.8042 -57.078732 -59.98632 4294967295
193.82147 -67.371361 -58.968849 4294967295
193.85501 -66.447601 -58.949684 4294967295
193.86002 -75.913864 -57.176651 4294967295
193.87706 -65.542709 -58.746616 4294967295
193.89915 -65.940697 -59.377075 4294967295
193.91362 -65.048416 -59.053059 4294967295
193.91684 -75.380348 -57.80764 4294967295
193.92487 -64.59552 -58.955544 4294967295
193.974 -74.846649 -58.444489 4294967295
193.97763 -63.640636 -59.24382 4294967295
193.98167 -73.968178 -58.010601 4294967295
193.98549 -64.062431 -59.6474 4294967295
193.99509 -74.377068 -58.503925 4294967295
194.01582 -73.042816 -58.000595 4294967295
194.0199 -63.137779 -59.642033 4294967295
194.02919 -73.452187 -58.493305 4294967295
194.034 -72.578217 -58.01342 4294967295
194.04817 -62.657619 -59.817047 4294967295
194.0498 -61.785294 -59.287018 4294967295
194.0524 -62.216125 -59.606514 4294967295
194.05942 -61.334877 -59.162781 4294967295
194.06151 -60.89624 -58.918091 4294967295
194.06485 -72.091629 -58.229439 4294967295
194.07967 -71.632927 -58.188309 4294967295
194.09988 -60.400291 -59.254189 4294967295
194.11746 -70.701424 -58.236893 4294967295
194.1188 -59.4995 -59.000824 4294967295
194.12428 -59.926479 -59.367203 4294967295
194.13173 -71.110077 -58.74424 4294967295
194.15862 -70.197639 -58.618294 4294967295
194.16534 -69.752838 -58.447174 4294967295
194.17854 -58.534988 -59.401859 4294967295
194.18306 -68.855591 -58.173424 4294967295
194.19827 -58.939903 -59.996689 4294967295
194.21707 -57.60376 -59.462521 4294967295
194.25264 -57.113125 -59.755058 4294967295
194.26418 -56.659485 -59.661446 4294967295
194.26765 -67.845505 -58.974052 4294967295
194.27026 -68.274612 -59.29541 4294967295
194.30019 -66.055382 -58.379807 4294967295
194.30756 -66.911209 -59.057045 4294967295
194.32509 -65.14547 -58.221024 4294967295
194.34056 -66.422386 -59.308468 4294967295
194.36969 -74.978729 -57.353882 4294967295
194.39197 -75.371346 -57.992584 4294967295
194.39752 -64.592026 -59.107338 4294967295
194.39798 -63.722244 -58.555321 4294967295
194.40839 -74.477509 -57.696972 4294967295
194.42723 -64.109093 -59.305782 4294967295
194.4882 -63.141075 -59.728798 4294967295
194.49367 -62.263092 -59.25721 4294967295
194.49924 -61.384254 -58.78672 4294967295
194.4996 -61.818714 -59.072803 4294967295
194.50772 -73.004616 -58.457855 4294967295
194.51141 -72.565582 -58.236938 4294967295
194.51707 -71.69001 -57.767159 4294967295
194.52751 -72.104729 -58.216198 4294967295
194.53514 -60.891823 -59.085732 4294967295
194.59467 -59.927048 -59.485687 4294967295
194.60356 -59.477757 -59.348751 4294967295
194.60362 -60.34795 -59.910042 4294967295
194.60696 -70.235184 -58.376328 4294967295
194.61583 -69.786682 -58.239143 4294967295
194.61922 -58.146378 -58.760361 4294967295
194.62433 -70.638153 -58.937767 4294967295
194.63089 -58.563915 -59.229385 4294967295
194.66866 -57.633724 -59.278336 4294967295
194.68387 -69.236931 -59.057869 4294967295
194.69777 -57.152859 -59.467991 4294967295
194.70209 -56.710262 -59.257339 4294967295
194.70901 -68.327705 -58.90226 4294967295
194.74466 -67.833916 -59.197998 4294967295
194.75304 -66.518898 -58.490574 4294967295
194.75996 -67.374657 -59.164665 4294967295
194.77728 -65.610367 -58.32019 4294967295
194.79912 -66.008034 -58.954739 4294967295
194.82445 -75.870674 -57.771347 4294967295
194.83171 -65.085915 -58.920204 4294967295
194.83725 -75.415642 -57.697128 4294967295
194.86371 -63.730347 -58.594086 4294967295
194.86388 -64.59864 -59.159912 4294967295
194.87128 -74.922531 -57.966766 4294967295
194.87955 -74.475624 -57.818947 4294967295
194.89403 -63.246239 -58.804005 4294967295
194.89473 -64.113731 -59.378387 4294967295
194.90622 -62.791798 -58.719795 4294967295
194.91975 -73.971756 -58.188908 4294967295
194.9476 -73.490051 -58.359058 4294967295
194.98575 -71.69278 -57.849716 4294967295
194.98686 -61.357124 -59.182739 4294967295
194.98767 -72.986877 -58.727188 4294967295
194.9911 -72.548569 -58.500893 4294967295
194.9971 -60.470779 -58.784729 4294967295
195.02412 -60.862492 -59.505692 4294967295
195.04202 -70.728943 -58.198799 4294967295
195.06114 -58.627731 -58.696365 4294967295
195.07663 -59.474037 -59.511917 4294967295
195.08052 -70.229225 -58.542152 4294967295
195.08408 -58.156101 -58.786564 4294967295
195.09958 -59.002548 -59.60321 4294967295
195.11778 -69.298943 -58.583164 4294967295
195.12933 -57.649704 -59.239746 4294967295
195.13235 -68.840828 -58.537273 4294967295
195.14996 -57.181877 -59.293198 4294967295
195.16997 -67.476517 -58.301208 4294967295
195.17552 -67.900566 -58.674099 4294967295
195.20587 -56.659492 -59.919941 4294967295
195.21939 -66.525681 -58.539955 4294967295
195.23305 -65.63504 -58.196121 4294967295
195.24997 -66.040565 -58.75478 4294967295
195.26196 -66.887314 -59.515682 4294967295
195.26672 -65.144745 -58.461842 4294967295
195.30489 -75.851547 -58.046394 4294967295
195.3119 -64.635574 -58.914921 4294967295
195.33002 -75.374374 -58.172867 4294967295
195.34985 -64.138702 -59.250343 4294967295
195.35326 -74.468895 -57.984886 4294967295
195.35359 -63.264225 -58.744892 4294967295
195.35738 -62.823616 -58.522751 4294967295
195.36285 -73.587563 -57.573524 4294967295
195.36418 -74.017342 -57.879173 4294967295
195.36775 -74.874542 -58.505116 4294967295
195.37953 -63.655704 -59.451248 4294967295
195.40668 -73.077179 -58.005264 4294967295
195.42906 -62.272045 -59.409256 4294967295
195.44484 -61.811966 -59.383629 4294967295
195.44734 -71.707916 -57.81765 4294967295
195.45787 -72.121765 -58.274178 4294967295
195.45934 -60.919312 -59.053097 4294967295
195.46986 -71.235634 -57.901878 4294967295
195.49075 -60.433971 -59.282562 4294967295
195.49113 -61.302475 -59.855988 4294967295
195.50291 -59.544598 -58.913704 4294967295
195.52217 -59.948776 -59.512398 4294967295
195.54094 -70.678497 -58.77964 4294967295
195.54546 -58.171219 -58.756989 4294967295
195.54865 -59.036732 -59.377159 4294967295
195.57039 -69.329163 -58.40881 4294967295
195.58237 -57.242031 -58.792625 4294967295
195.59328 -58.530895 -59.823402 4294967295
195.60207 -68.408478 -58.35828 4294967295
195.63585 -57.593575 -59.952179 4294967295
195.66061 -56.248749 -59.504707 4294967295
195.66342 -67.870064 -59.078575 4294967295
195.67505 -67.417084 -58.984962 4294967295
195.67941 -56.654961 -60.096809 4294967295
195.69849 -66.944023 -59.083954 4294967295
195.71033 -66.490616 -58.993748 4294967295
195.73068 -66.022812 -59.042568 4294967295
195.73856 -65.576088 -58.886452 4294967295
195.79066 -64.621368 -59.171829 4294967295
195.79095 -75.821594 -58.41853 4294967295
195.7995 -64.172882 -59.031708 4294967295
195.80014 -75.373558 -58.284012 4294967295
195.82375 -63.698727 -59.144493 4294967295
195.83534 -74.878227 -58.576241 4294967295
195.83986 -74.006889 -58.079659 4294967295
195.8698 -62.320503 -59.045143 4294967295
195.88676 -72.626915 -57.993488 4294967295
195.88722 -73.489891 -58.572338 4294967295
195.90924 -73.018661 -58.648628 4294967295
195.91571 -61.811047 -59.514347 4294967295
195.93138 -71.250832 -57.869339 4294967295
195.95016 -71.649849 -58.464432 4294967295
195.95927 -70.769096 -58.042564 4294967295
195.96027 -61.304173 -59.961098 4294967295
195.96037 -60.435318 -59.392406 4294967295
195.96613 -59.556591 -58.915752 4294967295
195.96884 -59.987049 -59.245934 4294967295
195.97743 -60.84206 -59.958168 4294967295
195.98515 -58.656052 -58.656738 4294967295
196.01093 -70.245789 -58.606888 4294967295
196.02191 -68.928574 -57.928913 4294967295
196.02774 -69.351295 -58.311111 4294967295
196.03514 -69.770912 -58.719555 4294967295
196.03568 -58.140526 -59.202477 4294967295
196.0491 -58.988869 -59.995155 4294967295
196.05147 -57.68029 -59.176846 4294967295
196.0735 -67.973167 -58.206505 4294967295
196.08386 -67.522217 -58.090416 4294967295
196.0873 -57.188522 -59.480785 4294967295
196.11366 -68.336617 -59.154728 4294967295
196.1201 -56.266342 -59.449169 4294967295
196.12943 -67.010796 -58.555374 4294967295
196.13448 -56.679153 -59.972092 4294967295
196.18742 -65.612061 -58.652298 4294967295
196.18822 -75.954498 -57.328239 4294967295
196.25584 -65.06295 -59.495064 4294967295
196.26155 -75.388519 -58.252838 4294967295
196.27382 -64.165939 -59.218334 4294967295
196.29364 -63.699139 -59.259113 4294967295
196.32083 -73.55497 -58.083397 4294967295
196.32625 -73.113441 -57.885513 4294967295
196.34474 -72.216301 -57.615738 4294967295
196.35568 -61.860786 -59.136066 4294967295
196.37415 -72.595451 -58.390289 4294967295
196.37785 -61.390186 -59.215767 4294967295
196.4272 -70.772774 -58.117584 4294967295
196.4359 -60.861015 -59.888977 4294967295
196.44612 -59.975986 -59.483101 4294967295
196.45505 -70.291138 -58.291534 4294967295
196.48088 -59.48526 -59.771545 4294967295
196.48242 -58.613567 -59.222 4294967295
196.50072 -59.018826 -59.812569 4294967295
196.50584 -58.141228 -59.322212 4294967295
196.52364 -68.44075 -58.275913 4294967295
196.52936 -57.668808 -59.424271 4294967295
196.53001 -57.232723 -59.147171 4294967295
196.53853 -68.847359 -58.810837 4294967295
196.5386 -67.981926 -58.236 4294967295
196.53886 -69.27906 -59.104675 4294967295
196.55563 -67.51947 -58.230385 4294967295
196.57594 -56.289692 -59.332962 4294967295
196.63962 -66.075859 -58.759087 4294967295
196.68063 -64.706177 -58.574757 4294967295
196.6826 -65.136208 -58.895805 4294967295
196.68419 -65.566628 -59.210876 4294967295
196.69434 -75.887321 -58.03476 4294967295
196.70648 -75.433876 -57.947838 4294967295
196.7265 -64.19519 -59.048157 4294967295
196.73804 -74.51355 -57.894241 4294967295
196.7617 -74.901123 -58.57753 4294967295
196.76228 -63.267982 -59.065865 4294967295
196.7738 -74.016823 -58.20005 4294967295
