# .PCD v0.7 - Point Cloud Data file format
VERSION 0.7
FIELDS x y z rgb
SIZE 4 4 4 4
TYPE F F F U
COUNT 1 1 1 1
WIDTH 1147
HEIGHT 1
VIEWPOINT 0 0 0 1 0 0 0
POINTS 1147
DATA ascii
172.39793 44.613899 -16.181227 4294967295
172.40459 43.17944 -16.960091 4294967295
172.4118 43.65855 -16.821518 4294967295
172.41641 44.137463 -16.649454 4294967295
172.77634 40.279305 -16.938433 4294967295
172.78313 38.848633 -17.721104 4294967295
172.79564 39.805016 -17.418736 4294967295
172.82729 40.764809 -17.362247 4294967295
172.83188 41.720795 -16.957214 4294967295
172.83636 43.634087 -16.085772 4294967295
172.86952 42.203941 -17.209927 4294967295
172.89334 42.685032 -17.28471 4294967295
172.92964 44.602123 -16.823191 4294967295
173.24063 39.304459 -17.181215 4294967295
173.2684 40.263748 -17.074064 4294967295
173.2861 40.744049 -17.069935 4294967295
173.3006 41.223866 -17.024151 4294967295
173.30466 38.838547 -18.241871 4294967295
173.34895 41.708637 -17.416929 4294967295
173.3533 42.664795 -17.006645 4294967295
173.35855 44.578655 -16.140518 4294967295
173.36705 42.188869 -17.417915 4294967295
173.40012 44.105061 -16.912409 4294967295
173.41946 43.629307 -17.396511 4294967295
173.75719 39.770393 -17.403601 4294967295
173.78564 38.821377 -18.241282 4294967295
173.78746 39.298466 -18.03071 4294967295
173.79784 43.120628 -16.290836 4294967295
173.81856 41.689636 -17.264307 4294967295
173.82097 40.735126 -17.764378 4294967295
173.82486 43.602398 -16.407772 4294967295
173.825 40.258621 -18.050705 4294967295
173.86252 44.563766 -16.428616 4294967295
173.86534 41.219162 -18.106871 4294967295
174.22348 39.273533 -17.442802 4294967295
174.23468 40.707279 -16.882427 4294967295
174.24638 41.664467 -16.564066 4294967295
174.25429 38.802032 -18.08029 4294967295
174.26155 39.757042 -17.704681 4294967295
174.27019 41.190327 -17.111177 4294967295
174.2899 42.148598 -16.897562 4294967295
174.30008 40.240429 -17.972651 4294967295
174.3157 43.108002 -16.763361 4294967295
174.32352 44.54393 -16.157923 4294967295
174.34569 44.06813 -16.683969 4294967295
174.35768 43.591465 -17.076883 4294967295
174.403 45.031425 -16.962421 4294967295
174.68414 38.775745 -17.40917 4294967295
174.68689 39.25325 -17.208445 4294967295
174.74263 40.694214 -17.23052 4294967295
174.74443 39.740135 -17.727345 4294967295
174.77177 42.609211 -16.666115 4294967295
174.78741 43.567509 -16.397556 4294967295
174.79141 44.524879 -15.975767 4294967295
174.79166 40.224934 -18.111286 4294967295
174.81572 44.04932 -16.532528 4294967295
174.82579 43.094418 -17.139099 4294967295
174.82726 41.184628 -18.105827 4294967295
174.8306 41.662338 -17.912895 4294967295
174.83522 42.140388 -17.737019 4294967295
174.88531 45.014069 -16.973967 4294967295
175.20717 38.766098 -17.960728 4294967295
175.23668 39.248024 -18.112516 4294967295
175.24001 42.590031 -16.490433 4294967295
175.24344 55.100948 -16.704874 4294967295
175.27022 40.207325 -18.079767 4294967295
175.27052 39.730556 -18.321554 4294967295
175.27696 40.685402 -17.930925 4294967295
175.28151 41.163258 -17.753214 4294967295
175.28723 43.552456 -16.638088 4294967295
175.29164 44.509605 -16.219324 4294967295
175.31297 42.122601 -17.692936 4294967295
175.31702 43.078388 -17.270273 4294967295
175.32587 45.470615 -16.195105 4294967295
175.35588 44.995415 -16.831066 4294967295
175.65166 38.742344 -17.47666 4294967295
175.66368 39.221375 -17.397367 4294967295
175.71388 39.706982 -17.824467 4294967295
175.71523 40.184174 -17.603382 4294967295
175.72112 43.050686 -16.245434 4294967295
175.73572 40.664612 -17.63628 4294967295
175.74063 43.531448 -16.265059 4294967295
175.75763 55.563438 -16.900114 4294967295
175.76991 41.147137 -17.851048 4294967295
175.77405 44.492271 -16.229998 4294967295
175.77541 45.449673 -15.768211 4294967295
175.79707 41.628448 -17.972635 4294967295
175.80602 44.017872 -16.894369 4294967295
175.8457 44.978916 -16.942871 4294967295
176.10896 38.720852 -17.159325 4294967295
176.15359 39.20575 -17.51445 4294967295
176.16301 55.065022 -16.125948 4294967295
176.17676 39.686684 -17.583164 4294967295
176.20598 55.545601 -16.459124 4294967295
176.21414 42.079128 -16.879574 4294967295
176.22362 40.171497 -17.967766 4294967295
176.22487 43.514408 -16.300468 4294967295
176.24239 44.473255 -16.052826 4294967295
176.24815 40.652428 -18.055241 4294967295
176.25215 41.607277 -17.627666 4294967295
176.25587 41.130657 -17.917963 4294967295
176.28937 44.000725 -16.921522 4294967295
176.31047 44.959591 -16.721754 4294967295
176.32121 45.917702 -16.383234 4294967295
176.3438 45.44162 -16.926304 4294967295
176.62143 54.086098 -16.298864 4294967295
176.64279 39.190018 -17.623745 4294967295
176.64882 38.714432 -17.945723 4294967295
176.66037 40.1469 -17.376335 4294967295
176.67651 39.672714 -17.834272 4294967295
176.69005 43.016739 -16.322962 4294967295
176.70511 55.527649 -16.696032 4294967295
176.71072 55.047352 -17.013367 4294967295
176.71683 43.976574 -16.198469 4294967295
176.72014 43.498821 -16.485365 4294967295
176.72437 41.588661 -17.509888 4294967295
176.74701 44.458588 -16.361853 4294967295
176.76564 45.417645 -16.127481 4294967295
176.77048 42.072807 -17.887074 4294967295
176.78815 44.94173 -16.6724 4294967295
176.83556 45.903633 -16.825069 4294967295
177.09756 54.068165 -16.226341 4294967295
177.09995 39.645535 -17.059822 4294967295
177.10323 38.692413 -17.589773 4294967295
177.11417 39.171127 -17.49439 4294967295
177.14906 41.562782 -16.750166 4294967295
177.16565 55.029373 -16.658604 4294967295
177.18675 42.04599 -17.015528 4294967295
177.18924 55.509735 -16.733534 4294967295
177.19952 42.525444 -16.944506 4294967295
177.21204 43.004925 -16.870203 4294967295
177.21889 44.439999 -16.232563 4294967295
177.22595 43.962658 -16.571489 4294967295
177.22696 43.484779 -16.828299 4294967295
177.2652 45.880726 -16.127211 4294967295
177.27698 46.360657 -16.042547 4294967295
177.31052 44.929028 -17.226721 4294967295
177.32767 45.409058 -17.215158 4294967295
177.53859 53.089165 -16.166592 4294967295
177.54289 54.049789 -15.735819 4294967295
177.58669 39.152428 -17.37989 4294967295
177.58795 39.629532 -17.152792 4294967295
177.58879 40.584007 -16.675453 4294967295
177.59206 38.676731 -17.696655 4294967295
177.59332 40.107521 -16.981503 4294967295
177.67183 42.029255 -17.068653 4294967295
177.68118 54.53162 -17.367153 4294967295
177.69226 41.555012 -17.590355 4294967295
177.69785 41.0788 -17.910168 4294967295
177.70009 42.98851 -16.962919 4294967295
177.7016 43.46653 -16.738871 4294967295
177.72888 42.515007 -17.598291 4294967295
177.72954 44.426128 -16.62875 4294967295
177.75363 45.863968 -16.221113 4294967295
177.77618 45.387981 -16.772903 4294967295
177.77898 44.910133 -17.055677 4294967295
177.79797 46.347107 -16.578835 4294967295
177.82533 46.828358 -16.706169 4294967295
177.99846 52.590729 -16.117697 4294967295
178.03119 53.071644 -16.318247 4294967295
178.03773 39.129822 -16.971987 4294967295
178.04915 53.552109 -16.317284 4294967295
178.0649 54.51284 -16.040247 4294967295
178.06879 38.658806 -17.640282 4294967295
178.08055 54.032768 -16.499685 4294967295
178.09038 54.993439 -16.141745 4294967295
178.11031 39.619606 -17.715479 4294967295
178.13028 41.531097 -17.005669 4294967295
178.14603 40.579327 -17.711357 4294967295
178.16603 43.924969 -16.263573 4294967295
178.1909 42.017632 -17.58674 4294967295
178.20247 45.364376 -16.022598 4294967295
178.20415 42.49688 -17.521812 4294967295
178.21793 42.976254 -17.463823 4294967295
178.21899 44.887878 -16.49448 4294967295
178.26553 45.849731 -16.637791 4294967295
178.27496 47.765648 -15.781038 4294967295
178.28026 47.287106 -16.099884 4294967295
178.29156 46.330856 -16.747458 4294967295
178.3002 48.246876 -15.87937 4294967295
178.38025 48.732101 -16.727774 4294967295
178.48637 51.134254 -16.946894 4294967295
178.48865 53.533413 -15.743145 4294967295
178.50197 53.053566 -16.172869 4294967295
178.51088 52.57391 -16.542044 4294967295
178.53889 39.593159 -17.000036 4294967295
178.55467 39.119183 -17.463047 4294967295
178.55977 38.643562 -17.7796 4294967295
178.58107 54.015221 -16.763096 4294967295
178.59483 54.495438 -16.70462 4294967295
178.60201 41.035057 -17.124104 4294967295
178.6165 40.083549 -17.816673 4294967295
178.66681 41.999588 -17.518915 4294967295
178.67097 41.523098 -17.822916 4294967295
178.67343 43.433048 -16.868395 4294967295
178.67789 42.478519 -17.423885 4294967295
178.69801 43.914093 -16.95833 4294967295
178.70251 45.348999 -16.277718 4294967295
178.71973 42.96183 -17.750814 4294967295
178.73567 45.831059 -16.485598 4294967295
178.74185 44.875347 -17.065454 4294967295
178.7597 46.312027 -16.568102 4294967295
178.76549 47.269901 -16.152136 4294967295
178.79041 48.229977 -15.999113 4294967295
178.83827 49.671207 -15.913118 4294967295
178.83981 47.755219 -16.925999 4294967295
178.85449 48.713974 -16.632124 4294967295
178.87733 49.194603 -16.698658 4294967295
178.90305 50.633896 -16.308416 4294967295
178.91672 51.593792 -16.000164 4294967295
178.93634 50.156494 -17.014633 4294967295
178.97664 51.116989 -17.073507 4294967295
178.99086 38.617035 -17.096058 4294967295
178.99965 53.996403 -15.900539 4294967295
178.99983 52.076752 -16.896362 4294967295
179.02882 52.557297 -17.047827 4294967295
179.03212 39.101387 -17.416176 4294967295
179.04306 53.517105 -16.747246 4294967295
179.05005 40.058186 -17.166883 4294967295
179.05724 40.536423 -17.017504 4294967295
179.06331 41.01461 -16.85313 4294967295
179.06491 53.037907 -17.296648 4294967295
179.07846 54.477608 -16.738375 4294967295
179.0891 55.438137 -16.388081 4294967295
179.09416 41.496807 -17.029827 4294967295
179.12653 42.934097 -16.730709 4294967295
179.15504 54.958134 -17.546108 4294967295
179.16681 41.985191 -17.783258 4294967295
179.17764 42.463955 -17.6842 4294967295
179.17853 43.418922 -17.199484 4294967295
179.1851 44.375362 -16.793247 4294967295
179.19452 45.811153 -16.176334 4294967295
179.2037 46.290703 -16.054127 4294967295
179.20491 45.333931 -16.569057 4294967295
179.21663 46.770702 -15.983828 4294967295
179.21991 44.857563 -17.024776 4294967295
179.24771 47.731335 -15.915001 4294967295
179.24966 47.252609 -16.191235 4294967295
179.30016 48.214676 -16.390602 4294967295
179.30862 48.694321 -16.258522 4294967295
179.3728 49.656986 -16.647621 4294967295
179.40024 50.137814 -16.777651 4294967295
179.41023 50.617596 -16.666651 4294967295
179.43652 52.057339 -16.281992 4294967295
179.44859 38.595451 -16.77413 4294967295
179.46095 51.578754 -16.869921 4294967295
179.47499 52.538406 -16.565065 4294967295
179.48923 39.07983 -17.087687 4294967295
179.49425 53.978767 -16.082802 4294967295
179.49519 53.49868 -16.345629 4294967295
179.52962 53.019684 -17.07235 4294967295
179.54475 54.459591 -16.532934 4294967295
179.5715 40.048019 -17.728199 4294967295
179.57431 41.002239 -17.268202 4294967295
179.59598 41.482815 -17.318661 4294967295
179.61368 41.962742 -17.314159 4294967295
179.61421 55.420204 -16.996119 4294967295
179.66812 44.836205 -16.569786 4294967295
179.67081 45.314732 -16.356909 4294967295
179.67902 43.88179 -17.221224 4294967295
179.68799 44.36068 -17.095718 4294967295
179.70807 45.797188 -16.624153 4294967295
179.73401 46.278259 -16.734083 4294967295
179.74054 46.757347 -16.574457 4294967295
179.78781 48.197617 -16.479921 4294967295
179.80334 47.241764 -17.196796 4294967295
179.85527 50.59795 -16.164604 4294967295
179.85953 48.682026 -17.226685 4294967295
179.86382 50.119099 -16.534433 4294967295
179.88957 49.641666 -17.143599 4294967295
179.90219 51.0798 -16.566505 4294967295
179.92795 51.560417 -16.674601 4294967295
179.94302 52.040539 -16.633547 4294967295
179.94493 52.520267 -16.40885 4294967295
179.96783 38.585617 -17.306091 4294967295
179.96992 53.000801 -16.505981 4294967295
179.97601 53.48085 -16.340019 4294967295
179.9921 53.961185 -16.312611 4294967295
180.00742 54.44154 -16.275087 4294967295
180.00999 39.54665 -17.391537 4294967295
180.01801 39.071564 -17.75371 4294967295
180.0218 40.502403 -17.054482 4294967295
180.0249 40.026035 -17.348286 4294967295
180.04633 41.460693 -16.893885 4294967295
180.05011 41.938629 -16.695375 4294967295
180.05679 40.985249 -17.290907 4294967295
180.0686 55.402317 -16.625572 4294967295
180.09578 42.422928 -17.080841 4294967295
180.09666 43.856091 -16.339327 4294967295
180.14769 44.340595 -16.799746 4294967295
180.16127 45.298336 -16.486326 4294967295
180.16768 44.820999 -16.827293 4294967295
180.19139 46.736835 -16.151716 4294967295
180.21037 46.260273 -16.668657 4294967295
180.21497 45.782547 -16.984638 4294967295
180.2635 47.70084 -16.655647 4294967295
180.27061 48.659065 -16.251202 4294967295
180.31612 48.18391 -17.139212 4294967295
180.33008 49.142403 -16.830429 4294967295
180.34601 50.580772 -16.297182 4294967295
180.34845 50.101643 -16.583435 4294967295
180.35098 49.622746 -16.871143 4294967295
180.42188 51.543243 -16.854486 4294967295
180.43112 52.02306 -16.731781 4294967295
180.44722 52.503185 -16.704859 4294967295
180.46683 53.943241 -16.221945 4294967295
180.47421 52.983635 -16.830267 4294967295
180.48517 40.005203 -17.061089 4294967295
180.48685 39.052197 -17.58913 4294967295
180.50546 39.532143 -17.597668 4294967295
180.50795 54.423885 -16.545742 4294967295
180.5136 54.904087 -16.372103 4294967295
180.52498 41.920376 -16.60887 4294967295
180.54865 55.384422 -16.611084 4294967295
180.55466 42.879898 -16.519806 4294967295
180.56097 40.971867 -17.618662 4294967295
180.56273 41.449085 -17.39102 4294967295
180.60059 43.364002 -16.911501 4294967295
180.61185 42.410851 -17.574451 4294967295
180.65146 43.848457 -17.372177 4294967295
180.67403 44.328957 -17.436291 4294967295
180.67636 45.284828 -16.963457 4294967295
180.70047 44.809872 -17.554516 4294967295
180.71719 45.767433 -17.283861 4294967295
180.73296 46.725319 -16.999199 4294967295
180.79411 50.081821 -16.085367 4294967295
180.80998 49.603649 -16.562233 4294967295
180.85382 50.564556 -16.67181 4294967295
180.88844 51.524883 -16.65221 4294967295
180.90335 51.046326 -17.115547 4294967295
180.9339 52.485603 -16.784456 4294967295
180.93788 38.552971 -17.425749 4294967295
180.94939 39.985039 -16.827005 4294967295
180.96904 39.511829 -17.357401 4294967295
180.97014 53.445915 -16.787523 4294967295
180.98004 53.925934 -16.673101 4294967295
180.98032 52.966545 -17.184811 4294967295
180.99446 40.469803 -17.207998 4294967295
181.01083 54.406269 -16.853109 4294967295
181.02025 41.428078 -17.063961 4294967295
181.0282 40.952385 -17.429825 4294967295
181.06865 43.344852 -16.730068 4294967295
181.07359 54.886642 -17.483913 4294967295
181.08238 41.914955 -17.685654 4294967295
181.0959 42.87125 -17.368679 4294967295
181.10501 45.261276 -16.226278 4294967295
181.1203 55.84634 -17.634809 4294967295
181.1431 44.787796 -17.018087 4294967295
181.14369 46.222248 -16.262978 4294967295
181.18341 45.748348 -17.078556 4294967295
181.20229 47.663651 -16.327118 4294967295
181.20554 47.185364 -16.627529 4294967295
181.22021 48.143951 -16.325661 4294967295
181.24292 49.103603 -16.137144 4294967295
181.27321 48.626999 -16.820118 4294967295
181.2802 49.585281 -16.409422 4294967295
181.3056 50.06601 -16.513754 4294967295
181.33501 50.546883 -16.675003 4294967295
181.35744 51.506622 -16.482222 4294967295
181.39516 38.531254 -17.094666 4294967295
181.39836 51.98777 -16.806538 4294967295
181.40546 39.009781 -16.985716 4294967295
181.41751 39.965534 -16.645807 4294967295
181.44632 52.948349 -16.975475 4294967295
181.45311 39.495266 -17.405231 4294967295
181.45375 52.469147 -17.335606 4294967295
181.47194 40.452003 -17.161739 4294967295
181.47566 53.428665 -17.135872 4294967295
181.48041 54.868355 -16.437199 4294967295
181.48953 53.908585 -17.077259 4294967295
181.51556 54.388691 -17.190979 4294967295
181.52856 41.892288 -17.198698 4294967295
181.55051 42.850121 -16.998957 4294967295
181.5565 41.419792 -17.849651 4294967295
181.5627 42.37466 -17.427111 4294967295
181.57889 44.286877 -16.634932 4294967295
181.5817 43.331989 -17.185808 4294967295
181.60905 55.828396 -17.750412 4294967295
181.61916 43.814548 -17.461756 4294967295
181.62288 44.770245 -17.003262 4294967295
181.64037 45.250202 -16.995832 4294967295
181.67236 46.209827 -16.938816 4294967295
181.67755 45.73238 -17.268246 4294967295
181.72572 47.649899 -16.929096 4294967295
181.72594 47.171593 -17.18808 4294967295
181.74184 48.608429 -16.645863 4294967295
181.75357 50.046295 -16.043928 4294967295
181.7681 48.132011 -17.27537 4294967295
181.81339 49.092514 -17.407017 4294967295
181.83379 51.009346 -16.672241 4294967295
181.83427 50.530235 -16.935738 4294967295
181.83514 49.572632 -17.460529 4294967295
181.85716 51.489738 -16.748671 4294967295
181.87108 38.513165 -17.025976 4294967295
181.87881 51.970009 -16.80048 4294967295
181.89616 38.994499 -17.126659 4294967295
181.93324 39.477989 -17.398233 4294967295
181.9342 52.930763 -17.075823 4294967295
181.93922 53.890224 -16.634275 4294967295
181.95012 40.434338 -17.125593 4294967295
181.95245 41.388733 -16.645506 4294967295
181.95317 40.911758 -16.912546 4294967295
181.9743 54.850555 -16.620768 4294967295
181.97621 53.411308 -17.417953 4294967295
181.98315 41.870876 -16.826395 4294967295
181.99197 54.370796 -17.12924 4294967295
182.02037 55.330746 -17.020298 4294967295
182.02827 55.810814 -16.876123 4294967295
182.04752 42.357994 -17.487022 4294967295
182.05026 42.835564 -17.269587 4294967295
182.08498 43.795177 -17.250961 4294967295
182.10649 44.753178 -17.043896 4294967295
182.13608 46.668785 -16.437191 4294967295
182.14693 46.191666 -16.849762 4294967295
182.16225 45.715374 -17.325836 4294967295
182.2032 47.153736 -17.138891 4294967295
182.24132 47.635502 -17.426188 4294967295
182.25267 48.114769 -17.330885 4294967295
182.26718 48.594368 -17.281164 4294967295
182.29962 50.032692 -16.972338 4294967295
182.3334 50.992599 -16.940178 4294967295
182.35655 51.472866 -17.013809 4294967295
182.36696 38.499023 -17.24287 4294967295
182.3873 40.409466 -16.50218 4294967295
182.40802 51.954205 -17.492706 4294967295
182.41118 38.98394 -17.618065 4294967295
182.4185 39.461681 -17.465223 4294967295
182.42065 39.938599 -17.238026 4294967295
182.43726 52.913628 -17.395702 4294967295
182.46997 53.393818 -17.606329 4294967295
182.47176 41.377769 -17.196003 4294967295
182.47363 41.85511 -16.964909 4294967295
182.47617 53.873375 -17.43716 4294967295
182.4883 54.832893 -17.094805 4294967295
182.51422 54.353447 -17.724457 4294967295
182.52365 55.312874 -17.343342 4294967295
182.52591 42.340351 -17.456015 4294967295
182.56981 45.689594 -16.276546 4294967295
182.57135 55.792595 -17.769091 4294967295
182.57317 45.211887 -16.583702 4294967295
182.57851 43.302307 -17.694332 4294967295
182.59454 43.781742 -17.665821 4294967295
182.59486 44.73671 -17.15365 4294967295
182.60077 44.259918 -17.496763 4294967295
182.65265 47.133175 -16.690031 4294967295
182.72107 48.574638 -16.896666 4294967295
182.75845 50.492737 -16.397926 4294967295
182.76041 49.056248 -17.203352 4294967295
182.78377 50.015251 -17.021511 4294967295
182.79665 49.537407 -17.465792 4294967295
182.81915 51.933662 -16.493397 4294967295
182.82649 50.975552 -17.117823 4294967295
182.83571 38.955948 -16.812901 4294967295
182.85437 51.45594 -17.259956 4294967295
182.85472 39.912903 -16.567783 4294967295
182.87306 39.439617 -17.091444 4294967295
182.87518 52.894608 -16.781321 4294967295
182.88927 53.854359 -16.46516 4294967295
182.90657 53.374992 -16.974045 4294967295
182.92735 40.402687 -17.354391 4294967295
182.94832 54.335049 -17.056459 4294967295
182.96759 41.363014 -17.415237 4294967295
182.96948 41.840237 -17.183279 4294967295
182.97298 40.88723 -17.752518 4294967295
182.9942 43.753284 -16.500454 4294967295
183.01505 55.294998 -17.499062 4294967295
183.01811 54.81535 -17.803171 4294967295
183.06035 43.285164 -17.714659 4294967295
183.08153 45.675652 -16.720762 4294967295
183.08501 44.720497 -17.291098 4294967295
183.10487 46.156303 -16.797688 4294967295
183.11746 45.20208 -17.49979 4294967295
183.12787 46.636852 -16.869493 4294967295
183.14145 47.116432 -16.805508 4294967295
183.18367 48.077038 -16.895119 4294967295
183.20073 48.556965 -16.881239 4294967295
183.25287 49.996861 -16.853716 4294967295
183.28598 49.520393 -17.593376 4294967295
183.29059 50.956989 -16.878481 4294967295
183.29169 50.478085 -17.15481 4294967295
183.31177 51.437145 -16.924082 4294967295
183.34998 52.876652 -16.694946 4294967295
183.37177 38.949566 -17.613729 4294967295
183.38339 53.357101 -16.917906 4294967295
183.38795 40.381916 -17.065809 4294967295
183.38866 39.429058 -17.598013 4294967295
183.41023 39.909412 -17.649708 4294967295
183.41805 53.837399 -17.159267 4294967295
183.41846 41.81786 -16.724878 4294967295
183.42081 40.864391 -17.281097 4294967295
183.42188 42.295631 -16.513023 4294967295
183.43079 54.31723 -17.082726 4294967295
183.45293 41.346569 -17.485657 4294967295
183.45732 55.277084 -16.945494 4294967295
183.46846 55.757092 -16.845789 4294967295
183.48241 43.259418 -16.868505 4294967295
183.51689 42.787292 -17.630016 4294967295
183.53198 44.698818 -16.804052 4294967295
183.54662 43.745796 -17.538977 4294967295
183.54709 44.223198 -17.2847 4294967295
183.59091 45.183804 -17.398087 4294967295
183.60513 46.618988 -16.819572 4294967295
183.60664 46.141132 -17.103592 4294967295
183.61273 45.664017 -17.453442 4294967295
183.64284 47.100945 -17.105928 4294967295
183.65501 48.058655 -16.759138 4294967295
183.71191 49.020306 -17.062693 4294967295
183.74057 50.458565 -16.693483 4294967295
183.75478 50.938419 -16.638027 4294967295
183.77444 49.981834 -17.44853 4294967295
183.80547 39.876469 -16.409273 4294967295
183.81052 38.924248 -17.007816 4294967295
183.8297 51.421188 -17.4666 4294967295
183.83327 51.900345 -17.25633 4294967295
183.86157 40.840248 -16.701872 4294967295
183.86354 39.410831 -17.517771 4294967295
183.86574 53.339344 -16.942465 4294967295
183.88422 40.367504 -17.294333 4294967295
183.89473 54.299175 -16.839966 4294967295
183.90039 53.819614 -17.184933 4294967295
183.92865 54.779293 -17.071707 4294967295
183.93054 42.759911 -16.656929 4294967295
183.94644 42.285164 -17.151373 4294967295
183.94739 41.808384 -17.427969 4294967295
183.97919 43.244404 -17.103727 4294967295
183.98952 55.259262 -17.697073 4294967295
184.00473 44.680389 -16.687935 4294967295
184.00592 55.738941 -17.673676 4294967295
184.0125 43.72641 -17.327072 4294967295
184.02725 44.205761 -17.279537 4294967295
184.0291 45.639107 -16.517523 4294967295
184.07872 47.078987 -16.452824 4294967295
184.08836 45.168446 -17.646254 4294967295
184.09232 46.124222 -17.177908 4294967295
184.10475 46.603477 -17.096357 4294967295
184.14204 48.041649 -16.851965 4294967295
184.17184 48.522591 -17.024107 4294967295
184.20177 49.960747 -16.671705 4294967295
184.2225 50.440964 -16.711458 4294967295
184.22838 49.005444 -17.587692 4294967295
184.23271 49.484158 -17.387896 4294967295
184.267 51.401428 -16.835211 4294967295
184.27177 39.37981 -16.46088 4294967295
184.27287 52.360306 -16.393562 4294967295
184.29765 52.840672 -16.492683 4294967295
184.323 51.882999 -17.391603 4294967295
184.33141 39.867668 -17.07082 4294967295
184.38292 41.783775 -16.769733 4294967295
184.39452 40.355675 -17.731842 4294967295
184.3952 53.322746 -17.658361 4294967295
184.39931 42.2635 -16.745848 4294967295
184.40189 54.281681 -17.22842 4294967295
184.4086 55.721378 -16.534189 4294967295
184.40985 41.311382 -17.428541 4294967295
184.41159 55.241306 -16.842604 4294967295
184.42667 42.744907 -16.882887 4294967295
184.43436 43.223347 -16.73148 4294967295
184.45146 43.703224 -16.718449 4294967295
184.46513 54.761845 -17.891966 4294967295
184.52597 46.101517 -16.48967 4294967295
184.52759 45.145958 -17.042767 4294967295
184.53087 44.19149 -17.619514 4294967295
184.53775 45.624916 -16.927444 4294967295
184.54153 44.670197 -17.511875 4294967295
184.55098 46.582352 -16.592451 4294967295
184.56941 47.06245 -16.598434 4294967295
184.58842 47.542595 -16.613197 4294967295
184.64426 48.026001 -17.169615 4294967295
184.6539 48.505131 -17.046246 4294967295
184.68974 49.943573 -16.778797 4294967295
184.70418 50.902382 -16.460754 4294967295
184.70761 48.987755 -17.571575 4294967295
184.71284 49.466522 -17.383839 4294967295
184.71893 50.424229 -16.943146 4294967295
184.741 51.383396 -16.737503 4294967295
184.76358 39.364758 -16.624062 4294967295
184.79034 52.343884 -16.933798 4294967295
184.79317 51.864845 -17.240765 4294967295
184.7964 38.894863 -17.373119 4294967295
184.80847 40.326405 -16.754534 4294967295
184.81538 39.851112 -17.121861 4294967295
184.81709 40.804722 -16.616045 4294967295
184.85313 52.825188 -17.593966 4294967295
184.85747 41.765484 -16.680191 4294967295
184.86005 53.783958 -17.165216 4294967295
184.86435 53.30468 -17.494003 4294967295
184.86617 54.26363 -16.989798 4294967295
184.87492 42.245399 -16.672153 4294967295
184.90297 43.204224 -16.553911 4294967295
184.90363 43.681816 -16.297895 4294967295
184.9126 54.743752 -17.409304 4294967295
184.92537 55.22348 -17.331779 4294967295
184.94794 42.73381 -17.483524 4294967295
184.95325 44.166252 -16.764488 4294967295
184.97075 55.70314 -17.735807 4294967295
185.00786 45.128494 -17.039066 4294967295
185.00909 44.651131 -17.323486 4294967295
185.01991 45.607647 -16.950924 4294967295
185.04263 46.088074 -17.020918 4294967295
185.07745 46.569725 -17.269398 4294967295
185.09175 48.483986 -16.415277 4294967295
185.11397 47.051369 -17.543108 4294967295
185.12073 48.964947 -16.57756 4294967295
185.14944 48.010643 -17.535204 4294967295
185.18384 49.448227 -17.244949 4294967295
185.185 50.405689 -16.729012 4294967295
185.19209 49.927368 -17.100611 4294967295
185.22339 51.844967 -16.497154 4294967295
185.24034 50.887707 -17.281918 4294967295
185.25079 39.34885 -16.721422 4294967295
185.27396 52.326244 -16.979593 4294967295
185.29192 39.833179 -17.063913 4294967295
185.29436 52.806206 -17.015202 4294967295
185.3161 53.286175 -17.070562 4294967295
185.32777 54.725391 -16.441984 4294967295
185.33838 41.748249 -16.684769 4294967295
185.34212 40.795341 -17.274368 4294967295
185.34326 53.766201 -17.206141 4294967295
185.37146 55.20554 -16.823112 4294967295
185.37489 41.277626 -17.493723 4294967295
185.38907 54.246376 -17.618845 4294967295
185.41219 44.145905 -16.443045 4294967295
185.41597 42.714603 -17.301598 4294967295
185.42038 43.192314 -17.099581 4294967295
185.44759 55.685268 -17.685686 4294967295
185.44902 45.106152 -16.455257 4294967295
185.45447 45.584717 -16.268482 4294967295
185.46481 43.6759 -17.492426 4294967295
185.4809 46.065815 -16.393341 4294967295
185.49339 44.634239 -17.381863 4294967295
185.51961 46.54813 -16.701204 4294967295
185.52835 47.505459 -16.295218 4294967295
185.53445 47.027782 -16.654032 4294967295
185.5936 48.468178 -16.729897 4294967295
185.60191 47.990589 -17.121748 4294967295
185.60443 49.426273 -16.354879 4294967295
185.65479 49.908539 -16.836361 4294967295
185.69818 50.390003 -17.214701 4294967295
185.69893 50.868824 -16.957457 4294967295
185.7123 51.827591 -16.619991 4294967295
185.72311 39.806618 -16.329866 4294967295
185.72386 38.853863 -16.878408 4294967295
185.72412 39.330257 -16.61371 4294967295
185.7832 52.788696 -17.140013 4294967295
185.80006 54.707462 -16.316582 4294967295
185.80809 40.299061 -17.32884 4294967295
185.81621 41.253639 -16.91235 4294967295
185.81633 42.207592 -16.376616 4294967295
185.8179 40.777298 -17.206556 4294967295
185.82498 42.686211 -16.23665 4294967295
185.82581 54.227943 -16.969593 4294967295
185.82997 53.269238 -17.569063 4294967295
185.84869 53.748882 -17.579559 4294967295
185.85539 55.187668 -16.873535 4294967295
185.86673 43.169888 -16.591228 4294967295
185.89502 55.667496 -17.19615 4294967295
185.90305 44.129913 -16.595516 4294967295
185.91763 44.609455 -16.544319 4294967295
185.93994 43.657799 -17.415842 4294967295
185.94569 45.090733 -16.69467 4294967295
185.9498 46.046986 -16.217215 4294967295
185.98224 45.572903 -16.971451 4294967295
185.98677 46.529179 -16.500584 4294967295
186.03146 47.011944 -16.900154 4294967295
186.07632 47.972492 -17.032345 4294967295
186.092 48.452118 -16.997478 4294967295
186.12726 49.411724 -16.986038 4294967295
186.16515 49.892899 -17.283798 4294967295
186.17133 38.829994 -16.38344 4294967295
186.17332 50.8508 -16.866823 4294967295
186.19319 51.809868 -16.624571 4294967295
186.20189 39.789047 -16.301397 4294967295
186.22545 51.332378 -17.378441 4294967295
186.2339 52.769985 -16.695066 4294967295
186.23819 41.226212 -16.034998 4294967295
186.24899 40.274529 -16.737808 4294967295
186.26372 39.324722 -17.498781 4294967295
186.28163 41.710678 -16.417032 4294967295
186.30008 55.169704 -16.335917 4294967295
186.31146 42.192623 -16.59409 4294967295
186.31958 54.689919 -16.899576 4294967295
186.33945 54.210587 -17.467995 4294967295
186.35088 42.675945 -16.91576 4294967295
186.35489 43.153675 -16.705435 4294967295
186.39372 44.591442 -16.476835 4294967295
186.4034 43.638012 -17.163549 4294967295
186.40878 55.64949 -17.698469 4294967295
186.4137 45.54953 -16.235546 4294967295
186.43529 44.119686 -17.372431 4294967295
186.45222 45.076595 -17.085783 4294967295
186.48033 46.035236 -16.966675 4294967295
186.49593 46.992783 -16.659668 4294967295
186.55573 47.476799 -17.288609 4294967295
186.56798 47.955963 -17.202045 4294967295
186.59831 48.436752 -17.387882 4294967295
186.59996 48.915112 -17.141464 4294967295
186.61844 50.35218 -16.605715 4294967295
186.61943 49.873505 -16.892132 4294967295
186.63713 49.396282 -17.430336 4294967295
186.66376 51.312584 -16.74584 4294967295
186.66647 38.815804 -16.602755 4294967295
186.687 50.83498 -17.367687 4294967295
186.69011 40.249954 -16.143927 4294967295
186.69597 51.793121 -16.959965 4294967295
186.69702 39.774635 -16.52022 4294967295
186.69731 39.298302 -16.796406 4294967295
186.70505 52.27261 -16.825237 4294967295
186.71266 40.730904 -16.212585 4294967295
186.71935 52.752369 -16.76952 4294967295
186.75839 53.232826 -17.086924 4294967295
186.76016 42.17012 -16.113483 4294967295
186.76216 53.712318 -16.87184 4294967295
186.80229 55.631886 -16.389755 4294967295
186.81668 54.192719 -17.423355 4294967295
186.81883 43.133827 -16.455542 4294967295
186.83237 55.151958 -17.11647 4294967295
186.84612 44.092613 -16.323378 4294967295
186.87482 43.619362 -17.029518 4294967295
186.88312 45.052849 -16.33803 4294967295
186.89526 44.576836 -16.794317 4294967295
186.93355 45.53685 -16.828478 4294967295
186.94479 46.015923 -16.726183 4294967295
186.96707 46.974289 -16.518171 4294967295
186.96906 46.49651 -16.820936 4294967295
187.00464 47.934387 -16.541481 4294967295
187.08214 50.333462 -16.351065 4294967295
187.0901 48.898308 -17.290449 4294967295
187.09819 49.377247 -17.140354 4294967295
187.13553 51.773571 -16.341095 4294967295
187.14178 50.815861 -16.982107 4294967295
187.16789 51.296074 -17.10515 4294967295
187.17288 39.280159 -16.723085 4294967295
187.20033 38.809654 -17.41292 4294967295
187.20256 52.734695 -16.81155 4294967295
187.20554 39.762878 -16.945402 4294967295
187.2144 40.240944 -16.806513 4294967295
187.21939 53.694027 -16.52026 4294967295
187.22552 40.719528 -16.701899 4294967295
187.22916 53.21479 -16.941914 4294967295
187.233 41.197559 -16.542036 4294967295
187.24934 55.133904 -16.15411 4294967295
187.25241 41.677742 -16.563141 4294967295
187.25583 54.174282 -16.800001 4294967295
187.27213 54.654137 -16.774277 4294967295
187.28661 42.637325 -16.535601 4294967295
187.31697 42.165337 -17.270432 4294967295
187.32526 43.12043 -16.849373 4294967295
187.33643 55.613819 -17.204254 4294967295
187.34866 43.601051 -16.931334 4294967295
187.35512 44.556656 -16.481621 4294967295
187.369 45.036095 -16.418705 4294967295
187.36957 44.081253 -16.975363 4294967295
187.40034 45.517731 -16.621878 4294967295
187.44786 46.001099 -17.070887 4294967295
187.46054 46.480244 -16.989923 4294967295
187.47845 46.960014 -16.988594 4294967295
187.50598 48.397026 -16.58462 4294967295
187.52031 47.442146 -17.351753 4294967295
187.53342 48.877724 -16.728401 4294967295
187.54317 47.922234 -17.425905 4294967295
187.54329 49.356991 -16.604271 4294967295
187.57678 49.837986 -16.840124 4294967295
187.6165 50.797863 -16.896845 4294967295
187.6263 50.319809 -17.321325 4294967295
187.62859 51.756405 -16.531641 4294967295
187.64005 38.784119 -16.796095 4294967295
187.64207 52.236179 -16.462509 4294967295
187.66808 52.716431 -16.584705 4294967295
187.68906 53.675983 -16.354984 4294967295
187.6938 39.271156 -17.341959 4294967295
187.6967 53.196659 -16.746656 4294967295
187.70242 39.748928 -17.198675 4294967295
187.70509 40.702137 -16.689426 4294967295
187.71994 42.135242 -16.090193 4294967295
187.73074 41.660095 -16.53091 4294967295
187.73303 41.183773 -16.841019 4294967295
187.7574 54.63633 -16.848633 4294967295
187.75934 55.116116 -16.602924 4294967295
187.76314 43.096558 -16.20009 4294967295
187.77477 42.621235 -16.653246 4294967295
187.79082 44.0555 -16.072184 4294967295
187.82645 55.595901 -17.353987 4294967295
187.85123 45.496613 -16.169409 4294967295
187.86075 45.020123 -16.590979 4294967295
187.87462 45.977329 -16.251856 4294967295
187.89262 44.546989 -17.354622 4294967295
187.93628 46.462257 -16.920519 4294967295
187.96834 46.94352 -17.135887 4294967295
187.97504 47.900162 -16.686401 4294967295
188.01137 48.381645 -16.96763 4294967295
188.05099 48.863171 -17.298853 4294967295
188.05266 49.820038 -16.772173 4294967295
188.0746 49.343231 -17.385202 4294967295
188.09154 50.779881 -16.816216 4294967295
188.09264 50.301281 -17.109495 4294967295
188.09607 38.76189 -16.42301 4294967295
188.11887 39.242813 -16.496685 4294967295
188.12791 51.260651 -17.098047 4294967295
188.15219 52.219612 -16.917948 4294967295
188.15825 39.726948 -16.824997 4294967295
188.1825 52.69981 -17.107105 4294967295
188.18533 40.208477 -16.964401 4294967295
188.19542 53.179375 -17.028944 4294967295
188.19946 42.11776 -16.074043 4294967295
188.20128 41.164356 -16.655872 4294967295
188.20473 55.098118 -16.06424 4294967295
188.20848 54.1385 -16.676041 4294967295
188.22041 40.691376 -17.226984 4294967295
188.24097 43.55616 -15.880894 4294967295
188.24445 42.602188 -16.488825 4294967295
188.2599 43.081722 -16.449566 4294967295
188.26013 41.651287 -17.284079 4294967295
188.2878 55.578068 -17.065331 4294967295
188.29485 44.041454 -16.432878 4294967295
188.35184 45.959461 -16.200956 4294967295
188.35768 44.527538 -17.123152 4294967295
188.36606 45.005955 -16.974863 4294967295
188.40028 45.487713 -17.224638 4294967295
188.40819 46.443821 -16.791473 4294967295
188.43159 46.92421 -16.875021 4294967295
188.44479 47.403496 -16.800636 4294967295
188.47871 49.319805 -16.21261 4294967295
188.48358 47.885273 -17.121145 4294967295
188.48769 48.36372 -16.907005 4294967295
188.5162 48.844353 -17.068968 4294967295
188.55014 49.803612 -17.037281 4294967295
188.57375 50.76231 -16.845587 4294967295
188.57426 38.744263 -16.388462 4294967295
188.60117 51.242592 -16.990963 4294967295
188.61276 39.228401 -16.705088 4294967295
188.62096 51.722412 -17.018902 4294967295
188.6337 52.20192 -16.937323 4294967295
188.63411 52.681072 -16.665373 4294967295
188.65431 39.712891 -17.069149 4294967295
188.65575 53.161037 -16.721605 4294967295
188.66208 53.640621 -16.540997 4294967295
188.68224 54.120564 -16.573938 4294967295
188.71349 55.080341 -16.500175 4294967295
188.72256 41.630939 -17.011131 4294967295
188.72411 42.584751 -16.477573 4294967295
188.74469 43.065063 -16.517467 4294967295
188.75475 55.560215 -16.860069 4294967295
188.78842 44.503323 -16.357969 4294967295
188.80031 44.027668 -16.820921 4294967295
188.81113 45.939445 -15.872108 4294967295
188.84355 46.42123 -16.095549 4294967295
188.87714 46.902966 -16.336794 4294967295
188.90152 47.861786 -16.156191 4294967295
188.93381 47.386856 -16.936733 4294967295
188.98871 48.348011 -17.230064 4294967295
188.9978 50.26239 -16.25259 4294967295
189.00267 48.827286 -17.167017 4294967295
189.01093 49.306175 -17.015923 4294967295
189.0162 49.784973 -16.818476 4294967295
189.02914 51.222137 -16.179676 4294967295
189.06024 51.702782 -16.383236 4294967295
189.06186 52.182068 -16.128231 4294967295
189.08702 39.209988 -16.611641 4294967295
189.088 50.746635 -17.374392 4294967295
189.0941 53.142063 -16.069223 4294967295
189.11201 40.644043 -16.160032 4294967295
189.11914 53.622292 -16.178381 4294967295
189.1207 40.169205 -16.575317 4294967295
189.13245 39.695305 -17.03817 4294967295
189.13831 54.102345 -16.196444 4294967295
189.14487 41.126743 -16.390802 4294967295
189.149 52.664501 -17.203686 4294967295
189.19611 41.612507 -16.908312 4294967295
189.20697 42.091015 -16.797089 4294967295
189.21846 55.542362 -16.603088 4294967295
189.22981 42.571571 -16.872473 4294967295
189.23637 55.062637 -17.162388 4294967295
189.24803 43.528347 -16.595387 4294967295
189.27583 43.055706 -17.308756 4294967295
189.29765 44.012775 -17.088018 4294967295
189.31537 44.969643 -16.802757 4294967295
189.33388 45.927055 -16.529697 4294967295
189.34055 46.405621 -16.352854 4294967295
189.347 46.884312 -16.172476 4294967295
189.3558 45.452248 -17.152565 4294967295
189.37144 47.843216 -15.991619 4294967295
189.40533 47.36845 -16.801954 4294967295
189.41183 48.325314 -16.341185 4294967295
189.41365 48.803894 -16.08787 4294967295
189.46933 49.286877 -16.676609 4294967295
189.48372 49.766426 -16.619783 4294967295
189.50272 50.24633 -16.635525 4294967295
189.51219 38.705086 -16.031767 4294967295
189.53015 51.205532 -16.501261 4294967295
189.54779 50.727772 -17.058758 4294967295
189.56226 39.191772 -16.532953 4294967295
189.59082 53.124733 -16.323229 4294967295
189.60536 52.166908 -17.114277 4294967295
189.62202 40.156094 -16.904743 4294967295
189.62286 39.680195 -17.199539 4294967295
189.62419 53.605038 -16.563753 4294967295
189.62729 54.564415 -16.047981 4294967295
189.62964 40.633842 -16.742411 4294967295
189.65694 54.08514 -16.794769 4294967295
189.66432 41.116646 -17.003193 4294967295
189.6871 55.044655 -16.703068 4294967295
189.68779 42.07383 -16.807087 4294967295
189.68913 41.597511 -17.10993 4294967295
189.69106 55.524487 -16.482319 4294967295
189.69359 43.983097 -15.76878 4294967295
189.69601 42.551956 -16.653774 4294967295
189.69756 43.029144 -16.395693 4294967295
189.74939 43.514198 -16.925913 4294967295
189.80655 46.386478 -16.12767 4294967295
189.85602 45.91468 -17.186739 4294967295
189.86342 46.870731 -16.737778 4294967295
189.89856 48.308311 -16.440807 4294967295
189.89999 47.352417 -17.029177 4294967295
189.91795 47.832066 -17.028696 4294967295
189.92899 49.746254 -16.069921 4294967295
189.99295 50.22934 -16.79273 4294967295
190.01167 38.692028 -16.331306 4294967295
190.02348 51.188534 -16.70664 4294967295
190.02933 39.171852 -16.325705 4294967295
190.03345 51.667931 -16.579926 4294967295
190.03595 52.147114 -16.335745 4294967295
190.07254 52.627701 -16.628365 4294967295
190.07323 39.657005 -16.733362 4294967295
190.08984 53.107494 -16.617151 4294967295
190.0927 53.58696 -16.37834 4294967295
190.12659 54.067135 -16.628515 4294967295
190.13605 42.527977 -16.020708 4294967295
190.14853 41.100159 -17.068583 4294967295
190.15448 55.026726 -16.50071 4294967295
190.15746 55.506618 -16.263361 4294967295
190.17018 43.965122 -15.706402 4294967295
190.1774 54.547298 -17.145802 4294967295
190.18214 43.489574 -16.179296 4294967295
190.24667 45.408466 -16.06053 4294967295
190.24989 44.931316 -16.395592 4294967295
190.27646 44.457733 -17.09939 4294967295
190.32118 46.372967 -16.66824 4294967295
190.37315 46.856487 -17.205067 4294967295
190.4017 48.771023 -16.518135 4294967295
190.4212 49.250969 -16.541559 4294967295
190.48511 50.691048 -16.698086 4294967295
190.48598 38.673573 -16.236383 4294967295
190.48792 50.212673 -17.027412 4294967295
190.48886 51.170036 -16.472317 4294967295
190.50237 51.649666 -16.400723 4294967295
190.51712 39.156261 -16.444494 4294967295
190.52777 53.088463 -15.947495 4294967295
190.54189 52.130447 -16.741901 4294967295
190.54829 40.114971 -16.367788 4294967295
190.55725 39.640614 -16.79484 4294967295
190.561 54.048534 -15.90299 4294967295
190.59543 54.52879 -16.163172 4294967295
190.59776 55.008686 -15.914476 4294967295
190.6062 40.602497 -17.000034 4294967295
190.60744 41.555492 -16.448814 4294967295
190.62498 42.035244 -16.441383 4294967295
190.63104 42.990108 -15.966034 4294967295
190.63333 41.083813 -17.144836 4294967295
190.64125 42.514797 -16.413824 4294967295
190.65807 43.471527 -16.109253 4294967295
190.66403 43.949707 -15.917749 4294967295
190.73352 44.914352 -16.449123 4294967295
190.74983 45.393967 -16.422421 4294967295
190.79298 46.832302 -16.249479 4294967295
190.80032 46.35537 -16.652498 4294967295
190.85497 48.272793 -16.375635 4294967295
190.86867 48.752285 -16.307585 4294967295
190.88005 49.231651 -16.201834 4294967295
190.88469 47.797634 -17.13509 4294967295
190.93236 49.714119 -16.748077 4294967295
190.96486 50.194817 -16.978756 4294967295
190.97678 52.11079 -16.020992 4294967295
190.98309 38.660099 -16.50474 4294967295
190.98563 51.153244 -16.736151 4294967295
190.98764 50.67474 -17.054878 4294967295
191.00299 39.140289 -16.534636 4294967295
191.00769 52.59127 -16.226416 4294967295
191.00932 51.633247 -16.826792 4294967295
191.02681 39.621269 -16.6276 4294967295
191.03159 53.071373 -16.32023 4294967295
191.03346 40.09874 -16.446337 4294967295
191.05247 40.578754 -16.462448 4294967295
191.07968 41.060287 -16.609455 4294967295
191.08438 54.990845 -16.013121 4294967295
191.09001 54.031548 -16.677654 4294967295
191.09366 54.511135 -16.448704 4294967295
191.09875 41.54023 -16.626421 4294967295
191.10165 42.494148 -16.097868 4294967295
191.10231 55.470856 -16.011541 4294967295
191.12039 43.451359 -15.821829 4294967295
191.12811 42.021954 -16.807581 4294967295
191.1637 43.935204 -16.225494 4294967295
191.16481 42.981415 -16.818703 4294967295
191.21062 44.419254 -16.687593 4294967295
191.21541 44.897167 -16.476318 4294967295
191.25713 45.857491 -16.567831 4294967295
191.26707 46.814102 -16.150656 4294967295
191.27032 47.292473 -15.914375 4294967295
191.34566 48.734413 -16.255358 4294967295
191.34608 48.256237 -16.55043 4294967295
191.35115 49.213295 -16.054575 4294967295
191.35956 47.779594 -17.054354 4294967295
191.3616 49.692703 -15.933447 4294967295
191.39351 50.173668 -16.15633 4294967295
191.43237 51.133698 -16.201853 4294967295
191.46545 39.119354 -16.251734 4294967295
191.46988 38.644421 -16.611485 4294967295
191.48741 51.61544 -16.795572 4294967295
191.51933 53.053818 -16.441227 4294967295
191.52406 52.574833 -16.805716 4294967295
191.53072 40.084972 -16.720942 4294967295
191.53931 54.492893 -15.894144 4294967295
191.54059 39.611069 -17.168283 4294967295
191.55435 40.565758 -16.811348 4294967295
191.55745 53.534126 -16.763773 4294967295
191.57674 42.952957 -15.724436 4294967295
191.58604 42.000782 -16.452959 4294967295
191.5912 54.97311 -16.438705 4294967295
191.59195 54.014114 -17.02886 4294967295
191.61313 41.529209 -17.177223 4294967295
191.61682 42.482742 -16.657673 4294967295
191.62744 43.915333 -15.960512 4294967295
191.63742 55.452904 -16.891529 4294967295
191.6387 44.394344 -15.851706 4294967295
191.64549 43.441017 -16.540092 4294967295
191.72305 44.883553 -16.919031 4294967295
191.72403 45.838364 -16.355076 4294967295
191.74303 45.363419 -16.950636 4294967295
191.75107 46.319275 -16.500504 4294967295
191.75659 46.797638 -16.299469 4294967295
191.78825 47.27895 -16.519552 4294967295
191.80334 47.758427 -16.472347 4294967295
191.80486 48.23666 -16.206779 4294967295
191.87465 49.677525 -16.4608 4294967295
191.87541 49.199261 -16.763332 4294967295
191.88144 48.721703 -17.15077 4294967295
191.88193 50.156578 -16.287823 4294967295
191.90092 51.115341 -16.013237 4294967295
191.92758 51.595741 -16.152559 4294967295
191.93382 50.638557 -16.83448 4294967295
191.93562 39.100029 -16.090082 4294967295
191.94954 52.075829 -16.216616 4294967295
191.96147 53.034866 -15.82748 4294967295
191.96666 52.555683 -16.201986 4294967295
191.97021 38.631763 -16.938814 4294967295
191.99098 39.587738 -16.692762 4294967295
192.02295 41.022591 -16.336922 4294967295
192.03424 53.995621 -16.420992 4294967295
192.03903 53.516369 -16.78928 4294967295
192.04092 41.502392 -16.336199 4294967295
192.05049 54.955132 -16.101391 4294967295
192.06203 42.459473 -16.094906 4294967295
192.06378 54.475563 -16.607283 4294967295
192.0907 55.435047 -16.460302 4294967295
192.10905 43.898151 -15.981602 4294967295
192.11372 43.421783 -16.348562 4294967295
192.12415 44.377674 -15.934273 4294967295
192.13562 44.85675 -15.828632 4294967295
192.18747 45.341267 -16.376293 4294967295
192.22424 46.300964 -16.388632 4294967295
192.29939 47.264774 -17.022675 4294967295
192.30176 47.742744 -16.769413 4294967295
192.30502 49.177517 -15.946447 4294967295
192.31055 48.221512 -16.619858 4294967295
192.35361 50.617092 -15.857782 4294967295
192.38858 49.662464 -17.009789 4294967295
192.38971 39.077194 -15.665497 4294967295
192.39484 50.141201 -16.819485 4294967295
192.39867 51.57756 -16.00432 4294967295
192.43971 38.612316 -16.770357 4294967295
192.45033 39.566223 -16.357634 4294967295
192.45143 52.059044 -16.569061 4294967295
192.47137 53.018002 -16.307882 4294967295
192.48782 41.002415 -16.089012 4294967295
192.49736 53.977482 -16.144667 4294967295
192.50764 40.05402 -16.996214 4294967295
192.51414 53.498455 -16.710484 4294967295
192.52351 41.485584 -16.376463 4294967295
192.53873 42.441555 -16.038164 4294967295
192.5415 42.918941 -15.789896 4294967295
192.55133 55.417175 -16.143843 4294967295
192.5555 54.937405 -16.504704 4294967295
192.55867 41.968426 -16.655373 4294967295
192.58717 43.88044 -15.947058 4294967295
192.60797 43.406681 -16.578659 4294967295
192.62843 44.841076 -16.032358 4294967295
192.64375 44.366058 -16.575018 4294967295
192.66415 46.278606 -15.733477 4294967295
192.68335 45.325947 -16.63372 4294967295
192.71075 45.806824 -16.786846 4294967295
192.75795 46.767353 -16.969503 4294967295
192.7699 48.680183 -15.989241 4294967295
192.77081 48.202061 -16.298267 4294967295
192.80992 49.161945 -16.348673 4294967295
192.82802 50.120274 -16.056253 4294967295
192.89709 39.065926 -16.107637 4294967295
192.90131 50.60371 -16.959085 4294967295
192.92336 51.0835 -17.025343 4294967295
192.92732 52.520176 -16.20746 4294967295
192.93588 52.041512 -16.641661 4294967295
192.93973 52.999851 -16.115482 4294967295
192.94644 40.028397 -16.325687 4294967295
192.94691 39.55254 -16.627895 4294967295
192.99681 40.514622 -16.854969 4294967295
193.00258 54.919346 -15.96509 4294967295
193.01089 54.439728 -16.396238 4294967295
193.01407 40.994049 -16.842903 4294967295
193.01814 53.960426 -16.809208 4294967295
193.02341 41.472008 -16.701014 4294967295
193.02914 42.902832 -15.910547 4294967295
193.04247 43.382019 -15.833813 4294967295
193.06854 55.399273 -16.750555 4294967295
193.08772 44.820694 -15.689625 4294967295
193.10789 44.346317 -16.315521 4294967295
193.12668 43.872219 -16.918478 4294967295
193.13669 45.304909 -16.197073 4294967295
193.14044 46.260628 -15.66794 4294967295
193.14319 45.78326 -16.008575 4294967295
193.21083 46.746735 -16.527252 4294967295
193.23694 48.183144 -16.068893 4294967295
193.2395 48.661636 -15.815126 4294967295
193.24223 47.705666 -16.451748 4294967295
193.30305 49.145432 -16.563541 4294967295
193.32611 51.061348 -15.758688 4294967295
193.336 49.626282 -16.809273 4294967295
193.34488 50.58371 -16.36323 4294967295
193.34911 50.105522 -16.728636 4294967295
193.36929 51.542652 -16.172552 4294967295
193.37866 40.001282 -15.538456 4294967295
193.38939 52.022587 -16.206598 4294967295
193.39781 39.529156 -16.150108 4294967295
193.40071 38.578312 -16.790297 4294967295
193.40598 39.055084 -16.580683 4294967295
193.41333 40.484688 -15.812635 4294967295
193.42067 40.962574 -15.63682 4294967295
193.42084 52.502941 -16.427935 4294967295
193.4274 53.46167 -15.942842 4294967295
193.43492 52.982555 -16.363522 4294967295
193.44888 53.941666 -16.000198 4294967295
193.49582 54.901566 -16.180058 4294967295
193.50775 54.422104 -16.673332 4294967295
193.51274 42.409317 -16.263515 4294967295
193.51329 41.456623 -16.865759 4294967295
193.53683 42.890129 -16.363945 4294967295
193.54312 55.381401 -16.662731 4294967295
193.57117 43.37252 -16.633114 4294967295
193.58656 43.851753 -16.590178 4294967295
