# .PCD v0.7 - Point Cloud Data file format
VERSION 0.7
FIELDS x y z rgb
SIZE 4 4 4 4
TYPE F F F U
COUNT 1 1 1 1
WIDTH 1125
HEIGHT 1
VIEWPOINT 0 0 0 1 0 0 0
POINTS 1125
DATA ascii
214.38448 -1.0773797 -90.586365 4294967295
214.38773 -1.5055871 -91.020287 4294967295
214.44141 -0.1536717 -91.085785 4294967295
214.44229 -0.58451599 -91.46862 4294967295
214.44595 1.1479459 -90.090797 4294967295
214.48349 1.6188049 -90.536682 4294967295
214.4938 2.9282622 -89.664795 4294967295
214.50395 2.0721931 -90.614304 4294967295
214.52278 3.3902001 -89.925629 4294967295
214.52631 -13.0429 -93.784813 4294967295
214.53018 -12.183924 -93.142075 4294967295
214.55005 -11.731374 -93.207336 4294967295
214.55708 -11.295009 -92.995743 4294967295
214.55797 4.2915826 -89.956055 4294967295
214.55927 3.8592882 -90.350021 4294967295
214.61093 -10.372437 -93.430527 4294967295
214.63513 -8.6301851 -92.497459 4294967295
214.64391 -9.9039164 -93.779137 4294967295
214.65349 -9.4643316 -93.622421 4294967295
214.66246 -9.0253429 -93.452873 4294967295
214.66385 -8.1669531 -92.754021 4294967295
214.66504 -7.7367439 -92.415421 4294967295
214.673 -7.2982635 -92.223129 4294967295
214.68684 -5.9936628 -91.427109 4294967295
214.70355 -6.4038067 -92.154175 4294967295
214.71933 -5.096312 -91.399582 4294967295
214.7262 -4.6582618 -91.182724 4294967295
214.74693 -4.2044106 -91.266449 4294967295
214.76511 -3.7534704 -91.295059 4294967295
214.79187 -2.8622828 -91.143219 4294967295
214.79567 -3.2888203 -91.591713 4294967295
214.80449 -2.4174247 -91.050919 4294967295
214.84576 -1.9413338 -91.581184 4294967295
214.86531 -1.0578585 -91.272514 4294967295
214.88416 -0.60631227 -91.31517 4294967295
214.89098 0.2644105 -90.729401 4294967295
214.90425 0.7103734 -90.651413 4294967295
214.92117 1.1601133 -90.65213 4294967295
214.95781 2.0624199 -90.714333 4294967295
214.95926 3.3628416 -89.641808 4294967295
214.96141 2.4987769 -90.425369 4294967295
214.96712 3.8040776 -89.444511 4294967295
214.98671 2.956955 -90.608589 4294967295
214.98982 -12.609875 -93.756027 4294967295
214.992 -13.033554 -94.169823 4294967295
215.00836 -11.305023 -93.060555 4294967295
215.02713 4.2961903 -90.385483 4294967295
215.05754 -10.388121 -93.398315 4294967295
215.08374 -9.0721989 -92.867744 4294967295
215.09015 -8.207655 -92.272415 4294967295
215.11238 -6.8941412 -91.653839 4294967295
215.13181 -7.7287583 -92.813454 4294967295
215.13326 -7.2983313 -92.47728 4294967295
215.13483 -6.4382906 -91.775467 4294967295
215.16072 -5.5488896 -91.604561 4294967295
215.16124 -5.97786 -91.984131 4294967295
215.1859 -4.6600714 -91.417511 4294967295
215.22284 -3.7577016 -91.487183 4294967295
215.24084 -3.3070664 -91.512222 4294967295
215.26262 -2.8522773 -91.619179 4294967295
215.27367 -2.4093852 -91.492043 4294967295
215.27858 -1.5420699 -90.859909 4294967295
215.28162 -1.1074142 -90.556618 4294967295
215.2925 -1.9578619 -91.535309 4294967295
215.33383 -0.1883311 -90.961479 4294967295
215.33749 0.2473021 -90.671753 4294967295
215.34637 1.1208196 -90.125565 4294967295
215.35892 1.5662174 -90.029716 4294967295
215.39874 2.0396085 -90.533836 4294967295
215.40649 3.346015 -89.590225 4294967295
215.41028 -13.086021 -93.522606 4294967295
215.41556 2.9220066 -90.160744 4294967295
215.42867 -12.635447 -93.556824 4294967295
215.43324 -12.20285 -93.287384 4294967295
215.44556 -10.905554 -92.448616 4294967295
215.45491 -11.747986 -93.393616 4294967295
215.45898 4.2645607 -90.001686 4294967295
215.4599 -11.314579 -93.133339 4294967295
215.47618 -10.439196 -92.750931 4294967295
215.48105 -10.005402 -92.487724 4294967295
215.49687 -9.5577459 -92.465096 4294967295
215.50618 -9.1181307 -92.299332 4294967295
215.52228 -8.2416306 -91.911903 4294967295
215.56311 -6.9058118 -91.696976 4294967295
215.56857 -6.470129 -91.445496 4294967295
215.56929 -7.7558317 -92.575584 4294967295
215.56998 -7.3264418 -92.219345 4294967295
215.59599 -5.5788097 -91.30674 4294967295
215.63162 -4.6778269 -91.348038 4294967295
215.65657 -5.0784864 -92.270653 4294967295
215.66899 -3.7749033 -91.428223 4294967295
215.67607 -3.3366132 -91.212204 4294967295
215.67853 -2.9033818 -90.893372 4294967295
215.6837 -4.188014 -92.124794 4294967295
215.73053 -1.5531402 -90.924034 4294967295
215.75229 -1.0982866 -91.031479 4294967295
215.77934 -0.63774782 -91.256905 4294967295
215.78275 -0.2027574 -90.959099 4294967295
215.80293 0.25030991 -91.032318 4294967295
215.8055 0.68469292 -90.715202 4294967295
215.82277 1.5668411 -90.350037 4294967295
215.83539 2.0122266 -90.255409 4294967295
215.83804 2.4475021 -89.940125 4294967295
215.84998 3.325367 -89.454666 4294967295
215.85533 2.8978648 -89.949158 4294967295
215.86224 -12.6682 -93.237198 4294967295
215.89714 -12.195916 -93.637329 4294967295
215.90576 -11.758137 -93.455284 4294967295
215.90936 -10.899649 -92.789108 4294967295
215.9265 -11.304562 -93.541595 4294967295
215.94571 -10.425978 -93.221268 4294967295
215.94818 -9.1401396 -92.155563 4294967295
215.95186 -8.7074528 -91.863129 4294967295
215.95815 -9.5554342 -92.750214 4294967295
215.96259 -9.9772902 -93.222115 4294967295
216.00587 -7.7842546 -92.313492 4294967295
216.006 -6.9268761 -91.567245 4294967295
216.00992 -8.2074585 -92.777573 4294967295
216.03857 -7.3159928 -92.665207 4294967295
216.04231 -6.0252404 -91.624451 4294967295
216.04579 -6.4500618 -92.07679 4294967295
216.06676 -5.5669713 -91.793518 4294967295
216.07037 -4.2738037 -90.747864 4294967295
216.09143 -5.1086087 -91.96698 4294967295
216.10417 -4.6642714 -91.875656 4294967295
216.11023 -3.79776 -91.259605 4294967295
216.1246 -2.9208975 -90.828156 4294967295
216.13304 -3.3415813 -91.391754 4294967295
216.16328 -1.1542997 -90.184837 4294967295
216.19827 -0.6847086 -90.588882 4294967295
216.22668 1.072598 -89.714615 4294967295
216.22774 -0.2214103 -90.869682 4294967295
216.26334 1.9756217 -89.778908 4294967295
216.27461 2.4198093 -89.653236 4294967295
216.28532 1.5664296 -90.647896 4294967295
216.30669 3.7511787 -89.236328 4294967295
216.32509 4.2028799 -89.269943 4294967295
216.34338 -11.785507 -93.223671 4294967295
216.36903 -10.898673 -93.044426 4294967295
216.37149 -10.468513 -92.722504 4294967295
216.38463 -11.305094 -93.768822 4294967295
216.38539 -9.5960159 -92.279922 4294967295
216.3912 -9.1609383 -92.03331 4294967295
216.41483 -8.7034206 -92.183929 4294967295
216.43655 -7.3917451 -91.538132 4294967295
216.45378 -6.9420137 -91.546448 4294967295
216.45537 -7.7969146 -92.337227 4294967295
216.4597 -6.5060301 -91.300575 4294967295
216.49855 -6.0301957 -91.793884 4294967295
216.51199 -5.5851202 -91.716858 4294967295
216.53931 -4.6942415 -91.573181 4294967295
216.55136 -4.250628 -91.464607 4294967295
216.56789 -3.3717904 -91.078873 4294967295
216.59966 -2.475141 -91.033981 4294967295
216.60146 -2.9032493 -91.453949 4294967295
216.61702 -1.1636281 -90.285378 4294967295
216.62712 -2.0137372 -91.272018 4294967295
216.63129 -1.5785427 -90.986542 4294967295
216.66357 -0.68116999 -90.953506 4294967295
216.66687 0.61641878 -89.886543 4294967295
216.67688 0.1956763 -90.492828 4294967295
216.68077 -0.2313142 -90.960587 4294967295
216.69394 1.5091748 -89.735306 4294967295
216.71387 2.3947215 -89.422791 4294967295
216.71628 1.1010756 -90.619965 4294967295
216.72238 1.971292 -89.995819 4294967295
216.74576 -12.286263 -92.574516 4294967295
216.75479 2.8696666 -89.96524 4294967295
216.75642 -12.698215 -93.194275 4294967295
216.75714 3.7375307 -89.255524 4294967295
216.7697 3.3175282 -89.920364 4294967295
216.78699 -11.378675 -92.74408 4294967295
216.80962 4.2235427 -90.058868 4294967295
216.81554 -10.487784 -92.628159 4294967295
216.82715 -9.6184101 -92.130035 4294967295
216.83087 -10.040884 -92.594284 4294967295
216.84103 -8.7454453 -91.682053 4294967295
216.8416 -9.1724577 -92.0755 4294967295
216.8645 -8.2879372 -91.831451 4294967295
216.87596 -7.8455319 -91.709427 4294967295
216.88821 -6.9735923 -91.22377 4294967295
216.90894 -7.3763852 -92.073395 4294967295
216.96358 -4.3078084 -90.63784 4294967295
217.00449 -4.6887598 -91.946564 4294967295
217.01218 -3.3913145 -90.974541 4294967295
217.01231 -3.8208873 -91.359802 4294967295
217.01971 -2.5223885 -90.379967 4294967295
217.04933 -2.9184093 -91.434738 4294967295
217.05022 -2.0571823 -90.689034 4294967295
217.05681 -1.6192069 -90.455383 4294967295
217.10489 0.158246 -90.013252 4294967295
217.1084 -0.70002788 -90.860184 4294967295
217.12007 -0.25621751 -90.742439 4294967295
217.12202 0.60837168 -90.01886 4294967295
217.16428 1.0855727 -90.596069 4294967295
217.17593 1.5296512 -90.477829 4294967295
217.18771 2.4058657 -89.976898 4294967295
217.1916 2.8421664 -89.680527 4294967295
217.2188 -13.118119 -93.902039 4294967295
217.22234 -12.261979 -93.217812 4294967295
217.22356 -12.686102 -93.628403 4294967295
217.22673 3.311017 -90.095978 4294967295
217.24069 -11.811365 -93.252411 4294967295
217.24146 -11.384141 -92.88681 4294967295
217.24202 -10.956908 -92.516449 4294967295
217.24693 3.7642512 -90.171524 4294967295
217.2505 4.2005014 -89.867935 4294967295
217.28859 -9.6154776 -92.426071 4294967295
217.2971 -10.031364 -93.003189 4294967295
217.29781 -9.1764259 -92.251701 4294967295
217.30644 -8.7379265 -92.064995 4294967295
217.313 -7.8740702 -91.445679 4294967295
217.33728 -8.2711658 -92.383743 4294967295
217.36046 -6.5300941 -91.374374 4294967295
217.36369 -7.3824954 -92.217072 4294967295
217.37692 -6.0812721 -91.36544 4294967295
217.38589 -6.9268737 -92.339211 4294967295
217.41792 -5.1738882 -91.531357 4294967295
217.42006 -4.7423334 -91.194366 4294967295
217.43407 -4.2963696 -91.128822 4294967295
217.44637 -3.8523645 -91.024521 4294967295
217.459 -3.4078712 -90.928047 4294967295
217.47871 -2.0949297 -90.219963 4294967295
217.48259 -2.5206828 -90.695114 4294967295
217.51369 -1.1940417 -90.247704 4294967295
217.53905 -0.3039436 -90.054375 4294967295
217.55936 -0.71201903 -90.907219 4294967295
217.57132 0.16292 -90.408104 4294967295
217.57663 1.0313535 -89.755051 4294967295
217.61861 1.5083303 -90.330444 4294967295
217.63315 1.9555564 -90.27713 4294967295
217.64188 3.2609949 -89.313255 4294967295
217.65787 4.1429391 -88.903641 4294967295
217.65842 -12.291843 -92.945328 4294967295
217.66858 -12.703648 -93.564285 4294967295
217.67735 3.7303309 -89.740219 4294967295
217.69417 -11.817694 -93.379036 4294967295
217.69623 -10.96278 -92.653435 4294967295
217.71101 -10.09004 -92.219467 4294967295
217.71175 -11.3682 -93.396149 4294967295
217.73116 -10.490078 -93.06868 4294967295
217.74631 -9.1900845 -92.256004 4294967295
217.7515 -8.3287067 -91.599991 4294967295
217.77646 -8.7240381 -92.561325 4294967295
217.80441 -7.8336964 -92.429367 4294967295
217.81004 -6.9711494 -91.783134 4294967295
217.82518 -6.5241847 -91.743271 4294967295
217.8291 -6.0910234 -91.445518 4294967295
217.85948 -5.1965947 -91.368355 4294967295
217.87845 -4.7447701 -91.416641 4294967295
217.89125 -3.8712072 -90.933769 4294967295
217.89534 -3.4369001 -90.638588 4294967295
217.90956 -4.2783942 -91.745071 4294967295
217.94394 -1.6603403 -90.201675 4294967295
217.94954 -1.223475 -89.940735 4294967295
217.95206 -2.0811229 -90.779312 4294967295
217.95932 -0.78167492 -89.776382 4294967295
218.00952 0.99892902 -89.374443 4294967295
218.0168 -0.2861428 -90.715698 4294967295
218.02853 0.58858198 -90.205795 4294967295
218.03743 0.1675916 -90.80262 4294967295
218.05803 1.483418 -90.106735 4294967295
218.06857 1.9263625 -89.959999 4294967295
218.07503 -12.774327 -92.608147 4294967295
218.07959 2.8018637 -89.432259 4294967295
218.10126 4.1219211 -88.758377 4294967295
218.10382 2.3958535 -90.385147 4294967295
218.11105 3.6995263 -89.378204 4294967295
218.11438 3.2707629 -89.847244 4294967295
218.13329 -10.991476 -92.39682 4294967295
218.13727 -11.837952 -93.268562 4294967295
218.13866 -12.261499 -93.690567 4294967295
218.14998 -10.116285 -92.00293 4294967295
218.15562 -10.535303 -92.523735 4294967295
218.17085 -9.2350807 -91.704796 4294967295
218.19229 -8.779994 -91.81118 4294967295
218.2234 -8.3124857 -92.142059 4294967295
218.25076 -7.8500881 -92.385262 4294967295
218.27229 -6.5399327 -91.711365 4294967295
218.30206 -5.6465759 -91.61927 4294967295
218.33823 -3.8875554 -90.891312 4294967295
218.35013 -4.3021116 -91.560921 4294967295
218.35672 -2.5770507 -90.142319 4294967295
218.38806 -2.9695725 -91.265717 4294967295
218.40395 -1.2317262 -90.062828 4294967295
218.40868 -2.0863075 -90.959747 4294967295
218.43681 0.097569898 -89.646927 4294967295
218.43748 -0.33244851 -90.057068 4294967295
218.47079 0.99768353 -89.65168 4294967295
218.50092 1.8935828 -89.566193 4294967295
218.50249 1.4638858 -89.997597 4294967295
218.51617 2.341784 -89.527794 4294967295
218.52737 2.7856674 -89.394501 4294967295
218.55678 3.6811419 -89.292145 4294967295
218.56349 -11.455723 -92.369598 4294967295
218.57295 4.1304417 -89.274643 4294967295
218.5741 -12.292194 -93.40403 4294967295
218.57545 -11.013455 -92.255989 4294967295
218.62495 -10.520617 -93.018677 4294967295
218.63351 -10.083112 -92.824966 4294967295
218.64308 -8.3637486 -91.471359 4294967295
218.64635 -9.2132702 -92.337524 4294967295
218.65154 -9.632864 -92.852592 4294967295
218.67334 -7.8972068 -91.785133 4294967295
218.67676 -8.7466297 -92.654724 4294967295
218.69281 -6.5894032 -91.055923 4294967295
218.69447 -7.4426165 -91.885521 4294967295
218.72231 -6.1241436 -91.351845 4294967295
218.7244 -5.6933689 -91.005157 4294967295
218.7767 -5.1999636 -91.837059 4294967295
218.77983 -3.91044 -90.722404 4294967295
218.78299 -4.7639322 -91.588936 4294967295
218.78546 -4.3323936 -91.250931 4294967295
218.79488 -3.4631686 -90.679108 4294967295
218.82121 -3.0023179 -90.901535 4294967295
218.8363 -2.5550141 -90.859467 4294967295
218.84727 -1.6827784 -90.323837 4294967295
218.84833 -2.1112714 -90.745613 4294967295
218.85884 -0.80907917 -89.800812 4294967295
218.88583 0.51382017 -89.242561 4294967295
218.89069 -0.34208679 -90.153351 4294967295
218.8987 0.097551301 -89.944122 4294967295
218.91673 0.97956562 -89.572845 4294967295
218.93752 1.8651571 -89.2659 4294967295
218.94702 1.4444094 -89.889442 4294967295
218.97319 -12.799049 -92.654106 4294967295
218.97543 2.3381944 -89.762497 4294967295
218.99135 -11.923134 -92.288208 4294967295
218.99953 -12.3371 -92.877647 4294967295
219.00093 3.2290764 -89.5672 4294967295
219.02843 -11.446437 -92.764641 4294967295
219.03493 4.5614638 -89.172432 4294967295
219.03838 -11.007198 -92.601982 4294967295
219.0392 4.1337132 -89.672943 4294967295
219.05591 -10.131535 -92.220795 4294967295
219.07004 -10.538308 -92.951607 4294967295
219.09814 -8.7958927 -92.024124 4294967295
219.09959 -7.9400911 -91.261871 4294967295
219.11707 -8.3442154 -92.072784 4294967295
219.13786 -7.463057 -91.767784 4294967295
219.1405 -6.6047101 -91.032188 4294967295
219.15767 -7.0102024 -91.837357 4294967295
219.19844 -4.3905582 -90.406265 4294967295
219.20604 -5.665844 -91.785355 4294967295
219.2093 -5.2338123 -91.463486 4294967295
219.21281 -4.8012486 -91.146988 4294967295
219.23012 -3.9228179 -90.756744 4294967295
219.24445 -3.4764194 -90.69693 4294967295
219.26819 -1.7302084 -89.657433 4294967295
219.28873 -1.2760382 -89.743896 4294967295
219.30388 -2.1174293 -90.906525 4294967295
219.31204 -0.38839579 -89.495132 4294967295
219.32976 0.062521897 -89.514938 4294967295
219.33228 -0.79510587 -90.37796 4294967295
219.36981 0.53881598 -90.06572 4294967295
219.38345 0.98492479 -89.989044 4294967295
219.39006 1.423182 -89.744339 4294967295
219.40129 1.8667407 -89.609192 4294967295
219.42764 -12.80371 -92.806427 4294967295
219.42976 -12.375774 -92.456657 4294967295
219.43015 2.3298531 -89.894371 4294967295
219.43832 3.2017341 -89.284256 4294967295
219.45235 2.7854781 -90.021179 4294967295
219.45515 4.0837154 -88.878967 4294967295
219.46429 -11.477064 -92.476456 4294967295
219.46959 -11.044256 -92.201401 4294967295
219.47226 4.5341415 -88.883972 4294967295
219.47685 3.6750231 -89.79995 4294967295
219.48367 -11.875156 -93.338043 4294967295
219.49446 -9.7323895 -91.58989 4294967295
219.51953 -10.549991 -92.988861 4294967295
219.52452 -10.117527 -92.707451 4294967295
219.53412 -9.2526169 -92.132889 4294967295
219.5475 -8.3817892 -91.648209 4294967295
219.54984 -8.8052082 -92.106094 4294967295
219.57394 -7.9200683 -91.876648 4294967295
219.58194 -7.4826617 -91.665314 4294967295
219.59161 -7.0429044 -91.493973 4294967295
219.61935 -6.5797133 -91.753479 4294967295
219.65883 -4.3903313 -90.681519 4294967295
219.65979 -3.960587 -90.300308 4294967295
219.66461 -3.5257959 -90.011566 4294967295
219.66739 -5.2357607 -91.692673 4294967295
219.67348 -4.8002172 -91.435112 4294967295
219.70416 -2.6193199 -90.149872 4294967295
219.72031 -3.0286679 -90.941254 4294967295
219.7299 -2.1589689 -90.362411 4294967295
219.73444 -1.724102 -90.066452 4294967295
219.75175 -1.2738786 -90.076706 4294967295
219.77234 -0.81978852 -90.165863 4294967295
219.80238 0.50556988 -89.670654 4294967295
219.80588 -0.35067511 -90.565514 4294967295
219.80913 0.083062202 -90.238235 4294967295
219.82826 1.8273869 -89.074699 4294967295
219.84535 1.4157329 -89.891998 4294967295
219.84778 2.2803965 -89.137421 4294967295
219.85699 -12.843995 -92.36084 4294967295
219.87628 2.7432971 -89.416733 4294967295
219.88449 3.6154833 -88.800972 4294967295
219.88918 3.18892 -89.320976 4294967295
219.89539 4.491457 -88.248787 4294967295
219.90015 -12.357806 -92.992401 4294967295
219.9055 -11.925481 -92.716599 4294967295
219.91451 -11.062623 -92.123047 4294967295
219.92044 -10.628868 -91.860588 4294967295
219.92072 -11.479122 -92.677338 4294967295
219.95773 -9.725976 -91.946793 4294967295
219.96445 -9.2907867 -91.703033 4294967295
219.98508 -8.8366528 -91.793533 4294967295
220.01797 -8.366127 -92.179871 4294967295
220.02223 -7.5073428 -91.47039 4294967295
220.03644 -7.915091 -92.218887 4294967295
220.03697 -7.0609837 -91.419258 4294967295
220.03864 -6.6316404 -91.052956 4294967295
220.0563 -5.7536879 -90.665497 4294967295
220.06819 -6.1658821 -91.359077 4294967295
220.07202 -5.3056974 -90.637604 4294967295
220.08727 -4.4300804 -90.190453 4294967295
220.10699 -4.8332863 -91.074081 4294967295
220.15198 -3.4923215 -90.938927 4294967295
220.15334 -3.0621257 -90.563202 4294967295
220.16968 -2.6132665 -90.550484 4294967295
220.17998 -1.7425194 -89.982864 4294967295
220.18858 -2.1612835 -90.599762 4294967295
220.20551 -1.2824564 -90.191994 4294967295
220.21153 0.0143347 -89.110703 4294967295
220.21628 -0.84003073 -90.044495 4294967295
220.21965 -0.4062638 -89.716721 4294967295
220.26222 0.503613 -89.929871 4294967295
220.2708 1.8051972 -88.908394 4294967295
220.28291 0.95774412 -90.022087 4294967295
220.284 2.251193 -88.818497 4294967295
220.29018 1.3964758 -89.788719 4294967295
220.3074 -12.854356 -92.417404 4294967295
220.31474 3.1482124 -88.744614 4294967295
220.32048 -11.986258 -91.917633 4294967295
220.33015 3.5967956 -88.708282 4294967295
220.33057 4.0291123 -88.307495 4294967295
220.35042 -11.093653 -91.8265 4294967295
220.36935 -11.491929 -92.694038 4294967295
220.38316 4.5179653 -89.175339 4294967295
220.40268 -10.169892 -92.276703 4294967295
220.40942 -9.309268 -91.621849 4294967295
220.41287 -9.7303114 -92.114639 4294967295
220.42667 -8.433424 -91.221779 4294967295
220.43353 -8.8503323 -91.797844 4294967295
220.46759 -7.5253844 -91.396416 4294967295
220.47874 -6.2295103 -90.436401 4294967295
220.51044 -6.6150532 -91.618385 4294967295
220.52902 -5.3091359 -90.838776 4294967295
220.53984 -4.8674955 -90.691643 4294967295
220.54094 -5.7210984 -91.5401 4294967295
220.54497 -4.4330292 -90.404816 4294967295
220.56363 -3.9811988 -90.448837 4294967295
220.60138 -3.0771842 -90.546066 4294967295
220.60855 -3.4965301 -91.13266 4294967295
220.61612 -2.2015233 -90.08165 4294967295
220.65973 -1.2902727 -90.322449 4294967295
220.66232 0.0017128 -89.146332 4294967295
220.66591 -0.85352761 -90.060715 4294967295
220.74223 1.3855519 -89.862427 4294967295
220.74936 1.8241429 -89.623184 4294967295
220.75867 3.1275406 -88.608627 4294967295
220.77747 -11.987381 -92.132584 4294967295
220.78256 -12.40444 -92.669174 4294967295
220.80502 4.041832 -88.916824 4294967295
220.80721 -11.095323 -92.035706 4294967295
220.82126 -11.499962 -92.792458 4294967295
220.85335 -10.180105 -92.340233 4294967295
220.8701 -9.731473 -92.338028 4294967295
220.87878 -8.442399 -91.310944 4294967295
220.88165 -9.2900505 -92.208008 4294967295
220.91264 -7.1173081 -90.899834 4294967295
220.91335 -7.9691958 -91.74527 4294967295
220.92058 -7.5331755 -91.509079 4294967295
220.93622 -6.659049 -91.064835 4294967295
220.95747 -5.3495026 -90.342674 4294967295
220.9736 -6.1826606 -91.569359 4294967295
220.98572 -4.4574747 -90.207138 4294967295
220.99835 -4.013268 -90.102921 4294967295
221.04057 -3.5315504 -90.726822 4294967295
221.04105 -2.6742501 -89.90696 4294967295
221.0526 -3.0882597 -90.607079 4294967295
221.06035 -2.2215428 -89.966393 4294967295
221.08182 -1.3371658 -89.662674 4294967295
221.0829 -0.90647513 -89.272736 4294967295
221.11499 -0.0085525997 -89.230774 4294967295
221.14891 0.4615626 -89.651154 4294967295
221.1909 1.3708019 -89.85479 4294967295
221.19153 -12.899254 -92.125069 4294967295
221.1944 2.2355833 -89.105255 4294967295
221.19736 2.6697555 -88.759827 4294967295
221.20636 1.8188782 -89.819183 4294967295
221.22816 3.1356378 -89.104866 4294967295
221.23204 -12.415825 -92.709007 4294967295
221.2381 3.5778804 -88.932022 4294967295
221.23836 -11.558167 -92.032822 4294967295
221.24117 -11.978426 -92.518799 4294967295
221.24557 -10.698217 -91.377914 4294967295
221.25745 4.4622049 -88.573776 4294967295
221.25948 4.0329595 -89.043205 4294967295
221.28201 -11.070806 -92.695526 4294967295
221.32486 -8.8852816 -91.670959 4294967295
221.34737 -8.0026665 -91.39267 4294967295
221.3571 -8.41504 -92.051964 4294967295
221.36154 -6.704215 -90.4897 4294967295
221.36453 -7.5530782 -91.4011 4294967295
221.36539 -7.1256351 -91.003929 4294967295
221.37422 -6.260345 -90.385597 4294967295
221.41559 -5.351285 -90.574928 4294967295
221.42253 -4.914835 -90.327972 4294967295
221.43077 -4.4765019 -90.113289 4294967295
221.43565 -4.0423384 -89.814957 4294967295
221.49181 -3.114459 -90.371727 4294967295
221.49223 -2.6856618 -89.96244 4294967295
221.51279 -2.2313733 -90.054047 4294967295
221.51523 -1.7996697 -89.694183 4294967295
221.52467 -1.3590484 -89.508873 4294967295
221.54311 -0.9073019 -89.547394 4294967295
221.5596 -0.0284376 -89.115967 4294967295
221.57112 0.4151735 -88.982147 4294967295
221.57515 -0.43905929 -89.925354 4294967295
221.60338 1.7438359 -88.521111 4294967295
221.62048 1.333612 -89.37085 4294967295
221.62057 0.90381479 -89.794449 4294967295
221.6485 -12.899725 -92.347267 4294967295
221.65479 -12.466639 -92.083534 4294967295
221.66156 3.534162 -88.284767 4294967295
221.66237 2.6732645 -89.151154 4294967295
221.66411 3.1060014 -88.771957 4294967295
221.66991 3.9749351 -88.070946 4294967295
221.68069 -12.004484 -92.309944 4294967295
221.6884 -11.569104 -92.08168 4294967295
221.69963 -10.703828 -91.520447 4294967295
221.71558 -10.256115 -91.497314 4294967295
221.71613 -11.104499 -92.353226 4294967295
221.7426 -8.941967 -90.90892 4294967295
221.743 -9.7920218 -91.761536 4294967295
221.75984 -9.3430729 -91.761398 4294967295
221.81813 -7.5598259 -91.532745 4294967295
221.82747 -6.6948185 -90.922096 4294967295
221.83426 -5.8323269 -90.24649 4294967295
221.84416 -6.2457781 -90.917686 4294967295
221.86763 -5.3608551 -90.660187 4294967295
221.89067 -4.4761086 -90.391541 4294967295
221.89789 -4.0391979 -90.148727 4294967295
221.90102 -4.8896813 -91.074356 4294967295
221.90791 -3.1704602 -89.552269 4294967295
221.92641 -3.5745544 -90.441444 4294967295
221.95253 -1.8285871 -89.400078 4294967295
221.95941 -2.2484064 -89.998245 4294967295
222.02446 -0.0236998 -89.510986 4294967295
222.04681 0.86227697 -89.222542 4294967295
222.05875 1.7364063 -88.670853 4294967295
222.09174 3.0665264 -88.223259 4294967295
222.10027 -12.907667 -92.444229 4294967295
222.10266 3.5100656 -88.072556 4294967295
222.10425 -12.478212 -92.120285 4294967295
222.106 2.2220917 -89.437447 4294967295
222.11722 -12.03516 -92.022789 4294967295
222.12863 3.9707246 -88.301529 4294967295
222.13303 4.4069896 -87.984955 4294967295
222.13518 -11.584695 -92.050797 4294967295
222.14148 -11.151348 -91.784477 4294967295
222.17979 -10.671167 -92.326141 4294967295
222.19095 -9.3812943 -91.3311 4294967295
222.19406 -10.226225 -92.260437 4294967295
222.20638 -8.5088453 -90.869049 4294967295
222.2072 -9.7827835 -92.167343 4294967295
222.22264 -8.9111376 -91.706146 4294967295
222.24774 -8.0252771 -91.488388 4294967295
222.24933 -7.5974708 -91.102188 4294967295
222.27615 -6.7085605 -90.927368 4294967295
222.28889 -5.8384352 -90.395592 4294967295
222.28896 -6.2648001 -90.825104 4294967295
222.2939 -5.4048486 -90.095879 4294967295
222.3468 -4.4803739 -90.580284 4294967295
222.36769 -4.0256505 -90.683037 4294967295
222.37997 -3.1547527 -90.138054 4294967295
222.40598 -2.2655172 -89.940964 4294967295
222.43323 -1.802722 -90.204575 4294967295
222.44196 -1.3634257 -89.997345 4294967295
222.4799 0.39902309 -89.244629 4294967295
222.50468 0.85847759 -89.445251 4294967295
222.51122 1.7257118 -88.750648 4294967295
222.52281 1.3098235 -89.477043 4294967295
222.53214 2.1806111 -88.85376 4294967295
222.53615 2.6155634 -88.524689 4294967295
222.55986 -12.903537 -92.743538 4294967295
222.57455 -12.034958 -92.260056 4294967295
222.57703 3.9549532 -88.273773 4294967295
222.57956 -11.603903 -91.958252 4294967295
222.57983 -12.450296 -92.822929 4294967295
222.58008 3.0972147 -89.214859 4294967295
222.59091 3.5401239 -89.059372 4294967295
222.60114 -11.148073 -92.078629 4294967295
222.60182 -10.298713 -91.237564 4294967295
222.61185 4.4255872 -88.731773 4294967295
222.61957 -10.696945 -92.11911 4294967295
222.62065 -9.846735 -91.287842 4294967295
222.64095 -9.3926563 -91.375786 4294967295
222.65497 -8.5225611 -90.873215 4294967295
222.69344 -8.0427637 -91.424576 4294967295
222.6954 -7.6146388 -91.044113 4294967295
222.73848 -6.2774234 -90.85141 4294967295
222.75075 -4.981226 -89.870636 4294967295
222.75143 -5.8334646 -90.751953 4294967295
222.77939 -4.0887151 -89.739357 4294967295
222.79211 -4.4988332 -90.497345 4294967295
222.82881 -2.7411809 -89.708023 4294967295
222.84119 -3.1525912 -90.458298 4294967295
222.8515 -2.2839684 -89.85701 4294967295
222.86238 -1.4137254 -89.269424 4294967295
222.88087 -0.96180958 -89.310532 4294967295
222.89774 -0.083064601 -88.875626 4294967295
222.91704 0.79929298 -88.502487 4294967295
222.91708 -0.48779249 -89.806221 4294967295
222.92044 0.37412399 -89.024612 4294967295
222.95949 1.2804952 -89.160149 4294967295
222.96428 1.7158976 -88.849167 4294967295
222.974 2.1573787 -88.6642 4294967295
222.9845 -12.952599 -92.151398 4294967295
222.99821 3.0463748 -88.416939 4294967295
223.00023 2.6185336 -88.903961 4294967295
223.00322 -12.077818 -91.766251 4294967295
223.00833 -12.493227 -92.330734 4294967295
223.00874 3.4891858 -88.25264 4294967295
223.0228 -11.201134 -91.403259 4294967295
223.02597 4.3707767 -87.824715 4294967295
223.02904 3.9434199 -88.340591 4294967295
223.03868 -10.753555 -91.378044 4294967295
223.04729 -10.316721 -91.165291 4294967295
223.05104 -11.582338 -92.562309 4294967295
223.07509 -9.8515663 -91.446663 4294967295
223.08272 -8.99125 -90.775131 4294967295
223.11282 -8.5229235 -91.116699 4294967295
223.14651 -8.0497637 -91.550133 4294967295
223.1544 -7.6134663 -91.319527 4294967295
223.1644 -6.7485585 -90.706573 4294967295
223.1841 -6.295331 -90.779495 4294967295
223.21521 -4.974009 -90.275795 4294967295
223.22903 -4.1017656 -89.76062 4294967295
223.25664 -4.4913473 -90.910858 4294967295
223.26245 -3.6300964 -90.187935 4294967295
223.27881 -2.7539301 -89.736855 4294967295
223.30478 -2.2923713 -89.972847 4294967295
223.32024 -0.98839277 -89.060303 4294967295
223.32182 -1.8425655 -89.976997 4294967295
223.32794 -1.4067907 -89.697937 4294967295
223.35338 -0.51790857 -89.481628 4294967295
223.36293 -0.077327698 -89.291138 4294967295
223.37341 0.36456251 -89.124634 4294967295
223.38824 0.81195068 -89.071159 4294967295
223.44127 2.594367 -88.692856 4294967295
223.44501 -12.946754 -92.479233 4294967295
223.45255 -12.089577 -91.800453 4294967295
223.46161 3.478723 -88.342224 4294967295
223.46663 3.0545259 -88.913429 4294967295
223.47772 4.3587317 -87.881111 4294967295
223.49297 3.9458504 -88.719147 4294967295
223.49342 -11.18103 -91.986649 4294967295
223.51915 -10.295344 -91.779373 4294967295
223.53397 -9.8495121 -91.726273 4294967295
223.54689 -9.4063568 -91.624847 4294967295
223.55876 -8.9647865 -91.494049 4294967295
223.56941 -8.5247746 -91.333282 4294967295
223.58247 -8.0812569 -91.233559 4294967295
223.58836 -7.6478939 -90.947876 4294967295
223.61868 -7.1795039 -91.299248 4294967295
223.62149 -6.3248324 -90.492249 4294967295
223.63675 -6.7287774 -91.330063 4294967295
223.64201 -5.8703699 -90.58754 4294967295
223.65149 -5.4312496 -90.394844 4294967295
223.68109 -4.9643388 -90.727249 4294967295
223.68605 -4.5313087 -90.416359 4294967295
223.69795 -4.0886593 -90.286057 4294967295
223.7092 -3.6467867 -90.13887 4294967295
223.71289 -3.2148972 -89.793854 4294967295
223.72583 -2.7704768 -89.690712 4294967295
223.74042 -2.3238235 -89.630386 4294967295
223.77063 -1.8566885 -89.979553 4294967295
223.77498 -1.4233479 -89.651535 4294967295
223.79192 -0.1169853 -88.767212 4294967295
223.81091 -0.52117109 -89.708412 4294967295
223.83665 0.79677957 -89.054459 4294967295
223.85954 2.1127353 -88.324295 4294967295
223.89714 -12.108582 -91.711578 4294967295
223.89853 3.019371 -88.459961 4294967295
223.90471 -12.519444 -92.352081 4294967295
223.91968 -11.650992 -91.860458 4294967295
223.93475 3.9225864 -88.523926 4294967295
223.94922 -10.759624 -91.752045 4294967295
223.96042 -10.319317 -91.603012 4294967295
223.96242 -9.8926373 -91.212708 4294967295
223.97792 -9.0214195 -90.733696 4294967295
224.00931 -8.550849 -91.115662 4294967295
224.01109 -8.1237392 -90.71875 4294967295
224.04065 -7.6560597 -91.053253 4294967295
224.04906 -6.7939954 -90.385811 4294967295
224.05319 -6.3626623 -90.050446 4294967295
224.05957 -7.2039876 -91.107079 4294967295
224.07326 -5.9086261 -90.134743 4294967295
224.08783 -5.4623733 -90.073685 4294967295
224.10165 -4.5908604 -89.547195 4294967295
224.11131 -5.0036616 -90.248268 4294967295
224.14935 -3.2456722 -89.469238 4294967295
224.14969 -4.0984383 -90.370239 4294967295
224.16577 -3.6501102 -90.349304 4294967295
224.17242 -2.7876453 -89.632439 4294967295
224.18317 -2.3461003 -89.470444 4294967295
224.20912 -1.4568472 -89.26342 4294967295
224.21054 -1.0271277 -88.853905 4294967295
224.229 -0.57511997 -88.895126 4294967295
224.26225 -0.104178 -89.328735 4294967295
224.26826 0.33182001 -89.040588 4294967295
224.28079 0.7762475 -88.924965 4294967295
224.28427 1.2094107 -88.568802 4294967295
224.29521 1.6521139 -88.410461 4294967295
224.32053 2.5420818 -88.184845 4294967295
224.33197 2.9857435 -88.0401 4294967295
224.34702 -11.696707 -91.315201 4294967295
224.35516 -12.106642 -91.978004 4294967295
224.35538 -12.528572 -92.429993 4294967295
224.36177 4.3119383 -87.482895 4294967295
224.36531 3.8858066 -88.027359 4294967295
224.36613 3.4568138 -88.499023 4294967295
224.39627 -11.19772 -92.174377 4294967295
224.39966 -10.769676 -91.817444 4294967295
224.40387 -10.340109 -91.482071 4294967295
224.41321 -9.9025373 -91.282372 4294967295
224.44977 -9.0002451 -91.357979 4294967295
224.45523 -8.5681696 -91.055016 4294967295
224.48599 -7.6742816 -90.976204 4294967295
224.48631 -8.0981054 -91.43309 4294967295
224.50938 -7.2156091 -91.150558 4294967295
224.52504 -6.3434052 -90.668831 4294967295
224.53581 -5.4773445 -90.057037 4294967295
224.5676 -4.5810699 -90.004654 4294967295
224.57791 -4.9923964 -90.729858 4294967295
224.58685 -4.1282635 -90.068024 4294967295
224.60194 -3.2547212 -89.569778 4294967295
224.60385 -3.6785889 -90.07132 4294967295
224.62 -2.8034673 -89.600479 4294967295
224.64867 -2.3379207 -89.915787 4294967295
224.65282 -1.0503674 -88.672028 4294967295
224.67798 -1.4446745 -89.797089 4294967295
224.71202 0.31072521 -88.900085 4294967295
224.72841 1.1886306 -88.433525 4294967295
224.73457 0.7679038 -89.051788 4294967295
224.73486 1.6256537 -88.153206 4294967295
224.7619 2.5178041 -87.971611 4294967295
224.77341 2.1028738 -88.734268 4294967295
224.77571 2.9643569 -87.888771 4294967295
224.78204 -12.997503 -92.318878 4294967295
224.80692 -11.691956 -91.631805 4294967295
224.8139 -11.258469 -91.367493 4294967295
224.81477 -12.101795 -92.293655 4294967295
224.81686 -10.831018 -90.99501 4294967295
224.82695 4.316051 -87.902702 4294967295
224.83037 3.8901749 -88.448654 4294967295
224.84039 -10.371644 -91.173904 4294967295
224.85768 -9.9219389 -91.185524 4294967295
224.8866 -8.6072845 -90.603912 4294967295
224.93007 -7.2699809 -90.411667 4294967295
224.93256 -7.6906896 -90.932068 4294967295
224.94597 -6.3971543 -89.931503 4294967295
224.97729 -5.9268036 -90.320854 4294967295
224.9872 -5.4874229 -90.13253 4294967295
225.01109 -5.027956 -90.322426 4294967295
225.01767 -4.1672611 -89.589111 4294967295
225.04704 -2.8473606 -89.015343 4294967295
225.05309 -3.2656093 -89.634369 4294967295
225.05373 -3.6909409 -90.106445 4294967295
225.08867 -2.363831 -89.683548 4294967295
225.093 -1.9311776 -89.343613 4294967295
225.11095 -0.62501383 -88.459183 4294967295
225.11726 -1.044281 -89.086647 4294967295
225.13762 0.26596931 -88.266449 4294967295
225.15088 -0.14474919 -89.082474 4294967295
225.1873 0.75840139 -89.154045 4294967295
225.20238 2.4922357 -87.730232 4294967295
225.20607 -13.049368 -91.680473 4294967295
225.21326 1.6481476 -88.941849 4294967295
225.21648 2.0808473 -88.570724 4294967295
225.23708 3.3941326 -87.75444 4294967295
225.23886 4.2562089 -86.883835 4294967295
225.24406 2.9733105 -88.402466 4294967295
225.26024 3.8521266 -87.924026 4294967295
225.26323 -11.692405 -91.859474 4294967295
225.26968 -10.837559 -91.121231 4294967295
225.27278 -11.255141 -91.661964 4294967295
225.28896 -10.384752 -91.186798 4294967295
225.33563 -8.6201677 -90.622787 4294967295
225.37489 -7.2892876 -90.314529 4294967295
225.4041 -6.3971891 -90.191658 4294967295
225.41974 -6.7986412 -91.075394 4294967295
225.44557 -5.4872227 -90.401497 4294967295
225.44675 -5.0604019 -89.974319 4294967295
225.45355 -4.1995325 -89.23999 4294967295
225.49913 -3.2834973 -89.561913 4294967295
225.51285 -3.690155 -90.396576 4294967295
225.51796 -2.8311505 -89.614883 4294967295
225.52419 -2.3961477 -89.324265 4294967295
225.54726 -1.5111313 -89.031921 4294967295
225.5567 -1.0712681 -88.828415 4294967295
225.57301 -0.62208837 -88.812622 4294967295
225.59737 -0.1622753 -89.016357 4294967295
225.60667 0.27765509 -88.809189 4294967295
225.62047 0.723557 -88.724007 4294967295
225.62337 1.1554475 -88.34063 4294967295
225.62833 1.5902538 -88.013168 4294967295
225.64511 2.0404 -88.010475 4294967295
225.65712 -12.636458 -91.307083 4294967295
225.66592 2.4956179 -88.117912 4294967295
225.68539 3.8078079 -87.259865 4294967295
225.69476 -12.153982 -91.875359 4294967295
225.69508 2.9611669 -88.453552 4294967295
225.70789 -10.867039 -90.850594 4294967295
225.70876 3.4072351 -88.364578 4294967295
225.71767 -11.273726 -91.579933 4294967295
225.73506 4.2983832 -88.159607 4294967295
225.73936 -10.394939 -91.250748 4294967295
225.76279 -9.9356976 -91.43074 4294967295
225.76447 -9.5103149 -91.015282 4294967295
225.79947 -8.610218 -91.050392 4294967295
225.82486 -7.3008914 -90.35836 4294967295
225.8262 -7.7226768 -90.858498 4294967295
225.83128 -6.8671513 -90.071266 4294967295
225.86133 -6.3982067 -90.433243 4294967295
225.87964 -5.9468021 -90.472626 4294967295
225.888 -5.5099292 -90.238892 4294967295
225.91165 -5.0507259 -90.425385 4294967295
225.91829 -3.7652869 -89.213394 4294967295
225.92477 -4.181612 -89.857559 4294967295
225.93774 -3.311882 -89.284363 4294967295
225.95366 -2.4372048 -88.791565 4294967295
225.96239 -2.8512502 -89.498749 4294967295
226.00188 -1.5175457 -89.190346 4294967295
226.02574 -0.63135052 -88.916229 4294967295
226.03439 -0.1924534 -88.68898 4294967295
226.03551 0.23653319 -88.251617 4294967295
226.06056 0.69746351 -88.477875 4294967295
226.07246 1.1409917 -88.339462 4294967295
226.09337 1.5963144 -88.450447 4294967295
226.09428 -13.089172 -91.473816 4294967295
226.09528 2.0270786 -88.034622 4294967295
226.09566 -12.665705 -91.046234 4294967295
226.13676 2.9372935 -88.24778 4294967295
226.14555 -12.162762 -91.959892 4294967295
226.14574 3.3774743 -88.027382 4294967295
226.14783 -11.737734 -91.556404 4294967295
226.1568 3.8204684 -87.865845 4294967295
226.166 4.2612591 -87.65181 4294967295
226.16611 -11.286601 -91.595802 4294967295
226.18571 -10.833345 -91.672531 4294967295
226.1949 -10.39677 -91.459946 4294967295
226.19827 -9.9691677 -91.086937 4294967295
226.19832 -9.5465364 -90.621048 4294967295
226.20479 -9.1135511 -90.332718 4294967295
226.2263 -8.657074 -90.46096 4294967295
226.23611 -8.2186527 -90.265518 4294967295
226.26189 -7.3320827 -90.043999 4294967295
226.2697 -7.7437496 -90.729568 4294967295
226.2854 -6.872611 -90.228905 4294967295
226.30017 -6.4263906 -90.170761 4294967295
226.31841 -5.9750385 -90.207588 4294967295
226.32721 -5.5375652 -89.983757 4294967295
226.34846 -4.6568437 -89.636192 4294967295
226.35265 -4.2256508 -89.282028 4294967295
226.3533 -5.074563 -90.240623 4294967295
226.39108 -3.3195195 -89.412346 4294967295
226.39922 -2.8822374 -89.168198 4294967295
226.41078 -2.4399228 -89.020111 4294967295
226.44583 -1.9647536 -89.526993 4294967295
226.44685 -1.5370936 -89.083855 4294967295
226.47208 -1.0758214 -89.316856 4294967295
226.4742 -0.64622349 -88.904694 4294967295
226.49091 0.2305765 -88.426552 4294967295
226.51375 0.68858242 -88.593216 4294967295
226.51755 1.1212673 -88.226692 4294967295
226.54761 -12.67295 -91.155701 4294967295
226.5529 -13.084915 -91.774605 4294967295
226.55516 1.5985651 -88.806259 4294967295
226.56076 2.8906088 -87.542587 4294967295
226.56305 -12.226303 -91.116287 4294967295
226.56996 2.4739075 -88.274399 4294967295
226.5748 3.3373995 -87.462547 4294967295
226.59592 -11.329699 -91.092651 4294967295
226.59674 3.7941484 -87.603027 4294967295
226.60779 -10.466862 -90.480721 4294967295
226.60956 4.2394457 -87.488472 4294967295
226.61145 -11.725616 -91.998291 4294967295
226.63612 -10.842936 -91.745674 4294967295
226.65015 -9.9768982 -91.19458 4294967295
226.65672 -9.5442476 -90.906845 4294967295
226.68086 -8.6611404 -90.637589 4294967295
226.68748 -8.2278652 -90.351089 4294967295
226.71544 -6.9145575 -89.714676 4294967295
226.74948 -6.4390545 -90.196243 4294967295
226.75235 -6.0107312 -89.803268 4294967295
226.77243 -5.1320276 -89.418365 4294967295
226.77634 -5.5506353 -90.002747 4294967295
226.814 -4.6459866 -90.113358 4294967295
226.83917 -3.7596636 -89.872009 4294967295
226.86586 -3.2960558 -90.148224 4294967295
226.87511 -2.0062885 -88.981163 4294967295
226.89342 -1.5544801 -89.021057 4294967295
226.92751 -0.65440422 -89.030228 4294967295
226.94643 0.2250233 -88.609818 4294967295
226.95219 0.66002458 -88.295532 4294967295
226.98447 1.1306801 -88.730476 4294967295
226.98615 1.5604296 -88.299927 4294967295
226.99097 1.9946194 -87.957626 4294967295
226.99864 2.4328156 -87.696327 4294967295
227.00038 -13.099078 -91.767227 4294967295
227.00221 -12.675536 -91.343513 4294967295
227.02205 -12.221704 -91.427475 4294967295
227.02577 2.8963881 -87.986122 4294967295
227.03659 -11.776668 -91.362595 4294967295
227.04686 4.2096329 -87.145462 4294967295
227.05162 -11.330791 -91.311188 4294967295
227.06375 -10.468103 -90.700325 4294967295
227.06644 -10.885248 -91.253159 4294967295
227.07059 -10.035166 -90.416504 4294967295
227.09079 -9.5805674 -90.510864 4294967295
227.11958 -8.2672482 -89.892906 4294967295
227.13608 -7.8184099 -89.88176 4294967295
227.13641 -8.6633234 -90.8479 4294967295
227.16818 -7.3453116 -90.313896 4294967295
227.17609 -6.9098501 -90.059448 4294967295
227.2019 -6.4467287 -90.31414 4294967295
227.22562 -5.9870591 -90.50824 4294967295
227.24854 -5.1048598 -90.200661 4294967295
227.2785 -3.3622899 -89.131088 4294967295
227.30739 -2.8951364 -89.47364 4294967295
227.32341 -2.4467654 -89.449036 4294967295
227.3264 -1.591094 -88.570648 4294967295
227.33253 -2.0082054 -89.227753 4294967295
227.37085 0.17702579 -87.909477 4294967295
227.3763 -0.66867882 -89.03093 4294967295
227.39818 1.0687342 -87.724411 4294967295
227.40715 0.65370178 -88.4645 4294967295
227.41225 1.515213 -87.642776 4294967295
227.4532 4.1399279 -85.906555 4294967295
227.46143 2.0084934 -88.566788 4294967295
227.50172 -10.919892 -90.89328 4294967295
227.51872 -10.049156 -90.414345 4294967295
227.55185 -9.5735197 -90.880287 4294967295
227.55975 -8.7168264 -90.139923 4294967295
227.56071 -9.1373663 -90.651413 4294967295
227.60992 -7.7921972 -90.611115 4294967295
227.62309 -7.3487973 -90.505974 4294967295
227.62862 -6.4941716 -89.694855 4294967295
227.63802 -6.9026628 -90.449783 4294967295
227.65439 -6.0309591 -89.950775 4294967295
227.65784 -5.6020651 -89.564743 4294967295
227.69121 -5.1274691 -90.039368 4294967295
227.69162 -4.7029085 -89.56559 4294967295
227.71175 -3.8240528 -89.172806 4294967295
227.71234 -4.2476091 -89.675972 4294967295
227.7529 -2.9137836 -89.386124 4294967295
227.76138 -2.4763904 -89.143425 4294967295
227.79437 -2.0033894 -89.608749 4294967295
227.81841 -1.1181388 -89.327721 4294967295
227.84106 0.1919193 -88.518188 4294967295
227.85477 1.0643759 -87.936813 4294967295
227.85583 1.4930859 -87.478447 4294967295
227.86909 0.65724748 -88.840324 4294967295
227.89334 -13.130539 -91.699997 4294967295
227.90446 2.8414259 -87.417236 4294967295
227.9057 1.987855 -88.433105 4294967295
227.90819 -11.845006 -90.667419 4294967295
227.90926 3.2759266 -87.0662 4294967295
227.90985 2.4208279 -88.063721 4294967295
227.91658 -12.25097 -91.398026 4294967295
227.92432 4.1527548 -86.521545 4294967295
227.95813 -10.919628 -91.136925 4294967295
227.96173 -10.071574 -90.264816 4294967295
227.96263 -10.491228 -90.779762 4294967295
228.00954 -9.571454 -91.161751 4294967295
228.01868 -8.7134848 -90.449013 4294967295
228.02917 -7.8522291 -89.775436 4294967295
228.03529 -8.2646694 -90.442268 4294967295
228.05609 -7.3868623 -90.066124 4294967295
228.05615 -6.9640379 -89.578232 4294967295
228.06721 -6.5236273 -89.409081 4294967295
228.076 -6.0866089 -89.174194 4294967295
228.12474 -4.7404413 -89.118599 4294967295
228.12976 -5.579906 -90.246384 4294967295
228.1322 -5.152812 -89.826317 4294967295
228.14005 -4.2931204 -89.072571 4294967295
228.19179 -2.5174518 -88.611221 4294967295
228.21259 -2.0618296 -88.725288 4294967295
228.21555 -2.9071112 -89.796906 4294967295
228.24666 -1.5870485 -89.227112 4294967295
228.25926 -1.1435204 -89.102386 4294967295
228.26382 -0.7113924 -88.742279 4294967295
228.26427 -0.284821 -88.26162 4294967295
228.28503 0.1706543 -88.374336 4294967295
228.31053 1.0592117 -88.131981 4294967295
228.32715 1.5089321 -88.123772 4294967295
228.34315 1.957819 -88.097565 4294967295
228.34697 3.6741695 -86.225594 4294967295
228.36215 -11.848532 -90.842278 4294967295
228.36607 4.1278667 -86.289597 4294967295
228.36844 -12.257639 -91.518204 4294967295
228.37067 3.2773352 -87.417259 4294967295
228.37073 4.5627851 -85.929138 4294967295
228.3745 -11.407215 -90.710197 4294967295
228.39909 -10.945042 -90.936638 4294967295
228.42842 -10.475088 -91.301514 4294967295
228.43279 -10.047136 -90.935638 4294967295
228.45563 -8.7456751 -90.12249 4294967295
228.46265 -9.1555548 -90.822403 4294967295
228.48505 -7.8540702 -89.995544 4294967295
228.506 -6.9758186 -89.619377 4294967295
228.51408 -6.540225 -89.36171 4294967295
228.54547 -6.0677953 -89.78791 4294967295
228.55807 -5.2017636 -89.165962 4294967295
228.58914 -4.7302294 -89.583115 4294967295
228.58981 -3.8815422 -88.607788 4294967295
228.62114 -3.4098063 -89.034103 4294967295
228.65593 -2.508832 -89.064209 4294967295
228.66165 -2.075592 -88.73494 4294967295
228.67726 -1.6276383 -88.696861 4294967295
228.69376 -0.75289297 -88.185814 4294967295
228.72183 0.13909049 -88.016388 4294967295
228.7392 -0.26191661 -89.02977 4294967295
228.74805 0.60237497 -88.292282 4294967295
228.77252 1.9163151 -87.51561 4294967295
228.77953 3.6367025 -85.71553 4294967295
228.78934 1.5128517 -88.514671 4294967295
228.79625 2.8032589 -87.215958 4294967295
228.80827 -12.704268 -91.784912 4294967295
228.82967 4.5601234 -86.199005 4294967295
228.82974 -11.82822 -91.423424 4294967295
228.83382 -10.981421 -90.547081 4294967295
228.84142 -11.388357 -91.270653 4294967295
228.88237 -10.058111 -90.986267 4294967295
228.89964 -9.6084976 -90.998138 4294967295
228.90547 -8.3354044 -89.670952 4294967295
228.90714 -9.1751766 -90.720993 4294967295
228.94521 -7.8485155 -90.349579 4294967295
228.9696 -6.5429668 -89.571045 4294967295
228.97174 -7.3836222 -90.636383 4294967295
228.97804 -6.9516101 -90.322517 4294967295
228.99078 -6.086647 -89.698341 4294967295
228.99207 -5.2387886 -88.731789 4294967295
229.00153 -5.6469274 -89.515579 4294967295
229.02034 -4.7711725 -89.071213 4294967295
229.05478 -3.4468803 -88.587311 4294967295
229.05875 -4.2881823 -89.711411 4294967295
229.07982 -3.8322554 -89.83699 4294967295
229.10939 -2.5157495 -89.209007 4294967295
229.13065 -1.2101431 -88.329971 4294967295
229.17374 0.12892149 -88.103378 4294967295
229.1765 -0.7178154 -89.196251 4294967295
229.18103 -0.28607029 -88.826935 4294967295
229.21471 1.892086 -87.305244 4294967295
229.22293 1.0509081 -88.564842 4294967295
229.2231 2.7579584 -86.542259 4294967295
229.22748 1.4834127 -88.194298 4294967295
229.23192 2.3428946 -87.314301 4294967295
229.23492 -12.335983 -90.657837 4294967295
229.24667 4.0735798 -85.724663 4294967295
229.25191 -12.72488 -91.66935 4294967295
229.27153 -11.432829 -90.744492 4294967295
229.27312 -11.849519 -91.295357 4294967295
229.27469 -11.00761 -90.333664 4294967295
229.29631 -10.550198 -90.476753 4294967295
229.30588 -10.11358 -90.257874 4294967295
229.33327 -9.6465111 -90.57283 4294967295
229.33517 -9.2226696 -90.124786 4294967295
229.36182 -8.7570124 -90.417847 4294967295
229.37134 -8.3201094 -90.197487 4294967295
229.38683 -7.4516926 -89.649055 4294967295
229.40384 -7.8449998 -90.666573 4294967295
229.4046 -7.0007858 -89.675858 4294967295
229.41545 -6.5611348 -89.494553 4294967295
229.42043 -6.1308184 -89.13649 4294967295
229.42725 -5.6973 -88.833252 4294967295
229.45325 -5.2330217 -89.108063 4294967295
229.46268 -4.7951469 -88.883316 4294967295
229.51659 -3.4408526 -88.981842 4294967295
229.53329 -2.9914455 -88.975952 4294967295
229.54414 -2.5509286 -88.793663 4294967295
229.56975 -2.0879531 -89.057098 4294967295
229.57428 -1.6568365 -88.683479 4294967295
229.60258 -0.76525313 -88.518333 4294967295
229.60327 -1.1889544 -89.049744 4294967295
229.61491 -0.32207781 -88.379868 4294967295
229.63826 0.13728429 -88.5756 4294967295
229.65622 0.58873081 -88.608528 4294967295
229.65948 1.4449759 -87.682335 4294967295
229.66753 2.3093615 -86.901077 4294967295
229.67906 -12.775232 -91.053696 4294967295
229.68329 3.1854868 -86.351669 4294967295
229.68765 -12.341164 -90.803215 4294967295
229.69516 3.6293325 -86.198273 4294967295
229.70438 2.7875614 -87.505791 4294967295
229.70676 -11.888205 -90.871033 4294967295
229.73466 -11.419708 -91.206329 4294967295
229.73969 -10.991679 -90.847511 4294967295
229.75516 -10.545123 -90.805763 4294967295
229.75734 -10.121605 -90.360268 4294967295
229.78134 -8.8193512 -89.552765 4294967295
229.79987 -9.2082329 -90.627861 4294967295
229.82959 -8.3169022 -90.506287 4294967295
229.83479 -7.4662471 -89.638802 4294967295
229.83492 -7.0445356 -89.129158 4294967295
229.87158 -6.140543 -89.217415 4294967295
229.87479 -6.5571127 -89.829033 4294967295
229.8886 -5.6907287 -89.221443 4294967295
229.92192 -5.2146411 -89.722992 4294967295
229.9287 -4.7813983 -89.414856 4294967295
229.95407 -4.3183823 -89.674255 4294967295
229.98486 -2.5773311 -88.552368 4294967295
230.01289 -2.1104145 -88.892937 4294967295
230.01712 -1.2555609 -87.988358 4294967295
230.03101 -1.6588378 -88.930267 4294967295
230.03575 -0.3779254 -87.524139 4294967295
230.04372 -0.79095322 -88.285339 4294967295
230.062 0.086116798 -87.810349 4294967295
230.09064 0.55343908 -88.17012 4294967295
230.09689 2.2665262 -86.28656 4294967295
