# .PCD v0.7 - Point Cloud Data file format
VERSION 0.7
FIELDS x y z rgb
SIZE 4 4 4 4
TYPE F F F U
COUNT 1 1 1 1
WIDTH 1120
HEIGHT 1
VIEWPOINT 0 0 0 1 0 0 0
POINTS 1120
DATA ascii
281.33832 -27.969433 -56.456459 4294967295
281.36435 -27.561615 -55.712166 4294967295
281.38666 -26.568167 -56.75901 4294967295
281.4371 -25.741081 -55.406761 4294967295
281.44363 -25.21817 -56.320847 4294967295
281.46899 -24.804346 -55.638687 4294967295
281.48837 -23.797115 -56.926334 4294967295
281.53986 -22.972076 -55.497673 4294967295
281.54092 -35.49017 -54.554611 4294967295
281.60703 -21.119314 -55.665985 4294967295
281.62686 -33.182407 -54.604557 4294967295
281.66867 -31.737635 -55.45076 4294967295
281.68256 -31.256262 -55.735863 4294967295
281.69412 -30.760988 -56.214516 4294967295
281.71866 -30.344692 -55.610222 4294967295
281.75546 -29.437119 -55.426132 4294967295
281.78186 -28.467731 -56.108437 4294967295
281.82178 -27.578249 -55.668163 4294967295
281.86243 -26.69245 -55.165009 4294967295
281.86511 -26.148735 -56.368793 4294967295
281.90097 -37.738194 -55.431274 4294967295
281.90405 -25.252899 -56.012066 4294967295
281.91647 -24.765282 -56.415173 4294967295
281.9339 -36.806412 -55.570938 4294967295
281.94748 -23.825714 -56.704208 4294967295
281.96179 -36.413654 -54.700073 4294967295
281.98618 -35.427822 -55.537453 4294967295
281.99936 -22.445812 -56.704075 4294967295
282.03351 -34.018574 -55.907722 4294967295
282.04391 -21.579042 -55.88813 4294967295
282.05453 -33.580933 -55.607586 4294967295
282.07401 -20.634905 -56.253952 4294967295
282.08636 -32.643707 -55.82859 4294967295
282.17822 -30.373896 -55.392712 4294967295
282.24503 -28.518349 -55.585781 4294967295
282.27466 -27.569706 -55.982502 4294967295
282.36484 -25.288515 -55.690231 4294967295
282.36948 -37.824234 -54.506042 4294967295
282.45486 -22.45483 -56.775791 4294967295
282.47864 -34.525921 -55.463051 4294967295
282.50409 -21.061739 -56.981277 4294967295
282.53568 -20.127079 -57.215202 4294967295
282.54803 -32.685715 -55.443718 4294967295
282.57492 -32.281147 -54.69059 4294967295
282.69189 -29.032688 -55.019135 4294967295
282.69772 -28.50865 -55.912304 4294967295
282.71957 -28.073574 -55.556168 4294967295
282.73419 -27.598633 -55.763397 4294967295
282.75574 -27.161419 -55.432983 4294967295
282.77084 -26.689034 -55.605141 4294967295
282.80737 -25.778683 -55.454262 4294967295
282.81509 -25.26759 -56.196178 4294967295
282.81961 -37.793903 -55.057014 4294967295
282.83676 -24.830469 -55.857403 4294967295
282.85544 -36.879883 -54.966427 4294967295
282.86963 -36.400841 -55.20406 4294967295
282.89069 -23.460129 -55.700977 4294967295
282.90085 -22.963486 -56.248344 4294967295
282.91132 -22.468737 -56.773308 4294967295
282.91849 -35.564056 -54.109142 4294967295
282.92215 -35.022961 -55.157043 4294967295
282.93768 -22.054653 -56.074703 4294967295
282.94543 -34.597321 -54.698868 4294967295
282.95267 -21.582876 -56.25264 4294967295
282.95779 -34.107857 -55.078888 4294967295
282.95883 -21.067789 -57.101013 4294967295
282.97592 -33.652134 -55.0149 4294967295
282.97949 -33.112793 -56.065994 4294967295
282.99603 -20.706028 -55.579376 4294967295
282.99661 -20.164089 -56.853287 4294967295
283.01294 -32.74453 -54.833618 4294967295
283.04364 -31.801407 -55.129704 4294967295
283.06812 -31.381138 -54.5812 4294967295
283.07306 -30.851608 -55.523628 4294967295
283.103 -29.905466 -55.875343 4294967295
283.215 -26.636412 -56.557842 4294967295
283.32394 -36.960278 -54.105095 4294967295
283.33411 -36.457901 -54.638847 4294967295
283.43433 -21.174297 -55.670635 4294967295
283.47455 -32.227295 -55.776371 4294967295
283.54355 -30.385281 -55.790379 4294967295
283.69702 -26.232281 -55.946537 4294967295
283.71542 -25.777607 -55.86628 4294967295
283.73065 -37.803383 -55.268913 4294967295
283.75214 -24.86768 -55.711704 4294967295
283.767 -36.892372 -55.142998 4294967295
283.77652 -24.442377 -55.193947 4294967295
283.79431 -36.488491 -54.414635 4294967295
283.79468 -23.441702 -56.387718 4294967295
283.80603 -22.953005 -56.819813 4294967295
283.81552 -35.491932 -55.390247 4294967295
283.83868 -22.024296 -56.957275 4294967295
283.83905 -22.568279 -55.68166 4294967295
283.85074 -35.131222 -54.087982 4294967295
283.8559 -34.603119 -54.970673 4294967295
283.88022 -21.137423 -56.45256 4294967295
283.8963 -20.671799 -56.540062 4294967295
283.91522 -32.707794 -55.683388 4294967295
283.9303 -32.235611 -55.844009 4294967295
283.95218 -31.799868 -55.51268 4294967295
283.99863 -30.941343 -54.661736 4294967295
284.00949 -30.447235 -55.122036 4294967295
284.03387 -29.473663 -55.85408 4294967295
284.05481 -29.032219 -55.591686 4294967295
284.08322 -28.628241 -54.79932 4294967295
284.10565 -27.645756 -55.670685 4294967295
284.22385 -37.461945 -53.920231 4294967295
284.23862 -23.938046 -56.05072 4294967295
284.26569 -23.524067 -55.359776 4294967295
284.28296 -22.522724 -56.580185 4294967295
284.33051 -21.662601 -55.664612 4294967295
284.3476 -33.69627 -54.958038 4294967295
284.34848 -21.205387 -55.617355 4294967295
284.38458 -20.291628 -55.510761 4294967295
284.45572 -30.406437 -55.868446 4294967295
284.55884 -27.642544 -55.908924 4294967295
284.68616 -24.450851 -55.47345 4294967295
284.69427 -23.947824 -56.109024 4294967295
284.69672 -36.451172 -55.233696 4294967295
284.71622 -23.509052 -55.789997 4294967295
284.72388 -36.043251 -54.554996 4294967295
284.72461 -35.494823 -55.695633 4294967295
284.73694 -23.064766 -55.550117 4294967295
284.74631 -22.568237 -56.098927 4294967295
284.7724 -34.643471 -54.788483 4294967295
284.78232 -21.654615 -55.998482 4294967295
284.80789 -33.726982 -54.726807 4294967295
284.81027 -20.705124 -56.45203 4294967295
284.83929 -32.789322 -54.947495 4294967295
284.84158 -20.306631 -55.492744 4294967295
284.86096 -32.351009 -54.648396 4294967295
284.88379 -31.370811 -55.450905 4294967295
284.89645 -30.887484 -55.765888 4294967295
284.91891 -30.452869 -55.413979 4294967295
284.95813 -29.554548 -55.10318 4294967295
284.97751 -28.56036 -56.133896 4294967295
285.01031 -28.174667 -55.082245 4294967295
285.02869 -27.177235 -56.176231 4294967295
285.02991 -27.725149 -54.92654 4294967295
285.04761 -26.724688 -56.068523 4294967295
285.07367 -25.765141 -56.641491 4294967295
285.10321 -37.854099 -55.1241 4294967295
285.13147 -37.451496 -54.387756 4294967295
285.16699 -36.534779 -54.327309 4294967295
285.20926 -22.610775 -55.662926 4294967295
285.21313 -35.122963 -54.71418 4294967295
285.23972 -34.709526 -54.095268 4294967295
285.26596 -33.745701 -54.654716 4294967295
285.37079 -30.442879 -55.736061 4294967295
285.43842 -29.136824 -54.694077 4294967295
285.52786 -26.307854 -55.6399 4294967295
285.68057 -22.153522 -55.827217 4294967295
285.68658 -34.671944 -54.762352 4294967295
285.70197 -21.710636 -55.562695 4294967295
285.7056 -34.219711 -54.652679 4294967295
285.7131 -33.711052 -55.290314 4294967295
285.73904 -20.268379 -56.521927 4294967295
285.73996 -20.804432 -55.340748 4294967295
285.75613 -32.831284 -54.742157 4294967295
285.80362 -31.428577 -55.028603 4294967295
285.83768 -30.505169 -55.063553 4294967295
285.86151 -29.534323 -55.758675 4294967295
285.88705 -29.112158 -55.227383 4294967295
285.91562 -28.164051 -55.614521 4294967295
285.92792 -27.681274 -55.935421 4294967295
285.95056 -27.245171 -55.592484 4294967295
285.96573 -26.775517 -55.728004 4294967295
286.00058 -25.856468 -55.709164 4294967295
286.01828 -25.397978 -55.684547 4294967295
286.04343 -37.467117 -54.522995 4294967295
286.05612 -24.491737 -55.47551 4294967295
286.07581 -23.507877 -56.422863 4294967295
286.10364 -36.126053 -53.995857 4294967295
286.10654 -23.10479 -55.567833 4294967295
286.11954 -22.626389 -55.842945 4294967295
286.12546 -35.142273 -54.80722 4294967295
286.18323 -33.788799 -54.435448 4294967295
286.23181 -32.39106 -54.648029 4294967295
286.30084 -30.008533 -55.750023 4294967295
286.44876 -25.834282 -56.229607 4294967295
286.51028 -36.983707 -54.982845 4294967295
286.52328 -24.017178 -55.891685 4294967295
286.57135 -35.646408 -54.41198 4294967295
286.61224 -21.72678 -55.737793 4294967295
286.69363 -32.427002 -54.343636 4294967295
286.69617 -31.898949 -55.255867 4294967295
286.71432 -31.442707 -55.200466 4294967295
286.74728 -30.514626 -55.302399 4294967295
286.75735 -30.022402 -55.743866 4294967295
286.77802 -29.577187 -55.536781 4294967295
286.79208 -29.102715 -55.736214 4294967295
286.80969 -28.644003 -55.71627 4294967295
286.86063 -27.794073 -54.716751 4294967295
286.87006 -27.300076 -55.195023 4294967295
286.87875 -26.803177 -55.72057 4294967295
286.88821 -26.309898 -56.199455 4294967295
286.92502 -25.399364 -56.062675 4294967295
286.95538 -37.484638 -54.634026 4294967295
286.9697 -24.521008 -55.447014 4294967295
286.97952 -24.030144 -55.902382 4294967295
286.98566 -36.543083 -54.897469 4294967295
287.00214 -23.591745 -55.578354 4294967295
287.01163 -36.123264 -54.372757 4294967295
287.02216 -35.630898 -54.784821 4294967295
287.03857 -22.678707 -55.4673 4294967295
287.04449 -22.17345 -56.152641 4294967295
287.05673 -34.709938 -54.784939 4294967295
287.06625 -21.731079 -55.883278 4294967295
287.08588 -33.764168 -55.114017 4294967295
287.10413 -20.296791 -56.726311 4294967295
287.10739 -20.836458 -55.487606 4294967295
287.26346 -28.646122 -55.876045 4294967295
287.29089 -28.229202 -55.266514 4294967295
287.31229 -27.253414 -56.05542 4294967295
287.4248 -37.01545 -54.912697 4294967295
287.44754 -23.561594 -56.234154 4294967295
287.49744 -35.18935 -54.710278 4294967295
287.5376 -34.293514 -54.37896 4294967295
287.56717 -33.349846 -54.678013 4294967295
287.58029 -20.386795 -55.538918 4294967295
287.71011 -29.151716 -55.427773 4294967295
287.73584 -28.726776 -54.93222 4294967295
287.75922 -27.759857 -55.587452 4294967295
287.78879 -26.81913 -55.881081 4294967295
287.84805 -25.468498 -55.450645 4294967295
287.85907 -37.465599 -55.210121 4294967295
287.86658 -25.013296 -55.377266 4294967295
287.87448 -24.516163 -55.922672 4294967295
287.89581 -36.554844 -55.084282 4294967295
287.89893 -24.083979 -55.508995 4294967295
287.91071 -23.602552 -55.826645 4294967295
287.9201 -36.125992 -54.677849 4294967295
287.93802 -35.668381 -54.640785 4294967295
287.95108 -35.188927 -54.88826 4294967295
287.95291 -22.711613 -55.385502 4294967295
287.9635 -34.707031 -55.170216 4294967295
287.97174 -21.731588 -56.297424 4294967295
288.00458 -21.330002 -55.399899 4294967295
288.00488 -33.816063 -54.778053 4294967295
288.02612 -33.372711 -54.5504 4294967295
288.02832 -32.847073 -55.422241 4294967295
288.04022 -32.36393 -55.731155 4294967295
288.04324 -20.424784 -55.162518 4294967295
288.07352 -31.438402 -55.804527 4294967295
288.09814 -31.009144 -55.38369 4294967295
288.12915 -30.606098 -54.597904 4294967295
288.13348 -30.092014 -55.338367 4294967295
288.16064 -29.141119 -55.764004 4294967295
288.27322 -26.415726 -55.2593 4294967295
288.28949 -25.423862 -56.301785 4294967295
288.33286 -37.55603 -54.226166 4294967295
288.37042 -23.629292 -55.631733 4294967295
288.40308 -22.701851 -55.741058 4294967295
288.52826 -31.97728 -54.918488 4294967295
288.71933 -26.389187 -55.838844 4294967295
288.74887 -25.450092 -56.117599 4294967295
288.77643 -25.02911 -55.545784 4294967295
288.78708 -37.557617 -54.372997 4294967295
288.78806 -24.547714 -55.86013 4294967295
288.8071 -36.573566 -55.181747 4294967295
288.81317 -23.592495 -56.386627 4294967295
288.84634 -35.672928 -54.924263 4294967295
288.87637 -35.266914 -54.2155 4294967295
288.88409 -22.282665 -55.32856 4294967295
288.88638 -34.775398 -54.620605 4294967295
288.89764 -21.808849 -55.536774 4294967295
288.91086 -33.812233 -55.180374 4294967295
288.9426 -32.880058 -55.336876 4294967295
288.96133 -20.470367 -54.883934 4294967295
288.99094 -32.015575 -54.581188 4294967295
289.00333 -31.535202 -54.851711 4294967295
289.03052 -30.584824 -55.259041 4294967295
289.06052 -29.646408 -55.508995 4294967295
289.10574 -28.240356 -55.872108 4294967295
289.10812 -28.776968 -54.79567 4294967295
289.12549 -27.789799 -55.738377 4294967295
289.14645 -27.343864 -55.53717 4294967295
289.19662 -25.957178 -55.629765 4294967295
289.24927 -24.579849 -55.587269 4294967295
289.29004 -23.682224 -55.250252 4294967295
289.33649 -35.293793 -54.037254 4294967295
289.35757 -34.316872 -54.769806 4294967295
289.39499 -33.407452 -54.618828 4294967295
289.47037 -31.590321 -54.284 4294967295
289.71024 -37.624729 -53.852974 4294967295
289.71899 -24.642101 -54.869602 4294967295
289.74091 -36.686943 -54.062927 4294967295
289.75531 -23.727638 -54.776516 4294967295
289.76974 -35.741928 -54.37104 4294967295
289.79636 -22.308533 -55.353905 4294967295
289.80267 -34.814228 -54.458591 4294967295
289.80576 -34.29644 -55.213593 4294967295
289.81049 -21.317635 -56.440117 4294967295
289.84952 -20.413534 -56.200722 4294967295
289.87329 -32.977837 -54.384445 4294967295
289.89447 -32.5326 -54.179039 4294967295
289.90118 -32.030571 -54.739342 4294967295
289.9155 -31.031551 -55.809097 4294967295
289.9187 -31.571053 -54.727768 4294967295
289.95108 -30.641691 -54.845974 4294967295
289.97098 -29.665283 -55.62019 4294967295
289.98541 -29.194633 -55.76857 4294967295
290.00299 -28.735649 -55.754654 4294967295
290.0589 -27.370661 -55.541359 4294967295
290.06189 -26.858425 -56.290199 4294967295
290.08646 -26.42511 -55.908325 4294967295
290.13855 -25.568104 -54.991005 4294967295
290.24313 -22.289677 -55.849792 4294967295
290.28033 -33.853245 -55.1642 4294967295
290.29669 -21.433966 -54.862297 4294967295
290.39456 -31.131672 -54.623787 4294967295
290.49673 -28.363476 -54.705788 4294967295
290.50241 -27.860987 -55.303688 4294967295
290.58774 -25.556305 -55.362038 4294967295
290.61243 -24.601788 -55.868557 4294967295
290.66541 -23.225906 -55.810295 4294967295
290.73224 -21.37867 -55.925308 4294967295
290.76636 -20.974138 -55.068546 4294967295
290.79874 -20.046482 -55.181347 4294967295
229.87701 -19.664871 -61.108574 4294967295
229.89743 -7.1943145 -61.50948 4294967295
229.99338 -4.4441934 -61.266441 4294967295
230.0907 -14.555071 -61.844276 4294967295
230.36917 -18.761156 -61.053741 4294967295
230.39108 -5.8561912 -60.95953 4294967295
230.40099 -6.2716517 -61.820007 4294967295
230.42509 -5.3682294 -61.488701 4294967295
230.42924 -17.789818 -61.860508 4294967295
230.43927 -17.343819 -61.630558 4294967295
230.45851 -4.4493103 -61.45171 4294967295
230.47418 -15.995454 -61.093533 4294967295
230.52547 -15.469898 -62.171623 4294967295
230.53931 -3.0223904 -62.36998 4294967295
230.55058 -14.567482 -61.872498 4294967295
230.55702 -2.5616474 -62.383804 4294967295
230.58238 -13.224009 -61.23494 4294967295
230.63155 -12.276304 -61.699356 4294967295
230.65509 -10.946283 -60.797443 4294967295
230.6787 -11.332972 -62.099735 4294967295
230.70456 -9.5686188 -60.71981 4294967295
230.7645 -8.6031618 -61.52964 4294967295
230.79478 -8.1203756 -61.944588 4294967295
230.80519 -7.241106 -61.17223 4294967295
230.81444 -19.228954 -61.158463 4294967295
230.84937 -17.881266 -60.616257 4294967295
230.85159 -18.728355 -61.794331 4294967295
230.96194 -15.10018 -60.898003 4294967295
230.97205 -15.934248 -62.332588 4294967295
231.00618 -14.160689 -61.207672 4294967295
231.02203 -13.274876 -60.605835 4294967295
231.05185 -13.646511 -62.121613 4294967295
231.14108 -10.912106 -61.656059 4294967295
231.15717 -10.453993 -61.617241 4294967295
231.2038 -9.5118189 -62.007355 4294967295
231.20464 -9.0808144 -61.475807 4294967295
231.25444 -19.282328 -60.53643 4294967295
231.29561 -19.622101 -62.429924 4294967295
231.37198 -16.916761 -61.544575 4294967295
231.41411 -16.407116 -62.351536 4294967295
231.4416 -2.2109141 -60.748825 4294967295
231.47971 -13.719958 -61.112316 4294967295
231.48135 -14.570692 -62.291527 4294967295
231.4837 -13.284797 -60.678581 4294967295
231.55077 -12.30241 -61.738892 4294967295
231.58235 -10.530206 -60.511677 4294967295
231.61076 -10.90667 -62.004982 4294967295
231.62871 -10.016628 -61.461651 4294967295
231.64967 -9.5495758 -61.582886 4294967295
231.67319 -8.2189512 -60.653099 4294967295
231.68291 -19.7855 -60.088863 4294967295
231.70256 -8.5963326 -62.182159 4294967295
231.71365 -7.2872906 -60.846687 4294967295
231.74417 -19.233032 -61.531784 4294967295
231.75409 -18.788002 -61.289806 4294967295
231.75984 -6.7765384 -61.794838 4294967295
231.80396 -17.835899 -61.792374 4294967295
231.82504 -4.9422779 -61.665764 4294967295
231.87512 -3.5643945 -61.607353 4294967295
231.90585 -14.651982 -61.16341 4294967295
231.91002 -2.6432805 -61.617874 4294967295
232.00897 -11.462528 -60.570953 4294967295
232.05389 -10.950213 -61.485832 4294967295
232.15793 -8.1877031 -61.496597 4294967295
232.18369 -19.711843 -61.459103 4294967295
232.21446 -19.223022 -61.908051 4294967295
232.28563 -4.5231133 -61.14415 4294967295
232.31346 -16.471733 -61.75264 4294967295
232.34981 -15.122219 -61.234726 4294967295
232.35208 -3.5488482 -62.207687 4294967295
232.37015 -2.6559439 -61.657364 4294967295
232.39494 -14.180541 -61.587543 4294967295
232.40176 -2.1722174 -62.136295 4294967295
232.41412 -13.716505 -61.651714 4294967295
232.46674 -12.334356 -61.676929 4294967295
232.49744 -11.848396 -62.126495 4294967295
232.50766 -11.401814 -61.88953 4294967295
232.52763 -10.508923 -61.400776 4294967295
232.5594 -10.021511 -61.887314 4294967295
232.57039 -9.5730324 -61.676186 4294967295
232.63316 -7.7436476 -61.461754 4294967295
232.63457 -19.743088 -61.187035 4294967295
232.63815 -19.312004 -60.725578 4294967295
232.64285 -7.2969384 -61.206661 4294967295
232.6669 -6.3947763 -60.851387 4294967295
232.67557 -5.9493937 -60.560543 4294967295
232.67622 -18.383511 -60.842648 4294967295
232.68481 -17.941303 -60.548721 4294967295
232.724 -5.0040684 -61.027733 4294967295
232.73489 -17.412094 -61.655716 4294967295
232.74994 -4.0978661 -60.735901 4294967295
232.75336 -16.099993 -60.527771 4294967295
232.76266 -16.930063 -62.010132 4294967295
232.77299 -4.4890199 -62.098427 4294967295
232.78278 -15.614658 -60.936691 4294967295
232.78523 -16.459047 -62.188942 4294967295
232.797 -3.1556602 -61.157787 4294967295
232.84441 -13.787638 -60.682323 4294967295
232.8508 -14.626169 -62.069405 4294967295
232.85092 -13.348408 -60.316631 4294967295
233.034 -9.5784311 -61.837425 4294967295
233.07704 -19.369984 -60.031548 4294967295
233.10733 -7.7301188 -61.981445 4294967295
233.17958 -17.879595 -61.762337 4294967295
233.21407 -4.5342703 -61.495605 4294967295
233.2182 -16.526861 -61.309303 4294967295
233.25214 -15.182709 -60.695339 4294967295
233.396 -11.4874 -60.884666 4294967295
233.44092 -10.973145 -61.836658 4294967295
233.46585 -9.6441011 -60.908554 4294967295
233.47063 -10.062213 -61.669476 4294967295
233.55634 -7.3342438 -61.047672 4294967295
233.56081 -19.752697 -61.470566 4294967295
233.59279 -18.415123 -60.782837 4294967295
233.61319 -6.8012867 -62.417286 4294967295
233.64053 -17.465847 -61.238823 4294967295
233.65237 -5.4442139 -61.980423 4294967295
233.67667 -15.693758 -60.092285 4294967295
233.6962 -16.500389 -61.970871 4294967295
233.73506 -3.1502905 -61.85157 4294967295
233.74875 -2.6963587 -61.726398 4294967295
233.75693 -14.252977 -61.078857 4294967295
233.76863 -14.653296 -62.086609 4294967295
233.77936 -13.356894 -60.656059 4294967295
233.81924 -12.850643 -61.4431 4294967295
233.82433 -12.414902 -61.017975 4294967295
233.91801 -9.6717758 -60.666817 4294967295
233.98177 -8.6950302 -61.687065 4294967295
233.98521 -7.8332529 -60.59761 4294967295
234.00711 -19.372765 -60.425224 4294967295
234.07149 -5.5306458 -60.590988 4294967295
234.07721 -17.528255 -60.457069 4294967295
234.10121 -5.0476351 -61.027252 4294967295
234.11946 -16.167009 -60.118149 4294967295
234.13452 -4.558486 -61.59053 4294967295
234.16618 -3.213284 -60.880032 4294967295
234.17299 -15.205453 -60.78532 4294967295
234.21288 -13.848883 -60.362255 4294967295
234.22903 -2.243444 -61.87664 4294967295
234.38222 -10.528415 -62.070648 4294967295
234.45459 -7.828156 -60.960327 4294967295
234.47173 -19.795706 -61.231491 4294967295
234.49121 -7.3310604 -61.647331 4294967295
234.50058 -6.8858051 -61.365986 4294967295
234.52296 -18.416199 -61.209442 4294967295
234.53157 -17.552891 -60.285126 4294967295
234.57872 -5.4565125 -62.302124 4294967295
234.58064 -4.5960169 -61.139626 4294967295
234.6198 -16.09206 -61.581429 4294967295
234.62617 -3.6556597 -61.530586 4294967295
234.63097 -15.64511 -61.362785 4294967295
234.64464 -14.769146 -60.616203 4294967295
234.68686 -13.831961 -60.889847 4294967295
234.69495 -13.39077 -60.560715 4294967295
234.71808 -12.918095 -60.769318 4294967295
234.73528 -12.03286 -60.14584 4294967295
234.78894 -11.497864 -61.451088 4294967295
234.82437 -10.575664 -61.482689 4294967295
234.98584 -6.8497419 -62.319023 4294967295
234.99211 -5.9832354 -61.299057 4294967295
235.01881 -17.504116 -61.297211 4294967295
235.02771 -16.640419 -60.369305 4294967295
235.05577 -15.733535 -60.131908 4294967295
235.07632 -4.1145139 -61.84449 4294967295
235.09785 -3.6467094 -61.998581 4294967295
235.15443 -2.2582207 -62.17141 4294967295
235.24356 -11.520687 -61.299889 4294967295
235.2484 -10.660956 -60.217274 4294967295
235.33371 -9.2118921 -61.436951 4294967295
235.34953 -8.328598 -60.752083 4294967295
235.3889 -19.404482 -60.581776 4294967295
235.39095 -7.8207011 -61.633919 4294967295
235.39243 -7.3914146 -61.056355 4294967295
235.40294 -19.79178 -61.726303 4294967295
235.4558 -5.9883671 -61.477726 4294967295
235.47498 -17.524048 -61.200886 4294967295
235.4957 -5.0579538 -61.673103 4294967295
235.51285 -4.1700587 -61.034904 4294967295
235.51945 -16.581236 -61.564705 4294967295
235.52126 -4.5823774 -61.976151 4294967295
235.52243 -3.7239318 -60.751694 4294967295
235.53331 -3.275207 -60.516136 4294967295
235.53494 -15.703259 -60.865349 4294967295
235.57428 -14.349448 -60.403267 4294967295
235.57822 -15.18553 -61.81987 4294967295
235.59325 -14.730444 -61.737064 4294967295
235.59904 -2.7265167 -62.297455 4294967295
235.62286 -13.398175 -60.918015 4294967295
235.66245 -12.466707 -61.1036 4294967295
235.69832 -11.543371 -61.151371 4294967295
235.72958 -10.629621 -61.029598 4294967295
235.74396 -9.7502861 -60.282837 4294967295
235.79367 -9.2237272 -61.482239 4294967295
235.82854 -8.7280521 -62.132957 4294967295
235.83687 -19.86408 -60.812756 4294967295
235.87915 -7.3506765 -62.088974 4294967295
235.91928 -17.991711 -61.30584 4294967295
235.93805 -17.107523 -60.71804 4294967295
235.94293 -5.5211649 -61.892471 4294967295
236.02528 -3.2286162 -61.742889 4294967295
236.07584 -13.002316 -60.051476 4294967295
236.08073 -13.414485 -60.88097 4294967295
236.14076 -11.592399 -60.540024 4294967295
236.21729 -10.583166 -62.111038 4294967295
236.22061 -9.3035345 -60.291199 4294967295
236.28023 -8.7561388 -61.880966 4294967295
236.33861 -18.518162 -60.472717 4294967295
236.40021 -5.1116114 -61.19381 4294967295
236.4229 -16.641146 -61.043625 4294967295
236.44568 -4.5969925 -62.258381 4294967295
236.44704 -3.7403402 -61.004906 4294967295
236.44719 -15.744064 -60.655132 4294967295
236.46956 -3.2701149 -61.203236 4294967295
236.47942 -15.249648 -61.220406 4294967295
236.48956 -14.384063 -60.295433 4294967295
236.50316 -2.3514385 -61.165993 4294967295
236.53113 -13.869297 -61.215248 4294967295
236.54283 -13.421426 -61.004044 4294967295
236.54739 -12.989243 -60.520355 4294967295
236.55191 -12.5567 -60.036072 4294967295
236.58873 -12.053489 -60.777634 4294967295
236.625 -11.552032 -61.498726 4294967295
236.67914 -10.166826 -61.585953 4294967295
236.7037 -9.6913481 -61.86393 4294967295
236.70531 -9.2641878 -61.267296 4294967295
236.74869 -7.90099 -60.943611 4294967295
236.75534 -8.3118324 -61.856689 4294967295
236.76332 -19.033634 -59.823448 4294967295
236.77695 -19.419212 -61.005119 4294967295
236.78708 -6.547061 -60.429436 4294967295
236.79924 -18.528137 -60.535633 4294967295
236.8148 -6.0656919 -60.828209 4294967295
236.83257 -17.610207 -60.487362 4294967295
236.8642 -17.115873 -61.036228 4294967295
236.87001 -4.2512546 -60.29393 4294967295
236.92772 -3.7126951 -61.844299 4294967295
236.95894 -2.7990956 -61.715775 4294967295
237.12656 -9.7817926 -60.489174 4294967295
237.15509 -8.8736362 -60.254425 4294967295
237.19183 -7.9479408 -60.338593 4294967295
237.20601 -19.924152 -60.524055 4294967295
237.22252 -7.4596796 -60.857201 4294967295
237.2653 -18.524673 -60.812469 4294967295
237.33121 -16.691025 -60.686512 4294967295
237.39993 -3.2740946 -61.707939 4294967295
237.40388 -15.261082 -61.497978 4294967295
237.41589 -14.393125 -60.618267 4294967295
237.41676 -2.3880072 -61.017067 4294967295
237.45312 -13.466242 -60.721664 4294967295
237.47748 -12.568569 -60.321999 4294967295
237.53395 -11.598663 -61.179157 4294967295
237.57837 -10.234333 -60.887794 4294967295
237.5981 -9.345787 -60.304588 4294967295
237.63101 -8.8517132 -60.918533 4294967295
237.65434 -8.3785048 -61.156479 4294967295
237.68738 -7.8849421 -61.77594 4294967295
237.69235 -19.452091 -60.924549 4294967295
237.69402 -19.030746 -60.308975 4294967295
237.70081 -7.4330678 -61.62463 4294967295
237.71013 -6.9896035 -61.312317 4294967295
237.73065 -18.104647 -60.390083 4294967295
237.73508 -6.5135536 -61.614334 4294967295
237.73544 -18.510389 -61.261013 4294967295
237.7413 -17.660412 -60.128357 4294967295
237.76076 -5.6116695 -61.264042 4294967295
237.7932 -4.6956358 -61.179859 4294967295
237.79414 -17.11326 -61.531662 4294967295
237.7951 -4.2662168 -60.572765 4294967295
237.80531 -16.667988 -61.290894 4294967295
237.81163 -15.815348 -60.173195 4294967295
237.88066 -14.393352 -60.852119 4294967295
237.88522 -2.8098893 -62.087124 4294967295
237.91341 -13.476952 -60.780308 4294967295
237.96957 -12.086095 -60.951969 4294967295
238.09888 -8.4234056 -60.593433 4294967295
238.28348 -16.216122 -61.385109 4294967295
238.3107 -14.895088 -60.394295 4294967295
238.41191 -12.138146 -60.292465 4294967295
238.41293 -12.555998 -61.030605 4294967295
238.46268 -11.600592 -61.644241 4294967295
238.47873 -10.722671 -60.896545 4294967295
238.50821 -9.8135958 -60.689827 4294967295
238.54337 -8.8915863 -60.713722 4294967295
238.54689 -9.3055038 -61.55711 4294967295
238.58586 -8.3757496 -61.7365 4294967295
238.59579 -7.5092626 -60.737976 4294967295
238.60089 -19.502628 -60.566673 4294967295
238.63356 -7.0048132 -61.569233 4294967295
238.63507 -18.58289 -60.550625 4294967295
238.65033 -5.6988401 -60.142586 4294967295
238.67268 -17.654446 -60.674255 4294967295
238.69322 -5.1845818 -61.184845 4294967295
238.69644 -17.17786 -60.93771 4294967295
238.71411 -16.716635 -60.953884 4294967295
238.71545 -4.7141361 -61.386032 4294967295
238.76001 -14.932421 -60.005196 4294967295
238.76805 -3.3322654 -61.418625 4294967295
238.77568 -2.4662294 -60.318283 4294967295
238.77632 -15.310518 -61.377014 4294967295
238.80455 -13.987251 -60.411766 4294967295
238.83286 -13.500423 -60.862465 4294967295
238.91423 -11.210838 -60.655365 4294967295
239.03256 -7.99435 -60.545551 4294967295
239.08426 -7.4580488 -61.96479 4294967295
239.08554 -18.618336 -60.208321 4294967295
239.09764 -6.5844092 -61.091457 4294967295
239.10004 -6.1564541 -60.475586 4294967295
239.12315 -18.105354 -61.047985 4294967295
239.16991 -4.3132653 -60.505596 4294967295
239.17757 -16.301819 -60.43869 4294967295
239.2657 -14.413389 -61.227131 4294967295
239.27312 -2.4020801 -61.920166 4294967295
239.2775 -13.548639 -60.280602 4294967295
239.41835 -9.8590755 -60.385483 4294967295
239.44345 -9.380621 -60.712791 4294967295
239.48691 -8.8604374 -61.80809 4294967295
239.50938 -7.9679294 -61.302711 4294967295
239.53351 -19.48988 -61.202515 4294967295
239.54305 -7.0497327 -61.265945 4294967295
239.54796 -6.6170373 -60.746479 4294967295
239.55159 -18.61327 -60.510231 4294967295
239.56612 -17.744892 -59.66758 4294967295
239.56889 -6.1487513 -60.899292 4294967295
239.57646 -18.132935 -60.829716 4294967295
239.58926 -5.6817451 -61.029678 4294967295
239.61131 -4.7883587 -60.502495 4294967295
239.6171 -17.196693 -61.08522 4294967295
239.62592 -4.3336663 -60.390244 4294967295
239.63074 -16.746038 -60.930813 4294967295
239.64026 -16.305742 -60.604458 4294967295
239.66319 -3.8308291 -61.232231 4294967295
239.67879 -3.3742838 -61.161156 4294967295
239.70842 -14.883644 -61.292572 4294967295
239.71149 -14.459223 -60.692566 4294967295
239.72963 -13.579317 -59.998451 4294967295
239.73196 -13.991005 -60.826996 4294967295
239.73373 -2.4116745 -62.022011 4294967295
239.77074 -13.060106 -61.006042 4294967295
239.79666 -12.578787 -61.372093 4294967295
239.82205 -11.680951 -60.98275 4294967295
239.83109 -11.240578 -60.632996 4294967295
239.88722 -9.8495216 -60.815582 4294967295
239.95625 -19.600658 -59.68124 4294967295
239.96121 -7.5766597 -60.285927 4294967295
239.99222 -7.0851402 -60.87072 4294967295
239.99402 -19.084747 -60.554073 4294967295
240.04044 -17.718224 -60.321701 4294967295
240.11481 -15.447344 -59.803665 4294967295
240.17294 -2.4662166 -61.210403 4294967295
240.22752 -12.661415 -60.188225 4294967295
240.37257 -9.3809471 -61.226738 4294967295
240.42075 -19.59936 -59.919678 4294967295
240.424 -20.002777 -60.810692 4294967295
240.43559 -7.5548749 -60.962006 4294967295
240.46883 -6.6375723 -60.904655 4294967295
240.48029 -18.610096 -61.002861 4294967295
240.49765 -5.7301264 -60.655746 4294967295
240.49832 -17.734428 -60.285515 4294967295
240.5132 -5.2737522 -60.579998 4294967295
240.53008 -17.235195 -60.914242 4294967295
240.53392 -16.810926 -60.329384 4294967295
240.56537 -16.312876 -60.94709 4294967295
240.56537 -15.89842 -60.192978 4294967295
240.56557 -4.3137417 -61.355396 4294967295
240.59421 -15.407654 -60.696693 4294967295
240.60777 -2.9545088 -60.936012 4294967295
240.61516 -2.5156116 -60.503761 4294967295
240.62517 -14.496494 -60.53957 4294967295
240.65822 -13.579832 -60.472275 4294967295
240.70175 -12.219719 -60.108643 4294967295
240.70471 -12.628913 -60.995239 4294967295
240.72435 -11.745983 -60.341011 4294967295
240.78441 -10.344738 -60.700592 4294967295
240.81502 -9.8519831 -61.286423 4294967295
240.82092 -9.4195375 -60.786007 4294967295
240.8291 -8.9812365 -60.385487 4294967295
240.84261 -8.5299053 -60.219177 4294967295
240.89185 -19.166777 -59.697662 4294967295
240.91557 -18.688286 -59.981651 4294967295
240.96605 -5.7220235 -61.090317 4294967295
241.05956 -2.9838514 -60.638916 4294967295
241.17542 -12.195817 -60.771797 4294967295
241.19313 -11.73449 -60.791649 4294967295
241.36264 -7.1404295 -60.644066 4294967295
241.44406 -17.271101 -60.785294 4294967295
241.45383 -16.831755 -60.446136 4294967295
241.46283 -4.8074169 -61.264603 4294967295
241.47043 -16.373329 -60.415375 4294967295
241.4832 -4.3403544 -61.40358 4294967295
241.49527 -15.892351 -60.756363 4294967295
241.50473 -15.453466 -60.40274 4294967295
241.51367 -3.4296236 -61.2201 4294967295
241.53325 -2.5429306 -60.542805 4294967295
241.53406 -14.546861 -60.16655 4294967295
241.58188 -13.590961 -60.764687 4294967295
241.58618 -13.164998 -60.17733 4294967295
241.62137 -12.657654 -60.988499 4294967295
241.64757 -11.759091 -60.609634 4294967295
241.69205 -10.813242 -61.060188 4294967295
241.70436 -10.36579 -60.83466 4294967295
241.71414 -9.9246416 -60.492439 4294967295
241.74104 -9.440136 -60.931606 4294967295
241.76462 -8.5471754 -60.429924 4294967295
241.79187 -7.6444311 -60.096046 4294967295
241.81157 -19.598997 -60.578514 4294967295
241.82826 -6.7192011 -60.17841 4294967295
241.83917 -18.698574 -60.2603 4294967295
241.8882 -5.3188877 -60.548195 4294967295
241.90659 -16.862112 -60.179638 4294967295
241.9534 -3.4868565 -60.367519 4294967295
241.99211 -14.975496 -60.932869 4294967295
242.00211 -2.5341444 -61.017868 4294967295
242.10545 -11.774902 -60.581673 4294967295
242.17862 -9.5076361 -59.967068 4294967295
242.23624 -8.5285416 -61.036903 4294967295
242.26791 -19.209896 -59.675209 4294967295
242.41357 -3.4977145 -60.441895 4294967295
242.43587 -15.030361 -60.251205 4294967295
242.43922 -3.0179329 -60.834381 4294967295
242.45825 -14.555826 -60.489861 4294967295
242.48933 -13.644971 -60.325722 4294967295
242.52322 -13.139189 -61.105957 4294967295
242.52409 -12.723803 -60.335274 4294967295
242.57152 -11.768656 -60.939842 4294967295
242.5876 -11.311754 -60.884071 4294967295
242.60112 -10.861655 -60.706566 4294967295
242.62006 -10.397138 -60.784527 4294967295
242.66974 -9.4374895 -61.49868 4294967295
242.69347 -8.5455379 -60.988132 4294967295
242.71645 -19.663027 -60.009338 4294967295
242.72575 -19.226627 -59.630543 4294967295
242.72891 -7.6232133 -61.029556 4294967295
242.75371 -6.7276068 -60.5662 4294967295
242.7554 -18.729126 -60.216995 4294967295
242.7626 -18.298801 -59.737679 4294967295
242.80357 -17.359032 -60.040707 4294967295
242.81461 -5.3246565 -60.997917 4294967295
242.83665 -4.4348431 -60.402172 4294967295
242.85159 -16.399141 -60.681229 4294967295
243.07001 -10.43392 -60.381966 4294967295
243.12576 -9.042798 -60.570251 4294967295
243.17349 -7.6728377 -60.372017 4294967295
243.23157 -6.2762547 -60.672722 4294967295
243.23459 -18.680107 -61.215862 4294967295
243.26422 -5.3607769 -60.579056 4294967295
243.2726 -16.933018 -59.708832 4294967295
243.30263 -4.4309216 -60.765266 4294967295
243.31573 -16.396002 -60.962212 4294967295
243.33086 -3.5260191 -60.458797 4294967295
243.35901 -2.6209373 -60.146317 4294967295
243.39822 -14.107057 -60.773285 4294967295
243.45016 -12.72649 -60.778191 4294967295
243.46304 -12.2787 -60.564381 4294967295
243.51709 -11.304302 -61.516914 4294967295
243.53067 -10.442098 -60.490944 4294967295
243.58195 -9.4764738 -61.310467 4294967295
243.58723 -9.0488453 -60.721653 4294967295
243.60669 -8.5829411 -60.828056 4294967295
243.64267 -7.6590395 -60.897926 4294967295
243.6517 -19.633991 -60.899353 4294967295
243.65239 -7.2187438 -60.526726 4294967295
243.66263 -19.193832 -60.586121 4294967295
243.67928 -18.735645 -60.555099 4294967295
243.69984 -5.8494492 -60.309982 4294967295
243.70009 -6.2644033 -61.174244 4294967295
243.72188 -17.790613 -60.952312 4294967295
243.73203 -5.3511529 -61.045891 4294967295
243.73381 -17.346966 -60.687874 4294967295
243.76003 -4.4476442 -60.722122 4294967295
243.77818 -3.9853282 -60.76564 4294967295
243.78304 -15.974488 -60.558647 4294967295
243.79129 -3.5355687 -60.559071 4294967295
243.80188 -15.509706 -60.635262 4294967295
243.81717 -3.0542512 -60.984459 4294967295
243.83246 -2.5990734 -60.886269 4294967295
243.85107 -14.54623 -61.361771 4294967295
243.87721 -13.651005 -60.945065 4294967295
243.95294 -11.38113 -60.413593 4294967295
244.01622 -9.9687576 -60.98452 4294967295
244.05008 -8.6376677 -60.085754 4294967295
244.10748 -7.655611 -61.23019 4294967295
244.17122 -5.4149208 -60.091991 4294967295
244.28012 -2.6399465 -60.353722 4294967295
244.28992 -14.617868 -60.394363 4294967295
244.31531 -13.724796 -59.928959 4294967295
244.44533 -10.887165 -61.265186 4294967295
244.45477 -10.449592 -60.866852 4294967295
244.50981 -8.6485643 -60.14925 4294967295
244.53978 -8.1532907 -60.796711 4294967295
244.54962 -7.7135973 -60.417133 4294967295
244.59134 -18.778082 -60.323029 4294967295
244.59811 -6.7555208 -61.13018 4294967295
244.62114 -5.8664284 -60.539845 4294967295
244.62173 -6.278491 -61.456303 4294967295
244.64388 -17.800259 -61.245163 4294967295
244.64514 -5.3884401 -60.884972 4294967295
244.64803 -4.9663105 -60.146294 4294967295
244.65233 -17.368408 -60.792618 4294967295
244.65857 -16.943245 -60.225426 4294967295
244.68513 -16.453854 -60.702614 4294967295
244.68764 -4.4476814 -61.292366 4294967295
244.70505 -15.985526 -60.838821 4294967295
244.7131 -3.5513773 -60.825253 4294967295
244.71849 -3.1217179 -60.214207 4294967295
244.72182 -15.527131 -60.812092 4294967295
244.74341 -2.642087 -60.606525 4294967295
244.74983 -14.627162 -60.474922 4294967295
244.77835 -13.725203 -60.162636 4294967295
244.81921 -13.193796 -61.381966 4294967295
244.836 -12.735486 -61.356339 4294967295
244.83762 -12.32233 -60.545902 4294967295
244.88062 -11.377144 -60.985085 4294967295
244.91521 -10.047121 -60.088692 4294967295
244.94273 -9.5573673 -60.62215 4294967295
245.01454 -19.714258 -60.293365 4294967295
245.18118 -15.131739 -59.968304 4294967295
245.2049 -2.6482401 -60.777954 4294967295
245.41327 -9.5355129 -61.277046 4294967295
245.42163 -9.1017065 -60.802528 4294967295
245.44878 -8.202981 -60.408821 4294967295
245.46436 -19.756966 -59.841644 4294967295
245.48112 -7.2889004 -60.291725 4294967295
245.49445 -18.851334 -59.602417 4294967295
245.51779 -18.37059 -59.926254 4294967295
245.533 -6.3199806 -61.215973 4294967295
245.53853 -5.8928285 -60.588436 4294967295
245.5602 -5.0080485 -59.898613 4294967295
245.56905 -17.394764 -60.81781 4294967295
245.57039 -5.3924198 -61.368252 4294967295
245.59146 -4.5095897 -60.64679 4294967295
245.61011 -16.453489 -61.167019 4294967295
245.61215 -3.6267591 -59.902657 4294967295
245.6124 -16.042416 -60.363628 4294967295
245.63025 -15.580418 -60.394279 4294967295
245.64769 -3.1176367 -60.882942 4294967295
245.65744 -15.088393 -60.926319 4294967295
245.67125 -2.6409764 -61.220978 4294967295
245.67587 -14.624649 -60.990204 4294967295
245.7141 -13.287689 -60.257553 4294967295
245.71678 -13.684778 -61.331688 4294967295
245.76213 -12.325542 -60.982704 4294967295
245.80437 -11.382034 -61.399609 4294967295
245.80777 -10.964639 -60.648811 4294967295
245.82605 -10.501564 -60.702888 4294967295
245.94229 -7.7046514 -61.388184 4294967295
245.96754 -19.215586 -61.337173 4294967295
245.97198 -18.398933 -59.696342 4294967295
246.0193 -17.435097 -60.391857 4294967295
246.05701 -4.5034857 -61.05183 4294967295
246.13605 -2.6369228 -61.598816 4294967295
246.13638 -14.226873 -60.178352 4294967295
246.21133 -12.367591 -60.498756 4294967295
246.30484 -9.6380997 -59.937618 4294967295
246.33479 -8.7314739 -59.680962 4294967295
246.45895 -5.909791 -60.818039 4294967295
246.4698 -17.87578 -60.927528 4294967295
246.48233 -17.432247 -60.663383 4294967295
246.48515 -5.0137677 -60.352562 4294967295
246.49866 -4.5643682 -60.141644 4294967295
246.52588 -16.080421 -60.199722 4294967295
246.53026 -16.46653 -61.411415 4294967295
246.55054 -15.595314 -60.61285 4294967295
246.55154 -3.5924778 -61.167137 4294967295
246.55434 -3.1730213 -60.35611 4294967295
246.5849 -2.6761332 -61.100307 4294967295
246.59761 -14.633432 -61.315395 4294967295
246.60258 -14.214497 -60.625847 4294967295
246.6162 -13.76663 -60.419334 4294967295
246.6778 -12.354617 -60.970181 4294967295
246.70358 -11.463032 -60.474503 4294967295
246.73604 -10.549482 -60.356781 4294967295
246.79903 -9.1344957 -60.988068 4294967295
246.79932 -8.7270861 -60.024937 4294967295
246.84802 -7.7634354 -60.828644 4294967295
246.85107 -19.358982 -59.515327 4294967295
246.85135 -19.755657 -60.513336 4294967295
246.86322 -7.3098416 -60.709808 4294967295
246.91911 -17.920326 -60.436424 4294967295
246.95543 -16.993973 -60.537476 4294967295
246.99068 -15.671215 -59.58791 4294967295
247.08118 -13.75762 -60.812653 4294967295
247.12088 -12.417971 -60.116692 4294967295
247.16699 -11.459752 -60.782478 4294967295
247.22624 -9.6515322 -60.212337 4294967295
247.30199 -7.3837948 -59.592659 4294967295
247.36342 -5.9735632 -60.149658 4294967295
247.39993 -17.05658 -59.747345 4294967295
247.44537 -4.0948553 -60.900543 4294967295
247.46104 -15.642987 -60.288181 4294967295
247.46674 -3.2135224 -60.128548 4294967295
247.47008 -3.6131601 -61.335144 4294967295
247.5145 -2.2552156 -60.902367 4294967295
247.5264 -13.81559 -60.066933 4294967295
247.55873 -13.303726 -60.95153 4294967295
247.58734 -12.40414 -60.602737 4294967295
247.63188 -11.450686 -61.191902 4294967295
247.73367 -8.2936049 -60.061264 4294967295
247.735 -8.6936808 -61.164421 4294967295
247.77937 -19.343456 -60.197235 4294967295
247.80045 -6.8660831 -60.948063 4294967295
247.81161 -6.4253187 -60.584812 4294967295
247.83119 -18.358685 -61.226101 4294967295
247.84024 -17.929562 -60.735401 4294967295
247.84712 -5.5023861 -60.641953 4294967295
247.8542 -17.481888 -60.537811 4294967295
247.87721 -16.604099 -59.848175 4294967295
247.87814 -4.5931797 -60.431381 4294967295
247.90892 -15.693929 -59.676956 4294967295
247.99937 -13.777376 -60.956875 4294967295
248.05051 -12.400206 -60.917007 4294967295
248.07878 -11.502072 -60.538155 4294967295
248.16505 -9.2024336 -60.532738 4294967295
248.22499 -7.3922372 -59.974823 4294967295
248.27742 -18.416473 -60.526711 4294967295
248.29105 -5.9664493 -60.840572 4294967295
248.34807 -16.17524 -59.562538 4294967295
248.40218 -15.182596 -60.761562 4294967295
248.41599 -2.3273435 -60.027664 4294967295
248.46794 -13.355009 -60.55759 4294967295
248.51337 -12.39644 -61.228111 4294967295
248.54768 -11.477701 -61.216583 4294967295
248.57489 -10.183594 -59.690681 4294967295
248.61633 -9.6403465 -61.190445 4294967295
248.62009 -9.2267656 -60.35041 4294967295
248.6541 -8.3084555 -60.317665 4294967295
248.69101 -19.38908 -59.915936 4294967295
248.69266 -7.3750362 -60.567253 4294967295
248.6931 -19.772055 -61.123863 4294967295
248.70299 -18.949753 -59.585625 4294967295
248.7205 -18.488667 -59.598007 4294967295
248.72134 -6.474412 -60.200279 4294967295
248.74695 -17.99264 -60.170685 4294967295
248.76511 -17.529072 -60.226856 4294967295
248.76765 -5.1118827 -59.854515 4294967295
248.80353 -16.594124 -60.469109 4294967295
248.83492 -3.6825943 -60.821854 4294967295
248.83493 -15.68615 -60.270885 4294967295
248.85063 -3.2275548 -60.725075 4294967295
248.86641 -15.172487 -61.164185 4294967295
248.88498 -2.3083744 -60.712563 4294967295
248.90167 -13.854668 -60.122833 4294967295
248.96326 -12.438826 -60.738686 4294967295
249.01129 -11.072831 -60.497902 4294967295
249.0316 -10.602042 -60.69096 4294967295
249.0652 -9.2860746 -59.531364 4294967295
249.08641 -8.8120975 -59.781338 4294967295
249.19994 -5.61518 -59.302834 4294967295
249.22998 -17.12414 -59.55864 4294967295
249.23875 -17.48082 -61.23053 4294967295
249.24104 -5.0761347 -60.831989 4294967295
249.24701 -16.664822 -59.542446 4294967295
249.2612 -4.2032604 -59.907768 4294967295
249.37151 -13.823947 -60.884724 4294967295
249.40504 -12.908084 -60.820686 4294967295
249.48273 -10.640611 -60.257534 4294967295
249.52498 -9.6928406 -60.75811 4294967295
249.52887 -9.2810106 -59.884277 4294967295
249.57726 -8.3116512 -60.788898 4294967295
249.57924 -19.921824 -59.214722 4294967295
249.58536 -7.884068 -60.189075 4294967295
249.59885 -7.4372673 -59.940689 4294967295
249.62138 -19.357777 -60.845211 4294967295
249.62317 -18.962219 -59.828415 4294967295
249.63129 -6.524281 -59.801216 4294967295
249.63168 -18.538185 -59.252625 4294967295
249.69258 -17.510014 -60.98455 4294967295
249.69788 -17.098816 -60.196655 4294967295
249.70532 -16.678497 -59.547867 4294967295
249.70755 -4.6594315 -60.271255 4294967295
249.73175 -16.181488 -60.151508 4294967295
249.74718 -15.72884 -60.028961 4294967295
249.75092 -15.322596 -59.131897 4294967295
249.75945 -3.2791486 -60.274918 4294967295
249.78568 -2.7898097 -60.867371 4294967295
249.79129 -14.770926 -60.661186 4294967295
249.80812 -2.3131337 -61.211185 4294967295
249.81146 -14.299681 -60.853397 4294967295
249.83611 -13.418533 -60.196392 4294967295
249.87024 -12.500109 -60.167809 4294967295
249.88509 -12.04929 -60.006622 4294967295
249.91002 -11.560115 -60.517403 4294967295
249.91127 -11.160596 -59.44873 4294967295
249.96945 -10.152007 -61.026222 4294967295
250.01689 -8.3918009 -59.574326 4294967295
250.07227 -19.014357 -59.22319 4294967295
250.12347 -5.6200886 -59.767387 4294967295
250.19235 -4.1809778 -60.921921 4294967295
250.19925 -16.15617 -60.798172 4294967295
250.24556 -14.408811 -59.249794 4294967295
250.25294 -2.3702202 -60.345871 4294967295
250.40945 -10.233669 -59.817371 4294967295
250.42542 -9.7785463 -59.726097 4294967295
250.49014 -8.3497515 -60.615341 4294967295
250.51019 -7.4834523 -59.615074 4294967295
250.51833 -19.466259 -59.575172 4294967295
250.53252 -7.0047736 -59.962852 4294967295
250.53841 -18.993813 -59.768379 4294967295
250.55597 -18.532425 -59.787766 4294967295
250.59015 -5.6036043 -60.364719 4294967295
250.59308 -5.1948805 -59.368862 4294967295
250.59494 -17.207104 -58.892948 4294967295
250.59731 -17.582949 -60.25811 4294967295
250.61464 -4.7194281 -59.664742 4294967295
250.62247 -16.703007 -59.604843 4294967295
250.66441 -3.3459582 -59.519981 4294967295
250.68979 -14.869604 -59.478973 4294967295
250.6976 -2.8307495 -60.629795 4294967295
250.71576 -2.3678837 -60.691128 4294967295
250.7178 -14.364965 -60.227299 4294967295
250.72356 -13.952415 -59.421803 4294967295
250.78143 -12.547159 -59.843681 4294967295
250.79066 -12.119431 -59.278381 4294967295
250.82297 -11.59899 -60.333771 4294967295
250.83163 -11.173334 -59.727371 4294967295
250.86035 -10.667905 -60.533119 4294967295
250.90375 -9.3210258 -59.937874 4294967295
250.91306 -8.891675 -59.37442 4294967295
251.01096 -6.5472255 -60.188492 4294967295
251.02734 -18.103701 -59.507599 4294967295
251.08836 -16.682758 -60.163956 4294967295
251.11813 -16.168468 -61.056335 4294967295
251.12445 -15.756187 -60.273132 4294967295
251.14459 -3.2817063 -61.100094 4294967295
251.15251 -2.4562902 -59.18866 4294967295
251.20389 -13.485623 -59.774414 4294967295
251.29309 -11.173484 -59.976341 4294967295
251.44087 -19.843597 -61.303688 4294967295
251.48289 -6.1137838 -59.95681 4294967295
251.48438 -18.122387 -59.431572 4294967295
251.49869 -5.6593742 -59.847614 4294967295
251.51637 -17.595226 -60.509998 4294967295
251.54758 -4.2899976 -59.630955 4294967295
251.5614 -16.246063 -60.011513 4294967295
251.59961 -3.3053374 -60.918503 4294967295
251.60243 -14.913602 -59.213776 4294967295
251.60258 -2.8978777 -59.86343 4294967295
251.60344 -15.292801 -60.564091 4294967295
251.62897 -2.4047394 -60.535728 4294967295
251.65141 -13.930028 -60.281174 4294967295
251.66266 -13.496292 -59.833725 4294967295
251.69466 -12.58709 -59.643185 4294967295
251.73137 -11.657706 -59.801933 4294967295
251.77145 -10.714246 -60.215511 4294967295
251.84386 -8.860981 -60.461868 4294967295
251.8605 -8.4036102 -60.41597 4294967295
251.884 -7.5282393 -59.585621 4294967295
251.89034 -19.895393 -60.710579 4294967295
251.90048 -19.469608 -60.176861 4294967295
251.91156 -19.039207 -59.709637 4294967295
251.93382 -18.55555 -60.084217 4294967295
251.97891 -17.586184 -60.880508 4294967295
252.01442 -16.282272 -59.646935 4294967295
252.01549 -4.2665854 -60.379639 4294967295
252.03073 -3.4198484 -58.916336 4294967295
252.05478 -2.9340115 -59.428677 4294967295
252.10071 -13.982127 -59.636482 4294967295
252.13513 -13.062401 -59.626305 4294967295
252.20457 -11.220368 -59.650829 4294967295
252.23784 -10.691283 -60.877762 4294967295
252.25739 -9.8358698 -59.723827 4294967295
252.30846 -8.4586649 -59.665543 4294967295
252.34879 -7.5145507 -60.111034 4294967295
252.37431 -6.6314116 -59.41217 4294967295
252.49779 -3.7923183 -60.954407 4294967295
252.51111 -3.3480453 -60.646446 4294967295
252.51314 -2.9474354 -59.452511 4294967295
252.51488 -15.338579 -60.269798 4294967295
252.53116 -14.503883 -58.8358 4294967295
252.53613 -2.4651895 -59.900345 4294967295
252.56458 -13.588314 -58.744762 4294967295
252.60312 -12.649405 -59.055313 4294967295
252.63521 -12.121956 -60.224625 4294967295
252.64391 -11.70075 -59.545364 4294967295
252.66847 -11.208031 -60.120564 4294967295
252.69579 -10.703361 -60.916267 4294967295
252.72408 -9.8114958 -60.421669 4294967295
252.73785 -9.3669205 -60.144367 4294967295
252.77066 -8.4545698 -60.005714 4294967295
252.80653 -7.5290418 -60.109261 4294967295
252.82042 -19.474586 -60.534569 4294967295
252.82768 -19.065449 -59.734169 4294967295
252.83359 -6.6405964 -59.511967 4294967295
252.84373 -18.611458 -59.637352 4294967295
252.85808 -6.1502895 -60.088032 4294967295
252.88255 -17.670101 -59.97773 4294967295
252.88518 -17.282602 -58.802711 4294967295
252.89314 -5.2282586 -60.128887 4294967295
252.92151 -4.3335414 -59.63245 4294967295
252.95427 -15.817448 -60.187912 4294967295
252.95432 -3.4203281 -59.490974 4294967295
253.00076 -14.46323 -59.758442 4294967295
253.06175 -13.039769 -60.502151 4294967295
253.20613 -8.9513121 -59.595467 4294967295
253.22517 -8.4833889 -59.738903 4294967295
253.29025 -7.0451303 -60.831947 4294967295
253.31215 -18.570686 -60.507183 4294967295
253.38103 -16.360306 -59.056122 4294967295
253.45416 -14.87331 -60.830872 4294967295
253.4707 -14.417217 -60.771233 4294967295
253.51724 -13.064001 -60.32885 4294967295
253.52612 -12.644792 -59.625969 4294967295
