# .PCD v0.7 - Point Cloud Data file format
VERSION 0.7
FIELDS x y z rgb
SIZE 4 4 4 4
TYPE F F F U
COUNT 1 1 1 1
WIDTH 1147
HEIGHT 1
VIEWPOINT 0 0 0 1 0 0 0
POINTS 1147
DATA ascii
123.46802 73.961121 -58.98027 4294967295
123.47084 77.242958 -58.002254 4294967295
123.47119 79.590767 -57.288979 4294967295
123.48958 76.77095 -58.298622 4294967295
123.49165 81.467392 -56.882969 4294967295
123.5138 76.298386 -58.639809 4294967295
123.51856 80.992416 -57.24683 4294967295
123.53326 80.050034 -57.653801 4294967295
123.54118 75.825623 -59.006699 4294967295
123.55017 77.699997 -58.508118 4294967295
123.56757 80.513863 -57.79134 4294967295
123.56985 81.923271 -57.380116 4294967295
123.70923 63.677113 -60.257267 4294967295
123.73048 68.348061 -59.001366 4294967295
123.73153 64.142525 -60.296768 4294967295
123.75553 64.607803 -60.350327 4294967295
123.76262 62.274902 -61.121925 4294967295
123.76276 62.741154 -60.980404 4294967295
123.77029 66.007607 -60.042328 4294967295
123.77991 66.474014 -59.978226 4294967295
123.781 65.539825 -60.272915 4294967295
123.80477 65.071335 -60.610241 4294967295
123.80982 63.204964 -61.222622 4294967295
123.81878 66.938118 -60.15332 4294967295
123.82305 68.807259 -59.616196 4294967295
123.82722 70.678116 -59.077721 4294967295
123.82767 69.274467 -59.510895 4294967295
123.84982 71.611877 -58.976555 4294967295
123.85278 71.143402 -59.143887 4294967295
123.85895 67.401962 -60.339211 4294967295
123.86448 73.483734 -58.523273 4294967295
123.88284 70.204391 -59.676666 4294967295
123.8913 75.824371 -58.025887 4294967295
123.89468 75.354858 -58.19722 4294967295
123.92397 74.881973 -58.580833 4294967295
123.93082 73.007027 -59.210541 4294967295
123.93143 78.63446 -57.493492 4294967295
123.93659 80.04303 -57.104675 4294967295
123.94193 80.512131 -57.004585 4294967295
123.94658 77.693039 -57.905224 4294967295
123.95898 76.283653 -58.437752 4294967295
123.96092 78.160202 -57.879295 4294967295
123.96372 77.22113 -58.189476 4294967295
123.96846 76.751282 -58.371964 4294967295
123.98692 81.444328 -57.086506 4294967295
123.987 79.094986 -57.806122 4294967295
124.00372 80.971237 -57.368465 4294967295
124.02362 81.907761 -57.244152 4294967295
124.04037 79.555626 -58.100685 4294967295
124.20371 66.459671 -59.604996 4294967295
124.20687 64.124405 -60.34779 4294967295
124.21918 64.590385 -60.3055 4294967295
124.25084 68.793198 -59.274445 4294967295
124.25645 70.196281 -58.88961 4294967295
124.25999 69.727943 -59.062401 4294967295
124.26007 62.722023 -61.213821 4294967295
124.26048 72.068886 -58.347843 4294967295
124.26197 62.255787 -61.372566 4294967295
124.27728 63.65366 -61.068787 4294967295
124.28496 65.052795 -60.702114 4294967295
124.31372 72.531059 -58.641705 4294967295
124.32611 71.124924 -59.174858 4294967295
124.32859 73.466263 -58.476421 4294967295
124.33321 70.656181 -59.376862 4294967295
124.33688 75.809555 -57.824764 4294967295
124.33743 66.916252 -60.559624 4294967295
124.33977 74.402229 -58.280495 4294967295
124.34933 68.316628 -60.227131 4294967295
124.35531 67.38179 -60.563026 4294967295
124.37437 77.211823 -57.701294 4294967295
124.37585 76.742287 -57.857491 4294967295
124.38954 71.585846 -59.552689 4294967295
124.4099 76.268112 -58.28196 4294967295
124.41256 75.32991 -58.591682 4294967295
124.42641 81.431396 -56.831902 4294967295
124.42773 77.672935 -57.996605 4294967295
124.43253 80.020134 -57.315258 4294967295
124.43919 73.920593 -59.242256 4294967295
124.44242 81.898727 -56.81955 4294967295
124.46741 80.483948 -57.458496 4294967295
124.50795 79.068115 -58.224915 4294967295
124.52444 80.943672 -57.784214 4294967295
124.59663 62.244579 -60.269985 4294967295
124.62263 65.511063 -59.477489 4294967295
124.65678 66.910469 -59.32687 4294967295
124.66203 67.845146 -59.082088 4294967295
124.66335 66.442566 -59.524994 4294967295
124.67989 63.639786 -60.524124 4294967295
124.68289 63.1731 -60.692551 4294967295
124.69138 64.105713 -60.474926 4294967295
124.69469 62.706108 -60.933342 4294967295
124.696 70.649544 -58.49741 4294967295
124.69821 67.374496 -59.524281 4294967295
124.72794 68.306892 -59.481262 4294967295
124.73998 69.708885 -59.148388 4294967295
124.75755 70.174988 -59.149128 4294967295
124.76161 71.578804 -58.750092 4294967295
124.76631 65.034172 -60.804539 4294967295
124.77607 69.237564 -59.589973 4294967295
124.77792 72.982071 -58.451752 4294967295
124.78726 76.732727 -57.373268 4294967295
124.79939 68.767807 -59.926132 4294967295
124.82351 73.913475 -58.539368 4294967295
124.82702 77.665604 -57.412544 4294967295
124.82945 72.507393 -59.021294 4294967295
124.8336 78.134155 -57.322266 4294967295
124.84463 72.037415 -59.29068 4294967295
124.85275 73.441193 -58.924973 4294967295
124.85915 78.599678 -57.388687 4294967295
124.86205 76.252396 -58.13549 4294967295
124.874 74.844055 -58.667465 4294967295
124.91003 79.060951 -57.664612 4294967295
124.92084 75.306252 -58.909836 4294967295
124.94524 79.524651 -57.810879 4294967295
124.94759 80.463676 -57.541023 4294967295
124.96975 81.869568 -57.289948 4294967295
124.98716 80.926476 -57.723522 4294967295
124.98819 79.9869 -58.021374 4294967295
124.99013 81.395805 -57.603313 4294967295
125.06331 64.560928 -59.529083 4294967295
125.06887 63.159946 -60.007881 4294967295
125.0807 66.428749 -59.095242 4294967295
125.08818 65.960785 -59.301506 4294967295
125.09291 62.69207 -60.350594 4294967295
125.11591 64.090698 -60.10799 4294967295
125.13739 67.359138 -59.274857 4294967295
125.15105 65.489059 -59.965366 4294967295
125.16496 63.621132 -60.657204 4294967295
125.17742 69.694099 -58.883202 4294967295
125.22293 68.286621 -59.693195 4294967295
125.23402 71.092224 -58.917629 4294967295
125.23628 66.88369 -60.236832 4294967295
125.24125 69.219986 -59.555779 4294967295
125.25896 77.653206 -57.095646 4294967295
125.26395 68.750282 -59.887951 4294967295
125.26417 70.153099 -59.456299 4294967295
125.26424 67.815613 -60.179157 4294967295
125.27214 79.060478 -56.76931 4294967295
125.27804 76.241989 -57.688969 4294967295
125.2793 75.772629 -57.844444 4294967295
125.29057 71.553955 -59.240841 4294967295
125.29351 72.021721 -59.120628 4294967295
125.29378 72.958214 -58.833424 4294967295
125.2961 74.363556 -58.418247 4294967295
125.29716 72.489487 -59.006229 4294967295
125.30062 75.300583 -58.165955 4294967295
125.30811 70.616226 -59.675163 4294967295
125.32599 76.704094 -57.94128 4294967295
125.3488 74.825111 -58.709949 4294967295
125.34932 73.419601 -59.148506 4294967295
125.35147 81.867493 -56.555683 4294967295
125.36467 80.924591 -56.955837 4294967295
125.36631 78.575218 -57.695404 4294967295
125.38699 80.450607 -57.286182 4294967295
125.39352 81.389465 -57.049999 4294967295
125.39468 78.101219 -58.075687 4294967295
125.43324 79.972725 -57.815033 4294967295
125.43476 79.502869 -57.972813 4294967295
125.48507 62.678341 -59.714233 4294967295
125.5349 65.010101 -59.403282 4294967295
125.54195 66.411522 -59.026981 4294967295
125.56128 64.541306 -59.766727 4294967295
125.60156 65.472565 -59.811089 4294967295
125.60223 68.744659 -58.802071 4294967295
125.60468 64.071747 -60.271126 4294967295
125.60574 67.341331 -59.266224 4294967295
125.68734 65.933296 -60.377426 4294967295
125.69124 75.293442 -57.507553 4294967295
125.69932 69.20311 -59.462692 4294967295
125.70156 69.670593 -59.336288 4294967295
125.7112 66.865341 -60.285686 4294967295
125.71718 72.477333 -58.595104 4294967295
125.73516 76.694893 -57.436188 4294967295
125.7444 71.069633 -59.256683 4294967295
125.74757 78.57132 -56.957012 4294967295
125.75082 74.347336 -58.293598 4294967295
125.75296 70.133049 -59.617821 4294967295
125.75316 71.536652 -59.184341 4294967295
125.75414 68.263062 -60.207413 4294967295
125.75625 72.940941 -58.774483 4294967295
125.77182 76.220184 -57.886528 4294967295
125.77472 79.036652 -57.037243 4294967295
125.79842 73.404015 -58.979538 4294967295
125.80236 73.871925 -58.867069 4294967295
125.80498 81.852089 -56.414471 4294967295
125.80666 79.501106 -57.157227 4294967295
125.82268 77.150887 -58.018394 4294967295
125.82815 80.907288 -56.898983 4294967295
125.83425 78.087669 -57.823654 4294967295
125.87189 77.612427 -58.282234 4294967295
125.89124 80.426056 -57.569901 4294967295
125.96592 63.593651 -59.520691 4294967295
125.99409 63.125256 -59.900154 4294967295
126.02777 62.656876 -60.325195 4294967295
126.05379 66.390366 -59.379639 4294967295
126.06268 68.25975 -58.871841 4294967295
126.08649 65.453636 -59.942356 4294967295
126.09603 64.052635 -60.457188 4294967295
126.11801 65.91832 -60.059189 4294967295
126.12749 72.466354 -58.100815 4294967295
126.13414 68.72081 -59.321239 4294967295
126.14236 71.996094 -58.370468 4294967295
126.14268 71.059464 -58.664619 4294967295
126.15656 70.589836 -58.925785 4294967295
126.15903 73.399719 -58.07222 4294967295
126.16553 66.848663 -60.164032 4294967295
126.17541 67.314957 -60.100891 4294967295
126.17813 72.928703 -58.377144 4294967295
126.18027 73.865715 -58.103371 4294967295
126.20823 69.648819 -59.647148 4294967295
126.21004 75.268303 -57.914078 4294967295
126.2148 74.798706 -58.099621 4294967295
126.22351 76.673798 -57.588676 4294967295
126.23183 70.114037 -59.698174 4294967295
126.24109 76.201958 -57.881233 4294967295
126.25223 77.608124 -57.536201 4294967295
126.25977 74.323853 -58.620407 4294967295
126.27565 79.952736 -57.001137 4294967295
126.28132 71.511856 -59.673943 4294967295
126.30107 81.358437 -56.774754 4294967295
126.32535 78.535255 -57.854347 4294967295
126.345 79.001457 -57.872414 4294967295
126.39041 80.872124 -57.667122 4294967295
126.477 64.507233 -59.578381 4294967295
126.49164 67.310005 -58.825497 4294967295
126.5002 62.639015 -60.354553 4294967295
126.52104 66.372665 -59.362778 4294967295
126.52299 64.971153 -59.816429 4294967295
126.53513 69.645233 -58.458511 4294967295
126.54919 67.772636 -59.160015 4294967295
126.55874 63.102314 -60.697197 4294967295
126.56007 70.110741 -58.520935 4294967295
126.57001 68.238358 -59.187901 4294967295
126.59427 68.703728 -59.244621 4294967295
126.60267 63.566177 -60.918037 4294967295
126.62834 66.831314 -60.112659 4294967295
126.63329 73.849716 -57.963314 4294967295
126.63824 71.03849 -58.881886 4294967295
126.65074 71.505196 -58.840317 4294967295
126.6801 74.781075 -58.062225 4294967295
126.68977 72.437012 -58.87426 4294967295
126.69427 76.186119 -57.741646 4294967295
126.70048 80.882568 -56.327507 4294967295
126.70309 79.941704 -56.642864 4294967295
126.70924 71.966515 -59.183205 4294967295
126.71756 73.370201 -58.814392 4294967295
126.7313 77.118973 -57.758633 4294967295
126.73559 78.057091 -57.501572 4294967295
126.73819 76.648712 -57.962738 4294967295
126.75974 74.301552 -58.87476 4294967295
126.76117 80.401512 -56.982719 4294967295
126.7614 79.461708 -57.277966 4294967295
126.7635 77.583244 -57.881653 4294967295
126.77591 75.705215 -58.571159 4294967295
126.78259 81.337799 -56.868801 4294967295
126.78618 78.518326 -57.778641 4294967295
126.81209 81.802483 -56.96928 4294967295
126.95119 63.088814 -60.058964 4294967295
126.98481 63.553516 -60.194241 4294967295
126.99151 67.28952 -59.080246 4294967295
126.99538 66.354424 -59.405434 4294967295
127.02163 62.618626 -60.794456 4294967295
127.02557 66.81929 -59.511986 4294967295
127.02787 64.484169 -60.26236 4294967295
127.06313 70.089211 -58.801605 4294967295
127.07306 68.217331 -59.470657 4294967295
127.0799 64.947372 -60.551811 4294967295
127.08459 69.15139 -59.274433 4294967295
127.09756 65.412804 -60.553642 4294967295
127.10373 65.879097 -60.459099 4294967295
127.11173 77.114471 -57.007427 4294967295
127.13206 76.641884 -57.32523 4294967295
127.13271 71.48568 -58.945374 4294967295
127.15079 73.356667 -58.510372 4294967295
127.15254 75.700386 -57.791145 4294967295
127.16652 81.335213 -56.143257 4294967295
127.17279 74.290939 -58.401535 4294967295
127.17913 70.544701 -59.627647 4294967295
127.18561 73.820663 -58.655827 4294967295
127.202 72.413681 -59.233368 4294967295
127.20786 78.977516 -57.226837 4294967295
127.21374 78.037376 -57.570328 4294967295
127.21795 72.879852 -59.220524 4294967295
127.24334 78.501999 -57.67202 4294967295
127.25385 79.909142 -57.319077 4294967295
127.2614 80.847603 -57.088303 4294967295
127.26465 79.437546 -57.557011 4294967295
127.27557 80.375122 -57.354595 4294967295
127.33581 81.773834 -57.419579 4294967295
127.4138 64.004913 -59.712574 4294967295
127.43492 66.806305 -59.009438 4294967295
127.46423 63.535183 -60.282883 4294967295
127.4706 62.601982 -60.629425 4294967295
127.49435 70.075195 -58.48024 4294967295
127.49873 64.933014 -60.132706 4294967295
127.50468 65.399437 -60.035984 4294967295
127.51149 66.332901 -59.799744 4294967295
127.5126 64.465385 -60.395737 4294967295
127.51324 69.605255 -58.786179 4294967295
127.51598 70.541 -58.51516 4294967295
127.52071 65.865173 -60.023987 4294967295
127.53622 69.135139 -59.126423 4294967295
127.5363 71.475166 -58.391891 4294967295
127.55695 74.284264 -57.682327 4294967295
127.57726 68.19619 -59.765331 4294967295
127.59824 75.216507 -57.735313 4294967295
127.59874 78.032722 -56.854603 4294967295
127.60174 70.999619 -59.089584 4294967295
127.60625 79.911285 -56.327213 4294967295
127.61457 73.339233 -58.461967 4294967295
127.61941 74.744614 -58.061001 4294967295
127.62755 68.658806 -60.041336 4294967295
127.62833 76.619568 -57.546597 4294967295
127.62943 71.932487 -59.028503 4294967295
127.63035 77.088585 -57.416168 4294967295
127.63169 75.680748 -57.86974 4294967295
127.64342 79.434769 -56.788551 4294967295
127.65152 72.397964 -59.067295 4294967295
127.65155 73.802933 -58.626091 4294967295
127.65446 72.865807 -58.944996 4294967295
127.66647 77.552307 -57.573143 4294967295
127.66683 76.144615 -58.018471 4294967295
127.67461 80.839424 -56.608444 4294967295
127.7297 80.359459 -57.220806 4294967295
127.74085 78.948463 -57.757645 4294967295
127.74598 78.47818 -57.948311 4294967295
127.78233 81.289696 -57.369537 4294967295
127.81807 63.524185 -59.314259 4294967295
127.84123 62.58939 -59.803612 4294967295
127.86232 65.856911 -58.950863 4294967295
127.92874 64.9179 -59.805199 4294967295
127.9454 64.449974 -60.092854 4294967295
127.9515 63.982922 -60.29129 4294967295
127.97456 71.460678 -58.127831 4294967295
127.98106 67.716759 -59.362782 4294967295
127.99101 66.781342 -59.741333 4294967295
128.00262 68.182266 -59.397202 4294967295
128.00464 66.313171 -60.00341 4294967295
128.00894 69.116829 -59.15575 4294967295
128.01318 74.267883 -57.567459 4294967295
128.03497 70.517586 -58.932961 4294967295
128.05797 69.579575 -59.422073 4294967295
128.06407 70.046631 -59.326065 4294967295
128.0717 73.322662 -58.357437 4294967295
128.07512 78.013306 -56.907459 4294967295
128.09138 76.602272 -57.488934 4294967295
128.09715 71.914574 -59.015282 4294967295
128.11749 70.976349 -59.482082 4294967295
128.11835 74.722313 -58.308353 4294967295
128.12302 75.19043 -58.199986 4294967295
128.13466 79.882584 -56.818626 4294967295
128.1472 73.781273 -58.84753 4294967295
128.14932 81.290306 -56.498135 4294967295
128.17056 75.652405 -58.454063 4294967295
128.18182 77.526703 -57.957817 4294967295
128.19957 81.751114 -56.775246 4294967295
128.20439 78.931084 -57.704723 4294967295
128.20752 80.809456 -57.138893 4294967295
128.21016 79.399651 -57.605576 4294967295
128.2836 63.039818 -59.431358 4294967295
128.34648 64.43663 -59.519985 4294967295
128.35474 63.502518 -59.885113 4294967295
128.38181 62.568008 -60.409035 4294967295
128.39067 65.834641 -59.450413 4294967295
128.40082 65.366837 -59.684013 4294967295
128.40259 69.106316 -58.516045 4294967295
128.405 64.89962 -59.867176 4294967295
128.40813 63.96595 -60.188782 4294967295
128.40903 68.637833 -58.718605 4294967295
128.42918 70.507713 -58.297127 4294967295
128.43484 70.975319 -58.197002 4294967295
128.44922 71.442009 -58.170578 4294967295
128.45071 66.764229 -59.662926 4294967295
128.45088 73.785027 -57.443489 4294967295
128.45145 68.166199 -59.225555 4294967295
128.46669 67.23011 -59.650208 4294967295
128.50362 66.292961 -60.258137 4294967295
128.50592 72.372009 -58.354599 4294967295
128.51431 76.121735 -57.239372 4294967295
128.51457 77.060555 -56.944572 4294967295
128.51921 69.562386 -59.355522 4294967295
128.53625 70.02829 -59.352013 4294967295
128.55182 75.177994 -57.854214 4294967295
128.55644 74.239693 -58.190121 4294967295
128.55769 75.646141 -57.755783 4294967295
128.56401 80.811707 -56.175072 4294967295
128.56784 77.991219 -57.099621 4294967295
128.57083 72.832314 -58.756699 4294967295
128.58875 80.33699 -56.533886 4294967295
128.59691 81.27597 -56.30563 4294967295
128.62611 76.574036 -58.039333 4294967295
128.62901 77.511925 -57.767071 4294967295
128.62958 78.920212 -57.326443 4294967295
128.63998 79.388107 -57.266312 4294967295
128.64595 79.856834 -57.168247 4294967295
128.7254 81.721985 -57.248394 4294967295
128.76811 63.488056 -59.414288 4294967295
128.828 63.017967 -60.070374 4294967295
128.84811 62.550461 -60.388966 4294967295
128.85225 63.949745 -59.979824 4294967295
128.85333 65.817299 -59.396362 4294967295
128.85698 64.416168 -59.871937 4294967295
128.85809 65.349876 -59.584995 4294967295
128.87476 66.282814 -59.429817 4294967295
128.91435 68.148849 -59.172707 4294967295
128.93262 71.890656 -58.13974 4294967295
128.93878 64.877396 -60.417831 4294967295
128.9575 67.21035 -59.835835 4294967295
128.96252 76.106651 -57.054657 4294967295
128.96704 69.078918 -59.323532 4294967295
128.9769 74.228157 -57.77256 4294967295
128.98392 68.609779 -59.615196 4294967295
128.98529 66.74099 -60.220001 4294967295
128.99057 72.352028 -58.483673 4294967295
129.01215 70.477287 -59.261475 4294967295
129.01434 71.412834 -58.983009 4294967295
129.03476 80.793098 -56.178577 4294967295
129.0358 77.03418 -57.380531 4294967295
129.03632 70.942413 -59.318455 4294967295
129.04088 77.972328 -57.125713 4294967295
129.05096 79.849831 -56.615234 4294967295
129.05437 79.37928 -56.793316 4294967295
129.05672 78.439331 -57.111656 4294967295
129.06358 78.907867 -57.020981 4294967295
129.06445 73.279366 -58.814762 4294967295
129.07059 73.746933 -58.718262 4294967295
129.08109 77.496376 -57.61705 4294967295
129.09486 75.149246 -58.478607 4294967295
129.17111 81.708031 -57.042225 4294967295
129.22572 63.471001 -59.317192 4294967295
129.23622 65.338623 -58.811531 4294967295
129.25706 63.935974 -59.43528 4294967295
129.28354 62.534527 -60.106426 4294967295
129.29324 64.86747 -59.44595 4294967295
129.29579 65.801483 -59.170151 4294967295
129.30782 66.735146 -58.974854 4294967295
129.3266 62.998627 -60.324291 4294967295
129.35385 69.069115 -58.62244 4294967295
129.3631 69.536072 -58.552254 4294967295
129.36572 71.876892 -57.82922 4294967295
129.36617 68.132523 -59.025291 4294967295
129.37076 73.282326 -57.424316 4294967295
129.38043 64.394852 -60.336788 4294967295
129.40735 67.661346 -59.525146 4294967295
129.42813 70.465065 -58.808792 4294967295
129.43198 66.258011 -60.181259 4294967295
129.43462 72.337013 -58.267727 4294967295
129.43867 67.191422 -59.940857 4294967295
129.43997 77.026131 -56.819866 4294967295
129.44331 71.399422 -58.640041 4294967295
129.44962 79.844009 -56.004227 4294967295
129.45036 77.963821 -56.609417 4294967295
129.45831 74.208336 -57.872887 4294967295
129.46851 68.59034 -59.748711 4294967295
129.47217 78.899895 -56.496552 4294967295
129.47244 77.490562 -56.947655 4294967295
129.49548 72.797783 -58.637859 4294967295
129.49799 75.140488 -57.913021 4294967295
129.5193 76.075325 -57.79628 4294967295
129.51979 79.361618 -56.753811 4294967295
129.54594 81.237274 -56.378609 4294967295
129.57507 80.291664 -56.927067 4294967295
129.6926 63.920315 -59.149658 4294967295
129.69952 62.986237 -59.507191 4294967295
129.7122 63.452255 -59.466339 4294967295
129.72595 65.319336 -58.986965 4294967295
129.73227 64.851746 -59.190166 4294967295
129.74449 64.383949 -59.443794 4294967295
129.7661 62.51614 -60.224689 4294967295
129.77783 65.782677 -59.280853 4294967295
129.79926 70.457764 -57.969555 4294967295
129.80589 67.182251 -59.072823 4294967295
129.8222 71.391869 -57.866634 4294967295
129.82936 71.859489 -57.77813 4294967295
129.83546 69.985718 -58.428936 4294967295
129.83698 74.202553 -57.094234 4294967295
129.84052 70.921432 -58.172886 4294967295
129.84607 66.711601 -59.565533 4294967295
129.85857 75.137878 -56.979305 4294967295
129.86368 66.243111 -59.865238 4294967295
129.87059 69.514145 -58.878967 4294967295
129.89085 69.044403 -59.201714 4294967295
129.89412 73.257179 -57.883259 4294967295
129.91 67.640434 -59.813599 4294967295
129.91016 79.827255 -55.920448 4294967295
129.91866 72.317078 -58.392822 4294967295
129.92445 68.106346 -59.787781 4294967295
129.9355 73.720375 -58.087917 4294967295
129.94553 79.350868 -56.374119 4294967295
129.95107 74.655708 -57.921707 4294967295
129.96341 78.877846 -56.6777 4294967295
129.96967 77.937347 -57.031471 4294967295
129.97049 76.528969 -57.488533 4294967295
129.99142 77.46431 -57.368023 4294967295
129.99942 75.586479 -58.036285 4294967295
130.00427 76.054718 -57.92802 4294967295
130.00502 80.750542 -56.433781 4294967295
130.03671 78.395775 -57.456295 4294967295
83.190552 82.500496 -62.045341 4294967295
83.204773 96.619743 -58.782578 4294967295
83.211563 100.87023 -57.816216 4294967295
83.21711 94.729599 -59.309521 4294967295
83.229431 101.33868 -57.818153 4294967295
83.234108 98.974228 -58.409302 4294967295
83.236732 83.901955 -62.005165 4294967295
83.246429 100.38891 -58.15139 4294967295
83.24646 82.961578 -62.290123 4294967295
83.251411 96.137405 -59.192581 4294967295
83.253227 82.022064 -62.556129 4294967295
83.264221 90.950035 -60.505585 4294967295
83.274216 92.832039 -60.122032 4294967295
83.27787 92.360191 -60.257202 4294967295
83.278671 91.418083 -60.486038 4294967295
83.282349 97.54628 -59.054039 4294967295
83.296837 98.487144 -58.922371 4294967295
83.29921 84.831261 -62.180313 4294967295
83.328049 83.418541 -62.698566 4294967295
83.331085 91.878624 -60.708729 4294967295
83.331779 95.176529 -59.930027 4294967295
83.332359 97.062965 -59.485645 4294967295
83.333664 87.644272 -61.730621 4294967295
83.337486 98.005608 -59.294357 4294967295
83.348541 88.111702 -61.713856 4294967295
83.349113 89.522232 -61.382553 4294967295
83.354378 84.35305 -62.643425 4294967295
83.355026 99.417778 -59.070122 4294967295
83.36792 95.640129 -60.04892 4294967295
83.377655 85.288139 -62.568844 4294967295
83.389984 93.279411 -60.749298 4294967295
83.393898 89.984184 -61.556599 4294967295
83.396652 88.573143 -61.909149 4294967295
83.402977 93.747696 -60.720341 4294967295
83.415985 86.220818 -62.590214 4294967295
83.419418 86.689827 -62.500542 4294967295
83.422958 94.214539 -60.736153 4294967295
83.426506 90.448341 -61.652924 4294967295
83.672424 97.546036 -58.521168 4294967295
83.674232 99.907936 -57.970306 4294967295
83.686852 87.176071 -61.081619 4294967295
83.688232 95.182549 -59.184273 4294967295
83.695908 82.476982 -62.257942 4294967295
83.69928 89.525986 -60.601131 4294967295
83.701584 101.31958 -57.807983 4294967295
83.715088 82.004944 -62.492218 4294967295
83.724487 90.462646 -60.538254 4294967295
83.730217 92.34523 -60.126442 4294967295
83.734848 86.227745 -61.612347 4294967295
83.735336 100.83839 -58.13689 4294967295
83.735397 98.003716 -58.812187 4294967295
83.74276 97.057899 -59.084114 4294967295
83.746056 96.585228 -59.217606 4294967295
83.747253 83.877342 -62.25071 4294967295
83.757385 82.937111 -62.53894 4294967295
83.761482 87.633232 -61.446877 4294967295
83.763062 96.109634 -59.438843 4294967295
83.770416 95.63633 -59.598289 4294967295
83.77594 100.35577 -58.509735 4294967295
83.777161 84.811607 -62.218258 4294967295
83.79287 93.74585 -60.191036 4294967295
83.796234 89.978409 -61.109291 4294967295
83.802444 91.859825 -60.700859 4294967295
83.803734 90.918106 -60.933197 4294967295
83.815437 88.563911 -61.568069 4294967295
83.821678 91.385277 -60.935978 4294967295
83.82592 98.926781 -59.167419 4294967295
83.830109 93.267006 -60.541553 4294967295
83.838387 98.45179 -59.359692 4294967295
83.841087 88.089218 -61.843994 4294967295
83.87085 92.78772 -60.914398 4294967295
83.877686 85.264832 -62.748867 4294967295
83.903328 86.668983 -62.577492 4294967295
84.149887 86.218582 -61.246017 4294967295
84.153282 92.336174 -59.807365 4294967295
84.158264 89.50959 -60.513844 4294967295
84.160789 83.867752 -61.876568 4294967295
84.162201 90.45034 -60.314323 4294967295
84.165131 87.156219 -61.119286 4294967295
84.167183 82.458488 -62.253647 4294967295
84.169861 101.30144 -57.773071 4294967295
84.171196 99.410271 -58.232941 4294967295
84.175217 86.684357 -61.296112 4294967295
84.17569 97.047745 -58.82547 4294967295
84.181351 97.518562 -58.749187 4294967295
84.209023 92.796074 -60.05265 4294967295
84.218719 95.622536 -59.439732 4294967295
84.219025 87.616989 -61.352497 4294967295
84.219032 93.736473 -59.891876 4294967295
84.233727 100.34016 -58.409191 4294967295
84.236374 93.26162 -60.115662 4294967295
84.239677 91.847824 -60.474152 4294967295
84.242279 84.324501 -62.286495 4294967295
84.247208 88.552345 -61.308693 4294967295
84.250404 97.974693 -59.080055 4294967295
84.250519 95.144005 -59.756454 4294967295
84.251823 100.80828 -58.412697 4294967295
84.256256 85.730965 -62.039791 4294967295
84.272697 85.258629 -62.257298 4294967295
84.272972 98.441483 -59.112411 4294967295
84.274353 88.077293 -61.595009 4294967295
84.282043 96.551842 -59.62117 4294967295
84.283852 91.368286 -60.869949 4294967295
84.304771 90.89357 -61.11655 4294967295
84.307472 94.660324 -60.234581 4294967295
84.312393 94.188049 -60.378704 4294967295
84.321022 84.781364 -62.678925 4294967295
84.333359 89.94725 -61.524406 4294967295
84.591125 99.403755 -57.887829 4294967295
84.620575 83.850998 -61.797779 4294967295
84.620667 86.200058 -61.23613 4294967295
84.625854 87.60968 -60.931942 4294967295
84.639763 99.864624 -58.088093 4294967295
84.658646 93.25296 -59.790916 4294967295
84.673615 100.80163 -58.080025 4294967295
84.677826 88.541023 -61.040962 4294967295
84.678528 90.422989 -60.595066 4294967295
84.688858 90.891739 -60.548843 4294967295
84.689636 97.019188 -59.08744 4294967295
84.692345 91.361862 -60.458553 4294967295
84.692749 83.370407 -62.373577 4294967295
84.694283 96.074455 -59.343224 4294967295
84.694687 86.657478 -61.599365 4294967295
84.697296 84.778023 -62.065781 4294967295
84.69809 89.948631 -60.833469 4294967295
84.703705 82.430336 -62.668472 4294967295
84.708466 101.26563 -58.191441 4294967295
84.720978 92.297958 -60.417404 4294967295
84.722488 95.596542 -59.637634 4294967295
84.725594 93.710258 -60.108879 4294967295
84.735916 98.42453 -59.046658 4294967295
84.745621 94.177269 -60.125053 4294967295
84.750504 97.949081 -59.253555 4294967295
84.767174 89.465225 -61.390194 4294967295
84.768028 88.99482 -61.508255 4294967295
84.769058 85.705429 -62.302025 4294967295
84.769165 91.817436 -60.840012 4294967295
84.769363 98.88871 -59.149147 4294967295
84.776924 94.641853 -60.213665 4294967295
84.786911 84.294304 -62.753723 4294967295
84.795639 85.231575 -62.585087 4294967295
85.070213 87.125473 -60.864223 4294967295
85.074547 97.020035 -58.518047 4294967295
85.085495 90.887512 -60.059429 4294967295
85.087044 89.474785 -60.408291 4294967295
85.097458 100.79452 -57.759022 4294967295
85.102226 90.413391 -60.28022 4294967295
85.103668 100.32021 -57.912575 4294967295
85.107925 101.26476 -57.71328 4294967295
85.112823 92.295242 -59.896603 4294967295
85.124695 91.350777 -60.199226 4294967295
85.125671 97.952599 -58.621521 4294967295
85.138687 82.886421 -62.319565 4294967295
85.144463 88.052879 -61.117012 4294967295
85.153404 95.586578 -59.366684 4294967295
85.155624 82.41468 -62.541199 4294967295
85.173943 87.577461 -61.419777 4294967295
85.175797 91.811546 -60.415798 4294967295
85.181709 83.818436 -62.371361 4294967295
85.190369 84.755913 -62.201881 4294967295
85.192558 84.286102 -62.328632 4294967295
85.194214 88.514137 -61.32478 4294967295
85.196045 86.633682 -61.787712 4294967295
85.196777 85.694038 -62.017788 4294967295
85.201065 98.407059 -58.995033 4294967295
85.215637 86.160561 -62.026611 4294967295
85.216675 89.920937 -61.131042 4294967295
85.233688 99.815826 -58.865879 4294967295
85.234062 94.154785 -60.226551 4294967295
85.234337 95.097313 -60.00214 4294967295
85.235497 94.625725 -60.12273 4294967295
85.255074 83.337875 -62.956242 4294967295
85.524429 90.404121 -59.954483 4294967295
85.555298 91.340065 -59.927452 4294967295
85.568703 93.222145 -59.560719 4294967295
85.592621 86.627846 -61.300514 4294967295
85.598953 93.68718 -59.643059 4294967295
85.599174 101.24081 -57.827473 4294967295
85.605789 95.571907 -59.233467 4294967295
85.608757 90.858643 -60.386322 4294967295
85.611778 82.398399 -62.440712 4294967295
85.621414 100.28984 -58.198917 4294967295
85.621704 99.344757 -58.428162 4294967295
85.628342 87.09169 -61.418106 4294967295
85.634918 85.211227 -61.912689 4294967295
85.635414 94.622253 -59.652126 4294967295
85.636467 97.924484 -58.864555 4294967295
85.637207 98.396454 -58.755795 4294967295
85.644661 94.148857 -59.825348 4294967295
85.650589 85.678307 -61.90086 4294967295
85.656494 97.447792 -59.107689 4294967295
85.660347 92.261009 -60.380062 4294967295
85.661903 84.267822 -62.312759 4294967295
85.670227 89.90554 -61.01009 4294967295
85.671684 96.028938 -59.546501 4294967295
85.675476 87.553429 -61.609577 4294967295
85.680275 84.734299 -62.318562 4294967295
85.682564 89.432816 -61.203003 4294967295
85.684021 92.727142 -60.419903 4294967295
85.713921 83.321205 -62.874363 4294967295
85.723038 96.489014 -59.765381 4294967295
85.739853 88.48188 -61.799374 4294967295
85.749054 86.131393 -62.423851 4294967295
85.997215 86.620682 -60.862904 4294967295
86.016899 84.267738 -61.557068 4294967295
86.019875 95.093903 -58.965256 4294967295
86.021461 101.23427 -57.494614 4294967295
86.024345 97.452866 -58.425144 4294967295
86.029022 87.555603 -60.84214 4294967295
86.038048 101.70303 -57.48822 4294967295
86.049156 96.502991 -58.813873 4294967295
86.050797 89.904045 -60.415871 4294967295
86.053696 94.143318 -59.412056 4294967295
86.060669 82.383209 -62.293144 4294967295
86.06694 100.74999 -57.903996 4294967295
86.082695 96.967316 -58.917706 4294967295
86.091064 93.192703 -59.881805 4294967295
86.095871 99.797592 -58.319893 4294967295
86.101768 100.26866 -58.244202 4294967295
86.101997 83.31543 -62.334316 4294967295
86.114807 88.951012 -61.057541 4294967295
86.121262 88.479538 -61.212791 4294967295
86.126915 85.658821 -61.929409 4294967295
86.128433 94.598701 -59.783188 4294967295
86.128571 89.418816 -61.033272 4294967295
86.128883 90.830338 -60.694889 4294967295
86.13266 93.655197 -60.03791 4294967295
86.133278 92.241859 -60.382828 4294967295
86.145622 95.53788 -59.667305 4294967295
86.154449 84.71521 -62.334206 4294967295
86.157135 82.837845 -62.804188 4294967295
86.162506 85.183357 -62.273125 4294967295
86.163734 87.061821 -61.828018 4294967295
86.165771 99.308212 -58.887672 4294967295
86.171326 92.705009 -60.515877 4294967295
86.171379 98.834702 -59.037857 4294967295
86.178398 91.29126 -60.902309 4294967295
86.181061 86.119362 -62.166771 4294967295
86.193665 97.885437 -59.410294 4294967295
86.198112 87.995522 -61.824043 4294967295
86.438858 101.70214 -57.014076 4294967295
86.471657 86.131393 -60.990524 4294967295
86.477898 88.952354 -60.348724 4294967295
86.47805 88.011276 -60.577271 4294967295
86.48175 95.077148 -58.892624 4294967295
86.487129 101.21678 -57.442795 4294967295
86.497787 92.244804 -59.680988 4294967295
86.512466 89.887154 -60.345718 4294967295
86.512825 94.598671 -59.208824 4294967295
86.514534 89.416115 -60.472965 4294967295
86.529984 97.426025 -58.635845 4294967295
86.537857 98.368584 -58.45874 4294967295
86.543015 92.706718 -59.861004 4294967295
86.545303 96.950432 -58.849655 4294967295
86.557327 96.475769 -59.041985 4294967295
86.56678 85.645447 -61.721687 4294967295
86.582535 87.522331 -61.369522 4294967295
86.583786 82.356949 -62.62656 4294967295
86.587654 91.284752 -60.492798 4294967295
86.589325 87.051132 -61.527321 4294967295
86.593018 99.299942 -58.58939 4294967295
86.593178 94.109894 -59.845325 4294967295
86.594246 95.995659 -59.396214 4294967295
86.595428 85.171028 -62.021225 4294967295
86.597237 86.579857 -61.692238 4294967295
86.600502 90.340889 -60.803913 4294967295
86.601479 90.811317 -60.696465 4294967295
86.607872 99.768677 -58.571884 4294967295
86.608139 93.164322 -60.170452 4294967295
86.609924 98.823608 -58.813583 4294967295
86.61747 95.518867 -59.661343 4294967295
86.621193 83.289482 -62.642387 4294967295
86.63002 82.819038 -62.813099 4294967295
86.642776 83.75528 -62.668961 4294967295
86.652466 100.23003 -58.748039 4294967295
86.919861 101.20766 -57.175949 4294967295
86.95018 87.051819 -60.803772 4294967295
86.954857 92.700203 -59.464703 4294967295
86.958641 86.58017 -60.972797 4294967295
86.959442 91.756821 -59.72308 4294967295
86.964775 88.460243 -60.556751 4294967295
86.969284 96.47039 -58.644081 4294967295
86.972374 85.637817 -61.290092 4294967295
86.978035 95.524597 -58.929867 4294967295
86.980301 97.412033 -58.487007 4294967295
86.989433 92.22187 -59.804344 4294967295
86.998589 101.66059 -57.575363 4294967295
87.006203 85.162384 -61.62418 4294967295
87.018593 91.273972 -60.222702 4294967295
87.020561 94.100464 -59.550209 4294967295
87.021431 87.979584 -61.039711 4294967295
87.024643 90.801964 -60.37627 4294967295
87.028679 94.570168 -59.48888 4294967295
87.03241 99.288757 -58.369072 4294967295
87.033569 99.760925 -58.262104 4294967295
87.04052 86.096153 -61.619724 4294967295
87.044167 97.869194 -58.789227 4294967295
87.047913 100.22988 -58.241222 4294967295
87.052811 93.622253 -59.874748 4294967295
87.053322 89.384674 -60.905338 4294967295
87.056465 89.854523 -60.811775 4294967295
87.062279 87.502121 -61.419674 4294967295
87.077774 95.030907 -59.694748 4294967295
87.083733 84.210724 -62.356342 4294967295
87.104721 82.799942 -62.834099 4294967295
87.130394 96.90535 -59.580551 4294967295
87.139305 98.318703 -59.295624 4294967295
87.38517 82.340988 -61.70269 4294967295
87.394844 83.278473 -61.53764 4294967295
87.40284 101.18578 -57.2369 4294967295
87.408707 98.347885 -57.964714 4294967295
87.41993 99.290253 -57.808483 4294967295
87.439857 97.868126 -58.283356 4294967295
87.440239 87.500076 -60.805847 4294967295
87.441559 89.381607 -60.357059 4294967295
87.442451 85.619392 -61.277344 4294967295
87.443863 100.22971 -57.735329 4294967295
87.445076 100.70218 -57.628357 4294967295
87.450394 86.557983 -61.1007 4294967295
87.473633 86.084007 -61.366577 4294967295
87.483139 93.140808 -59.713039 4294967295
87.488106 84.672371 -61.803539 4294967295
87.521896 93.603889 -59.851784 4294967295
87.525482 92.660843 -60.104252 4294967295
87.527641 88.894997 -61.033596 4294967295
87.532005 97.374382 -59.000942 4294967295
87.535828 90.775352 -60.629601 4294967295
87.539513 91.245316 -60.53928 4294967295
87.539558 87.012405 -61.568474 4294967295
87.5513 90.301735 -60.845123 4294967295
87.55574 91.712814 -60.53096 4294967295
87.5569 94.538925 -59.851555 4294967295
87.566208 96.894592 -59.339264 4294967295
87.566925 101.6167 -58.196228 4294967295
87.592323 94.060013 -60.197605 4294967295
87.598938 85.123672 -62.412582 4294967295
87.84539 82.324142 -61.626804 4294967295
87.861366 83.260666 -61.502438 4294967295
87.867416 84.198997 -61.313114 4294967295
87.868683 96.914696 -58.222523 4294967295
87.873444 86.077583 -60.894493 4294967295
87.884933 93.136597 -59.248981 4294967295
87.888847 95.022163 -58.814899 4294967295
87.889816 92.19294 -59.510635 4294967295
87.890289 83.7257 -61.577187 4294967295
87.893982 91.720909 -59.652748 4294967295
87.909874 94.074257 -59.182575 4294967295
87.913353 90.775032 -60.009197 4294967295
87.91391 87.951263 -60.700951 4294967295
87.916779 90.303528 -60.146362 4294967295
87.917305 85.130341 -61.410446 4294967295
87.931862 99.733971 -57.946281 4294967295
87.933083 98.316307 -58.299694 4294967295
87.934204 97.843788 -58.422134 4294967295
87.936935 94.539948 -59.245003 4294967295
87.939445 87.47641 -60.982655 4294967295
87.947784 86.534798 -61.266411 4294967295
87.954987 85.593826 -61.542557 4294967295
87.955475 89.354813 -60.629112 4294967295
87.961464 82.775887 -62.271378 4294967295
87.964127 95.948898 -59.07851 4294967295
87.964134 93.591202 -59.653137 4294967295
87.972786 100.1964 -58.099632 4294967295
87.981689 96.416687 -59.078632 4294967295
87.988235 101.61056 -57.855499 4294967295
87.99337 100.66383 -58.119568 4294967295
87.999329 101.13496 -58.043495 4294967295
88.001106 86.995415 -61.50079 4294967295
88.002594 95.46859 -59.445587 4294967295
88.005463 84.646248 -62.10162 4294967295
88.007957 97.354378 -59.020931 4294967295
88.041649 88.39814 -61.422562 4294967295
88.049576 91.218765 -60.786713 4294967295
88.302162 100.21294 -57.153179 4294967295
88.304962 87.476662 -60.28339 4294967295
88.305313 85.125557 -60.860214 4294967295
88.32251 85.592682 -60.858166 4294967295
88.3228 97.372093 -57.981892 4294967295
88.329506 88.413208 -60.214573 4294967295
88.333008 89.353844 -60.007607 4294967295
88.350464 96.42128 -58.394501 4294967295
88.351166 98.782646 -57.822159 4294967295
88.356293 83.238449 -61.653564 4294967295
88.366058 92.644386 -59.418957 4294967295
88.371582 99.722855 -57.725437 4294967295
88.375336 93.113777 -59.364868 4294967295
88.391777 91.69677 -59.818169 4294967295
88.393959 94.05265 -59.256798 4294967295
88.407112 100.6594 -57.728233 4294967295
88.409378 89.809952 -60.393909 4294967295
88.42115 101.60148 -57.589615 4294967295
88.422142 82.758949 -62.199986 4294967295
88.422821 96.876625 -58.754967 4294967295
88.424362 83.697205 -61.985168 4294967295
88.425171 90.277534 -60.382683 4294967295
88.434586 86.983398 -61.248955 4294967295
88.438118 91.216492 -60.237667 4294967295
88.444016 101.12277 -57.855637 4294967295
88.444366 95.456284 -59.242447 4294967295
88.445251 99.232193 -58.325592 4294967295
88.461548 84.630104 -61.999664 4294967295
88.461777 87.918648 -61.197643 4294967295
88.467194 93.565582 -59.853203 4294967295
88.468277 94.979401 -59.514862 4294967295
88.473633 90.738693 -60.585918 4294967295
88.750534 101.61922 -56.639359 4294967295
88.753464 99.72612 -57.122253 4294967295
88.768288 82.290085 -61.490719 4294967295
88.777565 84.167053 -61.091499 4294967295
88.778206 86.046806 -60.635162 4294967295
88.785667 90.280411 -59.646778 4294967295
88.795677 97.352867 -57.97963 4294967295
88.825966 92.156685 -59.450565 4294967295
88.831688 98.76152 -57.869873 4294967295
88.836792 82.749062 -61.825962 4294967295
88.837814 87.917267 -60.566597 4294967295
88.848022 86.974937 -60.864132 4294967295
88.848961 91.209816 -59.83276 4294967295
88.850014 96.395935 -58.569176 4294967295
88.850639 89.326324 -60.305161 4294967295
88.853424 95.451363 -58.822891 4294967295
88.855186 91.679573 -59.758377 4294967295
88.860794 90.736534 -60.026096 4294967295
88.861755 89.794838 -60.263016 4294967295
88.862335 86.502335 -61.07341 4294967295
88.879303 85.559616 -61.415283 4294967295
88.879372 97.805351 -58.415825 4294967295
88.889397 88.378136 -60.790733 4294967295
88.906013 83.207664 -62.166027 4294967295
88.906769 95.911102 -59.058861 4294967295
88.907448 83.676743 -62.060493 4294967295
88.911926 98.269775 -58.51474 4294967295
88.921745 92.607994 -59.965977 4294967295
88.924179 88.841988 -60.904499 4294967295
88.928345 100.62779 -58.044395 4294967295
88.949875 93.073166 -60.0359 4294967295
88.953682 93.543472 -59.94558 4294967295
88.975121 101.08849 -58.237259 4294967295
88.987442 99.195831 -58.781509 4294967295
88.989044 94.478241 -59.947647 4294967295
89.233757 100.65093 -56.934715 4294967295
89.281685 99.693085 -57.484066 4294967295
89.285675 83.203392 -61.560604 4294967295
89.286263 86.96212 -60.641121 4294967295
89.287231 99.219032 -57.636829 4294967295
89.291733 85.081055 -61.13903 4294967295
89.292343 84.611168 -61.258453 4294967295
89.295311 87.430748 -60.585335 4294967295
89.313171 91.663483 -59.662724 4294967295
89.313629 92.605736 -59.434242 4294967295
89.314758 89.308952 -60.251434 4294967295
89.316338 85.546776 -61.185886 4294967295
89.319687 92.13327 -59.590019 4294967295
89.320908 88.366783 -60.523151 4294967295
89.323097 100.15548 -57.641914 4294967295
89.326035 93.545792 -59.284622 4294967295
89.32872 82.727333 -61.95961 4294967295
89.328949 97.319397 -58.376862 4294967295
89.329788 86.014374 -61.159199 4294967295
89.335266 90.246346 -60.155556 4294967295
89.335793 90.717033 -60.043362 4294967295
89.343552 95.428261 -58.937073 4294967295
89.353836 98.257912 -58.309368 4294967295
89.354309 89.77198 -60.396835 4294967295
89.374542 82.25119 -62.37674 4294967295
89.380966 94.005341 -59.531719 4294967295
89.38765 83.656723 -62.117466 4294967295
89.395523 93.059723 -59.85947 4294967295
89.398178 86.472397 -61.49482 4294967295
89.402618 94.943443 -59.443207 4294967295
89.403282 87.881386 -61.182171 4294967295
89.422997 91.170387 -60.503494 4294967295
89.439529 84.117714 -62.344143 4294967295
89.454338 96.818115 -59.321613 4294967295
89.460175 96.3451 -59.47607 4294967295
89.672478 101.58678 -56.470589 4294967295
89.703308 82.254181 -61.434341 4294967295
89.719963 86.950111 -60.387299 4294967295
89.732048 82.719231 -61.508614 4294967295
89.739288 99.677582 -57.379734 4294967295
89.746246 96.840996 -58.12402 4294967295
89.76091 100.61781 -57.290253 4294967295
89.766449 97.780754 -58.025356 4294967295
89.768349 93.061729 -59.20005 4294967295
89.771271 98.724426 -57.824646 4294967295
89.793945 92.585037 -59.48555 4294967295
89.79467 84.587448 -61.459976 4294967295
89.802483 85.05584 -61.395966 4294967295
89.815765 89.284546 -60.441788 4294967295
89.817596 87.87307 -60.80143 4294967295
89.8209 87.402283 -60.93911 4294967295
89.829895 99.182526 -58.096992 4294967295
89.830421 92.106308 -59.843155 4294967295
89.831398 84.111908 -61.81842 4294967295
89.849213 100.12272 -57.99229 4294967295
89.854195 93.986046 -59.536411 4294967295
89.854225 85.516823 -61.622417 4294967295
89.858482 91.629585 -60.144958 4294967295
89.859169 95.871056 -59.104919 4294967295
89.860153 88.335457 -60.967262 4294967295
89.864479 83.63723 -62.15271 4294967295
89.868561 88.804131 -60.907005 4294967295
89.871338 97.28373 -58.836945 4294967295
89.87323 86.453033 -61.516628 4294967295
89.873825 96.339424 -59.085846 4294967295
89.874458 83.166435 -62.334229 4294967295
89.89994 90.209267 -60.767166 4294967295
89.907852 95.38842 -59.543552 4294967295
89.91494 98.2173 -58.893471 4294967295
89.917404 94.443527 -59.839073 4294967295
90.168968 82.236504 -61.394073 4294967295
90.214371 98.239861 -57.741455 4294967295
90.21843 100.1295 -57.30162 4294967295
90.231613 89.747086 -59.952194 4294967295
90.233315 101.07153 -57.167084 4294967295
90.234589 93.043983 -59.157757 4294967295
90.236786 99.65213 -57.540386 4294967295
90.254074 92.097343 -59.519833 4294967295
90.257011 85.509796 -61.165844 4294967295
90.259399 96.812332 -58.390621 4294967295
90.260895 87.859467 -60.611256 4294967295
90.262199 86.918831 -60.852074 4294967295
90.262482 101.53698 -57.244263 4294967295
90.265884 84.568848 -61.456665 4294967295
90.268082 88.798897 -60.42659 4294967295
90.2714 97.281616 -58.353794 4294967295
90.277466 95.392441 -58.860184 4294967295
90.277992 93.506088 -59.32951 4294967295
90.282448 89.266663 -60.405712 4294967295
90.285828 91.619751 -59.846893 4294967295
90.295311 83.155746 -61.999428 4294967295
90.299751 91.146004 -60.055714 4294967295
90.310638 94.441826 -59.313454 4294967295
90.316757 98.687363 -58.305492 4294967295
90.323822 90.67041 -60.331688 4294967295
90.324692 93.967331 -59.523239 4294967295
90.327583 83.619919 -62.097382 4294967295
90.329712 88.317024 -60.951611 4294967295
90.332352 94.908493 -59.341358 4294967295
90.340477 86.435043 -61.48724 4294967295
90.341042 97.737144 -58.700066 4294967295
90.364265 85.022049 -61.992924 4294967295
90.366486 95.843903 -59.335213 4294967295
90.372383 96.314194 -59.257915 4294967295
90.613632 83.630898 -60.865623 4294967295
90.629562 96.817123 -57.706093 4294967295
90.643433 83.156502 -61.179893 4294967295
90.647446 93.037598 -58.759995 4294967295
90.675079 94.918343 -58.476902 4294967295
90.676643 99.168327 -57.434959 4294967295
90.678139 97.277985 -57.912876 4294967295
90.684425 91.615822 -59.356285 4294967295
90.686111 100.11148 -57.263947 4294967295
90.698814 88.317314 -60.268036 4294967295
90.699051 87.376511 -60.502464 4294967295
90.702332 99.634628 -57.489201 4294967295
90.705666 82.208054 -61.825836 4294967295
90.714073 85.963486 -60.951523 4294967295
90.723984 85.491882 -61.133781 4294967295
90.731697 89.252129 -60.253799 4294967295
90.735817 90.192642 -60.048115 4294967295
90.740295 84.080139 -61.591049 4294967295
90.741341 84.549515 -61.48175 4294967295
90.758423 92.071671 -59.732166 4294967295
90.763504 89.716568 -60.348858 4294967295
90.776161 96.31086 -58.79977 4294967295
90.779251 93.480774 -59.520931 4294967295
90.779755 98.198158 -58.356281 4294967295
90.783005 98.66964 -58.26099 4294967295
90.78627 86.890724 -61.198902 4294967295
90.801208 92.533783 -59.900429 4294967295
90.804642 85.008568 -61.786251 4294967295
90.807777 93.945877 -59.594139 4294967295
90.808929 91.119522 -60.301529 4294967295
90.810463 82.661156 -62.405846 4294967295
90.810486 94.416626 -59.495461 4294967295
90.81382 101.02436 -57.881519 4294967295
90.822113 90.646202 -60.50576 4294967295
90.840881 95.824257 -59.347763 4294967295
90.847092 100.54321 -58.220428 4294967295
91.104469 90.194115 -59.357224 4294967295
91.115768 96.794754 -57.793579 4294967295
91.120445 85.956085 -60.515182 4294967295
91.121284 93.961494 -58.533371 4294967295
91.126389 99.154755 -57.277969 4294967295
91.130325 91.602242 -59.178959 4294967295
91.132164 87.364738 -60.24305 4294967295
91.137146 83.134399 -61.326244 4294967295
91.14724 93.484215 -58.82375 4294967295
91.147354 93.012688 -58.941631 4294967295
91.150063 82.193596 -61.645363 4294967295
91.16053 85.009285 -61.015724 4294967295
91.172737 92.064682 -59.345043 4294967295
91.172768 97.253555 -58.057144 4294967295
91.175087 101.03384 -57.13401 4294967295
91.175598 89.709305 -59.948727 4294967295
91.179848 95.363762 -58.573135 4294967295
91.184456 98.667809 -57.783459 4294967295
91.19886 92.530434 -59.402431 4294967295
91.20401 86.411537 -60.955582 4294967295
91.208069 90.644447 -59.931576 4294967295
91.209961 83.592316 -61.694778 4294967295
91.215973 84.060799 -61.61832 4294967295
91.2202 85.468979 -61.296791 4294967295
91.221786 99.6036 -57.798325 4294967295
91.232475 96.295418 -58.69043 4294967295
91.233749 86.876266 -61.037121 4294967295
91.234367 87.816345 -60.807877 4294967295
91.234894 88.756813 -60.5779 4294967295
91.244141 94.406052 -59.236732 4294967295
91.250008 100.06907 -57.869717 4294967295
91.255775 98.178047 -58.377357 4294967295
91.278381 91.101059 -60.283924 4294967295
91.290497 94.867195 -59.429272 4294967295
91.294006 101.47576 -57.811878 4294967295
91.307732 95.806305 -59.310188 4294967295
91.317268 88.271111 -61.244049 4294967295
91.560364 86.413116 -60.183899 4294967295
91.560593 84.532692 -60.653526 4294967295
91.577019 93.946068 -58.419426 4294967295
91.577576 94.417732 -58.305763 4294967295
91.579163 87.82093 -59.958393 4294967295
91.588051 86.878494 -60.251904 4294967295
91.591042 99.137497 -57.220375 4294967295
91.597397 83.117569 -61.250111 4294967295
91.607368 83.585548 -61.199863 4294967295
91.620659 85.462425 -60.82095 4294967295
91.631889 89.693466 -59.842331 4294967295
91.645691 99.596542 -57.468975 4294967295
91.646469 94.874146 -58.649666 4294967295
91.654678 95.344086 -58.587219 4294967295
91.654907 87.3367 -60.581806 4294967295
91.655113 92.043549 -59.411598 4294967295
91.670006 98.172966 -57.984863 4294967295
91.674133 93.453346 -59.186947 4294967295
91.67746 84.043762 -61.551254 4294967295
91.691711 90.623161 -60.008183 4294967295
91.692848 91.564674 -59.781342 4294967295
91.703323 92.504593 -59.616955 4294967295
91.705673 97.692093 -58.34132 4294967295
91.709106 90.148987 -60.241791 4294967295
91.722664 96.743973 -58.690155 4294967295
91.727592 97.214767 -58.605728 4294967295
91.729126 91.086388 -60.141304 4294967295
91.761772 88.257332 -61.062332 4294967295
91.767975 89.196579 -60.869671 4294967295
91.771835 88.725594 -61.012569 4294967295
92.029648 87.335564 -59.930508 4294967295
92.038361 98.651802 -57.164223 4294967295
