# .PCD v0.7 - Point Cloud Data file format
VERSION 0.7
FIELDS x y z rgb
SIZE 4 4 4 4
TYPE F F F U
COUNT 1 1 1 1
WIDTH 1127
HEIGHT 1
VIEWPOINT 0 0 0 1 0 0 0
POINTS 1127
DATA ascii
186.45763 -5.3787565 -16.703354 4294967295
186.49141 -3.954093 -16.398855 4294967295
186.49651 -3.0164802 -15.933117 4294967295
186.49782 -3.4825685 -16.22422 4294967295
186.50114 -4.4135747 -16.816309 4294967295
186.52928 -2.0585442 -15.883867 4294967295
186.55959 -2.504159 -16.611822 4294967295
186.5713 -1.561522 -16.245604 4294967295
186.60066 -0.60612488 -16.145128 4294967295
186.6274 -13.089779 -16.364122 4294967295
186.63834 -13.545042 -16.800741 4294967295
186.64148 -12.148239 -16.033012 4294967295
186.64241 -12.612352 -16.319126 4294967295
186.66315 -11.665143 -16.088146 4294967295
186.67966 0.85082579 -16.521519 4294967295
186.68436 1.3218288 -16.320663 4294967295
186.68454 -0.080932103 -17.138117 4294967295
186.6954 -11.173378 -16.303305 4294967295
186.7088 1.8060532 -16.417507 4294967295
186.71492 -10.226854 -16.054031 4294967295
186.74278 2.7646141 -16.387039 4294967295
186.74988 -9.7331562 -16.309795 4294967295
186.77048 -9.2511139 -16.349201 4294967295
186.77328 2.3165178 -17.119259 4294967295
186.77913 3.2563815 -16.663773 4294967295
186.81383 -8.751071 -16.731686 4294967295
186.83539 -8.2684679 -16.785604 4294967295
186.84865 -7.3266153 -16.441568 4294967295
186.84923 -6.860157 -16.177891 4294967295
186.85405 -7.7881913 -16.795618 4294967295
186.86824 -5.913084 -15.920197 4294967295
186.87117 -6.3771434 -16.237295 4294967295
186.91139 -5.4140115 -16.300858 4294967295
186.94756 -4.9204798 -16.575529 4294967295
186.96379 -3.975337 -16.276009 4294967295
186.96863 -4.4383507 -16.621883 4294967295
187.00174 -3.4808073 -16.577993 4294967295
187.03561 -1.5883913 -15.999443 4294967295
187.03961 -2.9865634 -16.878767 4294967295
187.06213 -1.1023464 -16.12849 4294967295
187.08371 -0.61984539 -16.182287 4294967295
187.08432 -2.0208759 -17.010876 4294967295
187.08931 -0.1484175 -15.993738 4294967295
187.08987 -13.584555 -16.36433 4294967295
187.1105 -12.172865 -15.857458 4294967295
187.11972 -13.094572 -16.543755 4294967295
187.13039 -12.620939 -16.432409 4294967295
187.1353 1.2864218 -15.871681 4294967295
187.15503 -11.205622 -15.986277 4294967295
187.16025 0.36788699 -16.797001 4294967295
187.16858 1.7767291 -16.1033 4294967295
187.16933 -11.658733 -16.476826 4294967295
187.17563 0.84587377 -16.757246 4294967295
187.19917 -10.238874 -16.109608 4294967295
187.21208 2.7417011 -16.216867 4294967295
187.22607 -9.7516584 -16.244633 4294967295
187.22729 -9.2852221 -15.989243 4294967295
187.23073 3.2221112 -16.226513 4294967295
187.23727 2.2902684 -16.873142 4294967295
187.27145 3.7167139 -16.571552 4294967295
187.29015 -8.7693281 -16.670935 4294967295
187.30991 -7.8225479 -16.423721 4294967295
187.32748 -7.3430076 -16.416903 4294967295
187.36519 -5.4494715 -15.894428 4294967295
187.39024 -6.3626184 -16.824055 4294967295
187.39656 -4.4927645 -15.823339 4294967295
187.407 -4.9514651 -16.256681 4294967295
187.41418 -5.8783374 -16.914568 4294967295
187.42384 -4.0057764 -15.964344 4294967295
187.50726 -1.6101508 -15.862917 4294967295
187.51956 -2.0685086 -16.325041 4294967295
187.53148 -1.1256795 -15.957205 4294967295
187.53369 -2.5251937 -16.814981 4294967295
187.54665 -0.64759493 -15.913671 4294967295
187.56657 -13.602622 -16.307343 4294967295
187.58049 0.77889681 -15.605371 4294967295
187.59291 -13.11558 -16.434454 4294967295
187.59973 -0.14314841 -16.449123 4294967295
187.60532 -12.175793 -16.07416 4294967295
187.63229 0.34675881 -16.67136 4294967295
187.64291 -10.749407 -15.822676 4294967295
187.64487 -11.212866 -16.127724 4294967295
187.64948 -11.673874 -16.473143 4294967295
187.65366 2.2322483 -15.897268 4294967295
187.68188 2.719059 -16.052904 4294967295
187.69646 1.7929363 -16.826044 4294967295
187.6965 -10.240086 -16.366083 4294967295
187.70857 3.6730971 -15.910349 4294967295
187.7253 -9.7513914 -16.531002 4294967295
187.7292 -8.8175611 -16.040073 4294967295
187.73326 -9.2797041 -16.377445 4294967295
187.77745 -7.8478327 -16.227077 4294967295
187.79695 -8.2978392 -16.800711 4294967295
187.82138 -6.8817773 -16.347975 4294967295
187.83362 -6.4063458 -16.259798 4294967295
187.83722 -5.9375048 -16.039034 4294967295
187.84087 -7.3321953 -16.921608 4294967295
187.88364 -5.435812 -16.473881 4294967295
187.89134 -4.9637465 -16.316425 4294967295
187.9054 -3.5536084 -15.703291 4294967295
187.92624 -4.471159 -16.574894 4294967295
187.94371 -3.9917512 -16.56661 4294967295
187.99364 -2.5553041 -16.50358 4294967295
188.00578 -1.1455193 -15.861296 4294967295
188.02643 -0.66358417 -15.901554 4294967295
188.03127 -2.0612736 -16.804987 4294967295
188.03371 -13.629008 -16.103373 4294967295
188.06377 -12.674177 -16.011786 4294967295
188.06938 0.76902437 -15.731186 4294967295
188.07481 0.3051376 -16.09137 4294967295
188.08281 1.2460322 -15.660328 4294967295
188.08957 -13.11641 -16.684494 4294967295
188.0975 -11.251187 -15.699667 4294967295
188.10117 -11.713001 -16.032906 4294967295
188.10928 -0.13819741 -16.897116 4294967295
188.12119 -12.160658 -16.617062 4294967295
188.14433 -9.8167257 -15.588573 4294967295
188.14885 -10.278265 -15.934986 4294967295
188.16844 -10.726994 -16.513039 4294967295
188.17044 2.2409124 -16.453547 4294967295
188.17194 1.7742133 -16.753098 4294967295
188.19205 3.1911516 -16.231813 4294967295
188.20116 3.6653061 -16.095091 4294967295
188.20329 -8.3722668 -15.663988 4294967295
188.2097 2.7348542 -16.779951 4294967295
188.21307 -8.8299084 -16.091761 4294967295
188.21904 -9.2903452 -16.460495 4294967295
188.27316 -6.919404 -15.907486 4294967295
188.28461 -7.3761292 -16.360996 4294967295
188.29317 -7.8348145 -16.769987 4294967295
188.30199 -6.4309258 -16.073875 4294967295
188.33592 -5.9386048 -16.319431 4294967295
188.38011 -4.5063925 -16.167599 4294967295
188.39198 -4.0310459 -16.07295 4294967295
188.3965 -4.9601221 -16.697708 4294967295
188.42084 -3.5429933 -16.24007 4294967295
188.43871 -3.063195 -16.23752 4294967295
188.47791 -1.1669712 -15.730734 4294967295
188.48108 -2.5654197 -16.613592 4294967295
188.48962 -1.6256676 -16.18961 4294967295
188.49088 -0.69042683 -15.6528 4294967295
188.51088 -2.0770626 -16.795715 4294967295
188.5164 -13.177572 -15.859999 4294967295
188.51898 -12.710836 -15.621405 4294967295
188.56662 -11.740699 -15.800621 4294967295
188.57442 0.77039242 -16.108055 4294967295
188.58963 -12.185663 -16.434811 4294967295
188.6209 -10.30031 -15.804184 4294967295
188.6254 2.2082639 -16.060879 4294967295
188.63057 1.276516 -16.697712 4294967295
188.63148 2.6802983 -15.876455 4294967295
188.63837 -10.750631 -16.353109 4294967295
188.64088 -11.213171 -16.670259 4294967295
188.66084 1.7645988 -16.88752 4294967295
188.69077 -9.3124151 -16.327765 4294967295
188.69278 -8.8455772 -16.080143 4294967295
188.69286 3.6570444 -16.268515 4294967295
188.72244 -7.8907733 -15.981598 4294967295
188.77737 -6.9158096 -16.274624 4294967295
188.78954 -7.3716745 -16.741697 4294967295
188.80797 -5.4942856 -15.911139 4294967295
188.82742 -6.4107962 -16.770874 4294967295
188.82793 -5.9447441 -16.499584 4294967295
188.88834 -2.6345472 -15.480959 4294967295
188.89323 -3.0977092 -15.836657 4294967295
188.89531 -3.5627263 -16.148195 4294967295
188.96869 -1.6420107 -16.168852 4294967295
188.97217 -2.1062145 -16.502712 4294967295
188.99504 -1.156085 -16.298405 4294967295
189.0285 -0.1981335 -16.258781 4294967295
189.03053 -0.66372919 -16.57008 4294967295
189.04053 -13.154383 -16.537746 4294967295
189.04562 -12.68583 -16.33696 4294967295
189.05894 1.6929855 -15.611448 4294967295
189.07196 0.76682383 -16.374323 4294967295
189.07454 1.2360373 -16.134512 4294967295
189.07645 -12.194933 -16.536547 4294967295
189.07996 -11.263034 -16.030792 4294967295
189.09026 0.31245849 -16.938856 4294967295
189.09563 -11.714184 -16.554605 4294967295
189.10504 2.1921701 -16.048407 4294967295
189.10555 -10.311868 -15.868193 4294967295
189.1351 -9.357151 -15.7677 4294967295
189.14198 -9.8165169 -16.155128 4294967295
189.16876 2.7028627 -16.759832 4294967295
189.1727 3.6410937 -16.260447 4294967295
189.17628 -8.3928337 -15.847864 4294967295
189.18719 -8.8491783 -16.29812 4294967295
189.18997 -7.9162989 -15.780413 4294967295
189.21211 -7.432951 -15.844467 4294967295
189.24976 -6.0057025 -15.588806 4294967295
189.27594 -6.4509287 -16.277916 4294967295
189.28101 -6.9124341 -16.637535 4294967295
189.30812 -5.4941859 -16.218163 4294967295
189.34154 -4.5364151 -16.177435 4294967295
189.34543 -3.1342154 -15.394409 4294967295
189.38335 -4.0384212 -16.548906 4294967295
189.3886 -3.5682759 -16.349829 4294967295
189.4352 -2.6007681 -16.514902 4294967295
189.47002 -1.6420889 -16.496376 4294967295
189.47174 -2.1073432 -16.804634 4294967295
189.479 -0.7019496 -16.073702 4294967295
189.52368 -11.773975 -15.738945 4294967295
189.53235 -12.230913 -16.156164 4294967295
189.53362 0.73829168 -16.082754 4294967295
189.53661 -12.691382 -16.504328 4294967295
189.53751 -0.1931691 -16.706835 4294967295
189.54868 1.6837602 -15.754866 4294967295
189.57718 2.1709886 -15.919075 4294967295
189.58217 2.6421795 -15.714996 4294967295
189.58382 -9.8637686 -15.551723 4294967295
189.5864 -10.326529 -15.874516 4294967295
189.60104 1.2525454 -16.85606 4294967295
189.61339 3.1311111 -15.921652 4294967295
189.64868 -9.3447332 -16.285538 4294967295
189.66286 -8.8680382 -16.225767 4294967295
189.67363 3.6391768 -16.583458 4294967295
189.6777 -8.39077 -16.176247 4294967295
189.68715 -7.9178653 -16.041697 4294967295
189.69289 -6.9822421 -15.56691 4294967295
189.69638 -7.4450054 -15.904215 4294967295
189.765 -5.0617285 -15.567556 4294967295
189.78616 -4.5791759 -15.616976 4294967295
189.78636 -5.9766908 -16.468109 4294967295
189.78827 -5.5095253 -16.215464 4294967295
189.82156 -4.0857801 -15.890011 4294967295
189.82664 -3.1490979 -15.403635 4294967295
189.85252 -3.5959616 -16.093266 4294967295
189.88495 -2.6388249 -16.03668 4294967295
189.90073 -2.1605349 -16.001553 4294967295
189.90428 -1.6912189 -15.774044 4294967295
189.92522 -1.2090425 -15.820168 4294967295
189.95638 -0.71953487 -16.026592 4294967295
189.96867 0.2235022 -15.653547 4294967295
189.99393 -13.190252 -16.428444 4294967295
190.01604 1.1915936 -15.831802 4294967295
190.01619 -12.706766 -16.495312 4294967295
190.02248 -12.237244 -16.311098 4294967295
190.0242 -11.771559 -16.054413 4294967295
190.0442 1.6786385 -15.991507 4294967295
190.05327 -10.817688 -15.944874 4294967295
190.05696 0.75311953 -16.759691 4294967295
190.06194 -11.274673 -16.365286 4294967295
190.07802 -10.33201 -16.051151 4294967295
190.0816 -9.8642569 -15.823748 4294967295
190.08383 2.1734481 -16.332123 4294967295
190.08772 3.5794029 -15.541994 4294967295
190.11385 -9.372365 -16.047998 4294967295
190.1165 3.1308398 -16.279562 4294967295
190.1169 -8.9048853 -15.812054 4294967295
190.11827 2.6644592 -16.591253 4294967295
190.15794 -7.4754167 -15.607126 4294967295
190.19131 -7.9134717 -16.41757 4294967295
190.19807 -6.9775195 -15.955935 4294967295
190.21355 -6.4996085 -15.915926 4294967295
190.23407 -5.5518885 -15.671215 4294967295
190.24356 -6.0101109 -16.105524 4294967295
190.30342 -5.0316916 -16.482042 4294967295
190.31743 -4.0891504 -16.134357 4294967295
190.3255 -4.5487962 -16.546223 4294967295
190.33122 -3.6124945 -16.067633 4294967295
190.37198 -2.1826835 -15.857574 4294967295
190.39384 -2.6326876 -16.48831 4294967295
190.39726 -1.2305899 -15.687527 4294967295
190.4203 -1.6802731 -16.33717 4294967295
190.43094 -0.27218199 -15.650213 4294967295
190.4519 -12.296713 -15.506832 4294967295
190.46098 -13.216772 -16.221043 4294967295
190.46521 -11.820747 -15.431808 4294967295
190.46683 -12.747717 -16.028275 4294967295
190.48473 -0.7000103 -16.786762 4294967295
190.48665 1.1692019 -15.67672 4294967295
190.49544 0.2411366 -16.386127 4294967295
190.51608 1.657208 -15.857285 4294967295
190.52077 0.72612238 -16.502411 4294967295
190.52295 -11.306214 -16.061493 4294967295
190.5285 2.1333437 -15.768847 4294967295
190.56613 -10.804716 -16.460222 4294967295
190.60091 -8.916913 -15.869623 4294967295
190.60204 -9.3807678 -16.173166 4294967295
190.60323 2.6522145 -16.667875 4294967295
190.60651 3.5895271 -16.148785 4294967295
190.61086 -9.837883 -16.598349 4294967295
190.61957 3.1307435 -16.641291 4294967295
190.62621 -7.9658308 -15.699203 4294967295
190.62939 -8.4282618 -16.035809 4294967295
190.66493 -7.0035934 -15.742044 4294967295
190.66888 -7.4656467 -16.090851 4294967295
190.67188 -6.5325117 -15.565998 4294967295
190.72551 -5.0925817 -15.559683 4294967295
190.73581 -5.5502167 -16.009506 4294967295
190.76299 -3.6650929 -15.295813 4294967295
190.79085 -4.1097136 -16.025644 4294967295
190.80537 -3.1663129 -15.683681 4294967295
190.81059 -4.5601277 -16.625908 4294967295
190.8235 -2.6861982 -15.685398 4294967295
190.86172 -1.7244954 -15.720308 4294967295
190.87502 -0.78111362 -15.357975 4294967295
190.88795 -2.1713104 -16.4244 4294967295
190.90302 -13.265823 -15.612932 4294967295
190.9097 -0.28883839 -15.623592 4294967295
190.91115 0.17928889 -15.359579 4294967295
190.91634 -1.2174573 -16.302902 4294967295
190.95874 -12.752245 -16.213852 4294967295
190.97737 -11.807889 -15.936905 4294967295
190.97757 1.161119 -15.84384 4294967295
191.01477 -10.38245 -15.671558 4294967295
191.03236 1.6668901 -16.430084 4294967295
191.0504 2.6139736 -16.143269 4294967295
191.05104 2.1471124 -16.441076 4294967295
191.0616 -9.8778543 -16.131311 4294967295
191.06187 3.0893865 -16.039331 4294967295
191.0683 -8.9428577 -15.662924 4294967295
191.075 3.565959 -15.961134 4294967295
191.11325 -8.4403296 -16.093395 4294967295
191.12274 -7.9675546 -15.956989 4294967295
191.1783 -6.5265989 -15.981668 4294967295
191.20166 -6.0424004 -16.067209 4294967295
191.23654 -4.6178761 -15.760742 4294967295
191.23926 -5.0814462 -16.092117 4294967295
191.25014 -3.6752822 -15.401438 4294967295
191.28947 -4.1106644 -16.319445 4294967295
191.32259 -2.2210054 -15.696247 4294967295
191.32527 -3.1513033 -16.31592 4294967295
191.3421 -2.6724424 -16.297022 4294967295
191.3784 -1.712678 -16.301678 4294967295
191.37897 -0.7792654 -15.73349 4294967295
191.39571 -0.30019429 -15.713245 4294967295
191.39622 -13.269157 -15.818148 4294967295
191.41405 -12.789385 -15.815353 4294967295
191.42775 0.18998671 -15.938366 4294967295
191.44464 -11.834294 -15.728374 4294967295
191.44978 -11.365618 -15.521687 4294967295
191.46176 -12.28303 -16.291718 4294967295
191.47646 0.69195271 -16.430569 4294967295
191.48 1.6284485 -15.909353 4294967295
191.49957 1.1753035 -16.512325 4294967295
191.50497 3.0482368 -15.442694 4294967295
191.5054 2.1135511 -16.028082 4294967295
191.51019 -10.38443 -15.913137 4294967295
191.51653 -9.4499559 -15.436066 4294967295
191.55632 3.5510798 -15.978207 4294967295
191.56026 2.6190052 -16.619478 4294967295
191.58351 -8.4637585 -15.933798 4294967295
191.5878 -8.9247971 -16.291538 4294967295
191.59796 -7.5218482 -15.586798 4294967295
191.60378 -7.0518441 -15.390602 4294967295
191.67082 -6.5317507 -16.179089 4294967295
191.71001 -4.1726904 -15.360283 4294967295
191.72092 -4.6299171 -15.826008 4294967295
191.73064 -3.6905568 -15.402018 4294967295
191.79373 -3.1756003 -16.128515 4294967295
191.85915 -1.2612829 -16.02179 4294967295
191.88255 -12.814855 -15.625725 4294967295
191.90335 -13.259639 -16.251814 4294967295
191.9035 1.1052361 -15.284004 4294967295
191.91365 -12.323172 -15.836712 4294967295
191.92307 -0.2810469 -16.471689 4294967295
191.92455 0.1865845 -16.205088 4294967295
191.9541 0.67473739 -16.391663 4294967295
191.96423 2.5503564 -15.391893 4294967295
191.96448 -11.814083 -16.366665 4294967295
191.98042 -11.336224 -16.33312 4294967295
191.98486 1.6304293 -16.306755 4294967295
192.01131 -9.917079 -15.959267 4294967295
192.01207 -10.844543 -16.553503 4294967295
192.0239 -10.370289 -16.453817 4294967295
192.02496 2.1257648 -16.66391 4294967295
192.05042 -9.4191084 -16.300453 4294967295
192.05495 -8.4862623 -15.791761 4294967295
192.05499 3.5481324 -16.276291 4294967295
192.05571 3.0813451 -16.579126 4294967295
192.05779 -8.9484434 -16.128532 4294967295
192.07457 -8.0049982 -15.817518 4294967295
192.10181 -7.0524392 -15.675259 4294967295
192.1324 -7.4918895 -16.461803 4294967295
192.14633 -5.1546307 -15.22967 4294967295
192.15286 -6.5453243 -16.210215 4294967295
192.1796 -4.6623535 -15.476412 4294967295
192.19719 -5.5790854 -16.344698 4294967295
192.20244 -4.178483 -15.554638 4294967295
192.23073 -3.690412 -15.721079 4294967295
192.2515 -3.2083051 -15.765873 4294967295
192.28395 -2.2511721 -15.707811 4294967295
192.30615 -2.7000999 -16.360012 4294967295
192.34421 -0.34005639 -15.516399 4294967295
192.34662 -1.737298 -16.432266 4294967295
192.36221 0.13997979 -15.516283 4294967295
192.37321 -12.820365 -15.793747 4294967295
192.38786 -11.879691 -15.446356 4294967295
192.39131 -12.340368 -15.795347 4294967295
192.39661 0.63193369 -15.782059 4294967295
192.43503 -11.373734 -15.920321 4294967295
192.45007 1.6042852 -16.065536 4294967295
192.45793 2.5441232 -15.607727 4294967295
192.47536 2.0892658 -16.183661 4294967295
192.48135 -10.405006 -16.087759 4294967295
192.49966 3.0406508 -15.993204 4294967295
192.50252 3.510026 -15.746609 4294967295
192.50584 -9.9195938 -16.192957 4294967295
192.50752 -9.4539251 -15.927803 4294967295
192.52954 -8.9706573 -15.992607 4294967295
192.55946 -8.0161448 -15.893541 4294967295
192.60828 -6.1157346 -15.515291 4294967295
192.61685 -7.0386224 -16.241583 4294967295
192.62405 -6.5678029 -16.065876 4294967295
192.63097 -5.6319184 -15.591448 4294967295
192.6515 -5.1498919 -15.63258 4294967295
192.68478 -4.1921415 -15.587814 4294967295
192.69005 -4.6534586 -15.967434 4294967295
192.71501 -2.7706923 -15.19882 4294967295
192.72182 -3.6971419 -15.898018 4294967295
192.7495 -3.2097075 -16.055687 4294967295
192.75449 -2.2740197 -15.549047 4294967295
192.80594 -1.3023124 -15.801056 4294967295
192.81642 -0.82807779 -15.677938 4294967295
192.85051 -12.374323 -15.452066 4294967295
192.85435 -0.33325809 -16.003641 4294967295
192.86201 0.60558939 -15.539831 4294967295
192.87822 0.1509008 -16.099438 4294967295
192.88258 -12.808615 -16.270538 4294967295
192.88931 -11.875585 -15.791941 4294967295
192.9055 -10.933447 -15.46735 4294967295
192.92136 1.1156473 -16.215752 4294967295
192.92235 -11.382282 -16.037355 4294967295
192.92302 1.5836058 -15.948278 4294967295
192.94868 3.0032454 -15.484234 4294967295
192.94948 2.5365295 -15.791981 4294967295
192.95485 -9.9617519 -15.685444 4294967295
192.95834 2.0758381 -16.232 4294967295
192.98555 -10.398723 -16.482433 4294967295
192.98941 -9.467453 -15.95612 4294967295
192.99817 3.5051613 -15.999323 4294967295
193.00183 -8.0633793 -15.274841 4294967295
193.01985 -8.5125971 -15.86474 4294967295
193.05437 -7.5541439 -15.840349 4294967295
193.09213 -6.5929694 -15.868803 4294967295
193.09439 -7.0558214 -16.201212 4294967295
193.12457 -6.1011977 -16.105436 4294967295
193.12489 -5.6359167 -15.815617 4294967295
193.13719 -4.6953268 -15.426105 4294967295
193.15277 -5.1480293 -15.97732 4294967295
193.17343 -4.2007046 -15.72522 4294967295
193.17439 -3.7343261 -15.445528 4294967295
193.2285 -2.7601528 -15.742332 4294967295
193.23366 -2.2902226 -15.530979 4294967295
193.25362 -1.8087316 -15.563084 4294967295
193.28239 -0.85427618 -15.443752 4294967295
193.29218 -12.888163 -15.11315 4294967295
193.32661 -1.2867928 -16.466869 4294967295
193.33238 -11.924124 -15.181877 4294967295
193.35008 -13.298046 -16.361475 4294967295
193.35674 0.1342874 -16.073826 4294967295
193.37506 1.5477357 -15.486637 4294967295
193.3791 -12.34514 -16.246775 4294967295
193.38043 0.61826319 -16.167437 4294967295
193.39838 -11.400839 -15.971355 4294967295
193.39955 -10.472191 -15.397547 4294967295
193.42082 -9.5250807 -15.154343 4294967295
193.42439 -10.913894 -16.103045 4294967295
193.44702 2.5333662 -16.078272 4294967295
193.46234 3.0112214 -16.033493 4294967295
193.46484 -8.5579653 -15.285923 4294967295
193.47493 3.4872394 -15.944784 4294967295
193.47545 -9.9411421 -16.351046 4294967295
193.50528 -8.9872284 -16.249283 4294967295
193.51514 -7.5857286 -15.520983 4294967295
193.55113 -7.0905943 -15.817305 4294967295
193.55737 -6.6205921 -15.623396 4294967295
193.60194 -5.6536636 -15.764734 4294967295
193.61803 -5.1753678 -15.732891 4294967295
193.62427 -4.2396088 -15.240854 4294967295
193.6384 -4.6935554 -15.771955 4294967295
193.67296 -3.7349966 -15.747566 4294967295
193.70358 -2.7794847 -15.658253 4294967295
193.7202 -2.300652 -15.635319 4294967295
193.75766 -1.8056602 -15.9569 4294967295
193.76962 -0.86437798 -15.559071 4294967295
193.78978 -1.3150158 -16.190365 4294967295
193.8076 -12.407283 -15.395432 4294967295
193.81325 0.101224 -15.684669 4294967295
193.81612 -0.36290169 -16.030396 4294967295
193.81958 0.57244021 -15.491005 4294967295
193.82597 1.0438747 -15.298807 4294967295
193.84538 1.5249572 -15.322001 4294967295
193.85092 -11.904212 -15.814173 4294967295
193.86502 -11.427908 -15.749624 4294967295
193.86905 2.0090828 -15.415245 4294967295
193.9075 -9.5345383 -15.259409 4294967295
193.93759 -9.9719124 -16.056585 4294967295
193.944 -10.429805 -16.461521 4294967295
193.95332 3.470449 -15.916731 4294967295
193.95399 3.0039234 -16.226572 4294967295
193.98326 -8.5399351 -15.918343 4294967295
193.99266 -8.9957294 -16.373316 4294967295
193.99957 -7.5972433 -15.590916 4294967295
194.03247 -7.1046476 -15.838554 4294967295
194.03607 -6.6369805 -15.599112 4294967295
194.06712 -5.6812754 -15.51651 4294967295
194.07166 -6.1423564 -15.891052 4294967295
194.1143 -4.2469959 -15.402304 4294967295
194.11903 -5.1733713 -16.079994 4294967295
194.13489 -4.6954112 -16.044123 4294967295
194.1416 -3.7595119 -15.556944 4294967295
194.1665 -3.2740774 -15.671427 4294967295
194.1712 -2.3389244 -15.150076 4294967295
194.17882 -2.798717 -15.576366 4294967295
194.22359 -1.8320198 -15.722229 4294967295
194.2516 -1.3444009 -15.888954 4294967295
194.26286 -13.371788 -15.57934 4294967295
194.26614 -0.86727279 -15.830866 4294967295
194.27971 -12.892948 -15.560307 4294967295
194.28465 -0.38704729 -15.839542 4294967295
194.28592 0.080132999 -15.560316 4294967295
194.29604 0.55416727 -15.428762 4294967295
194.29861 -11.948871 -15.274734 4294967295
194.30637 -12.405047 -15.704338 4294967295
194.31508 1.0349145 -15.445858 4294967295
194.32626 -10.99642 -15.134884 4294967295
194.34412 -11.443789 -15.732792 4294967295
194.35909 1.5340152 -15.879366 4294967295
194.40013 -10.466092 -16.06662 4294967295
194.41351 -9.99051 -15.989494 4294967295
194.42952 2.9852071 -16.153259 4294967295
194.43536 -9.0435019 -15.752977 4294967295
194.44501 -9.4987974 -16.214685 4294967295
194.46237 -8.0916548 -15.602386 4294967295
194.51424 -7.5825853 -16.168097 4294967295
194.52344 -7.1104293 -16.021158 4294967295
194.54196 -6.6302681 -16.029711 4294967295
194.56148 -5.6846161 -15.753656 4294967295
194.56548 -4.7513151 -15.217878 4294967295
194.57111 -6.141171 -16.215601 4294967295
194.59338 -5.1932464 -15.986168 4294967295
194.60196 -3.7908678 -15.22522 4294967295
194.6158 -4.2448592 -15.75881 4294967295
194.64711 -3.2889702 -15.679987 4294967295
194.70186 -2.3144145 -15.993671 4294967295
194.70811 -2.7747912 -16.400085 4294967295
194.71068 -1.8418927 -15.839531 4294967295
194.75186 -1.3440289 -16.228146 4294967295
194.75786 -12.909706 -15.526876 4294967295
194.76335 0.062624 -15.514919 4294967295
194.7829 0.54370689 -15.540558 4294967295
194.78337 1.01054 -15.246429 4294967295
194.78877 -11.491236 -15.138895 4294967295
194.79427 -0.37982219 -16.335445 4294967295
194.79956 -11.944624 -15.622467 4294967295
194.80266 1.4915166 -15.267679 4294967295
194.81996 -12.388708 -16.267031 4294967295
194.83127 -10.525288 -15.247177 4294967295
194.86992 -9.5629187 -15.291256 4294967295
194.87 3.408247 -15.188019 4294967295
194.87834 -10.945883 -16.340414 4294967295
194.88782 -9.0830345 -15.289066 4294967295
194.89502 -10.004114 -16.015642 4294967295
194.94067 -7.6440673 -15.269203 4294967295
194.9512 -7.1705136 -15.143251 4294967295
194.97475 -6.6857305 -15.236387 4294967295
194.97992 -8.0740032 -16.232327 4294967295
194.99725 -6.2018991 -15.312073 4294967295
195.04861 -5.6938162 -15.873535 4294967295
195.0948 -4.7258501 -16.044794 4294967295
195.1223 -3.7733872 -15.901522 4294967295
195.1234 -2.3763084 -15.008844 4294967295
195.14346 -2.8258181 -15.650963 4294967295
195.15067 -3.285244 -16.076071 4294967295
195.16115 -1.8805995 -15.341572 4294967295
195.18892 -1.3929591 -15.506359 4294967295
195.21164 -12.949437 -15.082592 4294967295
195.22076 -13.403681 -15.540916 4294967295
195.23422 0.040094402 -15.358822 4294967295
195.24272 -0.41941881 -15.806507 4294967295
195.24339 -12.456492 -15.314764 4294967295
195.25534 0.98882288 -15.106798 4294967295
195.2645 -11.51037 -15.062483 4294967295
195.2849 -11.954626 -15.711834 4294967295
195.28796 0.54717261 -15.962269 4294967295
195.30066 1.9558296 -15.263657 4294967295
195.32635 -10.990012 -15.803768 4294967295
195.3269 1.508841 -16.011963 4294967295
195.34921 -10.0424 -15.581144 4294967295
195.37047 2.9403877 -15.835011 4294967295
195.37289 -9.5574474 -15.676846 4294967295
195.38449 -9.0833321 -15.568714 4294967295
195.41266 -8.5944586 -15.740583 4294967295
195.48067 -6.6787243 -15.672512 4294967295
195.48087 -7.1427679 -15.980581 4294967295
195.50157 -6.196444 -15.721104 4294967295
195.55418 -5.2228827 -16.002222 4294967295
195.57759 -4.2739024 -15.789007 4294967295
195.60339 -3.7877283 -15.920959 4294967295
195.6209 -2.8432403 -15.606918 4294967295
195.66168 -1.4141293 -15.382114 4294967295
195.67108 -2.3375454 -16.153391 4294967295
195.6956 -0.45588779 -15.346127 4294967295
195.6976 -12.495867 -14.874115 4294967295
195.71165 -0.90916061 -15.924921 4294967295
195.71921 0.49452731 -15.134735 4294967295
195.72607 -12.93178 -15.66436 4294967295
195.73433 -11.535018 -14.885489 4294967295
195.73566 0.041059501 -15.72098 4294967295
195.75975 0.99163443 -15.518013 4294967295
195.77635 -11.958768 -15.907288 4294967295
195.78125 2.4073024 -14.964256 4294967295
195.7997 1.487988 -15.891035 4294967295
195.81641 -9.6055012 -15.055931 4294967295
195.82817 1.9755301 -16.069252 4294967295
195.83115 -10.518951 -15.920013 4294967295
195.83525 -10.978186 -16.296453 4294967295
195.83672 -10.050579 -15.708481 4294967295
195.84546 2.9211855 -15.750576 4294967295
195.8634 3.4009418 -15.749483 4294967295
195.8692 -9.0941677 -15.648443 4294967295
195.87637 -8.1600943 -15.157148 4294967295
195.89468 -7.6798539 -15.161798 4294967295
195.9277 -7.1867476 -15.417532 4294967295
195.96722 -5.7594285 -15.169771 4294967295
195.98926 -6.2049618 -15.853203 4294967295
196.00777 -4.7956314 -15.246689 4294967295
196.03412 -3.8436887 -15.081675 4294967295
196.0625 -3.3551302 -15.258806 4294967295
196.08231 -4.2684855 -16.212114 4294967295
196.11649 -2.3806796 -15.565573 4294967295
196.15271 -1.8862381 -15.876844 4294967295
196.17065 -13.443178 -15.367258 4294967295
196.18805 -0.46165231 -15.557554 4294967295
196.1898 -1.3913302 -16.203257 4294967295
196.2041 -12.948505 -15.631311 4294967295
196.20821 -0.91140079 -16.21035 4294967295
196.21162 -12.478666 -15.452122 4294967295
196.24188 0.045978501 -16.170326 4294967295
196.24188 0.51174742 -15.86237 4294967295
196.2543 -11.975496 -15.874369 4294967295
196.25829 1.4563808 -15.52634 4294967295
196.26549 1.9281549 -15.341423 4294967295
196.27301 -11.495132 -15.886591 4294967295
196.27994 -10.099283 -15.079729 4294967295
196.28589 2.4098616 -15.382326 4294967295
196.30595 -10.538589 -15.833746 4294967295
196.30768 -10.999912 -16.172001 4294967295
196.34093 -9.1166544 -15.507603 4294967295
196.35721 2.9290481 -16.29599 4294967295
196.382 -8.6160679 -15.90325 4294967295
196.38426 -7.2225423 -15.014353 4294967295
196.39453 -7.6774931 -15.500189 4294967295
196.40076 -8.1357193 -15.915825 4294967295
196.42865 -6.2551966 -15.158169 4294967295
196.42953 -6.7186942 -15.482382 4294967295
196.48151 -5.2808771 -15.447134 4294967295
196.48846 -5.7392764 -15.87608 4294967295
196.52499 -3.8500507 -15.265762 4294967295
196.53432 -3.3772938 -15.116238 4294967295
196.59019 -2.8662109 -15.767735 4294967295
196.61865 -13.48914 -14.815496 4294967295
196.63071 -2.368134 -16.155199 4294967295
196.63823 -0.50055838 -15.044273 4294967295
196.64565 -0.96039867 -15.482008 4294967295
196.64594 -1.425591 -15.797308 4294967295
196.65311 -1.8849821 -16.230892 4294967295
196.67572 -12.97136 -15.48876 4294967295
196.68808 0.4702206 -15.282576 4294967295
196.7187 0.95983028 -15.499622 4294967295
196.74562 -11.979483 -16.072542 4294967295
196.7536 -11.50935 -15.899572 4294967295
196.77025 -10.568035 -15.565836 4294967295
196.77684 1.4702387 -16.191406 4294967295
196.78114 1.9394884 -15.955332 4294967295
196.786 3.3423772 -15.10685 4294967295
196.80154 -9.6127739 -15.484184 4294967295
196.82686 2.9060311 -16.122707 4294967295
196.85649 -8.6359653 -15.811123 4294967295
196.85651 -9.0992403 -16.122284 4294967295
196.85764 -7.2436528 -14.897657 4294967295
196.88666 -7.6817737 -15.709942 4294967295
196.94572 -5.7739892 -15.486095 4294967295
196.94998 -4.8414154 -14.936281 4294967295
196.96672 -5.2915964 -15.537617 4294967295
196.96738 -6.2192192 -16.171904 4294967295
196.96889 -4.3606091 -14.951792 4294967295
197.02936 -3.3801575 -15.374926 4294967295
197.04781 -3.8294175 -16.006294 4294967295
197.05759 -2.4267983 -15.239565 4294967295
197.0755 -1.9469304 -15.238108 4294967295
197.10788 -0.98997211 -15.175014 4294967295
197.13358 -13.007687 -15.105574 4294967295
197.1382 -0.50023937 -15.388533 4294967295
197.14937 -0.0257506 -15.269764 4294967295
197.16023 -12.519402 -15.255383 4294967295
197.16573 -12.051481 -15.038332 4294967295
197.19539 0.4760251 -15.75576 4294967295
197.20436 0.94873911 -15.598412 4294967295
197.21362 1.4218497 -15.447048 4294967295
197.21661 -10.614468 -14.983545 4294967295
197.22757 -11.067124 -15.486383 4294967295
197.23434 2.8365211 -14.868189 4294967295
197.24211 1.9096789 -15.62907 4294967295
197.24277 2.3763709 -15.327431 4294967295
197.24425 -11.51394 -16.08848 4294967295
197.27075 -10.100821 -15.610928 4294967295
197.28671 3.3420353 -15.465031 4294967295
197.2998 -8.6842957 -15.17671 4294967295
197.31544 -9.1333294 -15.761597 4294967295
197.3175 -9.5944653 -16.110495 4294967295
197.32358 -8.1991577 -15.276703 4294967295
197.38637 -7.6790142 -16.055841 4294967295
197.39973 -7.203567 -15.975033 4294967295
197.40018 -6.2755704 -15.355978 4294967295
197.4346 -5.781373 -15.642019 4294967295
197.43774 -4.3854804 -14.755251 4294967295
197.45224 -5.3019419 -15.635561 4294967295
197.46002 -3.9017777 -14.829483 4294967295
197.47775 -4.8157449 -15.766197 4294967295
197.51172 -3.3934541 -15.416584 4294967295
197.51352 -2.9270973 -15.133972 4294967295
197.56322 -2.4209819 -15.686649 4294967295
197.57806 -1.943841 -15.631353 4294967295
197.60283 -0.52793407 -15.120592 4294967295
197.6181 -0.0501475 -15.072626 4294967295
197.61867 -13.017633 -15.193743 4294967295
197.6308 -0.97084707 -15.923267 4294967295
197.64546 -12.066713 -15.032732 4294967295
197.65912 0.91370869 -15.160057 4294967295
197.69061 1.870122 -15.080597 4294967295
197.71545 -10.611773 -15.310995 4294967295
197.71803 -11.072025 -15.671263 4294967295
197.7216 -11.531078 -16.048256 4294967295
197.72629 1.431623 -16.019152 4294967295
197.75171 2.3828068 -15.834093 4294967295
197.7652 -10.102115 -15.866497 4294967295
197.76649 2.8600726 -15.777943 4294967295
197.7896 -8.6903925 -15.34778 4294967295
197.7964 -9.6101799 -16.097376 4294967295
197.80511 -9.1392174 -15.934889 4294967295
197.8055 3.3554258 -16.145172 4294967295
197.80989 -8.2084665 -15.387829 4294967295
197.85829 -7.2376609 -15.605043 4294967295
197.88477 -5.8226295 -15.121733 4294967295
197.88672 -6.7486339 -15.787453 4294967295
197.89752 -5.3472652 -15.02981 4294967295
197.90404 -6.2695694 -15.775373 4294967295
197.91461 -4.8681135 -15.013214 4294967295
197.951 -3.9078417 -15.019581 4294967295
197.97464 -3.4231105 -15.118238 4294967295
197.97949 -4.3478923 -15.835844 4294967295
198.04492 -2.4347386 -15.72002 4294967295
198.05104 -1.9648347 -15.511261 4294967295
198.07166 -1.4829054 -15.557301 4294967295
198.07472 -13.518265 -15.089735 4294967295
198.11986 -0.51358563 -15.771091 4294967295
198.12025 -0.978333 -16.094608 4294967295
198.12331 -0.0455008 -15.515451 4294967295
198.12456 -13.006987 -15.649542 4294967295
198.13286 0.4275789 -15.366516 4294967295
198.1335 -12.536165 -15.489857 4294967295
198.14626 -12.061468 -15.397928 4294967295
198.15967 -11.586107 -15.31687 4294967295
198.16446 1.383831 -15.288765 4294967295
198.16508 0.91859818 -15.617048 4294967295
198.19551 2.3397679 -15.201006 4294967295
198.19765 -11.087137 -15.668383 4294967295
198.21086 1.8856001 -15.788473 4294967295
198.22069 -10.139979 -15.440212 4294967295
198.22197 -9.6758919 -15.145367 4294967295
198.23947 -10.584768 -16.087902 4294967295
198.26683 -9.1709766 -15.618484 4294967295
198.27261 3.3304567 -15.925117 4294967295
198.28754 -7.7621636 -15.031254 4294967295
198.28789 -8.6884384 -15.672218 4294967295
198.33163 -6.7950497 -15.173016 4294967295
198.34724 -7.2445226 -15.766254 4294967295
198.37265 -5.3667808 -14.943388 4294967295
198.37297 -6.2943521 -15.584965 4294967295
198.40024 -4.8784523 -15.112499 4294967295
198.42018 -4.3968625 -15.14657 4294967295
198.43472 -3.4553282 -14.766884 4294967295
198.48611 -3.8758681 -15.993162 4294967295
198.52856 -2.4468045 -15.789055 4294967295
198.53195 -1.9792871 -15.530596 4294967295
198.56519 -1.0220547 -15.481287 4294967295
198.56596 -13.059887 -14.970732 4294967295
198.5724 -1.481041 -15.927649 4294967295
198.59338 -13.494455 -15.775227 4294967295
198.59964 -0.063761197 -15.453466 4294967295
198.60553 -12.096546 -15.033022 4294967295
198.6154 -0.51615238 -16.051836 4294967295
198.62099 1.3500075 -14.874664 4294967295
198.63469 -11.605761 -15.230953 4294967295
198.63576 0.43046191 -15.77434 4294967295
198.638 -12.526701 -15.927748 4294967295
198.6474 0.90511131 -15.661781 4294967295
198.66936 -10.647344 -15.207165 4294967295
198.68848 1.8684654 -15.75178 4294967295
198.69179 2.3368106 -15.491001 4294967295
198.70177 -10.15381 -15.462109 4294967295
198.70479 -9.688199 -15.196432 4294967295
198.72343 -9.2077465 -15.207554 4294967295
198.72766 2.8302317 -15.808081 4294967295
198.73404 3.3010831 -15.601755 4294967295
198.73651 -8.7324829 -15.120024 4294967295
198.76144 -8.2461882 -15.242859 4294967295
198.76872 -7.7762032 -15.052151 4294967295
198.78175 -7.300808 -14.963886 4294967295
198.81757 -5.8771882 -14.639622 4294967295
198.84198 -6.7826757 -15.713821 4294967295
198.84726 -6.3144374 -15.487705 4294967295
198.86005 -5.3754659 -15.074791 4294967295
198.90402 -4.4087286 -15.215954 4294967295
198.90486 -4.8720212 -15.551714 4294967295
198.92513 -3.9261925 -15.27103 4294967295
198.94849 -2.9772954 -15.045532 4294967295
198.99379 -2.0096664 -15.210993 4294967295
198.99968 -1.5398788 -14.994646 4294967295
199.00206 -2.4673452 -15.679106 4294967295
199.04138 -12.617209 -14.568439 4294967295
199.0591 -1.0258188 -15.733225 4294967295
199.06717 -13.053528 -15.349648 4294967295
199.07082 -13.511543 -15.735487 4294967295
199.07936 0.38603881 -15.130823 4294967295
199.10315 -11.631876 -15.027201 4294967295
199.10825 0.87459087 -15.324842 4294967295
199.1266 1.8204136 -15.009731 4294967295
199.12823 1.3559732 -15.360262 4294967295
199.1295 -11.143877 -15.17581 4294967295
199.14822 2.3031473 -15.074085 4294967295
199.15608 -10.193195 -15.007694 4294967295
199.15863 -10.653252 -15.374969 4294967295
199.20845 -9.2179356 -15.299414 4294967295
199.21083 2.8173332 -15.870165 4294967295
199.21375 -9.6755476 -15.715902 4294967295
199.22432 -8.2770882 -14.93923 4294967295
199.22937 3.2973742 -15.880186 4294967295
199.24295 -7.7965884 -14.950106 4294967295
199.29434 -7.2859845 -15.547567 4294967295
199.30823 -6.8100424 -15.473827 4294967295
199.31392 -5.8777704 -14.931221 4294967295
199.40671 -3.93994 -15.302572 4294967295
199.42868 -3.4567349 -15.373278 4294967295
199.43877 -2.9837208 -15.231651 4294967295
199.46249 -1.5695705 -14.687708 4294967295
199.49069 -2.4750733 -15.839727 4294967295
199.49983 -0.60840797 -14.71105 4294967295
199.52011 -1.0566788 -15.398481 4294967295
199.52971 -13.547396 -15.363365 4294967295
199.53499 -12.618608 -14.811083 4294967295
199.5648 -12.126931 -15.023079 4294967295
199.58209 -13.033037 -15.980753 4294967295
199.58673 0.85805082 -15.301201 4294967295
199.59917 -11.168782 -14.993179 4294967295
199.60075 1.3346734 -15.229412 4294967295
199.6008 -11.629293 -15.346554 4294967295
199.60292 0.40590951 -15.915731 4294967295
199.61707 2.2789459 -14.874971 4294967295
199.64511 -10.66171 -15.495544 4294967295
199.6609 -9.7216892 -15.131678 4294967295
199.66458 1.8506212 -16.053005 4294967295
199.67392 -10.171575 -15.689949 4294967295
199.68045 2.7940612 -15.691109 4294967295
199.69643 -9.2251663 -15.446974 4294967295
199.69841 3.2736864 -15.690388 4294967295
199.69934 -8.7597237 -15.175045 4294967295
199.71205 -8.2848558 -15.079811 4294967295
199.74448 -7.7915611 -15.339422 4294967295
199.75595 -6.8545666 -14.896917 4294967295
199.77502 -7.3002019 -15.565331 4294967295
199.80779 -5.8803825 -15.182062 4294967295
199.82573 -6.3274536 -15.830322 4294967295
199.82726 -5.3992586 -15.208202 4294967295
199.85165 -4.4498711 -14.998804 4294967295
199.87022 -3.9694843 -15.008827 4294967295
199.87314 -3.5027125 -14.736292 4294967295
199.94513 -1.5827579 -14.734863 4294967295
199.97002 -2.0263276 -15.509995 4294967295
199.97749 -1.0907555 -14.99435 4294967295
199.99541 -0.1458368 -14.666636 4294967295
199.996 -13.114403 -14.794376 4294967295
200.01921 -13.552286 -15.539753 4294967295
200.03102 -0.58143759 -15.636282 4294967295
200.05278 0.3662577 -15.378529 4294967295
200.0694 -12.11711 -15.470665 4294967295
200.06969 -11.192942 -14.824211 4294967295
200.0921 -11.632742 -15.555908 4294967295
200.09381 0.86461687 -15.79517 4294967295
200.09482 1.3305998 -15.487593 4294967295
200.09508 -10.705791 -14.957569 4294967295
200.10016 2.2658801 -14.932262 4294967295
200.11089 -10.228028 -14.91777 4294967295
200.12318 1.818541 -15.675283 4294967295
200.12926 2.7544484 -15.132772 4294967295
200.13652 -9.7407675 -15.055771 4294967295
200.15881 3.243238 -15.342201 4294967295
200.17992 3.7253771 -15.398258 4294967295
200.20268 -8.2897453 -15.27548 4294967295
200.22656 -7.3415008 -15.055449 4294967295
200.23715 -6.8685241 -14.920399 4294967295
200.2457 -7.7865143 -15.729017 4294967295
200.25204 -6.3914609 -14.864115 4294967295
200.27449 -5.9075069 -14.944229 4294967295
200.31328 -5.4088221 -15.321693 4294967295
200.32451 -4.0073481 -14.543983 4294967295
200.34421 -4.9174633 -15.556648 4294967295
200.36205 -4.4379616 -15.553482 4294967295
200.39827 -3.4784307 -15.557653 4294967295
200.40012 -2.5485578 -14.936359 4294967295
200.43864 -1.5866451 -14.981438 4294967295
200.44569 -2.0450854 -15.437645 4294967295
200.47295 -0.62829882 -14.950319 4294967295
200.47765 -12.665861 -14.497675 4294967295
200.48476 -1.0830922 -15.493345 4294967295
200.48531 -13.581018 -15.293871 4294967295
200.50418 -0.1374502 -15.191137 4294967295
200.53867 -13.065182 -15.937574 4294967295
200.55499 -12.126025 -15.579172 4294967295
200.55771 -11.661716 -15.300135 4294967295
200.58174 -10.251866 -14.753315 4294967295
200.58432 2.7194371 -14.681608 4294967295
200.59293 1.3299847 -15.82395 4294967295
200.59517 -11.162638 -15.655024 4294967295
200.60068 3.1981511 -14.651218 4294967295
200.60226 -10.69381 -15.455976 4294967295
200.61943 2.2815733 -15.650816 4294967295
200.62033 -9.7519016 -15.128599 4294967295
200.62407 -9.2858629 -14.868372 4294967295
200.65517 3.7063274 -15.316982 4294967295
200.66629 -8.7827559 -15.310205 4294967295
200.68338 -7.8411684 -14.964504 4294967295
200.7066 -8.2817593 -15.717972 4294967295
200.72958 -6.4087958 -14.821291 4294967295
200.7309 -7.3336091 -15.503796 4294967295
200.74284 -5.9332194 -14.734472 4294967295
200.78998 -5.4267573 -15.266918 4294967295
200.79907 -4.491395 -14.774065 4294967295
200.82086 -4.0080791 -14.843317 4294967295
200.82286 -4.9335437 -15.539375 4294967295
200.88132 -3.0268455 -15.290777 4294967295
154.98125 13.974478 -17.994722 4294967295
155.02179 3.8343205 -17.307766 4294967295
155.02661 16.362644 -17.509359 4294967295
155.02663 4.7822294 -16.968756 4294967295
155.03137 15.415276 -17.951466 4294967295
155.04024 15.892826 -17.852375 4294967295
155.05229 17.795933 -17.200901 4294967295
155.05943 4.3241882 -17.519972 4294967295
155.07703 16.854654 -17.859932 4294967295
155.11755 18.292564 -17.712959 4294967295
155.11925 18.768091 -17.535433 4294967295
155.12691 5.7727795 -17.664715 4294967295
155.13278 19.247564 -17.486689 4294967295
155.19012 6.746212 -17.958893 4294967295
155.20161 7.6972408 -17.69236 4294967295
155.23457 19.755062 -18.395031 4294967295
155.23695 8.1853561 -17.880249 4294967295
155.24754 10.557399 -17.015825 4294967295
155.26163 9.6156292 -17.560465 4294967295
155.27788 9.1488724 -17.932926 4294967295
155.28885 10.100219 -17.660067 4294967295
155.32001 11.533805 -17.410818 4294967295
155.3219 11.060731 -17.627378 4294967295
155.34558 12.017665 -17.492668 4294967295
155.41939 14.416254 -17.314329 4294967295
155.41974 13.94206 -17.514353 4294967295
155.42453 13.469687 -17.762535 4294967295
155.46657 16.33149 -17.042227 4294967295
155.47411 15.85942 -17.320686 4294967295
155.53423 16.829657 -17.582272 4294967295
155.53996 3.8348713 -17.691015 4294967295
155.55693 17.786936 -17.436737 4294967295
155.57086 4.3215523 -17.831116 4294967295
155.57164 5.2672744 -17.446856 4294967295
155.57556 17.318459 -17.835827 4294967295
155.5787 18.269108 -17.477243 4294967295
155.59917 7.1716905 -16.960468 4294967295
155.60974 18.754282 -17.618799 4294967295
155.61177 4.812633 -18.079941 4294967295
155.61371 7.6513004 -16.922291 4294967295
155.62727 6.2376738 -17.659697 4294967295
155.62973 6.7117252 -17.490061 4294967295
155.63206 19.23653 -17.665264 4294967295
155.66844 8.1479006 -17.322027 4294967295
155.68633 9.1022949 -17.123707 4294967295
155.70956 9.5854568 -17.180269 4294967295
155.74614 10.07398 -17.382271 4294967295
155.78731 11.985699 -17.044245 4294967295
155.79559 10.567507 -17.724854 4294967295
155.79919 11.042582 -17.567379 4294967295
155.8493 11.536028 -17.917257 4294967295
155.85132 12.958439 -17.348776 4294967295
155.85872 13.435389 -17.232529 4294967295
155.91519 14.404864 -17.455212 4294967295
155.93793 14.88748 -17.50642 4294967295
155.95103 15.841124 -17.255444 4294967295
155.95357 15.367504 -17.480164 4294967295
155.98759 16.328594 -17.457809 4294967295
155.99074 4.2771306 -17.144695 4294967295
155.99457 16.805672 -17.336821 4294967295
156.00284 17.283295 -17.229939 4294967295
156.03421 18.718803 -16.980797 4294967295
156.06894 5.7308574 -17.40778 4294967295
156.07085 18.255917 -17.578972 4294967295
156.07094 7.1510267 -16.83744 4294967295
156.09485 6.2152395 -17.493893 4294967295
156.09697 17.789948 -18.061749 4294967295
156.11327 5.2779837 -18.089661 4294967295
156.1348 19.226685 -17.883743 4294967295
156.15948 19.709562 -17.956842 4294967295
156.16641 6.7194805 -18.079351 4294967295
156.20142 8.6264563 -17.672962 4294967295
156.21954 9.1072922 -17.673948 4294967295
156.22195 10.528875 -17.107744 4294967295
156.30435 11.03554 -17.812752 4294967295
156.32928 11.519014 -17.888407 4294967295
156.3385 12.470083 -17.593882 4294967295
156.34161 13.419319 -17.23259 4294967295
156.34293 11.998013 -17.840134 4294967295
156.36755 12.955116 -17.714653 4294967295
156.43839 15.352079 -17.502369 4294967295
156.45277 14.408946 -18.055929 4294967295
156.46295 15.835268 -17.574013 4294967295
156.47287 16.313255 -17.484756 4294967295
156.47701 4.2630024 -17.181608 4294967295
156.48717 3.795125 -17.491117 4294967295
156.50299 4.7475915 -17.2687 4294967295
156.52304 16.805304 -17.837692 4294967295
156.52933 17.756683 -17.51045 4294967295
156.55377 6.6619525 -17.033651 4294967295
156.56851 5.2499714 -17.790215 4294967295
156.59901 7.1548057 -17.332607 4294967295
156.60104 6.2098584 -17.751194 4294967295
156.61481 7.6347399 -17.307682 4294967295
156.63188 18.740377 -18.240757 4294967295
156.67451 19.228973 -18.510994 4294967295
156.67636 8.6073284 -17.587793 4294967295
156.67639 9.5540695 -17.19158 4294967295
156.69914 9.0901279 -17.639978 4294967295
156.70294 19.712791 -18.625198 4294967295
156.72438 10.99452 -17.123869 4294967295
156.73193 10.523874 -17.405405 4294967295
156.769 12.433818 -17.01907 4294967295
156.77182 10.066687 -18.042803 4294967295
156.77425 11.488115 -17.474024 4294967295
156.83591 12.93358 -17.557001 4294967295
156.84732 13.411901 -17.484159 4294967295
156.85774 11.994623 -18.194506 4294967295
156.85886 13.890318 -17.41242 4294967295
156.90494 15.330057 -17.323788 4294967295
156.94081 14.868883 -17.917887 4294967295
156.96051 16.773331 -17.339876 4294967295
156.97092 17.25161 -17.255726 4294967295
156.97389 16.303514 -17.686234 4294967295
156.97476 5.1996241 -16.947939 4294967295
156.99571 4.2639079 -17.57696 4294967295
157.01453 18.690962 -17.139616 4294967295
157.01489 5.6905909 -17.191561 4294967295
157.01576 4.745616 -17.598984 4294967295
157.02917 3.8071384 -18.144691 4294967295
157.04163 7.1214757 -16.889359 4294967295
157.06148 17.757244 -18.055502 4294967295
157.07077 18.234936 -17.95907 4294967295
157.08017 6.6653576 -17.513769 4294967295
157.14247 9.0577574 -17.20575 4294967295
157.14449 7.6391997 -17.825392 4294967295
157.15117 8.1150436 -17.70013 4294967295
157.21172 9.5599632 -17.771437 4294967295
157.24841 10.995106 -17.578812 4294967295
157.25284 10.523452 -17.82716 4294967295
157.26122 11.473825 -17.521055 4294967295
157.2756 11.953213 -17.480808 4294967295
157.3094 13.862103 -17.056259 4294967295
157.35278 13.404495 -17.735762 4294967295
157.35861 14.354715 -17.401321 4294967295
157.36504 12.935425 -18.070704 4294967295
157.37645 14.835506 -17.399017 4294967295
157.40152 3.7399178 -16.925953 4294967295
157.43164 15.804106 -17.61042 4294967295
157.43393 15.330711 -17.835419 4294967295
157.47531 16.293987 -17.89406 4294967295
157.47916 4.7210832 -17.385983 4294967295
157.49094 17.248259 -17.66786 4294967295
157.50584 5.6785374 -17.281889 4294967295
157.519 5.2118683 -17.627428 4294967295
157.52003 16.784025 -18.189859 4294967295
157.52187 4.2684584 -18.05895 4294967295
157.52376 17.734085 -17.831701 4294967295
157.55342 18.218706 -17.96051 4294967295
157.56216 7.122179 -17.306366 4294967295
157.56314 7.5956488 -17.117247 4294967295
157.56461 19.646719 -17.484875 4294967295
157.56636 6.6511354 -17.552656 4294967295
157.57932 6.1842194 -17.896132 4294967295
157.60272 8.0858574 -17.355896 4294967295
157.62115 19.19043 -18.311541 4294967295
157.63791 8.5740223 -17.546131 4294967295
157.64278 9.5225849 -17.199997 4294967295
157.67906 10.01104 -17.402399 4294967295
157.71762 10.97372 -17.429665 4294967295
157.72244 9.0828266 -18.283583 4294967295
157.7677 11.467371 -17.785564 4294967295
157.79515 11.951788 -17.890055 4294967295
157.81764 12.907835 -17.739254 4294967295
157.82301 12.436283 -17.999168 4294967295
157.85535 13.396074 -17.957836 4294967295
157.86894 15.297209 -17.307283 4294967295
157.87254 14.350277 -17.748169 4294967295
157.87691 13.878041 -17.997009 4294967295
157.88281 14.828114 -17.661821 4294967295
157.89722 16.256187 -17.220459 4294967295
157.92004 4.6860743 -16.920933 4294967295
157.92198 16.739475 -17.295149 4294967295
157.95993 5.649826 -16.963409 4294967295
157.96243 15.805326 -18.146048 4294967295
157.98938 18.661436 -17.242287 4294967295
157.99896 4.2503119 -17.999586 4294967295
158.00302 5.1968236 -17.643459 4294967295
158.02728 19.148907 -17.463051 4294967295
158.0377 6.1576552 -17.628031 4294967295
158.03796 17.728712 -18.184042 4294967295
158.04642 7.1070571 -17.32336 4294967295
158.04834 18.20665 -18.098911 4294967295
158.09428 6.6555457 -18.057297 4294967295
158.10577 19.649466 -18.136164 4294967295
158.11148 8.0812855 -17.6462 4294967295
158.13367 9.036869 -17.491747 4294967295
158.18436 10.0045 -17.654514 4294967295
158.19342 10.481541 -17.554541 4294967295
158.1942 9.5354691 -17.965281 4294967295
158.24068 10.974177 -17.880415 4294967295
158.25519 12.874309 -17.23749 4294967295
