# .PCD v0.7 - Point Cloud Data file format
VERSION 0.7
FIELDS x y z rgb
SIZE 4 4 4 4
TYPE F F F U
COUNT 1 1 1 1
WIDTH 1120
HEIGHT 1
VIEWPOINT 0 0 0 1 0 0 0
POINTS 1120
DATA ascii
103.36382 -50.747017 -109.60835 4294967295
103.391 -51.165607 -109.90993 4294967295
103.40637 -63.668201 -110.13686 4294967295
103.41982 -61.04879 -109.53912 4294967295
103.43156 -60.605244 -109.50453 4294967295
103.43217 -61.475166 -109.73888 4294967295
103.43596 -62.777294 -110.11 4294967295
103.44871 -59.722507 -109.39206 4294967295
103.4696 -61.883461 -110.11096 4294967295
103.4861 -62.306488 -110.33914 4294967295
103.52495 -59.233799 -109.80064 4294967295
103.52824 -57.48967 -109.36266 4294967295
103.53434 -60.09758 -110.09534 4294967295
103.55354 -57.907787 -109.65166 4294967295
103.56715 -57.027317 -109.51488 4294967295
103.59943 -58.746624 -110.19726 4294967295
103.62012 -56.555504 -109.76373 4294967295
103.62361 -58.294632 -110.24828 4294967295
103.62992 -66.8899 -109.3767 4294967295
103.64624 -67.746742 -109.71942 4294967295
103.651 -68.177513 -109.86732 4294967295
103.65441 -55.660946 -109.76904 4294967295
103.66816 -55.215977 -109.74835 4294967295
103.67144 -67.293419 -109.77746 4294967295
103.68354 -56.07674 -110.08452 4294967295
103.693 -54.763519 -109.80398 4294967295
103.69657 -53.017513 -109.36744 4294967295
103.71083 -53.879993 -109.69611 4294967295
103.72263 -65.517166 -109.66848 4294967295
103.73371 -64.204704 -109.3988 4294967295
103.73609 -63.768036 -109.29987 4294967295
103.73886 -54.297043 -110.00409 4294967295
103.74417 -64.631897 -109.58612 4294967295
103.76555 -66.354416 -110.19427 4294967295
103.76876 -52.533833 -109.74869 4294967295
103.78125 -65.908371 -110.18702 4294967295
103.78361 -50.779587 -109.38953 4294967295
103.78464 -63.297836 -109.51863 4294967295
103.79951 -65.02594 -110.08216 4294967295
103.81821 -52.065361 -109.97371 4294967295
103.83809 -51.18037 -109.87987 4294967295
103.84608 -60.64304 -109.24918 4294967295
103.85966 -61.068657 -109.45813 4294967295
103.86096 -50.293304 -109.80669 4294967295
103.8628 -59.760479 -109.13344 4294967295
103.87688 -51.591042 -110.2621 4294967295
103.88719 -60.178661 -109.41689 4294967295
103.8876 -61.483841 -109.7659 4294967295
103.97153 -59.248795 -109.76695 4294967295
103.98573 -58.368256 -109.6338 4294967295
104.0061 -57.047676 -109.42773 4294967295
104.01482 -56.606075 -109.37222 4294967295
104.05455 -57.885155 -109.99258 4294967295
104.07843 -56.12698 -109.69521 4294967295
104.10527 -54.80172 -109.53363 4294967295
104.10818 -68.184341 -109.90704 4294967295
104.11643 -66.005875 -109.38616 4294967295
104.12321 -54.353844 -109.54173 4294967295
104.13401 -66.861877 -109.73857 4294967295
104.13887 -67.726929 -110.00305 4294967295
104.1582 -52.150558 -109.20493 4294967295
104.15953 -53.893684 -109.67667 4294967295
104.17108 -53.450123 -109.64076 4294967295
104.17495 -66.396881 -109.90533 4294967295
104.17655 -64.222473 -109.33838 4294967295
104.17912 -65.090134 -109.58739 4294967295
104.18691 -67.256569 -110.2188 4294967295
104.19639 -52.997414 -109.69976 4294967295
104.19899 -65.510078 -109.84001 4294967295
104.22996 -52.539291 -109.81572 4294967295
104.24776 -51.219566 -109.59164 4294967295
104.2505 -61.993881 -109.27026 4294967295
104.28525 -63.708286 -109.97278 4294967295
104.29665 -60.220028 -109.12585 4294967295
104.30882 -51.615616 -110.12867 4294967295
104.32238 -63.246601 -110.11341 4294967295
104.34548 -61.055717 -109.6946 4294967295
104.34974 -59.747181 -109.37678 4294967295
104.35657 -62.787151 -110.23373 4294967295
104.36285 -62.347916 -110.16153 4294967295
104.42899 -68.294487 -109.00455 4294967295
104.4546 -58.367764 -109.75383 4294967295
104.47108 -57.485596 -109.63615 4294967295
104.48386 -67.818459 -109.26795 4294967295
104.49463 -57.904621 -109.91466 4294967295
104.52422 -67.353546 -109.43109 4294967295
104.52744 -56.575874 -109.79395 4294967295
104.53077 -56.138088 -109.70119 4294967295
104.53176 -55.266178 -109.47636 4294967295
104.53215 -55.701576 -109.59489 4294967295
104.54823 -54.383488 -109.35844 4294967295
104.55382 -66.462318 -109.40399 4294967295
104.57842 -66.009399 -109.45816 4294967295
104.59085 -54.790474 -109.76901 4294967295
104.59799 -53.042439 -109.3548 4294967295
104.61294 -51.724262 -109.11026 4294967295
104.6433 -64.657425 -109.55925 4294967295
104.65248 -65.519814 -109.85447 4294967295
104.66682 -52.560799 -109.71505 4294967295
104.67169 -64.201859 -109.63967 4294967295
104.6734 -53.863647 -110.10822 4294967295
104.67619 -52.11869 -109.66389 4294967295
104.68977 -51.237709 -109.52589 4294967295
104.69273 -63.316956 -109.55343 4294967295
104.69599 -61.139423 -108.99576 4294967295
104.69724 -50.796707 -109.46156 4294967295
104.73102 -63.723732 -109.93427 4294967295
104.73913 -60.238083 -109.06227 4294967295
104.74812 -65.014565 -110.40025 4294967295
104.76694 -60.653549 -109.3709 4294967295
104.77551 -62.387264 -109.89433 4294967295
104.80634 -62.799614 -110.22366 4294967295
104.83533 -61.909325 -110.19244 4294967295
104.84339 -61.468788 -110.13233 4294967295
104.85291 -58.4165 -109.38586 4294967295
104.94278 -57.918484 -109.89246 4294967295
104.95277 -67.816505 -109.38809 4294967295
104.99011 -55.708866 -109.63992 4294967295
104.99092 -57.014553 -109.99393 4294967295
105.0273 -66.45713 -109.55619 4294967295
105.02904 -55.246773 -109.79363 4294967295
105.02919 -53.067883 -109.21347 4294967295
105.04681 -56.105476 -110.14907 4294967295
105.05927 -52.61187 -109.30585 4294967295
105.06115 -67.300285 -110.02327 4294967295
105.06872 -54.784309 -109.95253 4294967295
105.08785 -52.156906 -109.38786 4294967295
105.09292 -54.332397 -110.00416 4294967295
105.09921 -65.534546 -109.82249 4294967295
105.10412 -53.453621 -109.84948 4294967295
105.1114 -53.884384 -110.01614 4294967295
105.11357 -51.267826 -109.33378 4294967295
105.11543 -65.956795 -110.05119 4294967295
105.12044 -62.910847 -109.27216 4294967295
105.14018 -50.378082 -109.28576 4294967295
105.15517 -64.189621 -109.86202 4294967295
105.16415 -61.574203 -109.22656 4294967295
105.16491 -63.747879 -109.81339 4294967295
105.17126 -65.046616 -110.20611 4294967295
105.17799 -64.607277 -110.13657 4294967295
105.17807 -51.661385 -109.89758 4294967295
105.22784 -60.65836 -109.43601 4294967295
105.23624 -61.087379 -109.61066 4294967295
105.23959 -50.749264 -110.09203 4294967295
105.26735 -60.195107 -109.59396 4294967295
105.28461 -59.312595 -109.48111 4294967295
105.30668 -59.732098 -109.75069 4294967295
105.30907 -58.86013 -109.53456 4294967295
105.31449 -58.421062 -109.45583 4294967295
105.35082 -57.96035 -109.59175 4294967295
105.37759 -55.764423 -109.1954 4294967295
105.38264 -57.50285 -109.69649 4294967295
105.38961 -56.191784 -109.39544 4294967295
105.39145 -68.271782 -109.41549 4294967295
105.39169 -57.061241 -109.6429 4294967295
105.42831 -55.294083 -109.43148 4294967295
105.45449 -54.404926 -109.38042 4294967295
105.45541 -54.839989 -109.50343 4294967295
105.47354 -56.569305 -110.09534 4294967295
105.47439 -67.774445 -109.87556 4294967295
105.51727 -66.005066 -109.70779 4294967295
105.52374 -51.743126 -109.16245 4294967295
105.53789 -52.605686 -109.49421 4294967295
105.54058 -67.290154 -110.21928 4294967295
105.54086 -66.421677 -109.98827 4294967295
105.54089 -53.039513 -109.63161 4294967295
105.55775 -51.284595 -109.28255 4294967295
105.56573 -50.407032 -109.10475 4294967295
105.57861 -65.524864 -110.01788 4294967295
105.58499 -64.216827 -109.7126 4294967295
105.59317 -63.776215 -109.65297 4294967295
105.59874 -62.90271 -109.45847 4294967295
105.61452 -62.456398 -109.4517 4294967295
105.62126 -52.114429 -109.95764 4294967295
105.63463 -65.048843 -110.29099 4294967295
105.63876 -63.308128 -109.85361 4294967295
105.6423 -50.793026 -109.75433 4294967295
105.64458 -64.607201 -110.24368 4294967295
105.67786 -61.540798 -109.65923 4294967295
105.68847 -60.663303 -109.49981 4294967295
105.69154 -59.355717 -109.17105 4294967295
105.71592 -59.773594 -109.45759 4294967295
105.71648 -61.078114 -109.81149 4294967295
105.77154 -60.168941 -109.96158 4294967295
105.79051 -67.888596 -108.93353 4294967295
105.80151 -57.972473 -109.58685 4294967295
105.80844 -58.837875 -109.86856 4294967295
105.80953 -58.40202 -109.75946 4294967295
105.82666 -55.34219 -109.06119 4294967295
105.85431 -56.194366 -109.48766 4294967295
105.86073 -57.495853 -109.88268 4294967295
105.86636 -66.962166 -109.22854 4294967295
105.89867 -66.503334 -109.33702 4294967295
105.8994 -54.421173 -109.33464 4294967295
105.9207 -57.018932 -110.18396 4294967295
105.92165 -56.583122 -110.07378 4294967295
105.92229 -66.051125 -109.3848 4294967295
105.92604 -53.531658 -109.28661 4294967295
105.93487 -54.832649 -109.69882 4294967295
105.93874 -53.08728 -109.25831 4294967295
105.96113 -64.283844 -109.1881 4294967295
105.97425 -65.577736 -109.63032 4294967295
105.98492 -64.700829 -109.47102 4294967295
106.00056 -62.515533 -108.99528 4294967295
106.00352 -63.383106 -109.2499 4294967295
106.02305 -62.933979 -109.26924 4294967295
106.03371 -62.056431 -109.10969 4294967295
106.05046 -52.140995 -109.80389 4294967295
106.06239 -50.825512 -109.53633 4294967295
106.07395 -52.560989 -110.08461 4294967295
106.08867 -51.679878 -109.95361 4294967295
106.08891 -65.057777 -110.31322 4294967295
106.09341 -50.369171 -109.63586 4294967295
106.1103 -51.229813 -109.98759 4294967295
106.1131 -60.259007 -109.19579 4294967295
106.11874 -61.124969 -109.46928 4294967295
106.12419 -60.686089 -109.39041 4294967295
106.17563 -61.518623 -109.98345 4294967295
106.22607 -57.567623 -109.28247 4294967295
106.24991 -59.291348 -109.91726 4294967295
106.26979 -58.842308 -109.93915 4294967295
106.27231 -58.405518 -109.83972 4294967295
106.29616 -57.083359 -109.65512 4294967295
106.32008 -55.760712 -109.47102 4294967295
106.32254 -57.935135 -110.07363 4294967295
106.32263 -56.629662 -109.7231 4294967295
106.3306 -68.266281 -109.66925 4294967295
106.35504 -67.379379 -109.60586 4294967295
106.36055 -53.990704 -109.28521 4294967295
106.36149 -66.940262 -109.53377 4294967295
106.3989 -53.529026 -109.43628 4294967295
106.40169 -67.777855 -110.04906 4294967295
106.42269 -53.077286 -109.48538 4294967295
106.42885 -54.815231 -109.99715 4294967295
106.43126 -54.378201 -109.89688 4294967295
106.43562 -66.449928 -109.93498 4294967295
106.45487 -65.567017 -109.8353 4294967295
106.46246 -52.614845 -109.64637 4294967295
106.46466 -52.177628 -109.54452 4294967295
106.48627 -65.977585 -110.17205 4294967295
106.49213 -64.23616 -109.74445 4294967295
106.49973 -51.718468 -109.67272 4294967295
106.50656 -62.487141 -109.37634 4294967295
106.51692 -65.086304 -110.1522 4294967295
106.52169 -64.648529 -110.06837 4294967295
106.54638 -63.327114 -109.88958 4294967295
106.5742 -60.698605 -109.38055 4294967295
106.57696 -62.870136 -109.98634 4294967295
106.57716 -51.231369 -110.09726 4294967295
106.58302 -50.355988 -109.90384 4294967295
106.58346 -63.734093 -110.26624 4294967295
106.5845 -61.995499 -109.80465 4294967295
106.59861 -61.550568 -109.78613 4294967295
106.63456 -60.220264 -109.68597 4294967295
106.67281 -61.062138 -110.18832 4294967295
106.67647 -57.144665 -109.1577 4294967295
106.69478 -57.567154 -109.4035 4294967295
106.71618 -59.292175 -110.02294 4294967295
106.72509 -55.804485 -109.14608 4294967295
106.73859 -57.971485 -109.82782 4294967295
106.76173 -58.390095 -110.10735 4294967295
106.77261 -67.850494 -109.48692 4294967295
106.77374 -67.415474 -109.37731 4294967295
106.81122 -56.615349 -109.98469 4294967295
106.81175 -54.438286 -109.40115 4294967295
106.81287 -54.873035 -109.52647 4294967295
106.83232 -56.165554 -110.01516 4294967295
106.83318 -68.237991 -110.02895 4294967295
106.84711 -66.925385 -109.77431 4294967295
106.85281 -53.974731 -109.57158 4294967295
106.85727 -51.792885 -109.0149 4294967295
106.87492 -64.733009 -109.38176 4294967295
106.89641 -62.978539 -109.06215 4294967295
106.90179 -64.278465 -109.45276 4294967295
106.90277 -50.890625 -109.09896 4294967295
106.91669 -53.060341 -109.78457 4294967295
106.93144 -65.993301 -110.13078 4294967295
106.94891 -63.808952 -109.66589 4294967295
106.96004 -63.366234 -109.62633 4294967295
106.96736 -50.41198 -109.43473 4294967295
107.02856 -62.446728 -109.87211 4294967295
107.03407 -60.703976 -109.44025 4294967295
107.06346 -61.552094 -109.8819 4294967295
107.07907 -58.061352 -109.05 4294967295
107.08045 -61.97422 -110.11875 4294967295
107.09169 -58.922756 -109.37418 4294967295
107.0985 -59.787827 -109.65736 4294967295
107.11027 -61.083473 -110.09298 4294967295
107.1198 -60.207306 -109.9247 4294967295
107.1203 -68.37561 -108.87646 4294967295
107.16156 -58.438068 -109.74734 4294967295
107.16354 -59.306404 -109.99667 4294967295
107.18731 -57.114677 -109.57508 4294967295
107.19648 -67.882774 -109.29417 4294967295
107.22217 -66.99472 -109.23911 4294967295
107.22713 -66.556656 -109.15612 4294967295
107.2343 -67.419617 -109.44223 4294967295
107.23785 -57.514221 -110.04793 4294967295
107.24243 -54.464249 -109.25571 4294967295
107.28336 -65.645363 -109.31591 4294967295
107.29085 -55.301758 -109.83186 4294967295
107.29539 -52.249676 -109.03879 4294967295
107.31081 -54.852726 -109.85435 4294967295
107.32991 -65.175949 -109.52542 4294967295
107.3303 -66.044098 -109.76386 4294967295
107.34644 -50.907753 -109.0441 4294967295
107.35596 -53.951138 -109.93636 4294967295
107.36308 -52.639866 -109.63297 4294967295
107.36486 -64.715385 -109.6534 4294967295
107.3814 -53.06303 -109.87961 4294967295
107.38582 -53.495453 -110.02852 4294967295
107.38807 -63.394825 -109.46309 4294967295
107.3937 -51.747993 -109.61251 4294967295
107.41098 -50.429043 -109.38036 4294967295
107.43114 -51.287304 -109.75814 4294967295
107.44292 -63.788475 -109.96693 4294967295
107.45393 -62.911587 -109.8087 4294967295
107.464 -60.73098 -109.28984 4294967295
107.46664 -59.859165 -109.07233 4294967295
107.52209 -62.426945 -110.17052 4294967295
107.54743 -61.105064 -109.99521 4294967295
107.5789 -60.213062 -109.98093 4294967295
107.60593 -59.324196 -109.93544 4294967295
107.60768 -58.01828 -109.59367 4294967295
107.6111 -67.922256 -109.03535 4294967295
107.64624 -55.37981 -109.1567 4294967295
107.65017 -67.458023 -109.1926 4294967295
107.65996 -57.54631 -109.84396 4294967295
107.68117 -56.661327 -109.75732 4294967295
107.68245 -66.564896 -109.18388 4294967295
107.69268 -66.991287 -109.37419 4294967295
107.69335 -55.782478 -109.60707 4294967295
107.70633 -53.596264 -109.10769 4294967295
107.70672 -53.160286 -108.99216 4294967295
107.7084 -56.207169 -109.83123 4294967295
107.73598 -66.089912 -109.44325 4294967295
107.75032 -52.259224 -109.06328 4294967295
107.7599 -54.865891 -109.84005 4294967295
107.77383 -64.324043 -109.23733 4294967295
107.77398 -65.626892 -109.59301 4294967295
107.7912 -52.667351 -109.46997 4294967295
107.79467 -54.406708 -109.96706 4294967295
107.80531 -53.964138 -109.92399 4294967295
107.83455 -50.895298 -109.3029 4294967295
107.84452 -62.53326 -109.26319 4294967295
107.8499 -64.701263 -109.89229 4294967295
107.85474 -61.656315 -109.09866 4294967295
107.86588 -63.82082 -109.76864 4294967295
107.87102 -51.306759 -109.67851 4294967295
107.9091 -51.716843 -110.0655 4294967295
107.93063 -63.338314 -110.10737 4294967295
107.96813 -60.704079 -109.66275 4294967295
107.97218 -61.135742 -109.80962 4294967295
107.99188 -59.38258 -109.47546 4294967295
108.0301 -60.224468 -109.98199 4294967295
108.03445 -58.917171 -109.65788 4294967295
108.04023 -58.043167 -109.46189 4294967295
108.04107 -59.781914 -109.94122 4294967295
108.04419 -68.381721 -109.02441 4294967295
108.09327 -55.829956 -109.24459 4294967295
108.10413 -67.033066 -109.09274 4294967295
108.11285 -55.380974 -109.26456 4294967295
108.11577 -56.249493 -109.52213 4294967295
108.1293 -67.881813 -109.5076 4294967295
108.13168 -56.673447 -109.75294 4294967295
108.14388 -66.134216 -109.13677 4294967295
108.14915 -53.613941 -109.04714 4294967295
108.15079 -57.529808 -110.12483 4294967295
108.17429 -67.41317 -109.70721 4294967295
108.17447 -64.373451 -108.87882 4294967295
108.18266 -54.897259 -109.63956 4294967295
108.18385 -54.461128 -109.52959 4294967295
108.1875 -53.152153 -109.19981 4294967295
108.19972 -66.525711 -109.65022 4294967295
108.22184 -63.903397 -109.09548 4294967295
108.23473 -53.990803 -109.77094 4294967295
108.26851 -52.226002 -109.53586 4294967295
108.28064 -51.346516 -109.38451 4294967295
108.28854 -50.905464 -109.32185 4294967295
108.30286 -63.408421 -109.55024 4294967295
108.30321 -51.767017 -109.66287 4294967295
108.32199 -52.625267 -110.03282 4294967295
108.3255 -62.088173 -109.3546 4294967295
108.3466 -50.431026 -109.61423 4294967295
108.36865 -62.925091 -109.89733 4294967295
108.38808 -61.172989 -109.5605 4294967295
108.38995 -62.474991 -109.9295 4294967295
108.40932 -60.722824 -109.59232 4294967295
108.41721 -59.412827 -109.29214 4294967295
108.42384 -60.277596 -109.57646 4294967295
108.49786 -58.919945 -109.74472 4294967295
108.51376 -59.777756 -110.09473 4294967295
108.53745 -57.152149 -109.5504 4294967295
108.54212 -56.278625 -109.34606 4294967295
108.55275 -57.576241 -109.7776 4294967295
108.55358 -67.045746 -109.07939 4294967295
108.56952 -67.467522 -109.3112 4294967295
108.57471 -57.995422 -110.052 4294967295
108.60358 -54.929985 -109.4254 4294967295
108.62693 -53.607662 -109.23448 4294967295
108.63239 -66.551102 -109.5194 4294967295
108.6454 -53.159492 -109.24658 4294967295
108.657 -63.926903 -108.98074 4294967295
108.66176 -65.66053 -109.49011 4294967295
108.66915 -54.449326 -109.77164 4294967295
108.67359 -66.085564 -109.69276 4294967295
108.67787 -64.345627 -109.24776 4294967295
108.67949 -54.006943 -109.72614 4294967295
108.68211 -64.776726 -109.3967 4294967295
108.68622 -65.207802 -109.54467 4294967295
108.72934 -63.438255 -109.37515 4294967295
108.73756 -52.661205 -109.78165 4294967295
108.75013 -51.346172 -109.51415 4294967295
108.75725 -51.776947 -109.68353 4294967295
108.78345 -50.888191 -109.63174 4294967295
108.79015 -50.448048 -109.56036 4294967295
108.80032 -62.950905 -109.76012 4294967295
108.8132 -61.638145 -109.49478 4294967295
108.83681 -62.055157 -109.78128 4294967295
108.84679 -61.178898 -109.61431 4294967295
108.86877 -62.465752 -110.12706 4294967295
108.87993 -59.416092 -109.37365 4294967295
108.89178 -60.711422 -109.81477 4294967295
108.91572 -58.085655 -109.2708 4294967295
108.93532 -57.636665 -109.29099 4294967295
108.94042 -59.806915 -109.92232 4294967295
108.94398 -68.406311 -109.00386 4294967295
108.96522 -58.919773 -109.8606 4294967295
108.99732 -56.72261 -109.49351 4294967295
108.99916 -56.286228 -109.38751 4294967295
109.00249 -67.058823 -109.06239 4294967295
109.00762 -57.150291 -109.68576 4294967295
109.01841 -55.837566 -109.40517 4294967295
109.06264 -54.936264 -109.4815 4294967295
109.06662 -55.368664 -109.62887 4294967295
109.06782 -65.706245 -109.16946 4294967295
109.07969 -67.433037 -109.73051 4294967295
109.09601 -67.854095 -109.9656 4294967295
109.09875 -52.73436 -109.14236 4294967295
109.1046 -64.809799 -109.19267 4294967295
109.10838 -64.372627 -109.10036 4294967295
109.11524 -52.287529 -109.14041 4294967295
109.12344 -51.410549 -108.96014 4294967295
109.13026 -63.052822 -108.89816 4294967295
109.13184 -65.223289 -109.50568 4294967295
109.13329 -53.581596 -109.62643 4294967295
109.14854 -50.957855 -109.01953 4294967295
109.15696 -54.435616 -110.03307 4294967295
109.15816 -62.597427 -108.97753 4294967295
109.16 -66.503487 -110.06346 4294967295
109.16325 -51.819347 -109.36278 4294967295
109.16555 -53.994579 -109.97511 4294967295
109.20887 -63.862564 -109.69623 4294967295
109.21371 -50.478409 -109.36422 4294967295
109.21812 -63.42141 -109.64287 4294967295
109.23049 -61.674618 -109.25386 4294967295
109.25302 -62.092426 -109.53347 4294967295
109.27896 -60.335072 -109.24101 4294967295
109.28855 -59.893333 -109.18996 4294967295
109.31896 -61.174847 -109.76456 4294967295
109.32167 -60.738407 -109.66449 4294967295
109.33136 -59.42746 -109.37555 4294967295
109.34266 -58.114685 -109.09786 4294967295
109.34611 -58.982006 -109.36127 4294967295
109.41558 -58.497124 -109.73693 4294967295
109.44373 -56.302586 -109.34053 4294967295
109.46198 -55.419441 -109.23163 4294967295
109.46612 -56.721748 -109.61954 4294967295
109.48018 -53.665272 -108.88329 4294967295
109.48027 -67.049522 -109.25147 4294967295
109.48103 -57.580776 -109.96461 4294967295
109.48848 -57.140724 -109.89831 4294967295
109.49291 -68.34108 -109.70003 4294967295
109.51188 -67.892578 -109.71587 4294967295
109.52436 -65.713455 -109.20741 4294967295
109.53654 -64.401489 -108.93552 4294967295
109.54614 -53.184357 -109.23439 4294967295
109.55227 -55.791092 -109.99496 4294967295
109.55392 -67.426178 -109.89614 4294967295
109.58466 -54.463512 -109.86767 4294967295
109.585 -52.722279 -109.39203 4294967295
109.59148 -50.975426 -108.95983 4294967295
109.59154 -63.056763 -108.96926 4294967295
109.59791 -66.090958 -109.8516 4294967295
109.59907 -63.919857 -109.2622 4294967295
109.61923 -54.004459 -109.99483 4294967295
109.62265 -50.518684 -109.06279 4294967295
109.63882 -62.152435 -109.0675 4294967295
109.64854 -51.372585 -109.48687 4294967295
109.65121 -52.241669 -109.74496 4294967295
109.65923 -64.74247 -109.93059 4294967295
109.6617 -51.799156 -109.7003 4294967295
109.66961 -65.168404 -110.12419 4294967295
109.68736 -63.419109 -109.7728 4294967295
109.71379 -61.227798 -109.36356 4294967295
109.7319 -61.648846 -109.61245 4294967295
109.78606 -60.305607 -109.64039 4294967295
109.79279 -59.43153 -109.44908 4294967295
109.79361 -58.126522 -109.09576 4294967295
109.81475 -58.546143 -109.36667 4294967295
109.82015 -60.714966 -110.00362 4294967295
109.82027 -58.976887 -109.52578 4294967295
109.89822 -56.746887 -109.48426 4294967295
109.91437 -57.604996 -109.83914 4294967295
109.92513 -68.366959 -109.56594 4294967295
109.93027 -54.983986 -109.23426 4294967295
109.94202 -66.184586 -109.08759 4294967295
109.95301 -67.47776 -109.52576 4294967295
109.9582 -54.529259 -109.31411 4294967295
109.96081 -67.03791 -109.46174 4294967295
109.98737 -66.583496 -109.5318 4294967295
109.99954 -54.065262 -109.49002 4294967295
110.00098 -55.804333 -109.97947 4294967295
110.00838 -65.699493 -109.44249 4294967295
110.02219 -65.254906 -109.42142 4294967295
110.06186 -64.790588 -109.58538 4294967295
110.06665 -63.484554 -109.25999 4294967295
110.0788 -63.909569 -109.4669 4294967295
110.0869 -52.699284 -109.75547 4294967295
110.09201 -64.333626 -109.68133 4294967295
110.10233 -52.253456 -109.74603 4294967295
110.11425 -61.27681 -109.00089 4294967295
110.1148 -50.938736 -109.47559 4294967295
110.11814 -51.807331 -109.73936 4294967295
110.12793 -62.135597 -109.33886 4294967295
110.14041 -62.560577 -109.5482 4294967295
110.14042 -51.356838 -109.77893 4294967295
110.15968 -60.808632 -109.20623 4294967295
110.16841 -50.467091 -109.73948 4294967295
110.17829 -59.490925 -108.97945 4294967295
110.19418 -61.651897 -109.69339 4294967295
110.19623 -60.347137 -109.34804 4294967295
110.19904 -62.950687 -110.08787 4294967295
110.2158 -59.89819 -109.36824 4294967295
110.22922 -59.019066 -109.22423 4294967295
110.27155 -57.249039 -109.04731 4294967295
110.27487 -58.551216 -109.43138 4294967295
110.31486 -57.652859 -109.47783 4294967295
110.32571 -67.116249 -108.84387 4294967295
110.3391 -56.330868 -109.29123 4294967295
110.35437 -56.754921 -109.5209 4294967295
110.3632 -67.954628 -109.3532 4294967295
110.36431 -68.387398 -109.48135 4294967295
110.37643 -54.999249 -109.19853 4294967295
110.41288 -54.103333 -109.21957 4294967295
110.41364 -53.667511 -109.10474 4294967295
110.41541 -55.406902 -109.5982 4294967295
110.41916 -65.741798 -109.15375 4294967295
110.42039 -55.838291 -109.75418 4294967295
110.42044 -54.533241 -109.39406 4294967295
110.43402 -67.4655 -109.74101 4294967295
110.47428 -53.190201 -109.41969 4294967295
110.48337 -64.824448 -109.37397 4294967295
110.49096 -65.252594 -109.54871 4294967295
110.491 -66.120209 -109.78928 4294967295
110.49804 -66.548409 -109.9599 4294967295
110.50275 -61.769535 -108.67101 4294967295
110.52006 -50.546001 -109.02665 4294967295
110.52374 -64.359604 -109.54349 4294967295
110.55565 -52.263683 -109.76321 4294967295
110.55701 -63.466206 -109.54191 4294967295
110.56655 -51.385609 -109.60105 4294967295
110.58743 -51.806709 -109.87113 4294967295
110.6133 -62.121361 -109.58521 4294967295
110.61582 -60.816402 -109.24238 4294967295
110.63343 -61.23777 -109.48924 4294967295
110.68784 -59.894321 -109.51898 4294967295
110.69315 -60.324833 -109.67751 4294967295
110.69747 -59.018147 -109.34751 4294967295
110.72131 -59.435291 -109.63914 4294967295
110.75014 -57.241013 -109.24439 4294967295
110.77281 -58.094158 -109.6482 4294967295
110.78352 -58.52095 -109.84556 4294967295
110.79098 -67.550354 -109.06541 4294967295
110.797 -57.642056 -109.70168 4294967295
110.79768 -67.111259 -108.99316 4294967295
110.82604 -55.447136 -109.30826 4294967295
110.83231 -66.216438 -109.00113 4294967295
110.83843 -67.946777 -109.52732 4294967295
110.86792 -55.852383 -109.72997 4294967295
110.87258 -56.28384 -109.8839 4294967295
110.87556 -54.977192 -109.54398 4294967295
110.8798 -54.539185 -109.45394 4294967295
110.88493 -53.230019 -109.12915 4294967295
110.90096 -64.861427 -109.13338 4294967295
110.90244 -65.72821 -109.38521 4294967295
110.90337 -54.087605 -109.50293 4294967295
110.91625 -65.283669 -109.36403 4294967295
110.91866 -51.029285 -108.76875 4294967295
110.93195 -52.326832 -109.22641 4294967295
110.95345 -66.556053 -109.99319 4294967295
110.95403 -64.386734 -109.39488 4294967295
110.95739 -51.438526 -109.16833 4294967295
110.99731 -52.717045 -109.81741 4294967295
111.00997 -63.041992 -109.43576 4294967295
111.02455 -60.859344 -108.93741 4294967295
111.02658 -63.463455 -109.67597 4294967295
111.05416 -59.968231 -108.90919 4294967295
111.09104 -60.375561 -109.29572 4294967295
111.09189 -61.677883 -109.66385 4294967295
111.09692 -59.502136 -109.09651 4294967295
111.14834 -59.029846 -109.3464 4294967295
111.1722 -58.143154 -109.27692 4294967295
111.2028 -57.251522 -109.25586 4294967295
111.20573 -57.684162 -109.39781 4294967295
111.23781 -56.356709 -109.26675 4294967295
111.24098 -67.996109 -109.17841 4294967295
111.25555 -55.474155 -109.15298 4294967295
111.26209 -55.904472 -109.32108 4294967295
111.28088 -67.531044 -109.34529 4294967295
111.28188 -54.585365 -109.10118 4294967295
111.28465 -68.395149 -109.6142 4294967295
111.29546 -53.70541 -108.95728 4294967295
111.30633 -67.077415 -109.4081 4294967295
111.31894 -56.733337 -109.9726 4294967295
111.33801 -66.185249 -109.3949 4294967295
111.34664 -66.612228 -109.57812 4294967295
111.35654 -54.097851 -109.51903 4294967295
111.36277 -51.046085 -108.71728 4294967295
111.36282 -53.223225 -109.32261 4294967295
111.38281 -65.716705 -109.59734 4294967295
111.39303 -64.841187 -109.42937 4294967295
111.40582 -52.758205 -109.51199 4294967295
111.41336 -50.576042 -108.96159 4294967295
111.43254 -51.433971 -109.34206 4294967295
111.43813 -65.240196 -109.87568 4294967295
111.44754 -52.294201 -109.69229 4294967295
111.48907 -62.163849 -109.39714 4294967295
111.49482 -63.027664 -109.68057 4294967295
111.51527 -62.578178 -109.70731 4294967295
111.52159 -58.228764 -108.54222 4294967295
111.52319 -60.835472 -109.28058 4294967295
111.5962 -59.478195 -109.4449 4294967295
111.60638 -59.036228 -109.39746 4294967295
111.63401 -56.842651 -108.99154 4294967295
111.64344 -58.5746 -109.54425 4294967295
111.65686 -56.391312 -109.03558 4294967295
111.66444 -57.69017 -109.45395 4294967295
111.67513 -55.943295 -109.04647 4294967295
111.6867 -68.011505 -109.14004 4294967295
111.69278 -55.495712 -109.053 4294967295
111.71484 -55.045021 -109.09135 4294967295
111.72185 -68.417145 -109.51545 4294967295
111.74211 -57.199394 -109.89445 4294967295
111.76195 -66.651314 -109.32082 4294967295
111.76762 -54.572678 -109.35202 4294967295
111.76849 -66.212463 -109.24699 4294967295
111.77834 -65.770988 -109.19701 4294967295
111.80283 -67.486229 -109.85902 4294967295
111.80469 -67.051346 -109.7513 4294967295
111.82583 -53.661751 -109.53087 4294967295
111.82982 -65.297234 -109.44836 4294967295
111.84621 -52.777374 -109.43586 4294967295
111.85489 -64.844048 -109.50864 4294967295
111.86595 -51.457943 -109.21499 4294967295
111.88779 -51.007591 -109.25177 4294967295
111.90456 -52.3018 -109.73706 4294967295
111.9146 -63.496635 -109.5771 4294967295
111.92201 -51.854649 -109.74213 4294967295
111.94151 -50.53558 -109.51958 4294967295
111.99115 -57.792152 -108.55342 4294967295
112.03459 -58.195293 -108.98995 4294967295
112.04376 -57.319057 -108.81338 4294967295
112.08255 -59.029228 -109.58057 4294967295
112.09982 -67.619041 -108.74377 4294967295
112.12808 -56.388523 -109.18187 4294967295
112.13934 -55.075638 -108.89891 4294967295
112.16609 -68.000137 -109.34613 4294967295
112.17076 -56.79248 -109.61297 4294967295
112.17438 -55.920486 -109.3962 4294967295
112.18294 -55.479553 -109.33677 4294967295
112.19662 -66.675308 -109.20294 4294967295
112.24537 -66.20343 -109.43518 4294967295
112.25627 -53.252823 -109.26111 4294967295
112.26982 -53.678387 -109.481 4294967295
112.27276 -54.546082 -109.74545 4294967295
112.27898 -51.495964 -108.9394 4294967295
112.29469 -54.095779 -109.78308 4294967295
112.3008 -65.726517 -109.71597 4294967295
112.31404 -63.113319 -109.08235 4294967295
112.31815 -64.412018 -109.47716 4294967295
112.31928 -63.543346 -109.24211 4294967295
112.33157 -51.895008 -109.44299 4294967295
112.36085 -50.569042 -109.2906 4294967295
112.36566 -59.599319 -108.48322 4294967295
112.37411 -60.462227 -108.78834 4294967295
112.3967 -50.979809 -109.67267 4294967295
112.41586 -60.865391 -109.21352 4294967295
112.44515 -59.974865 -109.18288 4294967295
112.51863 -57.313454 -108.98618 4294967295
112.55049 -56.855591 -109.09606 4294967295
112.55842 -57.719112 -109.39742 4294967295
112.57145 -56.405685 -109.12667 4294967295
112.58883 -67.166527 -108.89757 4294967295
112.61303 -64.544029 -108.34164 4294967295
112.64273 -55.05011 -109.27963 4294967295
112.65283 -67.549393 -109.4852 4294967295
112.65476 -55.910999 -109.6109 4294967295
112.65987 -54.168064 -109.16053 4294967295
112.6636 -67.974174 -109.68539 4294967295
112.66721 -55.467411 -109.57955 4294967295
112.69691 -61.873737 -108.21996 4294967295
112.70276 -53.267773 -109.22878 4294967295
112.70564 -66.640778 -109.6257 4294967295
112.70721 -65.772453 -109.39343 4294967295
112.71858 -51.080338 -108.73387 4294967295
112.72099 -52.819912 -109.23955 4294967295
112.72746 -53.685402 -109.53051 4294967295
112.75201 -62.266327 -108.74355 4294967295
112.75218 -52.363049 -109.34471 4294967295
112.7606 -50.1805 -108.79582 4294967295
112.83705 -50.56369 -109.47479 4294967295
112.92326 -58.228363 -108.89249 4294967295
112.93318 -59.090088 -109.20914 4294967295
112.94975 -68.116798 -108.48471 4294967295
113.02956 -55.542603 -108.93446 4294967295
113.04236 -64.57238 -108.1817 4294967295
113.05753 -64.126411 -108.17007 4294967295
113.08151 -55.94001 -109.43578 4294967295
113.0833 -63.672268 -108.23579 4294967295
113.09319 -52.886929 -108.66488 4294967295
113.10435 -62.787468 -108.14464 4294967295
113.11247 -56.352222 -109.78387 4294967295
113.12022 -62.340942 -108.13809 4294967295
113.12091 -54.607559 -109.35661 4294967295
113.12358 -53.300777 -109.00922 4294967295
113.13998 -51.983639 -108.76182 4294967295
113.15089 -63.186073 -108.60713 4294967295
113.16911 -61.86932 -108.37291 4294967295
113.16924 -52.398502 -109.09793 4294967295
113.1697 -61.434441 -108.25465 4294967295
113.17843 -54.131886 -109.65422 4294967295
113.19382 -60.547169 -108.18576 4294967295
113.23007 -51.485863 -109.2975 4294967295
113.26971 -51.023304 -109.46475 4294967295
113.27688 -60.919121 -108.91551 4294967295
113.31364 -50.557907 -109.66338 4294967295
113.41092 -57.343845 -108.91547 4294967295
113.44957 -65.920334 -108.22755 4294967295
113.47496 -65.466408 -108.29073 4294967295
113.49144 -54.676674 -108.76897 4294967295
113.50217 -64.142906 -108.12162 4294967295
113.50613 -56.40527 -109.36693 4294967295
113.52304 -64.994804 -108.5201 4294967295
113.53055 -63.686726 -108.2067 4294967295
113.53712 -68.018829 -109.48172 4294967295
113.55442 -55.93573 -109.59773 4294967295
113.55798 -55.498585 -109.50127 4294967295
113.56647 -53.318287 -108.95026 4294967295
113.57696 -62.348202 -108.17825 4294967295
113.58379 -54.175926 -109.32234 4294967295
113.59646 -51.556427 -108.67888 4294967295
113.61812 -51.976635 -108.96029 4294967295
113.61842 -52.846657 -109.20795 4294967295
113.63544 -60.131317 -107.99229 4294967295
113.63736 -62.736164 -108.74364 4294967295
113.63904 -51.091564 -108.86806 4294967295
113.65768 -53.688675 -109.74078 4294967295
113.66288 -63.150562 -109.0534 4294967295
113.66512 -61.412384 -108.57864 4294967295
113.66705 -60.97657 -108.46993 4294967295
113.68079 -59.228012 -108.07894 4294967295
113.6836 -52.365948 -109.56271 4294967295
113.68743 -58.788307 -108.00461 4294967295
113.70946 -58.337166 -108.04323 4294967295
113.72083 -50.599834 -109.34457 4294967295
113.80106 -56.965286 -108.34631 4294967295
113.82358 -66.860626 -107.90698 4294967295
113.87117 -65.086823 -107.76388 4294967295
113.88619 -66.377037 -108.24361 4294967295
113.91068 -65.489861 -108.17727 4294967295
113.92351 -64.177544 -107.90199 4294967295
113.9492 -54.683617 -108.81858 4294967295
113.95308 -55.985149 -109.21598 4294967295
113.98897 -62.824074 -108.01334 4294967295
113.99063 -55.088688 -109.24575 4294967295
113.99792 -63.685577 -108.32553 4294967295
113.99799 -53.343868 -108.80767 4294967295
114.00146 -62.380116 -107.98198 4294967295
114.02177 -52.891983 -108.85922 4294967295
114.03331 -60.617775 -107.72292 4294967295
114.03449 -54.187778 -109.32175 4294967295
114.03703 -55.489853 -109.70923 4294967295
114.04418 -63.215687 -108.54233 4294967295
114.05087 -52.436398 -108.94988 4294967295
114.05232 -53.74028 -109.32973 4294967295
114.06551 -51.991009 -108.93438 4294967295
114.07816 -61.452789 -108.29923 4294967295
114.08875 -61.879005 -108.50031 4294967295
114.09248 -51.537006 -109.00942 4294967295
114.10764 -50.655975 -108.87457 4294967295
114.11175 -58.385101 -107.68293 4294967295
114.13377 -60.976219 -108.58479 4294967295
114.15543 -59.222111 -108.25103 4294967295
114.15711 -60.08989 -108.50996 4294967295
114.16418 -57.476475 -107.82201 4294967295
114.17213 -57.905533 -108.00384 4294967295
114.17874 -51.041927 -109.52022 4294967295
114.2499 -58.717152 -108.82275 4294967295
114.30141 -67.284424 -108.22604 4294967295
114.33823 -65.953735 -108.12676 4294967295
114.33904 -65.085159 -107.88573 4294967295
114.33996 -64.216103 -107.64531 4294967295
114.34207 -66.384529 -108.27846 4294967295
114.3625 -55.157383 -108.66472 4294967295
114.36801 -65.496307 -108.22263 4294967295
114.39092 -66.779305 -108.76171 4294967295
114.39676 -64.60582 -108.18739 4294967295
114.42558 -55.981064 -109.37589 4294967295
114.43046 -54.673599 -109.04179 4294967295
114.44753 -63.698139 -108.31437 4294967295
114.48075 -62.369999 -108.18858 4294967295
114.48191 -63.2374 -108.44426 4294967295
114.48411 -61.933144 -108.08979 4294967295
114.49128 -62.796062 -108.38977 4294967295
114.50056 -60.617264 -107.84016 4294967295
114.51266 -60.173527 -107.80565 4294967295
114.51896 -52.001102 -108.95326 4294967295
114.52547 -53.736111 -109.49474 4294967295
114.53542 -50.683964 -108.70401 4294967295
114.54057 -52.420933 -109.23592 4294967295
114.5419 -61.454643 -108.3923 4294967295
114.55083 -51.108524 -108.94127 4294967295
114.55383 -53.281219 -109.58031 4294967295
114.56436 -52.839012 -109.53455 4294967295
114.56515 -58.830029 -107.82174 4294967295
114.57646 -58.386787 -107.78153 4294967295
114.57806 -59.25507 -108.04073 4294967295
114.58057 -59.687763 -108.18297 4294967295
114.59099 -60.98299 -108.63065 4294967295
114.59763 -51.510986 -109.40949 4294967295
114.624 -50.18742 -109.23359 4294967295
114.6633 -57.887589 -108.29855 4294967295
114.67839 -57.00695 -108.16248 4294967295
114.70966 -57.418652 -108.51706 4294967295
114.72035 -66.453835 -107.74068 4294967295
114.77245 -67.279671 -108.37311 4294967295
114.77439 -65.976944 -108.01596 4294967295
114.79655 -64.657494 -107.80808 4294967295
114.82156 -65.071823 -108.11668 4294967295
114.83122 -65.498055 -108.31195 4294967295
114.83794 -56.020737 -109.0929 4294967295
114.83945 -66.79245 -108.74415 4294967295
114.86517 -63.301479 -107.94328 4294967295
114.87835 -64.159325 -108.28857 4294967295
114.8838 -63.721066 -108.20502 4294967295
114.89552 -61.975174 -107.79582 4294967295
114.91641 -54.225372 -109.1776 4294967295
114.92351 -61.084854 -107.75478 4294967295
114.92722 -62.81918 -108.27814 4294967295
114.93051 -54.649887 -109.40543 4294967295
114.9436 -52.901482 -109.00726 4294967295
114.94689 -55.072563 -109.65009 4294967295
114.95493 -51.588318 -108.71951 4294967295
114.95529 -52.023216 -108.84602 4294967295
114.96203 -53.757984 -109.3909 4294967295
114.96722 -60.182579 -107.82994 4294967295
114.98507 -61.472153 -108.33405 4294967295
114.98636 -62.339409 -108.59144 4294967295
114.99595 -51.124462 -108.89878 4294967295
115.00648 -53.291595 -109.59547 4294967295
115.00671 -52.421921 -109.34972 4294967295
115.01115 -60.583687 -108.27896 4294967295
115.01295 -58.844223 -107.79614 4294967295
115.01524 -50.675838 -108.91753 4294967295
115.04738 -57.514156 -107.67857 4294967295
115.07009 -57.932137 -107.97083 4294967295
115.08276 -57.053112 -107.81634 4294967295
115.09597 -50.184689 -109.3906 4294967295
115.09827 -59.214764 -108.55145 4294967295
115.10258 -56.16861 -107.71476 4294967295
115.15337 -67.347343 -107.85384 4294967295
115.15967 -58.300018 -108.75784 4294967295
115.18166 -68.191658 -108.31173 4294967295
115.1827 -66.022362 -107.6985 4294967295
115.18293 -56.544586 -108.43385 4294967295
115.20844 -66.435661 -108.0134 4294967295
115.21684 -65.127319 -107.70296 4294967295
115.232 -65.549248 -107.93953 4294967295
115.25478 -66.832199 -108.48083 4294967295
115.27462 -63.779602 -107.75827 4294967295
115.27581 -64.646774 -108.01566 4294967295
115.27631 -63.34409 -107.64652 4294967295
115.28251 -62.904991 -107.56807 4294967295
115.29955 -64.194138 -108.06737 4294967295
115.30266 -53.848709 -108.57583 4294967295
115.3457 -61.118607 -107.53923 4294967295
115.35128 -54.683243 -109.18429 4294967295
115.35674 -55.11385 -109.34881 4294967295
115.38144 -60.222237 -107.55545 4294967295
115.38522 -52.919865 -108.93924 4294967295
115.39563 -54.216644 -109.38875 4294967295
115.40919 -61.938488 -108.25886 4294967295
115.41639 -52.027863 -108.92203 4294967295
115.43482 -61.484623 -108.32458 4294967295
115.43945 -60.61256 -108.11018 4294967295
115.44196 -62.347229 -108.62617 4294967295
115.44232 -53.313923 -109.48656 4294967295
115.44321 -59.740826 -107.88934 4294967295
115.44344 -50.70356 -108.74987 4294967295
115.46954 -52.425152 -109.44005 4294967295
115.48988 -51.106209 -109.21837 4294967295
115.49759 -58.396126 -107.91959 4294967295
115.49806 -51.535385 -109.40324 4294967295
115.5004 -59.263134 -108.18933 4294967295
115.51796 -58.815441 -108.19525 4294967295
115.51965 -50.215366 -109.19077 4294967295
115.5498 -56.618244 -107.80927 4294967295
115.56217 -57.043953 -108.02563 4294967295
115.56326 -57.912464 -108.28265 4294967295
115.57449 -55.730225 -107.74352 4294967295
115.60609 -55.272141 -107.85369 4294967295
115.60638 -57.445847 -108.47829 4294967295
115.60697 -66.922905 -107.74725 4294967295
115.64072 -67.329361 -108.12246 4294967295
115.65173 -66.453217 -107.95512 4294967295
115.65659 -66.015556 -107.86674 4294967295
115.67537 -64.264786 -107.50775 4294967295
115.69183 -56.079079 -108.73952 4294967295
115.71395 -65.536026 -108.16845 4294967295
115.73612 -65.084656 -108.20863 4294967295
115.76734 -62.890285 -107.81755 4294967295
115.78113 -63.747601 -108.1694 4294967295
115.79433 -63.303299 -108.14287 4294967295
115.8069 -62.425365 -107.98705 4294967295
115.8111 -53.819118 -109.0033 4294967295
115.82036 -54.247112 -109.19653 4294967295
115.84612 -54.662987 -109.51239 4294967295
115.85004 -60.655045 -107.80904 4294967295
115.85334 -59.3489 -107.45913 4294967295
115.8631 -61.079369 -108.03098 4294967295
115.87003 -61.942364 -108.33184 4294967295
115.88512 -53.331306 -109.42884 4294967295
115.8888 -59.756615 -107.84789 4294967295
115.9044 -52.013397 -109.1988 4294967295
115.91417 -61.474247 -108.5356 4294967295
115.93319 -50.688305 -109.03922 4294967295
115.94075 -51.55286 -109.34455 4294967295
115.95024 -58.841175 -108.05564 4294967295
115.95762 -51.106148 -109.3454 4294967295
115.9747 -50.224285 -109.22335 4294967295
115.98881 -55.769028 -107.46865 4294967295
115.99559 -56.199043 -107.64409 4294967295
116.0204 -57.050354 -108.07862 4294967295
116.0267 -68.260475 -107.88769 4294967295
116.03184 -55.302483 -107.6643 4294967295
116.03637 -58.341995 -108.572 4294967295
116.04348 -57.4678 -108.37537 4294967295
116.05768 -57.891651 -108.6059 4294967295
116.06458 -67.362602 -107.92001 4294967295
116.06631 -56.581676 -108.29581 4294967295
116.09332 -65.170631 -107.50941 4294967295
116.09429 -66.904999 -108.01649 4294967295
116.12009 -66.016945 -107.95885 4294967295
116.13038 -67.74263 -108.53508 4294967295
116.13844 -64.700829 -107.72068 4294967295
116.139 -66.435387 -108.22475 4294967295
116.17359 -64.239075 -107.85773 4294967295
116.2106 -54.737331 -108.87135 4294967295
116.22876 -52.985077 -108.50716 4294967295
116.23246 -62.890808 -107.92164 4294967295
116.24525 -63.314781 -108.14212 4294967295
116.27986 -60.248478 -107.5246 4294967295
116.28504 -53.814167 -109.17645 4294967295
116.30306 -52.497082 -108.93623 4294967295
116.3172 -51.617214 -108.79178 4294967295
116.35119 -50.723186 -108.79539 4294967295
116.35318 -57.150043 -107.19536 4294967295
116.37451 -56.6992 -107.22938 4294967295
116.37968 -51.138153 -109.13283 4294967295
116.39491 -57.988483 -107.75752 4294967295
116.39906 -58.854465 -108.03891 4294967295
116.4025 -59.286255 -108.18978 4294967295
116.43302 -50.230865 -109.28088 4294967295
116.43356 -58.393993 -108.17136 4294967295
116.45853 -68.28743 -107.74371 4294967295
116.45905 -67.419838 -107.49693 4294967295
116.48689 -56.181171 -107.94359 4294967295
116.50541 -67.815651 -107.96866 4294967295
116.52793 -54.846451 -107.87444 4294967295
116.53861 -66.921677 -107.96622 4294967295
116.55782 -66.47258 -107.9845 4294967295
116.59023 -65.1455 -107.85081 4294967295
116.61864 -65.55648 -108.18852 4294967295
116.66688 -53.440971 -108.53719 4294967295
116.67502 -52.565281 -108.34746 4294967295
116.68476 -54.297459 -108.92138 4294967295
116.72427 -52.095127 -108.59044 4294967295
116.72476 -53.833858 -109.09511 4294967295
116.73823 -51.215145 -108.44417 4294967295
116.74584 -52.949371 -109.00223 4294967295
116.76292 -50.7626 -108.50349 4294967295
116.7797 -57.6152 -107.13488 4294967295
116.78702 -57.174805 -107.06405 4294967295
116.80302 -51.604229 -109.05415 4294967295
116.82063 -59.322811 -107.94398 4294967295
116.84428 -58.001442 -107.74442 4294967295
116.86082 -50.258785 -109.11057 4294967295
116.86865 -67.898659 -107.31091 4294967295
116.89541 -66.141754 -107.00841 4294967295
116.89627 -55.788872 -107.50562 4294967295
116.89647 -58.396591 -108.26083 4294967295
116.90866 -56.64933 -107.84986 4294967295
116.9099 -55.343872 -107.48212 4294967295
116.92142 -54.900406 -107.44264 4294967295
116.92997 -67.414993 -107.64473 4294967295
116.96725 -68.251312 -108.17547 4294967295
116.99116 -54.414444 -107.83977 4294967295
116.99562 -56.150173 -108.37582 4294967295
117.04065 -66.891472 -108.34873 4294967295
117.11335 -64.665558 -108.26552 4294967295
117.1669 -52.11285 -108.52918 4294967295
117.17075 -52.979752 -108.80937 4294967295
117.20072 -53.827229 -109.28536 4294967295
117.21091 -53.385365 -109.23619 4294967295
117.21132 -50.776268 -108.48534 4294967295
117.21763 -50.336689 -108.40686 4294967295
117.23173 -52.501209 -109.14113 4294967295
117.28412 -58.021591 -107.65974 4294967295
117.29073 -51.155006 -109.20686 4294967295
117.31516 -68.347313 -107.40133 4294967295
117.35153 -55.797604 -107.53621 4294967295
117.35656 -67.879791 -107.58646 4294967295
117.38974 -54.464619 -107.44526 4294967295
117.40428 -54.88895 -107.68066 4294967295
117.40707 -56.625713 -108.20571 4294967295
117.40718 -57.060089 -108.3325 4294967295
117.40921 -57.492928 -108.47369 4294967295
117.42299 -67.391953 -107.95979 4294967295
117.43374 -56.171333 -108.28017 4294967295
117.46785 -66.921982 -108.1711 4294967295
117.50483 -66.458549 -108.32306 4294967295
117.53647 -53.922623 -108.42253 4294967295
117.55355 -52.170715 -108.04678 4294967295
117.61028 -53.434299 -108.85166 4294967295
117.63766 -52.979855 -108.93156 4294967295
117.64768 -51.668388 -108.62895 4294967295
117.69364 -50.330883 -108.5965 4294967295
117.70716 -51.191162 -108.95043 4294967295
117.72134 -50.746262 -108.93105 4294967295
117.75501 -68.367851 -107.31603 4294967295
117.75574 -56.279083 -107.30888 4294967295
117.78074 -56.695171 -107.62373 4294967295
117.78963 -67.038712 -107.19758 4294967295
117.81146 -66.587219 -107.23573 4294967295
117.83486 -57.95779 -108.41074 4294967295
117.84267 -57.517632 -108.34328 4294967295
117.84492 -66.126328 -107.36166 4294967295
117.84697 -67.425301 -107.75645 4294967295
117.85393 -54.901772 -107.66985 4294967295
117.86261 -65.678284 -107.36856 4294967295
117.86332 -57.067768 -108.37257 4294967295
117.86893 -54.455864 -107.65652 4294967295
117.90214 -55.735497 -108.28622 4294967295
117.95007 -53.961609 -108.14209 4294967295
117.97692 -53.507236 -108.21825 4294967295
118.02502 -52.602745 -108.32819 4294967295
118.06946 -51.701019 -108.41065 4294967295
118.09454 -52.117847 -108.72633 4294967295
118.10529 -52.97934 -109.06033 4294967295
118.13196 -50.351612 -108.50302 4294967295
118.15533 -51.2048 -108.9323 4294967295
118.1645 -50.763474 -108.87514 4294967295
118.21852 -56.716846 -107.52332 4294967295
118.23176 -57.141479 -107.75014 4294967295
118.24306 -67.048134 -107.21451 4294967295
118.25111 -55.388248 -107.38937 4294967295
118.26397 -67.897865 -107.62627 4294967295
118.28992 -54.924667 -107.556 4294967295
118.29433 -54.486549 -107.46251 4294967295
118.29581 -56.224346 -107.98094 4294967295
118.29883 -55.787529 -107.87704 4294967295
118.32935 -67.410683 -107.99393 4294967295
118.33441 -68.272781 -108.28568 4294967295
118.37118 -53.995224 -107.9171 4294967295
118.48423 -53.477829 -108.64561 4294967295
118.49606 -52.165146 -108.35484 4294967295
118.53632 -51.70134 -108.53272 4294967295
118.54117 -52.567253 -108.823 4294967295
118.54454 -52.999352 -108.97523 4294967295
118.54966 -51.256943 -108.50681 4294967295
118.61777 -50.773479 -108.89577 4294967295
118.63281 -57.190895 -107.37169 4294967295
118.65089 -50.315159 -109.01975 4294967295
118.66502 -67.083397 -106.99297 4294967295
118.67513 -67.942055 -107.32408 4294967295
118.69898 -54.967579 -107.23748 4294967295
118.69932 -68.355286 -107.63474 4294967295
118.72216 -67.469826 -107.55358 4294967295
118.7224 -56.254288 -107.79675 4294967295
118.7252 -56.686665 -107.9451 4294967295
118.73113 -55.378502 -107.60867 4294967295
118.74422 -54.064301 -107.32623 4294967295
118.79712 -55.763866 -108.23634 4294967295
118.82551 -54.439201 -108.0703 4294967295
118.86295 -53.542305 -108.10007 4294967295
118.9029 -52.643654 -108.14886 4294967295
118.9334 -52.186729 -108.25313 4294967295
118.9576 -50.864555 -108.05511 4294967295
118.98178 -50.412254 -108.11153 4294967295
118.98876 -51.71196 -108.54632 4294967295
119.03446 -51.244366 -108.76611 4294967295
119.10268 -55.884415 -107.13173 4294967295
119.11523 -68.395699 -107.36815 4294967295
119.12663 -55.431686 -107.18647 4294967295
119.12897 -56.733925 -107.58699 4294967295
119.13969 -67.942062 -107.42664 4294967295
119.14008 -56.291019 -107.54386 4294967295
119.18468 -54.51886 -107.37284 4294967295
119.30939 -53.557343 -108.06689 4294967295
119.34504 -53.096531 -108.21076 4294967295
119.41912 -50.433823 -108.00909 4294967295
119.44662 -50.849102 -108.34625 4294967295
119.50534 -51.241623 -108.92116 4294967295
119.50657 -51.675285 -109.05813 4294967295
119.57604 -68.398682 -107.44287 4294967295
119.59759 -67.947502 -107.47932 4294967295
119.638 -56.701618 -108.03013 4294967295
119.64006 -54.962158 -107.53402 4294967295
119.66176 -54.511322 -107.57169 4294967295
