# .PCD v0.7 - Point Cloud Data file format
VERSION 0.7
FIELDS x y z rgb
SIZE 4 4 4 4
TYPE F F F U
COUNT 1 1 1 1
WIDTH 1148
HEIGHT 1
VIEWPOINT 0 0 0 1 0 0 0
POINTS 1148
DATA ascii
171.73634 59.077721 -54.860939 4294967295
171.74194 45.096649 -55.634972 4294967295
171.75179 48.345993 -54.247948 4294967295
171.77953 60.942074 -54.531433 4294967295
171.81551 46.95845 -55.680763 4294967295
171.82214 47.422901 -55.547218 4294967295
171.83446 49.280861 -54.836906 4294967295
171.83714 50.210487 -54.438477 4294967295
171.85052 50.676132 -54.387947 4294967295
171.85632 49.746803 -54.891197 4294967295
171.87598 47.891148 -55.996059 4294967295
171.88115 48.819565 -55.629036 4294967295
171.90125 52.539013 -54.150459 4294967295
171.93192 53.005295 -54.313595 4294967295
171.94202 51.610077 -55.086594 4294967295
171.96022 51.146069 -55.527275 4294967295
171.97238 53.471642 -54.597721 4294967295
171.98822 54.403011 -54.361313 4294967295
172.07219 53.938656 -55.616158 4294967295
172.07237 44.601017 -54.163902 4294967295
172.0751 56.732391 -54.355 4294967295
172.08614 55.334782 -55.140419 4294967295
172.08632 45.530704 -53.903625 4294967295
172.08821 54.869316 -55.382431 4294967295
172.09265 57.198269 -54.355736 4294967295
172.09482 56.266167 -54.815525 4294967295
172.10269 59.064095 -53.61377 4294967295
172.10567 58.130672 -54.083782 4294967295
172.12485 45.070713 -54.59742 4294967295
172.14136 59.529343 -53.876232 4294967295
172.14664 57.663277 -54.807976 4294967295
172.14999 44.146271 -55.341499 4294967295
172.16035 59.995338 -53.894867 4294967295
172.22961 60.925465 -54.320084 4294967295
172.23492 46.009609 -55.528385 4294967295
172.25877 47.86755 -54.958153 4294967295
172.27365 50.191696 -54.05851 4294967295
172.28658 49.262821 -54.652599 4294967295
172.29327 48.334427 -55.16914 4294967295
172.31242 47.407879 -55.839806 4294967295
172.35567 49.731613 -55.29319 4294967295
172.37125 52.056545 -54.401951 4294967295
172.38664 50.662392 -55.244019 4294967295
172.40488 51.127922 -55.253635 4294967295
172.41689 54.385296 -53.882858 4294967295
172.42091 51.593372 -55.236107 4294967295
172.45699 52.989483 -55.032932 4294967295
172.48463 53.45528 -55.159668 4294967295
172.50066 55.317406 -54.489624 4294967295
172.50693 55.78326 -54.350471 4294967295
172.51633 57.18166 -53.814705 4294967295
172.5269 54.851845 -55.03355 4294967295
172.53787 56.715031 -54.300446 4294967295
172.55434 44.12204 -54.565399 4294967295
172.56985 58.579826 -53.82798 4294967295
172.59735 45.054409 -54.665718 4294967295
172.60394 46.447231 -54.094742 4294967295
172.61383 45.984005 -54.435753 4294967295
172.61705 59.978279 -53.762497 4294967295
172.6219 59.511211 -54.040783 4294967295
172.62317 59.04451 -54.274406 4294967295
172.62428 57.645554 -54.941044 4294967295
172.6268 58.11161 -54.754784 4294967295
172.65549 44.597282 -55.606697 4294967295
172.66797 46.917313 -54.674744 4294967295
172.69942 60.44091 -54.570724 4294967295
172.72131 47.850182 -54.903748 4294967295
172.74921 48.780926 -54.815979 4294967295
172.7576 48.317204 -55.138359 4294967295
172.76517 50.640854 -54.143463 4294967295
172.79991 51.57267 -54.140549 4294967295
172.8103 50.17836 -54.92421 4294967295
172.83812 49.25119 -55.706787 4294967295
172.84172 49.715672 -55.53392 4294967295
172.88091 52.040821 -54.933357 4294967295
172.88348 51.111301 -55.401466 4294967295
172.90067 52.5065 -54.961971 4294967295
172.90863 55.300007 -53.751472 4294967295
172.91499 54.834068 -54.049503 4294967295
172.91626 53.437298 -54.720314 4294967295
172.94345 52.972733 -55.278023 4294967295
172.98596 54.369045 -55.154465 4294967295
172.99768 56.231663 -54.427528 4294967295
172.99905 57.163918 -54.007515 4294967295
173.00044 45.030525 -53.866802 4294967295
173.03625 57.629417 -54.254047 4294967295
173.05896 56.696854 -54.975266 4294967295
173.06929 59.49453 -53.7924 4294967295
173.07747 58.094604 -54.551235 4294967295
173.08723 44.113029 -55.389297 4294967295
173.09468 45.968433 -54.608391 4294967295
173.11636 58.559643 -54.819324 4294967295
173.11992 59.958981 -54.207436 4294967295
173.1257 44.580826 -55.652039 4294967295
173.13272 60.425129 -54.148758 4294967295
173.14238 45.509529 -55.424 4294967295
173.14667 59.024799 -54.979782 4294967295
173.16777 47.831532 -54.648338 4294967295
173.17874 48.296741 -54.566887 4294967295
173.20041 47.370087 -55.275841 4294967295
173.21532 46.907543 -55.681149 4294967295
173.22478 48.764469 -54.924721 4294967295
173.26082 51.090084 -54.281403 4294967295
173.27153 52.020912 -53.977272 4294967295
173.29439 52.487038 -54.044716 4294967295
173.31442 52.953045 -54.076744 4294967295
173.33395 49.700119 -55.855026 4294967295
173.33447 50.164398 -55.64257 4294967295
173.36259 51.559341 -55.338684 4294967295
173.38391 55.282646 -53.851639 4294967295
173.39482 54.35112 -54.427643 4294967295
173.40665 56.214787 -53.69799 4294967295
173.40863 53.420555 -55.039673 4294967295
173.42972 57.147163 -53.54837 4294967295
173.4399 54.817066 -54.774139 4294967295
173.44388 53.886379 -55.26297 4294967295
173.46707 55.748398 -54.676746 4294967295
173.48705 57.61235 -54.049011 4294967295
173.48927 59.0121 -53.4175 4294967295
173.49745 56.679832 -54.619415 4294967295
173.52939 58.07756 -54.361916 4294967295
173.56175 44.097118 -55.488205 4294967295
173.57117 45.952446 -54.728573 4294967295
173.59909 46.883102 -54.639938 4294967295
173.59917 60.407578 -54.139977 4294967295
173.60059 46.419228 -54.878819 4294967295
173.64526 47.351227 -55.001194 4294967295
173.68399 48.74688 -54.829041 4294967295
173.69312 49.676517 -54.503956 4294967295
173.69946 47.819725 -55.463631 4294967295
173.72667 51.537975 -54.045921 4294967295
173.73485 50.608337 -54.589561 4294967295
173.74388 48.287113 -55.802967 4294967295
173.77318 50.145741 -55.29245 4294967295
173.77397 49.217239 -55.74221 4294967295
173.78214 52.935799 -54.08416 4294967295
173.78381 51.075478 -54.986362 4294967295
173.80647 52.006126 -54.831367 4294967295
173.82288 54.799225 -53.715488 4294967295
173.82976 53.867802 -54.24366 4294967295
173.83778 53.4025 -54.565342 4294967295
173.83821 54.333542 -54.129944 4294967295
173.85593 52.472721 -55.234756 4294967295
173.86629 56.197449 -53.601284 4294967295
173.87039 55.265308 -54.094761 4294967295
173.92802 55.731045 -54.601761 4294967295
173.93689 56.662804 -54.272049 4294967295
173.95789 58.061195 -53.874893 4294967295
173.98166 58.993599 -53.733528 4294967295
173.98967 57.594044 -54.49754 4294967295
173.9937 45.003227 -54.610237 4294967295
173.99428 58.526543 -54.113899 4294967295
174.01422 57.127506 -55.02803 4294967295
174.04543 59.924278 -54.097595 4294967295
174.04742 45.936455 -54.847431 4294967295
174.05124 45.473133 -55.116161 4294967295
174.09357 46.868626 -54.988926 4294967295
174.09523 46.404938 -55.230747 4294967295
174.106 48.726635 -54.262375 4294967295
174.13167 50.122555 -53.923527 4294967295
174.15404 48.2658 -55.091091 4294967295
174.17126 49.195602 -54.86705 4294967295
174.17989 47.803833 -55.638901 4294967295
174.21634 50.59193 -54.774162 4294967295
174.23813 51.057743 -54.828712 4294967295
174.25398 49.665157 -55.69297 4294967295
174.26639 51.523773 -54.965446 4294967295
174.28743 53.850353 -54.124943 4294967295
174.30417 51.99004 -55.22298 4294967295
174.31796 52.920349 -54.955112 4294967295
174.34041 52.456059 -55.461029 4294967295
174.34128 53.386009 -55.029144 4294967295
174.3428 55.247952 -54.162331 4294967295
174.34317 55.713867 -53.945114 4294967295
174.36446 54.782352 -54.658508 4294967295
174.38797 54.317158 -55.178429 4294967295
174.40878 57.111431 -54.112175 4294967295
174.41206 44.980915 -53.994232 4294967295
174.42239 56.645134 -54.506683 4294967295
174.43829 57.577019 -54.264984 4294967295
174.44786 45.448757 -54.226814 4294967295
174.47711 58.04221 -54.53616 4294967295
174.49217 59.440964 -54.061295 4294967295
174.52872 58.972969 -54.747658 4294967295
174.53877 44.068775 -56.046127 4294967295
174.54163 59.905289 -54.467613 4294967295
174.54407 45.922554 -55.226898 4294967295
174.56653 60.370625 -54.562222 4294967295
174.5901 46.854385 -55.368149 4294967295
174.59023 47.318237 -55.147743 4294967295
174.5976 47.782852 -55.019402 4294967295
174.60901 46.392551 -55.83025 4294967295
174.62666 48.249229 -55.167118 4294967295
174.62813 49.64238 -54.519073 4294967295
174.63084 49.178047 -54.775887 4294967295
174.65311 50.108498 -54.614662 4294967295
174.69475 50.575394 -54.922134 4294967295
174.71727 52.901318 -54.096687 4294967295
174.72578 51.041557 -55.094925 4294967295
174.73003 51.506466 -54.926636 4294967295
174.74438 53.367382 -54.219429 4294967295
174.75304 53.833038 -54.106918 4294967295
174.75986 52.437355 -54.861504 4294967295
174.81671 55.696468 -54.027412 4294967295
174.82236 54.299488 -54.767509 4294967295
174.82597 44.030048 -53.762363 4294967295
174.85403 44.49725 -53.897293 4294967295
174.85925 56.628124 -54.123737 4294967295
174.88715 57.559998 -54.033882 4294967295
174.88972 57.093731 -54.289711 4294967295
174.91194 58.025669 -54.127037 4294967295
174.93977 44.970818 -54.768219 4294967295
174.95038 45.43565 -54.680786 4294967295
174.9519 59.890503 -53.744576 4294967295
174.96992 59.422951 -54.197906 4294967295
174.99377 45.903904 -55.011642 4294967295
174.99841 46.83205 -54.624657 4294967295
175.05597 48.229321 -54.690544 4294967295
175.0583 46.373951 -55.612595 4294967295
175.06473 48.69429 -54.579132 4294967295
175.09027 49.624989 -54.458939 4294967295
175.1136 49.162041 -54.98061 4294967295
175.12344 47.770706 -55.77578 4294967295
175.13925 51.486877 -54.191414 4294967295
175.16144 52.41806 -54.028 4294967295
175.17178 53.814934 -53.4888 4294967295
175.20619 50.560585 -55.494617 4294967295
175.21739 51.025574 -55.414612 4294967295
175.21986 51.955006 -54.999382 4294967295
175.26878 54.281944 -54.507309 4294967295
175.28569 52.886791 -55.394657 4294967295
175.29709 54.747692 -54.646133 4294967295
175.31233 56.144863 -54.169647 4294967295
175.33961 56.610535 -54.295563 4294967295
175.34525 55.213356 -55.039207 4294967295
175.35483 44.484348 -54.329845 4294967295
175.3623 57.076191 -54.362293 4294967295
175.37343 58.47477 -53.832104 4294967295
175.37901 59.407951 -53.455223 4294967295
175.38055 44.023945 -54.88369 4294967295
175.38504 45.415272 -54.269089 4294967295
175.40541 58.00742 -54.466782 4294967295
175.42154 58.939537 -54.225552 4294967295
175.42303 57.540901 -54.91721 4294967295
175.43088 45.883934 -54.632957 4294967295
175.43326 44.956955 -55.111786 4294967295
175.44939 59.87146 -54.134109 4294967295
175.48253 47.280666 -54.623108 4294967295
175.53479 48.677467 -54.621166 4294967295
175.53735 46.358253 -55.775238 4294967295
175.54897 50.072083 -54.129913 4294967295
175.54982 47.750397 -55.26281 4294967295
175.55647 48.214912 -55.124107 4294967295
175.56273 46.824135 -55.876686 4294967295
175.56656 49.144039 -54.805054 4294967295
175.57404 51.468319 -53.778236 4294967295
175.59511 49.610268 -54.947411 4294967295
175.60229 52.399986 -53.691528 4294967295
175.60898 51.934914 -54.00267 4294967295
175.64995 53.797821 -53.630043 4294967295
175.67697 50.54369 -55.550827 4294967295
175.69843 53.333282 -54.478951 4294967295
175.73068 54.26458 -54.444252 4294967295
175.73846 56.127804 -53.644058 4294967295
175.79959 54.730618 -55.106728 4294967295
175.80922 57.059128 -54.10524 4294967295
175.81761 55.19603 -55.113785 4294967295
175.82079 55.661491 -54.929661 4294967295
175.82684 44.004578 -54.621536 4294967295
175.83609 44.469189 -54.515583 4294967295
175.86275 58.923016 -53.893959 4294967295
175.86296 58.45652 -54.121933 4294967295
175.86304 46.327454 -53.961723 4294967295
175.86807 56.5923 -55.088829 4294967295
175.88208 45.401634 -54.658325 4294967295
175.88254 59.388813 -53.923553 4294967295
175.89207 45.866425 -54.561752 4294967295
175.89648 57.523304 -55.004807 4294967295
175.91994 59.853714 -54.180511 4294967295
175.92932 47.726139 -54.140518 4294967295
175.97559 48.194164 -54.512077 4294967295
176.00935 46.805344 -55.623825 4294967295
176.02205 47.270115 -55.562576 4294967295
176.02574 50.055531 -54.257309 4294967295
176.02873 49.126659 -54.74725 4294967295
176.03615 48.662949 -55.068512 4294967295
176.04326 51.451218 -53.806 4294967295
176.05582 50.986755 -54.194118 4294967295
176.07118 49.593773 -55.069847 4294967295
176.10643 52.383953 -54.17086 4294967295
176.12343 51.919495 -54.616341 4294967295
176.13269 53.780792 -53.832188 4294967295
176.14722 54.246658 -53.794197 4294967295
176.14758 50.526787 -55.605827 4294967295
176.16394 54.712563 -53.784218 4294967295
176.19153 52.851585 -55.045509 4294967295
176.2231 53.317322 -55.22794 4294967295
176.22815 55.178581 -54.388988 4294967295
176.24174 55.644264 -54.338818 4294967295
176.27078 57.041794 -54.035954 4294967295
176.29346 56.109688 -54.78236 4294967295
176.3046 57.973469 -54.021103 4294967295
176.30608 44.91629 -54.331482 4294967295
176.31342 58.439575 -53.908821 4294967295
176.3159 56.57515 -54.846661 4294967295
176.3308 57.506611 -54.587021 4294967295
176.35632 58.904461 -54.238609 4294967295
176.37341 45.851021 -54.751411 4294967295
176.38548 59.369686 -54.389862 4294967295
176.40514 44.464554 -55.841057 4294967295
176.41724 45.39222 -55.545593 4294967295
176.41878 48.175266 -54.206779 4294967295
176.43446 46.320866 -55.316399 4294967295
176.4509 48.642082 -54.396904 4294967295
176.50426 47.254551 -55.768845 4294967295
176.52969 50.505165 -54.512493 4294967295
176.5518 51.435829 -54.34576 4294967295
176.55917 49.113972 -55.575451 4294967295
176.57298 50.972023 -54.848015 4294967295
176.5862 50.043888 -55.472908 4294967295
176.58998 53.763325 -53.706017 4294967295
176.59822 54.229141 -53.585938 4294967295
176.60478 51.902855 -54.806984 4294967295
176.61798 52.368206 -54.751686 4294967295
176.65274 55.161137 -53.84024 4294967295
176.66789 55.627018 -53.809914 4294967295
176.68401 53.299942 -55.155907 4294967295
176.68491 54.695633 -54.486206 4294967295
176.7045 56.092751 -54.058861 4294967295
176.72017 56.558559 -54.035599 4294967295
176.75128 44.896908 -54.050652 4294967295
176.77386 58.422302 -53.824184 4294967295
176.78456 57.023506 -54.64624 4294967295
176.79489 59.821491 -53.414497 4294967295
176.8007 59.35442 -53.718231 4294967295
176.80396 43.976376 -55.19162 4294967295
176.8264 57.95443 -54.736137 4294967295
176.84148 45.370689 -54.998207 4294967295
176.84274 44.44426 -55.469307 4294967295
176.86377 45.836594 -55.060944 4294967295
176.87492 46.301327 -54.978611 4294967295
176.91898 46.769253 -55.3256 4294967295
176.92876 48.161659 -54.769745 4294967295
176.92958 47.233906 -55.235958 4294967295
176.95171 47.6996 -55.296745 4294967295
176.9742 49.557671 -54.678886 4294967295
176.98447 50.952187 -54.129002 4294967295
176.9875 49.094288 -55.080559 4294967295
176.98752 50.487553 -54.396946 4294967295
177.00726 50.02412 -54.88266 4294967295
177.02379 51.883827 -54.185875 4294967295
177.05165 53.280411 -53.86496 4294967295
177.05775 52.815239 -54.173096 4294967295
177.08081 51.42136 -55.15889 4294967295
177.08617 54.212093 -53.859238 4294967295
177.11595 52.352036 -55.161819 4294967295
177.1666 55.143898 -54.453964 4294967295
177.16823 54.678432 -54.703766 4294967295
177.17906 56.075298 -54.159843 4294967295
177.18166 55.609516 -54.422173 4294967295
177.21216 56.540825 -54.364212 4294967295
177.22247 57.006603 -54.270554 4294967295
177.22609 59.338715 -53.17321 4294967295
177.23282 58.405075 -53.719444 4294967295
177.25838 57.937939 -54.283108 4294967295
177.26888 44.885902 -54.71521 4294967295
177.27429 58.870049 -54.033798 4294967295
177.31465 45.354534 -55.085968 4294967295
177.32678 43.966667 -55.930046 4294967295
177.32832 45.819469 -55.036278 4294967295
177.33588 46.747574 -54.67783 4294967295
177.37589 47.215107 -54.973194 4294967295
177.40317 46.290607 -55.788147 4294967295
177.43721 48.147991 -55.319229 4294967295
177.45258 48.613087 -55.291824 4294967295
177.45901 49.077576 -55.147247 4294967295
177.46204 49.541954 -54.957859 4294967295
177.49001 50.936932 -54.637535 4294967295
177.49344 50.472549 -54.911583 4294967295
177.51886 50.009689 -55.474411 4294967295
177.53517 52.798294 -54.31295 4294967295
177.54675 53.729164 -54.005894 4294967295
177.56334 53.264194 -54.453384 4294967295
177.56477 51.869514 -55.160427 4294967295
177.58215 54.660698 -54.011871 4294967295
177.59634 54.195351 -54.428062 4294967295
177.59727 55.592281 -53.75098 4294967295
177.61795 56.058128 -53.793133 4294967295
177.66293 56.523624 -54.154999 4294967295
177.66821 58.38863 -53.304359 4294967295
177.66956 55.126652 -54.931213 4294967295
177.69487 44.400742 -54.41172 4294967295
177.7049 57.454884 -54.246952 4294967295
177.70898 56.988819 -54.53075 4294967295
177.72137 43.940754 -54.99054 4294967295
177.73448 59.319355 -53.716164 4294967295
177.76552 57.919327 -54.815033 4294967295
177.76677 58.851536 -54.371445 4294967295
177.77318 46.727791 -54.292862 4294967295
177.77962 44.874187 -55.297127 4294967295
177.79372 45.802437 -55.023193 4294967295
177.82205 47.196278 -54.70639 4294967295
177.84747 45.345055 -55.960358 4294967295
177.8492 46.271645 -55.523811 4294967295
177.88229 48.129261 -55.039898 4294967295
177.89705 49.058517 -54.773998 4294967295
177.92058 52.313255 -53.470943 4294967295
177.92744 49.524803 -54.944534 4294967295
177.9398 49.989868 -54.877048 4294967295
177.95612 51.849377 -54.170467 4294967295
177.97313 50.456142 -55.086433 4294967295
177.97444 50.920662 -54.873524 4294967295
177.9911 51.386032 -54.862804 4294967295
178.009 52.781265 -54.407383 4294967295
178.07408 54.178192 -54.574875 4294967295
178.09622 53.248505 -55.328598 4294967295
178.10063 53.713486 -55.156124 4294967295
178.10785 55.109241 -54.559406 4294967295
178.11317 56.04052 -54.167938 4294967295
178.11557 55.574791 -54.430656 4294967295
178.11633 56.506386 -53.978653 4294967295
178.11745 43.914906 -54.060715 4294967295
178.12184 54.643963 -54.975006 4294967295
178.16127 58.836826 -53.416908 4294967295
178.18153 45.777088 -53.983612 4294967295
178.18961 57.437019 -54.485481 4294967295
178.20715 46.707649 -53.860107 4294967295
178.22061 59.300968 -53.970871 4294967295
178.22823 58.368015 -54.534096 4294967295
178.23061 46.246052 -54.402042 4294967295
178.24152 45.320072 -55.008408 4294967295
178.28448 47.178921 -54.652725 4294967295
178.28552 48.107105 -54.203857 4294967295
178.31302 47.645351 -54.7994 4294967295
178.32635 49.038818 -54.2817 4294967295
178.32828 49.968044 -53.843918 4294967295
178.35057 48.576374 -54.834106 4294967295
178.38708 51.830765 -53.696541 4294967295
178.38812 49.507343 -54.868828 4294967295
178.41266 52.29689 -53.803978 4294967295
178.42435 53.227947 -53.495201 4294967295
178.44283 50.903614 -54.899414 4294967295
178.44344 50.43924 -55.139256 4294967295
178.45117 52.763306 -54.08329 4294967295
178.46242 51.36908 -54.927551 4294967295
178.4743 54.16 -53.694359 4294967295
178.60793 55.557381 -54.772881 4294967295
178.61462 56.022881 -54.629879 4294967295
178.62384 55.092056 -55.216621 4294967295
178.62506 44.830124 -54.139935 4294967295
178.62796 44.366997 -54.410728 4294967295
178.62984 56.954197 -54.367619 4294967295
178.63303 43.904366 -54.710518 4294967295
178.65036 58.818451 -53.710957 4294967295
178.65343 56.488094 -54.913567 4294967295
178.66373 59.284485 -53.656139 4294967295
178.67436 58.351219 -54.262997 4294967295
178.71146 45.766987 -54.824425 4294967295
178.72397 45.304996 -55.222881 4294967295
178.79437 47.165947 -55.230686 4294967295
178.81009 48.094818 -54.974751 4294967295
178.82945 48.560287 -55.000454 4294967295
178.8318 47.632915 -55.49649 4294967295
178.83517 49.024761 -54.84417 4294967295
178.8407 50.418262 -54.219387 4294967295
178.84877 49.489876 -54.792397 4294967295
178.86423 51.348988 -54.067368 4294967295
178.87753 51.814507 -54.011574 4294967295
178.93059 53.211632 -54.020237 4294967295
178.93126 52.746468 -54.262276 4294967295
178.95186 52.282188 -54.769882 4294967295
178.95312 53.677429 -54.087593 4294967295
179.01001 54.143642 -54.613846 4294967295
179.01414 55.540146 -53.969086 4294967295
179.0143 55.074478 -54.204552 4294967295
179.04955 54.609299 -54.90852 4294967295
179.05696 43.882004 -54.142654 4294967295
179.05876 56.937443 -53.864693 4294967295
179.07425 57.869526 -53.604385 4294967295
179.08041 56.005512 -54.620674 4294967295
179.1053 58.334927 -53.786015 4294967295
179.13663 57.40181 -54.672089 4294967295
179.1467 46.210392 -54.174461 4294967295
179.15416 45.283997 -54.741528 4294967295
179.16125 58.799236 -54.300556 4294967295
179.17535 44.360203 -55.49147 4294967295
179.20143 44.826328 -55.606709 4294967295
179.24586 46.68404 -55.267563 4294967295
179.25867 48.540379 -54.503883 4294967295
179.27419 47.150242 -55.412781 4294967295
179.27606 49.470181 -54.269131 4294967295
179.29312 49.935738 -54.263527 4294967295
179.29652 48.07946 -55.244545 4294967295
179.30672 50.865814 -53.977501 4294967295
179.31793 49.008881 -55.064003 4294967295
179.32735 50.40226 -54.487923 4294967295
179.36163 51.798012 -54.245388 4294967295
179.36229 52.728165 -53.785522 4294967295
179.40891 52.264652 -54.645088 4294967295
179.48871 55.988544 -53.840115 4294967295
179.48886 53.661484 -55.014576 4294967295
179.48972 55.522758 -54.088383 4294967295
179.52159 54.126991 -55.219604 4294967295
179.53415 56.453953 -54.215691 4294967295
179.54214 56.919724 -54.088387 4294967295
179.54539 57.385708 -53.897255 4294967295
179.55453 43.869209 -54.559109 4294967295
179.56946 58.317532 -53.75108 4294967295
179.57182 57.851177 -54.017868 4294967295
179.58577 58.78336 -53.735367 4294967295
179.67209 47.590797 -54.260529 4294967295
179.72537 46.668411 -55.447113 4294967295
179.76248 47.135345 -55.711601 4294967295
179.7635 49.454498 -54.550606 4294967295
179.7816 48.527733 -55.264496 4294967295
179.79922 50.385445 -54.561455 4294967295
179.83011 52.710957 -53.800175 4294967295
179.84531 50.852356 -54.946915 4294967295
179.85379 51.781864 -54.590336 4294967295
179.9509 53.644138 -54.958015 4294967295
179.96538 54.109386 -54.91806 4294967295
179.97601 55.971016 -54.118401 4294967295
179.98395 55.505356 -54.461575 4294967295
179.99101 56.902611 -53.849167 4294967295
179.99286 58.768162 -52.929153 4294967295
180.01118 57.368286 -53.885597 4294967295
180.0303 58.30024 -53.671677 4294967295
180.03032 56.436192 -54.61594 4294967295
180.03406 43.854095 -54.736443 4294967295
180.04747 45.709282 -53.973663 4294967295
180.07011 57.832821 -54.445641 4294967295
180.08984 46.641327 -54.074059 4294967295
180.09723 45.251408 -54.882164 4294967295
180.10135 44.325748 -55.409569 4294967295
180.1118 47.5714 -53.898384 4294967295
180.11803 47.107956 -54.218918 4294967295
180.14793 44.794357 -55.803082 4294967295
180.17653 46.186661 -55.482067 4294967295
180.19337 48.506435 -54.52948 4294967295
180.2141 48.044197 -55.046036 4294967295
180.24687 49.902809 -54.544098 4294967295
180.28607 51.298489 -54.365379 4294967295
180.31227 52.229179 -54.247093 4294967295
180.31407 50.835346 -54.981236 4294967295
180.32784 51.764992 -54.694572 4294967295
180.33557 54.556328 -53.378197 4294967295
180.37476 55.022308 -53.672668 4294967295
180.37794 53.626087 -54.426796 4294967295
180.38245 54.091385 -54.250992 4294967295
180.39456 52.696712 -55.12574 4294967295
180.41464 55.953827 -53.739555 4294967295
180.44725 55.488007 -54.419243 4294967295
180.46643 58.750389 -53.018448 4294967295
180.49573 56.418808 -54.60334 4294967295
180.50551 43.837944 -54.806709 4294967295
180.51193 57.350052 -54.349083 4294967295
180.51549 45.228924 -54.230537 4294967295
180.5199 44.766056 -54.527702 4294967295
180.57841 45.699509 -54.848137 4294967295
180.58812 44.311535 -55.691254 4294967295
180.59593 47.092056 -54.374321 4294967295
180.59692 46.628437 -54.625179 4294967295
180.61758 46.167095 -55.143227 4294967295
180.67059 48.026367 -54.914795 4294967295
180.72472 49.422279 -54.938446 4294967295
180.75301 53.141464 -53.420372 4294967295
180.75819 48.497189 -55.868782 4294967295
180.76425 51.746567 -54.287842 4294967295
180.78442 49.890205 -55.51363 4294967295
180.78995 50.354542 -55.350975 4294967295
180.8102 53.608131 -53.961571 4294967295
180.83737 50.821209 -55.759384 4294967295
180.83974 52.214188 -55.078323 4294967295
180.85114 52.679199 -54.99596 4294967295
180.8707 54.539654 -54.310394 4294967295
180.8829 54.074593 -54.714771 4294967295
180.91594 44.277023 -53.806831 4294967295
180.93237 55.470634 -54.674934 4294967295
180.93524 55.005356 -54.952347 4294967295
180.94176 56.867462 -54.087807 4294967295
180.96489 58.265221 -53.68795 4294967295
180.97324 55.935844 -54.994637 4294967295
180.98068 57.798534 -54.142281 4294967295
181.00381 57.332043 -54.696869 4294967295
181.01176 45.215523 -54.638538 4294967295
181.01892 46.143265 -54.25901 4294967295
181.05133 47.074024 -54.224289 4294967295
181.06404 47.539108 -54.159218 4294967295
181.07144 44.75964 -55.691864 4294967295
181.09642 45.688393 -55.556137 4294967295
181.15292 49.402584 -54.419487 4294967295
181.21222 48.015778 -55.946655 4294967295
181.24741 52.65979 -54.038872 4294967295
181.25607 49.873478 -55.592102 4294967295
181.27446 53.125626 -54.169968 4294967295
181.27548 51.73127 -54.902122 4294967295
181.28944 51.267509 -55.332092 4294967295
181.3132 55.453373 -53.503387 4294967295
181.36313 54.522602 -54.667336 4294967295
181.38354 54.057835 -55.186871 4294967295
181.38638 55.918819 -54.267708 4294967295
181.38733 56.384514 -54.04084 4294967295
181.3902 58.249123 -53.120327 4294967295
181.3985 54.988022 -54.912971 4294967295
181.40092 57.782368 -53.50779 4294967295
181.40511 56.850098 -54.045345 4294967295
181.41238 57.315926 -53.905106 4294967295
181.45161 45.195515 -54.276253 4294967295
181.4592 44.733128 -54.61998 4294967295
181.47745 46.125484 -54.151127 4294967295
181.50316 44.275715 -55.463173 4294967295
181.54016 45.669003 -55.25238 4294967295
181.57027 46.59869 -55.186226 4294967295
181.57875 47.062935 -55.063278 4294967295
181.60522 47.992542 -54.947281 4294967295
181.61113 47.529465 -55.268345 4294967295
181.68396 49.390007 -55.309906 4294967295
181.68468 48.926308 -55.559937 4294967295
181.69537 49.854687 -55.22681 4294967295
181.72063 53.573109 -53.650482 4294967295
181.75479 52.179157 -54.843117 4294967295
181.76015 54.970219 -53.472595 4294967295
181.76617 52.644218 -54.759537 4294967295
181.77707 54.504768 -53.946819 4294967295
181.7981 51.716492 -55.68021 4294967295
181.80695 53.110115 -55.08049 4294967295
181.82761 54.040218 -54.884315 4294967295
181.85439 56.367111 -54.049309 4294967295
181.86447 57.764992 -53.464931 4294967295
181.8687 44.24585 -54.078442 4294967295
181.86938 58.231209 -53.291306 4294967295
181.87489 57.298569 -53.850082 4294967295
181.88301 44.710987 -54.034943 4294967295
181.90897 55.9011 -55.043335 4294967295
181.91953 45.642258 -54.056625 4294967295
181.92886 46.106918 -53.944405 4294967295
181.9995 47.041561 -54.43779 4294967295
182.0137 45.190006 -55.59819 4294967295
182.05333 46.5835 -55.422733 4294967295
182.06877 48.439098 -54.671028 4294967295
182.08797 47.513474 -55.418961 4294967295
182.10249 51.227448 -53.687561 4294967295
182.1116 47.979019 -55.504372 4294967295
182.11493 51.692921 -53.617744 4294967295
182.14403 48.908768 -55.47039 4294967295
182.15106 52.159336 -53.876205 4294967295
182.18065 53.555691 -53.559753 4294967295
182.19022 52.625648 -54.176689 4294967295
182.21501 53.091331 -54.278194 4294967295
182.21962 50.305103 -55.791969 4294967295
182.23474 54.487366 -53.825157 4294967295
182.24992 55.418648 -53.550865 4294967295
182.27544 55.884335 -53.662491 4294967295
182.30594 56.349884 -53.843315 4294967295
182.31476 58.214428 -52.995354 4294967295
182.33681 57.281239 -53.786781 4294967295
182.35274 56.815018 -54.250065 4294967295
182.35321 45.157997 -53.845276 4294967295
182.35414 57.746883 -53.784836 4294967295
182.35468 44.231552 -54.350746 4294967295
182.40067 45.627029 -54.261913 4294967295
182.43053 46.557381 -54.19136 4294967295
182.50414 47.028355 -54.971504 4294967295
182.52626 48.885353 -54.308113 4294967295
182.53087 47.494373 -55.100311 4294967295
182.58528 51.211075 -53.914032 4294967295
182.61107 48.428291 -55.73008 4294967295
182.62189 51.677483 -54.18042 4294967295
182.6275 53.072639 -53.528481 4294967295
182.63063 50.748913 -54.788361 4294967295
182.63831 50.285187 -55.13834 4294967295
182.64336 52.607994 -53.992882 4294967295
182.67064 52.144146 -54.616314 4294967295
182.67877 54.00436 -53.756119 4294967295
182.67995 53.539124 -54.016037 4294967295
182.71269 54.470169 -53.985458 4294967295
182.72775 55.401279 -53.708107 4294967295
182.73647 54.935753 -54.073074 4294967295
182.78452 56.798191 -53.768684 4294967295
182.81992 45.141129 -53.849365 4294967295
182.83012 44.679043 -54.235794 4294967295
182.86191 57.262478 -54.604996 4294967295
182.86716 44.220787 -54.996231 4294967295
182.88779 58.193401 -54.478882 4294967295
182.90192 47.00465 -54.018761 4294967295
182.90875 45.614933 -54.845726 4294967295
182.92931 46.543808 -54.645386 4294967295
183.0193 48.40654 -54.927017 4294967295
183.02637 48.870899 -54.781891 4294967295
183.02837 47.480328 -55.541454 4294967295
183.04356 49.336094 -54.778111 4294967295
183.04712 49.800388 -54.583374 4294967295
183.0735 51.194984 -54.219742 4294967295
183.10571 50.268169 -55.15918 4294967295
183.13037 53.521503 -53.792858 4294967295
183.14938 51.662987 -55.037575 4294967295
183.15094 52.127491 -54.814926 4294967295
183.16954 53.987461 -54.097038 4294967295
183.17709 55.383934 -53.468224 4294967295
183.19002 53.058006 -54.873184 4294967295
183.19536 55.849655 -53.479195 4294967295
183.2113 52.594105 -55.41584 4294967295
183.22687 54.453381 -54.655655 4294967295
183.23251 54.918587 -54.490047 4294967295
183.25119 56.314957 -54.017231 4294967295
183.25981 56.780624 -53.892925 4294967295
183.30661 57.711426 -54.059643 4294967295
183.32417 44.665707 -54.62611 4294967295
183.34247 46.057693 -54.147659 4294967295
183.34651 44.205727 -55.184639 4294967295
183.35068 46.522171 -54.017746 4294967295
183.35077 57.244549 -54.924507 4294967295
183.38437 45.13615 -55.226074 4294967295
183.39621 45.600513 -55.147224 4294967295
183.41472 46.992294 -54.671947 4294967295
183.47104 48.388332 -54.727154 4294967295
183.47775 50.709942 -53.593666 4294967295
183.48734 47.462719 -55.447033 4294967295
183.49512 49.317978 -54.574829 4294967295
183.52107 52.106571 -53.465343 4294967295
183.52109 51.176895 -53.957565 4294967295
183.52859 47.929756 -55.78157 4294967295
183.56729 52.57325 -53.870316 4294967295
183.57687 51.644112 -54.497086 4294967295
183.61505 54.900799 -53.311924 4294967295
183.64622 53.970348 -54.243973 4294967295
183.6541 53.040726 -54.846737 4294967295
183.70403 57.229637 -53.334351 4294967295
183.71991 56.763313 -53.805016 4294967295
183.77203 45.109703 -54.123123 4294967295
183.77658 56.296913 -54.850891 4294967295
183.78448 57.693653 -54.223518 4294967295
183.8029 44.650459 -54.805256 4294967295
183.80927 44.18848 -55.141506 4294967295
183.85091 45.582317 -54.990261 4294967295
183.85638 47.436577 -54.081203 4294967295
183.86618 48.829597 -53.479156 4294967295
183.87733 46.048401 -55.116772 4294967295
183.8996 46.513954 -55.184906 4294967295
183.9222 46.979485 -55.257668 4294967295
183.96553 49.301224 -54.636726 4294967295
184.00471 48.376965 -55.684353 4294967295
184.00822 50.696377 -54.499863 4294967295
184.01524 51.625698 -54.104881 4294967295
184.03241 51.161995 -54.594933 4294967295
184.06981 53.952351 -53.640793 4294967295
184.08682 52.557812 -54.623817 4294967295
184.12636 53.02367 -54.936554 4294967295
184.14281 54.418602 -54.427483 4294967295
184.15013 53.488926 -55.026009 4294967295
184.1561 55.349228 -54.120728 4294967295
184.20746 55.81448 -54.60141 4294967295
184.20961 45.089287 -53.71748 4294967295
184.22359 57.676952 -53.839096 4294967295
184.25644 56.279385 -55.048691 4294967295
184.25764 44.169304 -54.8946 4294967295
184.26007 57.210213 -54.604828 4294967295
184.26773 46.48661 -53.798538 4294967295
184.30179 46.026844 -54.530174 4294967295
184.30293 44.637997 -55.289734 4294967295
184.31146 46.954796 -54.171364 4294967295
184.32143 45.565964 -55.056576 4294967295
184.38504 50.209526 -53.478863 4294967295
184.3886 50.674408 -53.280693 4294967295
184.39346 47.889812 -54.84037 4294967295
184.3994 48.353973 -54.676445 4294967295
184.46799 51.143299 -54.162003 4294967295
184.46915 48.823288 -55.420036 4294967295
184.52261 53.469543 -53.696186 4294967295
184.57854 52.077091 -55.238937 4294967295
184.57936 54.400955 -54.006989 4294967295
184.58392 53.006203 -54.818336 4294967295
184.59087 55.797546 -53.423927 4294967295
184.6936 57.659401 -53.892433 4294967295
184.70537 44.150002 -54.636086 4294967295
184.7318 45.079327 -54.51506 4294967295
184.73737 56.7271 -55.015553 4294967295
184.74408 46.00724 -54.191574 4294967295
184.75204 45.544891 -54.554794 4294967295
184.75864 44.619846 -55.1474 4294967295
184.78108 46.474701 -54.470818 4294967295
184.78578 46.93866 -54.288475 4294967295
184.82626 47.4062 -54.617569 4294967295
184.83073 49.726532 -53.432854 4294967295
184.85286 47.872223 -54.748112 4294967295
184.86349 49.26458 -54.151131 4294967295
184.88307 50.658852 -53.681633 4294967295
184.91202 50.19619 -54.345779 4294967295
184.93445 48.342823 -55.66494 4294967295
184.94383 48.806969 -55.549637 4294967295
184.94582 51.591259 -54.079838 4294967295
184.94679 52.056007 -53.84362 4294967295
184.94763 51.126835 -54.355659 4294967295
184.95505 52.521191 -53.711868 4294967295
184.97424 52.986797 -53.736244 4294967295
185.0191 53.91806 -53.878487 4294967295
185.02148 54.848839 -53.411919 4294967295
185.04376 53.453545 -54.482063 4294967295
185.05298 54.383743 -54.113731 4294967295
185.07022 55.314529 -53.860088 4294967295
185.09122 55.780006 -53.910805 4294967295
185.12383 56.245323 -54.127998 4294967295
185.1575 57.176136 -54.109711 4294967295
185.15834 56.710438 -54.372749 4294967295
185.16948 57.641682 -54.031231 4294967295
185.18965 45.524609 -54.148293 4294967295
185.20148 44.137287 -55.069534 4294967295
185.20216 44.600086 -54.828796 4294967295
185.22781 47.382969 -53.692783 4294967295
185.23177 45.992767 -54.502014 4294967295
185.2332 45.066883 -55.023827 4294967295
185.28961 46.925571 -54.831367 4294967295
185.29674 46.463139 -55.184483 4294967295
185.30267 47.853752 -54.517628 4294967295
185.32191 49.246937 -54.041161 4294967295
185.32684 50.640415 -53.357971 4294967295
185.37848 48.787457 -55.105392 4294967295
185.41521 52.50375 -53.623943 4294967295
185.42853 51.574844 -54.319088 4294967295
185.42995 51.110527 -54.59053 4294967295
185.45456 54.365654 -53.183929 4294967295
185.4613 52.04076 -54.539345 4294967295
185.46864 53.435322 -53.890526 4294967295
185.47041 53.900513 -53.664307 4294967295
185.48907 52.970966 -54.436348 4294967295
185.52907 54.831772 -54.005959 4294967295
185.53075 56.228561 -53.274261 4294967295
185.54079 55.762718 -53.671135 4294967295
185.55952 55.297199 -54.193314 4294967295
185.62315 57.158714 -54.103607 4294967295
185.62405 44.114525 -54.447395 4294967295
185.65448 44.581459 -54.634514 4294967295
185.67285 45.509762 -54.395844 4294967295
185.72093 47.368599 -54.081367 4294967295
185.72864 45.053753 -55.453178 4294967295
185.72989 49.225498 -53.200668 4294967295
185.73711 45.980373 -55.071518 4294967295
185.75291 48.763054 -53.786377 4294967295
185.76274 47.836208 -54.433273 4294967295
185.80368 48.303471 -54.772629 4294967295
185.80905 51.088837 -53.334641 4294967295
185.81187 50.15992 -53.8811 4294967295
185.87204 52.486195 -53.487511 4294967295
185.93954 52.953278 -54.212303 4294967295
185.95364 54.814171 -53.4039 4294967295
185.96193 54.34885 -53.777508 4294967295
185.99243 53.884239 -54.472801 4294967295
186.01401 55.745323 -53.772758 4294967295
186.05711 56.210548 -54.144783 4294967295
186.05865 55.2799 -54.673569 4294967295
186.06668 57.141785 -53.776787 4294967295
186.10632 44.562744 -54.43169 4294967295
186.1174 45.490265 -54.085487 4294967295
186.11861 44.101654 -54.863457 4294967295
186.12515 45.028122 -54.451553 4294967295
186.14267 46.883472 -53.691383 4294967295
186.17552 46.4235 -54.422546 4294967295
186.18257 47.814934 -53.763683 4294967295
186.19147 48.279652 -53.638855 4294967295
186.19304 45.962334 -54.930267 4294967295
186.21066 48.745312 -53.663963 4294967295
186.22067 49.210255 -53.555351 4294967295
186.27318 51.536388 -53.048134 4294967295
186.28787 50.14344 -54.025047 4294967295
186.29584 51.072754 -53.632278 4294967295
186.30075 49.680195 -54.466446 4294967295
186.31903 50.609604 -54.224354 4294967295
186.35942 52.469727 -53.795151 4294967295
186.38573 53.865627 -53.41507 4294967295
186.41096 52.007126 -54.800339 4294967295
186.42345 52.936584 -54.473782 4294967295
186.46379 55.262489 -53.788818 4294967295
186.47775 56.659492 -53.227837 4294967295
186.47871 53.402687 -55.024769 4294967295
186.48589 54.332294 -54.620544 4294967295
186.49417 56.193462 -53.722633 4294967295
186.50714 55.72784 -54.166718 4294967295
186.53348 54.797638 -55.060009 4294967295
186.54228 57.124153 -53.914871 4294967295
186.58583 45.47366 -54.121078 4294967295
186.61842 46.404018 -54.087311 4294967295
186.62575 45.941578 -54.449127 4294967295
186.6261 44.553089 -55.218719 4294967295
186.63403 47.796543 -53.549469 4294967295
186.6413 45.017677 -55.18605 4294967295
186.66484 48.263248 -53.744274 4294967295
186.67018 48.727707 -53.567024 4294967295
186.67242 47.336555 -54.365627 4294967295
186.69786 49.658257 -53.460724 4294967295
186.7429 49.197456 -54.375389 4294967295
186.77188 51.056122 -53.776829 4294967295
186.7728 51.520779 -53.534729 4294967295
186.77797 50.592064 -54.121826 4294967295
186.79268 50.128845 -54.592995 4294967295
186.83209 52.45274 -53.89156 4294967295
186.85547 51.989052 -54.489746 4294967295
186.8744 52.9189 -54.255569 4294967295
186.89711 53.84919 -54.076618 4294967295
186.91621 54.314541 -54.100754 4294967295
186.94083 55.245163 -53.9496 4294967295
186.94766 56.642025 -53.280457 4294967295
186.97498 57.107456 -53.424919 4294967295
186.97969 44.058117 -53.83189 4294967295
186.99469 54.780304 -54.995678 4294967295
187.00417 56.175644 -54.36628 4294967295
187.01634 44.989151 -53.857376 4294967295
187.01898 55.710285 -54.840122 4294967295
187.04085 45.455406 -53.96064 4294967295
187.05226 46.383484 -53.615025 4294967295
187.17606 46.860229 -55.177814 4294967295
187.18723 47.324471 -55.085526 4294967295
187.20291 51.037075 -53.260887 4294967295
187.20457 48.252735 -54.827698 4294967295
187.21701 47.790546 -55.267063 4294967295
187.23012 49.182045 -54.689934 4294967295
187.2401 49.646572 -54.579849 4294967295
187.25735 50.111671 -54.577049 4294967295
187.27385 52.434643 -53.533855 4294967295
187.28154 51.505646 -54.161945 4294967295
187.29947 50.578255 -54.940102 4294967295
187.30098 53.830727 -53.161301 4294967295
187.31705 53.365891 -53.655777 4294967295
187.33235 52.901421 -54.138664 4294967295
187.38689 54.29731 -54.170486 4294967295
187.3974 56.624878 -53.03672 4294967295
187.39983 55.693283 -53.588371 4294967295
187.41011 54.762623 -54.255581 4294967295
187.43126 56.158649 -53.794518 4294967295
187.46304 44.506638 -53.830177 4294967295
187.48514 44.046848 -54.414284 4294967295
187.52727 46.367535 -53.746918 4294967295
187.52837 44.978237 -54.537178 4294967295
187.56682 46.835308 -54.073296 4294967295
187.57573 45.447048 -54.978893 4294967295
187.61008 47.303192 -54.454651 4294967295
187.61879 48.231129 -54.067207 4294967295
187.62292 47.767895 -54.386627 4294967295
187.62953 48.695862 -53.96772 4294967295
187.66043 50.554832 -53.390694 4294967295
187.68311 51.020672 -53.467991 4294967295
187.70113 52.415985 -52.958267 4294967295
187.70154 49.165428 -54.775181 4294967295
187.74121 51.952717 -53.811195 4294967295
187.74843 50.096245 -54.952583 4294967295
187.7532 51.488762 -54.247898 4294967295
187.79437 53.348919 -53.822662 4294967295
187.82599 52.885059 -54.550262 4294967295
187.84093 53.814873 -54.25425 4294967295
187.85719 54.745163 -53.977127 4294967295
187.86751 55.210484 -53.871197 4294967295
187.87762 54.280357 -54.539654 4294967295
187.91205 44.487457 -53.578041 4294967295
187.91406 44.024769 -53.867477 4294967295
187.92702 56.606483 -53.976776 4294967295
187.95294 56.140732 -54.621353 4294967295
188.02472 45.428097 -54.733265 4294967295
188.0463 48.210651 -53.496239 4294967295
188.05392 47.283989 -54.129387 4294967295
188.0714 49.140869 -53.349815 4294967295
188.07211 45.896664 -55.17841 4294967295
188.08884 49.606422 -53.349327 4294967295
188.11275 50.536854 -53.184868 4294967295
188.19281 51.470303 -53.857155 4294967295
188.21425 51.935829 -53.916771 4294967295
188.23112 52.865921 -53.64769 4294967295
188.24869 53.33136 -53.64904 4294967295
188.27158 55.193012 -52.947502 4294967295
188.37091 55.658421 -54.170021 4294967295
188.45062 46.332653 -53.618153 4294967295
188.45914 44.944405 -54.528584 4294967295
188.47148 44.021057 -55.234299 4294967295
188.492 45.874302 -54.497978 4294967295
188.5105 47.729656 -53.729843 4294967295
188.52162 48.194458 -53.634865 4294967295
188.55002 48.660805 -53.798489 4294967295
188.57269 49.590622 -53.615116 4294967295
188.59685 50.985336 -53.19191 4294967295
188.60536 49.129158 -54.365829 4294967295
188.65808 51.917679 -53.585861 4294967295
188.67943 50.525887 -54.691143 4294967295
188.70735 52.849014 -53.800945 4294967295
188.70755 54.244347 -53.01757 4294967295
188.73311 54.710075 -53.138885 4294967295
188.73932 53.779671 -53.756699 4294967295
188.77419 53.315662 -54.542027 4294967295
188.79683 55.1758 -53.833641 4294967295
188.80676 56.572487 -53.195709 4294967295
188.8235 55.641113 -53.971664 4294967295
188.84918 44.45443 -53.654839 4294967295
188.88132 56.106026 -54.578007 4294967295
188.8931 43.99791 -54.577148 4294967295
188.91431 45.389038 -54.108803 4294967295
188.93573 46.781296 -53.643265 4294967295
188.95441 46.320057 -54.186844 4294967295
188.96368 45.858116 -54.589108 4294967295
188.98827 47.713799 -53.908234 4294967295
188.99976 47.251503 -54.344021 4294967295
189.01459 48.179901 -54.041504 4294967295
189.01968 49.108002 -53.592178 4294967295
189.06313 50.968185 -53.193962 4294967295
189.07973 50.50473 -53.707542 4294967295
189.09796 48.650791 -55.034416 4294967295
189.14337 51.901337 -53.877281 4294967295
189.15154 53.296082 -53.209698 4294967295
189.16643 54.226933 -52.906944 4294967295
189.17336 51.438408 -54.592903 4294967295
189.18295 55.158253 -52.628693 4294967295
189.18716 52.367649 -54.274658 4294967295
189.21422 56.089886 -52.572613 4294967295
189.21869 52.83326 -54.486832 4294967295
189.26758 54.693336 -54.170906 4294967295
189.32831 56.554241 -54.033127 4294967295
189.35054 44.44252 -54.190887 4294967295
189.36958 43.982674 -54.742294 4294967295
189.37007 44.907951 -54.222099 4294967295
189.37627 45.371658 -54.05188 4294967295
189.41415 46.765705 -53.832516 4294967295
189.41908 47.693359 -53.378056 4294967295
189.4384 45.842323 -54.727669 4294967295
189.45195 46.30682 -54.668777 4294967295
189.46259 48.161243 -53.772766 4294967295
189.49258 49.091492 -53.697666 4294967295
189.52129 49.557686 -53.868263 4294967295
189.53528 48.631332 -54.60928 4294967295
189.53557 50.486969 -53.555122 4294967295
189.56647 50.95314 -53.759125 4294967295
189.57031 51.417782 -53.552322 4294967295
189.58514 52.347832 -53.247353 4294967295
189.59421 51.883476 -53.649994 4294967295
189.63036 53.744278 -53.137985 4294967295
189.67847 53.28046 -54.133984 4294967295
189.70276 54.21067 -53.972412 4294967295
189.70715 55.141075 -53.50856 4294967295
189.72176 56.072121 -53.19957 4294967295
189.77885 43.957607 -53.888123 4294967295
189.80043 44.423443 -53.950684 4294967295
189.81805 44.888699 -53.953251 4294967295
189.8577 46.746273 -53.493649 4294967295
189.88435 47.21265 -53.633278 4294967295
189.88443 45.360233 -54.697605 4294967295
189.90178 46.288059 -54.430428 4294967295
189.91888 48.143333 -53.627426 4294967295
189.93065 47.680866 -54.072765 4294967295
189.95735 49.074341 -53.681328 4294967295
189.95979 49.538551 -53.452324 4294967295
189.99326 48.613647 -54.49482 4294967295
189.99971 50.469727 -53.528172 4294967295
190.01309 50.934891 -53.466103 4294967295
190.04662 51.401134 -53.710728 4294967295
190.05586 51.8661 -53.585617 4294967295
190.08276 52.331848 -53.72963 4294967295
190.13632 56.055195 -52.411804 4294967295
190.1487 55.123657 -53.135777 4294967295
190.1561 52.799023 -54.583 4294967295
190.16862 53.728523 -54.241074 4294967295
190.17355 53.264011 -54.583 4294967295
190.17773 54.658535 -53.846947 4294967295
190.19768 54.193825 -54.418255 4294967295
190.26773 45.332684 -53.440479 4294967295
190.30049 44.874092 -54.209118 4294967295
190.30402 44.411961 -54.530334 4294967295
190.31578 43.951294 -54.977402 4294967295
190.33038 45.803688 -54.132172 4294967295
190.33867 47.194447 -53.456581 4294967295
190.33942 46.267838 -54.003395 4294967295
190.35023 46.732292 -53.901817 4294967295
190.40659 47.664898 -54.230225 4294967295
190.41422 49.056541 -53.544025 4294967295
190.44238 50.451118 -53.172333 4294967295
190.46548 49.524479 -54.062431 4294967295
190.46626 51.846375 -52.733932 4294967295
190.47537 50.917538 -53.410248 4294967295
190.50284 52.312828 -53.027588 4294967295
190.51036 49.991562 -54.48328 4294967295
190.54842 53.244278 -53.19088 4294967295
190.55106 52.779434 -53.499645 4294967295
190.57408 51.387161 -54.658043 4294967295
190.62083 56.037647 -52.692116 4294967295
190.63051 54.176037 -53.915871 4294967295
190.64044 55.571838 -53.262722 4294967295
190.65077 53.711617 -54.495495 4294967295
190.66595 55.106499 -53.923805 4294967295
190.74963 43.929794 -54.493561 4294967295
190.75443 45.318501 -53.760979 4294967295
190.77211 44.395489 -54.570999 4294967295
190.7787 44.858948 -54.403809 4294967295
190.79964 46.713493 -53.65049 4294967295
190.84627 48.108883 -53.561718 4294967295
190.86528 47.183945 -54.393318 4294967295
190.87946 46.259743 -55.149567 4294967295
190.89052 49.040337 -53.705509 4294967295
190.90388 48.577785 -54.181252 4294967295
190.91335 47.652042 -54.86517 4294967295
190.92612 49.507019 -53.985397 4294967295
190.93533 51.364571 -53.049267 4294967295
190.96507 50.437634 -54.047714 4294967295
190.98555 53.226215 -52.744759 4294967295
190.99031 52.296471 -53.358673 4294967295
190.99896 51.832249 -53.762222 4294967295
191.02113 50.905045 -54.644081 4294967295
191.04758 52.763252 -53.973949 4294967295
191.06207 53.69318 -53.658333 4294967295
191.08932 55.55452 -52.998932 4294967295
191.09932 56.020157 -52.88295 4294967295
191.21129 44.37487 -54.16481 4294967295
191.22127 45.301758 -53.778564 4294967295
191.23312 45.766293 -53.691734 4294967295
191.24092 47.157314 -52.999969 4294967295
191.27585 44.846451 -54.894505 4294967295
191.33173 46.704079 -54.679249 4294967295
191.36748 50.416412 -53.06609 4294967295
191.39294 49.490036 -54.003967 4294967295
191.39343 49.026375 -54.282887 4294967295
191.45009 52.743858 -52.992683 4294967295
191.45374 51.814552 -53.592232 4294967295
191.45549 53.209064 -52.804863 4294967295
191.48215 52.280312 -53.762611 4294967295
191.48723 55.071423 -52.210564 4294967295
191.48862 54.140289 -52.776093 4294967295
191.51872 53.675705 -53.516628 4294967295
191.52621 56.003101 -52.273014 4294967295
191.54991 55.537174 -52.914284 4294967295
191.63965 44.352631 -53.586002 4294967295
191.63986 44.815521 -53.316948 4294967295
191.68021 46.21027 -53.128883 4294967295
191.71436 45.751339 -53.933613 4294967295
191.74385 46.681038 -53.849346 4294967295
191.75598 47.145645 -53.766159 4294967295
191.7587 45.294395 -54.897266 4294967295
191.76688 49.001598 -52.845444 4294967295
191.77675 47.61121 -53.818001 4294967295
191.82182 49.934204 -53.158054 4294967295
191.86954 50.865891 -53.357712 4294967295
191.87997 50.40234 -53.793983 4294967295
191.88589 49.47509 -54.431984 4294967295
191.9008 53.191208 -52.480545 4294967295
191.90439 52.26133 -53.083298 4294967295
191.91093 51.79697 -53.45895 4294967295
191.92891 51.333515 -54.013283 4294967295
191.95766 54.588455 -52.549461 4294967295
191.97113 53.658138 -53.307846 4294967295
192.01723 55.054333 -53.209053 4294967295
192.04712 55.519756 -53.403717 4294967295
192.07532 43.868587 -53.388809 4294967295
192.12976 44.802021 -53.694958 4294967295
192.14853 45.267422 -53.715454 4294967295
192.1799 44.346676 -54.754757 4294967295
192.18983 45.735695 -54.089531 4294967295
