# .PCD v0.7 - Point Cloud Data file format
VERSION 0.7
FIELDS x y z rgb
SIZE 4 4 4 4
TYPE F F F U
COUNT 1 1 1 1
WIDTH 1147
HEIGHT 1
VIEWPOINT 0 0 0 1 0 0 0
POINTS 1147
DATA ascii
257.71964 40.495251 -47.602211 4294967295
257.72995 27.985672 -49.94046 4294967295
257.73425 40.955788 -47.256966 4294967295
257.75134 28.460289 -50.418037 4294967295
257.76416 28.911505 -49.862762 4294967295
257.77826 29.366508 -49.460426 4294967295
257.80148 29.845617 -50.164211 4294967295
257.83023 30.757666 -49.424213 4294967295
257.84692 31.219776 -49.332031 4294967295
257.86832 31.693441 -49.815262 4294967295
257.88681 32.15992 -49.950516 4294967295
257.91006 33.060646 -48.521336 4294967295
257.93008 33.530884 -48.842182 4294967295
257.95044 34.001537 -49.200211 4294967295
257.97849 34.915142 -48.35527 4294967295
257.99637 35.380486 -48.410748 4294967295
258.01294 35.843121 -48.304825 4294967295
258.04935 24.251106 -49.620369 4294967295
258.05072 36.77758 -48.662735 4294967295
258.06418 37.234295 -48.166862 4294967295
258.06891 24.721979 -49.891022 4294967295
258.07962 37.695004 -47.913284 4294967295
258.08655 25.186384 -49.915695 4294967295
258.10147 38.16758 -48.465855 4294967295
258.11411 38.623436 -47.861984 4294967295
258.12665 26.130291 -50.579624 4294967295
258.12869 39.083046 -47.497688 4294967295
258.15131 39.55648 -48.150536 4294967295
258.16235 27.059914 -50.688377 4294967295
258.16589 40.016335 -47.792023 4294967295
258.17432 27.507309 -50.0037 4294967295
258.17889 40.473854 -47.22448 4294967295
258.19388 27.97724 -50.272026 4294967295
258.19452 40.935913 -46.994465 4294967295
258.21454 41.404648 -47.317757 4294967295
258.228 28.90251 -50.182545 4294967295
258.23398 41.872326 -47.57011 4294967295
258.23697 29.342613 -49.107174 4294967295
258.29028 30.737524 -49.234825 4294967295
258.32892 31.675377 -49.724457 4294967295
258.34631 32.139095 -49.717949 4294967295
258.35431 32.579597 -48.500809 4294967295
258.37555 33.053196 -48.994122 4294967295
258.39252 33.516186 -48.931641 4294967295
258.41122 33.983421 -49.102638 4294967295
258.42792 34.445751 -49.00296 4294967295
258.46228 35.372902 -48.936806 4294967295
258.46606 22.870787 -50.613327 4294967295
258.47714 35.831539 -48.601086 4294967295
258.49802 23.787712 -50.23661 4294967295
258.51208 36.760246 -48.609318 4294967295
258.51248 24.241297 -49.853622 4294967295
258.52921 37.223877 -48.566109 4294967295
258.5296 24.704065 -49.814835 4294967295
258.53952 37.674213 -47.627361 4294967295
258.54657 25.166254 -49.751862 4294967295
258.56082 38.146286 -48.138344 4294967295
258.56445 25.631577 -49.812008 4294967295
258.57993 38.613785 -48.353516 4294967295
258.59848 39.080235 -48.503998 4294967295
258.60049 26.563042 -49.971951 4294967295
258.61362 39.54052 -48.200447 4294967295
258.61725 27.024652 -49.88345 4294967295
258.62216 39.989594 -47.011299 4294967295
258.63095 27.476864 -49.391586 4294967295
258.64252 40.459316 -47.394386 4294967295
258.65536 27.962265 -50.319954 4294967295
258.65808 40.921032 -47.14399 4294967295
258.68069 28.861164 -49.052429 4294967295
258.71954 29.800936 -49.590683 4294967295
258.7565 30.734478 -49.869453 4294967295
258.76617 31.176989 -48.825455 4294967295
258.78812 31.653328 -49.434296 4294967295
258.80392 32.112968 -49.214455 4294967295
258.81769 32.567471 -48.718307 4294967295
258.84039 33.045166 -49.434914 4294967295
258.85693 33.50692 -49.315975 4294967295
258.87561 33.973904 -49.482544 4294967295
258.88702 34.423313 -48.659374 4294967295
258.92233 35.352814 -48.719284 4294967295
258.92548 22.849243 -50.405579 4294967295
258.93802 23.294533 -49.730415 4294967295
258.9408 35.819412 -48.86351 4294967295
258.95609 36.278828 -48.567932 4294967295
258.96344 23.787767 -50.835587 4294967295
258.96933 36.733971 -47.984871 4294967295
258.97565 24.232309 -50.117962 4294967295
258.99203 24.692287 -49.975922 4294967295
258.99268 37.211033 -48.805817 4294967295
259.00507 37.664722 -48.100868 4294967295
259.01038 25.159195 -50.101749 4294967295
259.02115 38.126442 -47.911957 4294967295
259.0242 25.610336 -49.602135 4294967295
259.05826 39.059769 -48.221397 4294967295
259.06509 26.55859 -50.44854 4294967295
259.07233 39.517845 -47.746243 4294967295
259.07977 27.013012 -50.067619 4294967295
259.0889 39.9809 -47.626312 4294967295
259.0907 27.455244 -49.155678 4294967295
259.10916 40.450531 -48.022552 4294967295
259.11118 27.929125 -49.58176 4294967295
259.12332 40.909348 -47.555855 4294967295
259.14127 41.37484 -47.624969 4294967295
259.14624 28.857632 -49.616859 4294967295
259.16232 29.317287 -49.425735 4294967295
259.19623 30.242275 -49.290821 4294967295
259.21552 30.711781 -49.556831 4294967295
259.22668 31.157459 -48.664154 4294967295
259.24976 31.63776 -49.468445 4294967295
259.2674 32.102283 -49.5 4294967295
259.28687 32.571758 -49.790558 4294967295
259.30161 33.028332 -49.407314 4294967295
259.31888 33.491886 -49.386936 4294967295
259.33459 33.951408 -49.141678 4294967295
259.36301 34.863235 -48.200256 4294967295
259.38162 35.330612 -48.376656 4294967295
259.38956 22.845669 -50.853359 4294967295
259.40091 35.799355 -48.643776 4294967295
259.40448 23.299175 -50.489487 4294967295
259.41681 36.259945 -48.41766 4294967295
259.43848 36.734039 -49.04052 4294967295
259.44019 24.229589 -50.620605 4294967295
259.452 37.189316 -48.465164 4294967295
259.45471 24.682003 -50.194614 4294967295
259.47076 37.656548 -48.662186 4294967295
259.47156 25.143532 -50.11335 4294967295
259.4902 25.611748 -50.295891 4294967295
259.50043 38.574104 -47.890797 4294967295
259.50571 26.068359 -50.014526 4294967295
259.51556 39.033951 -47.549908 4294967295
259.52185 26.527359 -49.822033 4294967295
259.53336 39.499264 -47.598763 4294967295
259.53806 26.986895 -49.646118 4294967295
259.55502 27.449062 -49.576149 4294967295
259.57755 27.930513 -50.337509 4294967295
259.58273 40.887741 -47.151314 4294967295
259.59012 28.377651 -49.615673 4294967295
259.60803 28.843079 -49.687359 4294967295
259.62192 41.824688 -47.793449 4294967295
259.62399 29.30209 -49.469341 4294967295
259.63483 42.281731 -47.109955 4294967295
259.65771 30.226261 -49.299187 4294967295
259.6922 31.153032 -49.243454 4294967295
259.70709 31.609373 -48.861794 4294967295
259.72418 32.072395 -48.805443 4294967295
259.73944 32.530243 -48.477913 4294967295
259.75723 32.995537 -48.532059 4294967295
259.78107 33.477806 -49.508858 4294967295
259.79382 33.928802 -48.795868 4294967295
259.81161 34.393932 -48.851234 4294967295
259.84644 22.813292 -50.251038 4294967295
259.84677 35.32296 -48.896774 4294967295
259.86401 35.786549 -48.864731 4294967295
259.87711 36.23988 -48.194092 4294967295
259.88358 23.749846 -50.604969 4294967295
259.89294 36.700375 -47.946236 4294967295
259.89914 24.205849 -50.322357 4294967295
259.9111 37.16658 -48.058697 4294967295
259.91586 24.666523 -50.212231 4294967295
259.93121 25.121988 -49.894146 4294967295
259.94571 38.094723 -48.007866 4294967295
259.94873 25.586094 -49.910103 4294967295
259.96271 38.558235 -47.941078 4294967295
259.96863 26.059366 -50.29805 4294967295
259.97986 39.022118 -47.896767 4294967295
259.98621 26.523451 -50.320396 4294967295
259.99722 39.486423 -47.881786 4294967295
259.99899 26.969624 -49.594841 4294967295
260.0126 39.946732 -47.558071 4294967295
260.02829 40.407852 -47.278427 4294967295
260.03137 27.888277 -49.207138 4294967295
260.04398 40.869148 -46.995209 4294967295
260.05151 28.362015 -49.63633 4294967295
260.06613 41.342834 -47.743439 4294967295
260.07306 28.840443 -50.29055 4294967295
260.08807 29.295574 -49.907646 4294967295
260.09756 42.265831 -47.186966 4294967295
260.10117 29.744486 -49.222488 4294967295
260.11847 30.208002 -49.201488 4294967295
260.13257 30.660889 -48.66893 4294967295
260.15137 31.129559 -48.888443 4294967295
260.17465 31.612421 -49.826366 4294967295
260.18616 32.057518 -48.87714 4294967295
260.20303 32.519909 -48.788258 4294967295
260.22171 32.98777 -48.986034 4294967295
260.23984 33.453991 -49.103527 4294967295
260.27051 34.369873 -48.416649 4294967295
260.2916 34.84454 -49.017342 4294967295
260.30539 22.788284 -49.917404 4294967295
260.30786 35.305294 -48.822754 4294967295
260.32123 23.244926 -49.65799 4294967295
260.33627 36.216366 -47.757019 4294967295
260.3577 36.691277 -48.417133 4294967295
260.36002 24.189575 -50.308678 4294967295
260.37405 37.152859 -48.240967 4294967295
260.37851 24.657787 -50.490143 4294967295
260.39316 37.62125 -48.511658 4294967295
260.4115 38.087677 -48.66169 4294967295
260.41382 25.586723 -50.571774 4294967295
260.42996 26.044941 -50.361839 4294967295
260.44113 39.004028 -47.788696 4294967295
260.44498 26.498707 -49.961723 4294967295
260.45422 39.458748 -47.055286 4294967295
260.45972 26.951582 -49.51152 4294967295
260.47296 39.926411 -47.274307 4294967295
260.478 27.41888 -49.6586 4294967295
260.4931 40.396843 -47.727798 4294967295
260.49469 27.879648 -49.52932 4294967295
260.51105 28.33947 -49.35376 4294967295
260.53146 28.814749 -49.862648 4294967295
260.54175 41.783264 -47.094452 4294967295
260.54468 29.262741 -49.148239 4294967295
260.56113 42.251709 -47.425186 4294967295
260.56274 29.729061 -49.257256 4294967295
260.58307 30.20348 -49.751778 4294967295
260.59613 30.651783 -49.010117 4294967295
260.61377 31.116474 -49.043015 4294967295
260.63156 31.581818 -49.109314 4294967295
260.64484 32.031647 -48.388519 4294967295
260.66739 32.512951 -49.27346 4294967295
260.68021 32.961819 -48.475079 4294967295
260.69952 33.432106 -48.80275 4294967295
260.71481 33.889469 -48.429893 4294967295
260.73465 34.361069 -48.84523 4294967295
260.74744 34.811089 -48.031746 4294967295
260.76758 22.777765 -50.111832 4294967295
260.76913 35.288177 -48.781509 4294967295
260.78683 35.753075 -48.828773 4294967295
260.8017 36.209877 -48.376492 4294967295
260.80365 23.710817 -50.333061 4294967295
260.82159 24.176731 -50.4254 4294967295
260.82169 36.681217 -48.825211 4294967295
260.83133 37.124126 -47.444283 4294967295
260.85526 37.60601 -48.597473 4294967295
260.87091 25.554104 -49.908997 4294967295
260.87195 38.068291 -48.466228 4294967295
260.88739 26.013699 -49.745087 4294967295
260.90164 26.463678 -49.180679 4294967295
260.91763 39.445038 -47.273384 4294967295
260.92197 26.93998 -49.696712 4294967295
260.93774 39.915981 -47.752682 4294967295
260.94119 27.411373 -50.021824 4294967295
260.95309 27.851997 -49.030151 4294967295
260.97141 40.842323 -47.531693 4294967295
260.97366 28.328831 -49.593452 4294967295
260.98584 41.300472 -46.985977 4294967295
260.99359 28.802811 -50.049198 4294967295
261.00494 29.242247 -48.95071 4294967295
261.02249 42.233574 -47.29929 4294967295
261.0408 30.174236 -49.13623 4294967295
261.05948 30.64296 -49.365082 4294967295
261.11035 32.02948 -49.106636 4294967295
261.12869 32.496712 -49.276199 4294967295
261.14142 32.944164 -48.404228 4294967295
261.16089 33.415329 -48.779064 4294967295
261.17422 33.865597 -48.014908 4294967295
261.19666 34.346596 -48.952675 4294967295
261.2149 34.813248 -49.104301 4294967295
261.22803 35.263477 -48.291885 4294967295
261.26282 23.686377 -50.012939 4294967295
261.27615 36.643867 -47.499859 4294967295
261.27972 24.147461 -49.91766 4294967295
261.29645 37.116776 -48.04118 4294967295
261.30054 24.62789 -50.565823 4294967295
261.31372 37.580616 -48.004829 4294967295
261.32874 38.038223 -47.538651 4294967295
261.32999 25.52887 -49.540581 4294967295
261.34662 25.988878 -49.388336 4294967295
261.36499 38.971004 -47.800533 4294967295
261.38474 26.931734 -50.022141 4294967295
261.39838 39.896172 -47.508938 4294967295
261.39841 27.378222 -49.296486 4294967295
261.43536 28.315338 -49.707935 4294967295
261.44904 28.762665 -48.976517 4294967295
261.44995 41.2882 -47.360626 4294967295
261.46741 41.752842 -47.359276 4294967295
261.47083 29.24543 -49.829247 4294967295
261.48401 29.691277 -49.005013 4294967295
261.48499 42.217827 -47.388988 4294967295
261.52026 30.624931 -49.277702 4294967295
261.53867 31.092751 -49.470352 4294967295
261.55191 31.539953 -48.64267 4294967295
261.62131 33.395187 -48.573425 4294967295
261.65738 34.327763 -48.813831 4294967295
261.69073 35.250771 -48.511787 4294967295
261.70987 35.720577 -48.851761 4294967295
261.72156 36.165775 -47.684475 4294967295
261.72162 23.658735 -49.573051 4294967295
261.74289 24.143276 -50.363079 4294967295
261.76001 24.605175 -50.304146 4294967295
261.77634 25.06288 -50.078693 4294967295
261.77686 37.568493 -48.29863 4294967295
261.7926 38.02766 -47.949196 4294967295
261.80804 25.974064 -49.436508 4294967295
261.80807 38.486217 -47.537628 4294967295
261.8277 26.449219 -49.902611 4294967295
261.84024 26.88855 -48.889862 4294967295
261.84521 39.421547 -47.999786 4294967295
261.85846 27.356461 -49.055252 4294967295
261.85895 39.875927 -47.232025 4294967295
261.87677 27.824726 -49.241402 4294967295
261.87848 40.346027 -47.660904 4294967295
261.89545 28.294567 -49.503067 4294967295
261.91257 28.756973 -49.442162 4294967295
261.92722 29.207859 -48.855968 4294967295
261.94901 29.691711 -49.772457 4294967295
261.96088 30.130367 -48.595291 4294967295
261.98175 30.609877 -49.332878 4294967295
262.04587 32.441986 -48.12796 4294967295
262.08191 33.375187 -48.375374 4294967295
262.10254 33.852146 -49.078827 4294967295
262.1138 34.292206 -47.731842 4294967295
262.13385 34.766426 -48.294819 4294967295
262.14963 35.224632 -47.938004 4294967295
262.16696 23.189243 -49.946411 4294967295
262.18457 23.654003 -49.99086 4294967295
262.18634 36.159939 -48.342346 4294967295
262.21637 37.071716 -47.258621 4294967295
262.22159 24.593758 -50.477852 4294967295
262.23367 25.026878 -49.294373 4294967295
262.2377 37.549393 -48.12722 4294967295
262.25134 25.492016 -49.346191 4294967295
262.25583 38.0159 -48.277012 4294967295
262.27145 25.970882 -49.953892 4294967295
262.28735 26.426163 -49.613758 4294967295
262.30124 26.870508 -48.806881 4294967295
262.30313 39.393444 -47.144428 4294967295
262.32227 39.863182 -47.530716 4294967295
262.33658 27.801235 -48.922302 4294967295
262.33749 40.321209 -47.015625 4294967295
262.35489 28.269667 -49.117672 4294967295
262.37286 41.251968 -47.121948 4294967295
262.37531 28.749058 -49.808014 4294967295
262.39349 29.21669 -49.989372 4294967295
262.40918 29.671471 -49.584167 4294967295
262.44479 30.602743 -49.767609 4294967295
262.45895 31.050831 -49.007889 4294967295
262.47668 31.516338 -49.085495 4294967295
262.50818 32.428864 -48.292747 4294967295
262.52802 32.903755 -48.856735 4294967295
262.54272 33.355827 -48.212318 4294967295
262.56024 33.8204 -48.229996 4294967295
262.57806 34.286255 -48.320244 4294967295
262.59454 34.746525 -48.092834 4294967295
262.6134 35.216576 -48.431625 4294967295
262.6282 23.175652 -50.030487 4294967295
262.64398 23.628658 -49.637398 4294967295
262.64651 36.138126 -48.011673 4294967295
262.66052 24.086647 -49.421402 4294967295
262.67938 24.55954 -49.773224 4294967295
262.6817 37.06794 -48.085712 4294967295
262.69568 25.016205 -49.500847 4294967295
262.69589 37.520336 -47.291859 4294967295
262.7149 25.491016 -49.941082 4294967295
262.71689 37.997658 -48.16098 4294967295
262.73203 38.453831 -47.591225 4294967295
262.75131 26.427769 -50.336128 4294967295
262.76349 26.860092 -49.041454 4294967295
262.78214 27.331114 -49.342442 4294967295
262.78525 39.850239 -47.813725 4294967295
262.79947 40.304417 -47.005257 4294967295
262.80124 27.80471 -49.764374 4294967295
262.81726 40.770195 -47.090107 4294967295
262.83368 28.718571 -49.167816 4294967295
262.84851 29.167843 -48.506294 4294967295
262.88495 30.104666 -48.909569 4294967295
262.90268 30.570288 -48.989021 4294967295
262.92163 31.042194 -49.37817 4294967295
262.93665 31.493574 -48.761349 4294967295
262.95459 31.960194 -48.89299 4294967295
262.97131 32.420486 -48.702652 4294967295
262.98666 32.874435 -48.169098 4294967295
263.00433 33.339809 -48.229507 4294967295
263.0235 33.812168 -48.677605 4294967295
263.0408 34.275738 -48.650093 4294967295
263.05627 34.730694 -48.125618 4294967295
263.07617 35.206184 -48.786392 4294967295
263.08798 23.152494 -49.761879 4294967295
263.08881 35.648899 -47.502178 4294967295
263.1037 23.603741 -49.300007 4294967295
263.10852 36.123283 -48.11187 4294967295
263.12296 24.080631 -49.796753 4294967295
263.12433 36.580524 -47.666473 4294967295
263.14148 24.551857 -50.090748 4294967295
263.14377 37.053329 -48.208504 4294967295
263.15564 24.992863 -49.212326 4294967295
263.16058 37.515091 -48.043465 4294967295
263.17221 25.450993 -48.986244 4294967295
263.17673 37.974136 -47.684284 4294967295
263.19406 25.944725 -50.188622 4294967295
263.19589 38.445339 -48.158535 4294967295
263.20761 26.382393 -49.132866 4294967295
263.21298 38.908272 -48.062874 4294967295
263.22485 26.845118 -49.085835 4294967295
263.24304 27.313976 -49.296814 4294967295
263.26239 27.790154 -49.829666 4294967295
263.27682 28.234831 -49.002213 4294967295
263.27997 40.755974 -47.290596 4294967295
263.33029 29.633764 -49.335365 4294967295
263.36224 30.54426 -48.518837 4294967295
263.38309 31.028206 -49.48703 4294967295
263.41641 31.947178 -49.058083 4294967295
263.43185 32.399933 -48.482368 4294967295
263.44836 32.859062 -48.219204 4294967295
263.46823 33.336388 -48.925938 4294967295
263.48312 33.786888 -48.186172 4294967295
263.49893 34.242569 -47.704903 4294967295
263.51761 34.713303 -48.068642 4294967295
263.5517 23.159252 -50.594975 4294967295
263.552 35.639473 -47.925575 4294967295
263.58673 36.567387 -47.878174 4294967295
263.60165 37.019989 -47.116913 4294967295
263.60284 24.540754 -50.276405 4294967295
263.61929 37.485554 -47.17807 4294967295
263.62054 25.006413 -50.365311 4294967295
263.6362 25.456326 -49.831951 4294967295
263.63806 37.955906 -47.569321 4294967295
263.65527 25.93264 -50.345791 4294967295
263.65619 38.423481 -47.786934 4294967295
263.66986 26.374664 -49.472488 4294967295
263.67224 38.881783 -47.348396 4294967295
263.68729 26.838488 -49.477524 4294967295
263.70493 27.30402 -49.554893 4294967295
263.70673 39.809414 -47.235172 4294967295
263.7222 27.766521 -49.504791 4294967295
263.7244 40.274826 -47.299274 4294967295
263.73788 28.217949 -48.968483 4294967295
263.75681 28.692287 -49.432945 4294967295
263.76041 41.208046 -47.640427 4294967295
263.79013 29.609341 -48.954353 4294967295
263.8053 30.058155 -48.245747 4294967295
263.84045 30.988247 -48.329983 4294967295
263.85712 31.447329 -48.07835 4294967295
263.87585 31.920017 -48.505852 4294967295
263.89352 32.38559 -48.58297 4294967295
263.91125 32.851383 -48.674835 4294967295
263.92627 33.300858 -47.891682 4294967295
263.94507 33.773197 -48.332932 4294967295
263.99597 35.157661 -47.863068 4294967295
264.01147 23.136547 -50.342964 4294967295
264.02756 23.588024 -49.900089 4294967295
264.03125 36.088478 -47.995827 4294967295
264.04562 24.057404 -50.122505 4294967295
264.04865 36.552673 -47.990295 4294967295
264.06351 24.525208 -50.29076 4294967295
264.06589 37.015808 -47.915634 4294967295
264.07956 24.97644 -49.817062 4294967295
264.08292 37.478146 -47.784348 4294967295
264.0965 25.435902 -49.65519 4294967295
264.10025 37.941811 -47.736572 4294967295
264.1113 25.877253 -48.75877 4294967295
264.11707 38.403145 -47.522888 4294967295
264.12979 26.350391 -49.134327 4294967295
264.13412 38.865814 -47.393196 4294967295
264.1687 39.793293 -47.274681 4294967295
264.18311 27.750332 -49.499699 4294967295
264.21689 28.669231 -49.124016 4294967295
264.23383 29.129147 -48.947655 4294967295
264.25284 29.605362 -49.515541 4294967295
264.26892 30.058773 -49.034351 4294967295
264.2836 30.501654 -48.032063 4294967295
264.30206 30.973839 -48.41869 4294967295
264.32025 31.443447 -48.692558 4294967295
264.33676 31.900837 -48.358627 4294967295
264.35565 32.375294 -48.89238 4294967295
264.3707 32.822277 -48.000504 4294967295
264.38885 33.291519 -48.268478 4294967295
264.40564 33.751373 -48.031944 4294967295
264.42126 34.203259 -47.337418 4294967295
264.44104 34.683411 -48.235573 4294967295
264.45651 35.134594 -47.472641 4294967295
264.47232 23.123222 -50.436291 4294967295
264.4747 35.603928 -47.765182 4294967295
264.48727 23.561447 -49.501022 4294967295
264.4903 36.056442 -47.036163 4294967295
264.5061 24.039684 -50.053589 4294967295
264.50912 36.529736 -47.58268 4294967295
264.52167 24.484165 -49.325008 4294967295
264.52597 36.990387 -47.33828 4294967295
264.53989 24.956196 -49.649506 4294967295
264.54306 37.452858 -47.202446 4294967295
264.55496 25.396477 -48.725655 4294967295
264.5611 37.92091 -47.43985 4294967295
264.57309 25.867081 -48.993523 4294967295
264.57797 38.382195 -47.216087 4294967295
264.59064 26.332167 -49.044113 4294967295
264.59576 38.84848 -47.339874 4294967295
264.6105 26.819847 -50.0354 4294967295
264.61404 39.317719 -47.689415 4294967295
264.62619 27.266768 -49.337536 4294967295
264.63089 39.778854 -47.441444 4294967295
264.6449 27.742325 -49.846256 4294967295
264.69534 29.116919 -49.124687 4294967295
264.7131 29.583506 -49.253281 4294967295
264.71808 42.100922 -47.411476 4294967295
264.73083 30.050247 -49.393543 4294967295
264.74692 30.502138 -48.829674 4294967295
264.76379 30.961046 -48.586113 4294967295
264.79837 31.886894 -48.47644 4294967295
264.8157 32.349762 -48.415276 4294967295
264.83356 32.817635 -48.61499 4294967295
264.84952 33.26947 -47.961212 4294967295
264.86655 33.730537 -47.786072 4294967295
264.88507 34.203491 -48.270714 4294967295
264.90231 34.666199 -48.188679 4294967295
264.91763 35.114189 -47.23867 4294967295
264.93619 35.586792 -47.723923 4294967295
264.96564 24.010071 -49.534512 4294967295
264.98294 24.47263 -49.494102 4294967295
264.98907 36.983768 -47.977913 4294967295
265.00165 24.951948 -50.105766 4294967295
265.00464 37.435093 -47.12075 4294967295
265.02338 37.908173 -47.699478 4294967295
265.05292 26.330761 -49.641243 4294967295
265.05716 38.829918 -47.197884 4294967295
265.06949 26.784721 -49.241814 4294967295
265.07489 39.296246 -47.329056 4294967295
265.08862 27.268169 -50.074566 4294967295
265.09183 39.757542 -47.084763 4294967295
265.10544 27.724697 -49.779167 4294967295
265.1095 40.223305 -47.176384 4294967295
265.11987 28.155163 -48.33585 4294967295
265.13834 28.630093 -48.817566 4294967295
265.16183 41.617157 -47.190022 4294967295
265.17407 29.567923 -49.279518 4294967295
265.17929 42.081558 -47.17614 4294967295
265.19077 30.023432 -48.894825 4294967295
265.20752 30.48044 -48.567368 4294967295
265.22601 30.955509 -49.106201 4294967295
265.24344 31.419487 -49.115543 4294967295
265.26077 31.882645 -49.083729 4294967295
265.27762 32.340485 -48.776669 4294967295
265.29529 32.806557 -48.890518 4294967295
265.32922 33.725632 -48.414948 4294967295
265.34598 34.183167 -48.04892 4294967295
265.38123 35.114635 -48.228985 4294967295
265.39722 35.565712 -47.445236 4294967295
265.4082 23.517998 -49.065876 4294967295
265.41556 36.038021 -47.929291 4294967295
265.42584 23.985622 -49.211426 4294967295
265.43234 36.496712 -47.579243 4294967295
265.44376 24.456478 -49.485462 4294967295
265.4603 24.907396 -48.990456 4294967295
265.46716 37.425034 -47.549759 4294967295
265.47794 25.374073 -49.104065 4294967295
265.48459 37.889183 -47.532562 4294967295
265.4968 25.858589 -49.938461 4294967295
265.51263 26.299957 -49.036766 4294967295
265.51935 38.816933 -47.456902 4294967295
265.5369 39.282265 -47.523476 4294967295
265.54712 27.221861 -48.797359 4294967295
265.55347 39.739883 -47.006874 4294967295
265.56522 27.695463 -49.214493 4294967295
265.58368 28.174091 -49.864517 4294967295
265.59885 28.606888 -48.503059 4294967295
265.61691 29.079445 -48.889854 4294967295
265.63519 29.554363 -49.398979 4294967295
265.64108 42.065186 -47.207687 4294967295
265.65201 30.010046 -49.025703 4294967295
265.686 30.926548 -48.486721 4294967295
265.70398 31.397942 -48.852509 4294967295
265.72162 31.864357 -48.981602 4294967295
265.73865 32.323315 -48.73103 4294967295
265.75513 32.775112 -48.093899 4294967295
265.77271 33.241379 -48.207024 4294967295
265.80664 34.158012 -47.556522 4294967295
265.85358 23.074333 -50.387672 4294967295
265.8598 35.560791 -48.136398 4294967295
265.88718 23.978268 -49.534943 4294967295
265.89456 36.48782 -48.056801 4294967295
265.90533 24.455238 -50.049129 4294967295
265.91202 36.952377 -48.081734 4294967295
265.92239 24.91185 -49.785645 4294967295
265.93927 25.365597 -49.400673 4294967295
265.95706 25.836185 -49.680374 4294967295
265.97458 26.30168 -49.761078 4294967295
265.99048 26.737204 -48.601002 4294967295
266.00919 27.224936 -49.60421 4294967295
266.03296 40.190529 -47.217628 4294967295
266.06046 28.598362 -48.840046 4294967295
266.07834 29.070572 -49.217773 4294967295
266.11292 29.993237 -48.99617 4294967295
266.12915 30.436218 -48.004387 4294967295
266.147 30.907803 -48.363934 4294967295
266.18213 31.840233 -48.584167 4294967295
266.19916 32.297821 -48.256695 4294967295
266.21622 32.754833 -47.885117 4294967295
266.23392 33.22377 -48.138153 4294967295
266.25107 33.68362 -47.904026 4294967295
266.26797 34.138344 -47.372398 4294967295
266.28647 34.620247 -48.373138 4294967295
266.30252 35.061516 -47.040131 4294967295
266.32059 35.536114 -47.642258 4294967295
266.33118 23.515699 -50.163986 4294967295
266.36548 24.42968 -49.679127 4294967295
266.38321 24.901667 -50.009941 4294967295
266.39038 37.393745 -47.665726 4294967295
266.3999 25.346653 -49.282845 4294967295
266.41675 25.794067 -48.630669 4294967295
266.43503 26.281235 -49.579868 4294967295
266.45239 26.742874 -49.501251 4294967295
266.487 27.663769 -49.233574 4294967295
266.50403 28.118336 -48.836552 4294967295
266.52142 28.580204 -48.749695 4294967295
266.5394 29.058857 -49.417099 4294967295
266.54688 41.566383 -47.134949 4294967295
266.55606 29.502937 -48.520233 4294967295
266.57355 29.969442 -48.639763 4294967295
266.59064 30.423561 -48.173454 4294967295
266.62589 31.362133 -48.687664 4294967295
266.6431 31.820646 -48.41655 4294967295
266.6601 32.272766 -47.80529 4294967295
266.67828 32.756516 -48.830647 4294967295
266.69498 33.202007 -47.846939 4294967295
266.71286 33.676964 -48.435097 4294967295
266.72974 34.127926 -47.706039 4294967295
266.74728 34.595448 -47.891891 4294967295
266.76483 35.061195 -47.982666 4294967295
266.77454 23.049788 -50.650227 4294967295
266.78165 35.50993 -47.058411 4294967295
266.79181 23.506367 -50.407722 4294967295
266.79938 35.982712 -47.564522 4294967295
266.81702 36.451256 -47.829613 4294967295
266.82617 24.416924 -49.800613 4294967295
266.84314 24.861137 -49.052711 4294967295
266.86053 25.323492 -48.998543 4294967295
266.86899 37.835266 -47.241573 4294967295
266.87851 25.81072 -49.941391 4294967295
266.89526 26.245401 -48.770782 4294967295
266.91315 26.731604 -49.698029 4294967295
266.93005 27.170223 -48.651123 4294967295
266.93872 39.69138 -47.111603 4294967295
266.94778 27.648708 -49.276787 4294967295
266.96487 28.097609 -48.634918 4294967295
266.98264 28.57526 -49.244846 4294967295
267.01712 29.488186 -48.585033 4294967295
267.03424 29.936172 -47.840828 4294967295
267.05176 30.40448 -48.036514 4294967295
267.06927 30.873257 -48.262436 4294967295
267.08694 31.34988 -48.884899 4294967295
267.10422 31.805183 -48.456894 4294967295
267.1214 32.256462 -47.805077 4294967295
267.15622 33.182404 -47.671539 4294967295
267.19104 34.108833 -47.553978 4294967295
267.20862 34.5769 -47.768948 4294967295
267.22589 35.033577 -47.327194 4294967295
267.24359 35.51223 -48.180367 4294967295
267.25195 23.474289 -49.804543 4294967295
267.26089 35.96904 -47.735176 4294967295
267.2692 23.92244 -49.228489 4294967295
267.28653 24.376143 -48.847763 4294967295
267.29572 36.893108 -47.451271 4294967295
267.30408 24.852489 -49.336716 4294967295
267.32156 25.329588 -49.870258 4294967295
267.33902 25.798111 -50.076534 4294967295
267.35632 26.247656 -49.515953 4294967295
267.37372 26.708532 -49.406124 4294967295
267.39111 27.167099 -49.195797 4294967295
226.70184 52.360481 -50.677567 4294967295
226.70627 52.824585 -50.299084 4294967295
226.71059 53.288967 -49.917049 4294967295
226.752 54.684402 -49.597187 4294967295
226.75204 54.219559 -50.10685 4294967295
226.75961 55.149673 -49.310722 4294967295
226.77196 55.615147 -49.16143 4294967295
226.80809 56.546127 -49.195827 4294967295
226.80939 57.012264 -48.723362 4294967295
226.80997 56.080296 -49.759209 4294967295
226.82213 57.478188 -48.585327 4294967295
226.84857 42.596249 -52.118011 4294967295
226.85645 43.057678 -51.839729 4294967295
226.85869 59.344368 -47.609951 4294967295
226.86072 57.942574 -49.201702 4294967295
226.86473 43.519444 -51.573204 4294967295
226.8689 58.408756 -48.929798 4294967295
226.87514 58.875328 -48.601738 4294967295
226.888 60.277283 -47.443771 4294967295
226.89618 44.907658 -50.964146 4294967295
226.92203 45.835083 -50.700188 4294967295
226.94234 60.738594 -48.520977 4294967295
226.95036 61.2057 -48.244797 4294967295
226.96288 46.305176 -51.383163 4294967295
226.96864 62.140213 -47.754959 4294967295
226.97488 47.229805 -50.714508 4294967295
226.98329 46.770416 -51.470161 4294967295
227.00931 47.697891 -51.211105 4294967295
227.01147 48.621792 -50.25341 4294967295
227.04234 49.551315 -50.134712 4294967295
227.05006 50.015125 -49.848724 4294967295
227.05559 49.090973 -51.033417 4294967295
227.09782 50.483994 -50.736538 4294967295
227.09906 51.410423 -49.749603 4294967295
227.10101 50.947292 -50.31876 4294967295
227.14954 52.342087 -50.20533 4294967295
227.16553 53.271248 -49.649017 4294967295
227.18867 54.201488 -49.302341 4294967295
227.19453 54.66671 -48.960304 4294967295
227.25313 56.529282 -48.626965 4294967295
227.25935 56.995422 -48.294479 4294967295
227.28726 57.460705 -48.602123 4294967295
227.31523 42.580616 -52.220505 4294967295
227.3239 58.859184 -48.134418 4294967295
227.32393 43.501404 -51.449272 4294967295
227.33284 58.391315 -48.915039 4294967295
227.33868 43.046719 -52.398087 4294967295
227.36046 59.790791 -48.181541 4294967295
227.37355 44.434547 -51.884705 4294967295
227.37518 45.355034 -50.903217 4294967295
227.39267 60.254864 -48.616695 4294967295
227.39763 44.900669 -52.080631 4294967295
227.40865 60.720764 -48.571533 4294967295
227.40927 45.823769 -51.394817 4294967295
227.41655 46.286053 -51.094505 4294967295
227.41849 46.747429 -50.636681 4294967295
227.41978 61.655937 -47.865944 4294967295
227.42705 62.123642 -47.562576 4294967295
227.46359 48.140751 -50.420921 4294967295
227.46432 47.218067 -51.475227 4294967295
227.48801 49.069031 -50.110218 4294967295
227.49417 48.607933 -50.809975 4294967295
227.54158 50.464439 -50.14521 4294967295
227.54388 50.002014 -50.731285 4294967295
227.57201 50.93095 -50.529488 4294967295
227.57716 51.394653 -50.165657 4294967295
227.58136 51.858555 -49.771347 4294967295
227.61336 52.788807 -49.684338 4294967295
227.62614 52.325855 -50.5826 4294967295
227.63199 53.254124 -49.719093 4294967295
227.66672 54.184605 -49.712372 4294967295
227.67598 54.6497 -49.468594 4294967295
227.68869 55.580498 -48.805668 4294967295
227.68907 55.115013 -49.337643 4294967295
227.6991 56.046219 -48.59457 4294967295
227.73518 56.977543 -48.627975 4294967295
227.74625 56.511051 -49.479366 4294967295
227.7645 42.559425 -51.809002 4294967295
227.76753 58.843513 -47.504791 4294967295
227.76758 57.442436 -49.073189 4294967295
227.76968 43.479355 -50.924652 4294967295
227.79114 59.309025 -47.68689 4294967295
227.79617 43.028248 -52.233681 4294967295
227.798 43.947212 -51.247864 4294967295
227.7991 59.776123 -47.402 4294967295
227.80185 58.373482 -49.053001 4294967295
227.81851 44.412678 -51.339409 4294967295
227.85562 61.642868 -46.997417 4294967295
227.86307 45.804558 -51.107128 4294967295
227.87001 46.266815 -50.792969 4294967295
227.87202 45.34655 -51.895401 4294967295
227.8732 60.703167 -48.572674 4294967295
227.87595 61.171021 -48.13089 4294967295
227.88278 46.730602 -50.653458 4294967295
227.91611 47.659996 -50.605965 4294967295
227.9292 47.201424 -51.519691 4294967295
227.95795 49.052937 -50.290955 4294967295
227.97032 48.593044 -51.184601 4294967295
227.99219 50.445663 -49.746834 4294967295
228.0202 51.375385 -49.539268 4294967295
228.04282 51.841133 -49.693237 4294967295
228.07707 52.307671 -50.198067 4294967295
228.0872 53.236397 -49.452507 4294967295
228.0984 53.701462 -49.263924 4294967295
228.12498 54.167137 -49.538303 4294967295
228.13811 55.563217 -48.35326 4294967295
228.15108 55.097664 -49.271381 4294967295
228.16194 56.028862 -48.544792 4294967295
228.20122 56.493919 -49.202854 4294967295
228.2079 56.959782 -48.877068 4294967295
228.21355 57.425957 -48.519333 4294967295
228.21992 58.35952 -47.655067 4294967295
228.22873 43.461178 -50.787598 4294967295
228.23561 42.545254 -52.04686 4294967295
228.24133 59.29295 -47.243622 4294967295
228.25185 58.824287 -48.091248 4294967295
228.27338 59.757515 -47.684326 4294967295
228.29504 45.779961 -50.155209 4294967295
228.29999 45.320671 -50.832146 4294967295
228.30161 60.222214 -48.009621 4294967295
228.30853 44.862869 -51.617157 4294967295
228.32053 60.687908 -48.052212 4294967295
228.34674 46.713718 -50.662758 4294967295
228.35426 62.08876 -47.483376 4294967295
228.37354 47.641781 -50.417496 4294967295
228.3824 47.182358 -51.214005 4294967295
228.4162 48.572975 -50.651627 4294967295
228.42166 49.498226 -49.758797 4294967295
228.42203 49.035927 -50.299515 4294967295
228.43526 49.962875 -49.641426 4294967295
228.45532 50.891636 -49.18993 4294967295
228.46983 50.430267 -50.161091 4294967295
228.48407 51.358204 -49.532623 4294967295
228.51768 51.82494 -50.023041 4294967295
228.54979 52.754913 -49.937489 4294967295
228.55832 53.684006 -49.133148 4294967295
228.55925 54.148918 -48.629276 4294967295
228.56145 53.219711 -49.760521 4294967295
228.58408 54.614685 -48.853004 4294967295
228.61458 55.08033 -49.25016 4294967295
228.62457 55.545746 -49.02227 4294967295
228.63696 56.011307 -48.867085 4294967295
228.64578 56.477085 -48.602356 4294967295
228.67639 57.87542 -47.935097 4294967295
228.68044 56.942032 -49.126427 4294967295
228.68181 42.981842 -51.000095 4294967295
228.68254 42.523178 -51.554665 4294967295
228.68539 57.408127 -48.744446 4294967295
228.7018 58.34071 -48.176941 4294967295
228.72002 58.806465 -48.198845 4294967295
228.72357 43.453983 -51.742424 4294967295
228.72865 59.273148 -47.928242 4294967295
228.73689 43.917145 -51.616482 4294967295
228.75209 60.674843 -47.037498 4294967295
228.76154 44.383621 -51.836548 4294967295
228.77391 46.227489 -50.081398 4294967295
228.77933 45.307884 -51.314163 4294967295
228.78241 61.139191 -47.430618 4294967295
228.78455 45.769409 -50.940617 4294967295
228.80383 62.073746 -47.013638 4294967295
228.80951 46.696579 -50.636097 4294967295
228.81435 61.602962 -47.874031 4294967295
228.8327 47.623875 -50.277229 4294967295
228.86308 48.091278 -50.674164 4294967295
228.87637 49.479736 -49.474083 4294967295
228.88203 48.556343 -50.719696 4294967295
228.90445 50.409409 -49.263931 4294967295
228.92294 49.9491 -50.368912 4294967295
228.93594 50.8764 -49.695129 4294967295
228.97876 51.344231 -50.474419 4294967295
228.98254 51.807854 -50.053749 4294967295
228.99707 53.200871 -48.887688 4294967295
229.00122 52.273003 -50.091446 4294967295
229.00778 53.666077 -48.678764 4294967295
229.03633 54.132027 -49.020622 4294967295
229.0553 54.597511 -49.066277 4294967295
229.073 55.528461 -48.533852 4294967295
229.08604 55.063057 -49.475555 4294967295
229.10107 56.926388 -47.780396 4294967295
229.12773 56.459183 -49.144981 4294967295
229.14603 42.506512 -51.561943 4294967295
229.14697 42.965626 -51.053009 4294967295
229.15239 57.390541 -48.826504 4294967295
229.16663 57.856285 -48.726639 4294967295
229.16823 58.323086 -48.234489 4294967295
229.17296 43.432907 -51.316528 4294967295
229.17516 58.789791 -47.90757 4294967295
229.19118 44.357193 -50.801834 4294967295
229.19281 59.723549 -47.369652 4294967295
229.20168 59.254768 -48.186996 4294967295
229.22755 45.747387 -50.307957 4294967295
229.22784 60.187447 -47.91394 4294967295
229.22874 60.655628 -47.399033 4294967295
229.23135 44.828171 -51.504662 4294967295
229.2359 45.28923 -51.105026 4294967295
229.2562 46.214981 -50.65361 4294967295
229.26886 46.67868 -50.505142 4294967295
229.27043 62.055798 -47.062569 4294967295
229.29701 47.145828 -50.836727 4294967295
229.30078 47.60778 -50.412849 4294967295
229.31062 48.533066 -49.634266 4294967295
229.33141 48.075176 -50.821678 4294967295
229.36874 49.005039 -50.897446 4294967295
229.36958 49.929585 -49.83905 4294967295
229.37111 49.467403 -50.428894 4294967295
229.3932 50.395493 -50.029625 4294967295
229.40146 50.859447 -49.743446 4294967295
229.40329 51.322933 -49.25703 4294967295
229.43491 52.253349 -49.153976 4294967295
229.43547 51.789661 -49.715183 4294967295
229.4599 52.71925 -49.387886 4294967295
229.48416 53.184929 -49.599632 4294967295
229.48759 54.114307 -48.616768 4294967295
229.49065 54.579605 -48.165726 4294967295
229.53305 55.045586 -48.944435 4294967295
229.53983 55.511086 -48.609909 4294967295
229.56039 56.909164 -47.611992 4294967295
229.58138 57.374973 -47.721291 4294967295
229.61165 42.949276 -51.093441 4294967295
229.6123 57.84005 -48.142113 4294967295
229.61737 42.492538 -51.817226 4294967295
229.62857 43.873016 -50.531227 4294967295
229.63055 43.414333 -51.139343 4294967295
229.63086 58.773079 -47.628029 4294967295
229.63748 59.240173 -47.285683 4294967295
229.64798 58.304417 -48.712132 4294967295
229.65269 44.799652 -50.193878 4294967295
229.65622 44.340801 -50.849972 4294967295
229.66246 59.705437 -47.520943 4294967295
229.67108 60.172588 -47.241623 4294967295
229.67216 45.265133 -50.25655 4294967295
229.7112 60.635571 -47.952763 4294967295
229.7168 46.658134 -50.014313 4294967295
229.72334 45.738647 -51.313408 4294967295
229.72607 61.57058 -47.320694 4294967295
229.72791 46.200047 -50.91032 4294967295
229.7338 47.123058 -49.999992 4294967295
229.757 47.589264 -50.180416 4294967295
229.76584 62.032764 -48.020576 4294967295
229.76706 48.514675 -49.39959 4294967295
229.78203 48.979511 -49.320396 4294967295
229.82449 49.44873 -50.106491 4294967295
229.85905 51.304871 -48.994675 4294967295
229.86653 50.379646 -50.330734 4294967295
229.90475 51.772999 -49.885063 4294967295
229.93268 53.631355 -48.560265 4294967295
229.93332 53.166824 -49.132633 4294967295
229.93971 52.703144 -49.885796 4294967295
229.94891 54.096909 -48.521713 4294967295
229.97662 54.562737 -48.844872 4294967295
229.97739 55.028072 -48.316071 4294967295
230.0072 55.493717 -48.706306 4294967295
230.02086 56.425392 -48.031857 4294967295
230.02338 55.959278 -48.665062 4294967295
230.05573 56.890488 -48.582558 4294967295
230.06462 42.929062 -50.765793 4294967295
230.06795 57.823154 -47.860741 4294967295
230.06819 57.35635 -48.423302 4294967295
230.08368 58.289165 -47.805038 4294967295
230.09334 43.397373 -51.122498 4294967295
230.09871 59.223 -47.172089 4294967295
230.09915 44.317928 -50.201599 4294967295
230.10164 43.859123 -50.832382 4294967295
230.11537 58.753777 -48.255611 4294967295
230.13135 44.787018 -50.668228 4294967295
230.13869 45.249031 -50.348 4294967295
230.14977 60.153236 -47.681908 4294967295
230.17108 60.618641 -47.803085 4294967295
230.19894 46.185001 -51.152252 4294967295
230.19994 46.645718 -50.630165 4294967295
230.22696 47.573593 -50.379707 4294967295
230.23145 47.11359 -51.076717 4294967295
230.25162 48.963409 -49.497856 4294967295
230.26089 49.427311 -49.236893 4294967295
230.26855 48.504539 -50.59259 4294967295
230.29474 49.89502 -49.758476 4294967295
230.33096 50.825394 -49.800224 4294967295
230.34387 51.289978 -49.654926 4294967295
230.35011 52.217831 -48.7388 4294967295
230.39172 53.149239 -48.951427 4294967295
230.40642 53.614529 -48.862556 4294967295
230.40776 54.079422 -48.346355 4294967295
230.42204 54.54501 -48.243656 4294967295
230.44891 55.010799 -48.544289 4294967295
230.4726 55.47636 -48.743214 4294967295
230.48779 56.407921 -48.109985 4294967295
230.54793 42.918983 -51.402634 4294967295
230.55347 58.271267 -47.972282 4294967295
230.56223 58.737869 -47.691101 4294967295
230.56723 59.205078 -47.28997 4294967295
230.57681 43.387131 -51.769775 4294967295
230.58086 43.847252 -51.340576 4294967295
230.58633 44.308125 -50.956429 4294967295
230.60582 60.136768 -47.405647 4294967295
230.60619 45.233227 -50.473747 4294967295
230.61093 45.694702 -50.065605 4294967295
230.61238 44.775208 -51.232849 4294967295
230.62265 60.602894 -47.383736 4294967295
230.65176 61.067135 -47.758438 4294967295
230.65399 46.166046 -50.888367 4294967295
230.6626 61.534145 -47.543606 4294967295
230.66689 46.629601 -50.741959 4294967295
230.67172 47.091469 -50.336395 4294967295
230.70572 47.559834 -50.869164 4294967295
230.71085 48.483559 -49.910141 4294967295
230.71402 48.022652 -50.574253 4294967295
230.7168 48.946579 -49.539345 4294967295
230.75977 49.415874 -50.361618 4294967295
230.76912 50.805073 -48.972435 4294967295
230.76979 50.342163 -49.558323 4294967295
230.77391 49.880226 -50.254745 4294967295
230.79053 51.270901 -49.09938 4294967295
230.80968 52.200226 -48.588791 4294967295
230.82605 52.665684 -48.553284 4294967295
230.82793 51.738216 -49.743546 4294967295
230.84138 53.131107 -48.483879 4294967295
230.89108 53.598251 -49.526871 4294967295
230.89812 54.063053 -49.189125 4294967295
230.92899 54.993629 -49.057274 4294967295
230.94891 55.924576 -48.569576 4294967295
231.00299 42.899467 -51.140968 4294967295
231.00742 58.254612 -47.629307 4294967295
231.01134 43.360992 -50.845684 4294967295
231.02524 58.720501 -47.639587 4294967295
231.04616 44.290237 -50.843613 4294967295
231.05638 43.834354 -51.741943 4294967295
231.0589 44.75351 -50.690453 4294967295
231.06929 59.651272 -47.934982 4294967295
231.08049 60.586281 -47.159233 4294967295
231.08099 45.219494 -50.841774 4294967295
231.0937 61.053059 -47.019562 4294967295
231.10666 46.146431 -50.541473 4294967295
231.12064 46.610348 -50.428238 4294967295
231.1329 61.515556 -47.727867 4294967295
231.13832 47.075203 -50.435951 4294967295
231.15007 47.538773 -50.249985 4294967295
231.19655 48.470707 -50.627541 4294967295
231.2146 48.935532 -50.647007 4294967295
231.21719 49.397804 -50.161968 4294967295
231.22911 49.86187 -49.981277 4294967295
231.22913 50.324421 -49.411034 4294967295
231.23077 50.787624 -48.893562 4294967295
231.24113 51.252224 -48.660587 4294967295
231.28125 52.183662 -48.830276 4294967295
231.28932 51.720806 -49.66629 4294967295
231.29089 52.648499 -48.573433 4294967295
231.31572 53.114483 -48.813747 4294967295
231.3448 54.510235 -48.047882 4294967295
231.35304 54.045437 -48.891731 4294967295
231.35524 53.581009 -49.53677 4294967295
231.38335 54.976196 -48.739189 4294967295
231.38731 55.441689 -48.295052 4294967295
231.40761 55.90728 -48.387608 4294967295
231.40982 56.373302 -47.885189 4294967295
231.43878 57.305225 -47.687103 4294967295
231.45389 42.878448 -50.737389 4294967295
231.48163 58.236359 -47.946648 4294967295
231.48485 43.806503 -50.607986 4294967295
231.49939 59.16972 -47.37886 4294967295
231.50786 59.636791 -47.080765 4294967295
231.51251 45.193642 -49.794209 4294967295
231.51613 44.275463 -51.062565 4294967295
231.52589 44.737728 -50.81012 4294967295
231.53232 45.659302 -49.871582 4294967295
231.53459 60.1017 -47.385475 4294967295
231.58261 46.132736 -50.954456 4294967295
231.5985 61.497742 -47.763397 4294967295
231.62488 47.985371 -50.045921 4294967295
231.64972 48.451721 -50.290543 4294967295
231.67213 49.841606 -49.299126 4294967295
231.6833 49.381165 -50.246101 4294967295
231.68642 50.306381 -49.193588 4294967295
231.69194 50.770115 -48.798645 4294967295
231.74704 51.703014 -49.466122 4294967295
231.74706 52.630657 -48.306858 4294967295
231.80544 53.563065 -49.084885 4294967295
231.83868 54.493633 -49.028687 4294967295
231.86246 54.959038 -49.238167 4294967295
231.86263 56.356228 -47.498116 4294967295
231.86797 55.889965 -48.258018 4294967295
231.86856 55.424297 -48.859493 4294967295
231.89606 56.82151 -48.029694 4294967295
231.91995 57.753693 -47.658497 4294967295
231.92473 42.864319 -50.98745 4294967295
231.93338 57.286156 -48.690556 4294967295
231.95093 43.331825 -51.279449 4294967295
231.95827 58.68512 -47.770767 4294967295
231.97202 44.256359 -50.819588 4294967295
231.98489 44.719601 -50.668015 4294967295
231.98987 45.180687 -50.251751 4294967295
231.99979 59.61599 -47.98893 4294967295
232.01976 60.54966 -47.487106 4294967295
232.02574 45.650547 -50.866001 4294967295
232.03024 46.572197 -49.851151 4294967295
232.05702 47.039371 -50.162628 4294967295
232.07509 61.946938 -47.582489 4294967295
232.09241 47.969193 -50.177921 4294967295
232.09561 48.431259 -49.70105 4294967295
232.15811 50.753246 -48.869129 4294967295
232.16733 50.291702 -49.764599 4294967295
232.17749 51.218838 -48.932549 4294967295
232.18517 51.683159 -48.603951 4294967295
232.23978 52.615646 -49.264832 4294967295
232.24368 53.079983 -48.808895 4294967295
232.26305 53.545475 -48.872688 4294967295
232.2668 54.010315 -48.410011 4294967295
232.33087 55.406956 -48.801796 4294967295
232.33983 55.872475 -48.514946 4294967295
232.35789 56.804188 -47.944534 4294967295
232.38411 57.736244 -47.648003 4294967295
232.40665 42.854237 -51.619911 4294967295
232.41084 43.772652 -50.584816 4294967295
232.4146 44.232986 -50.122124 4294967295
232.42371 58.667519 -47.804966 4294967295
232.43745 59.601673 -47.084831 4294967295
232.4375 59.133709 -47.679348 4294967295
232.45773 45.165092 -50.400421 4294967295
232.45952 44.706192 -51.050453 4294967295
232.47627 60.533253 -47.214607 4294967295
232.47655 60.06485 -47.817215 4294967295
232.49152 46.554672 -49.77232 4294967295
232.5015 47.017883 -49.518623 4294967295
232.52562 61.9319 -47.107231 4294967295
232.55203 47.951378 -50.047676 4294967295
232.55658 47.491447 -50.794197 4294967295
232.55745 48.875679 -49.047363 4294967295
232.55957 48.414291 -49.711098 4294967295
232.58954 49.343483 -49.543365 4294967295
232.59988 49.80743 -49.301186 4294967295
232.61952 50.27293 -49.375256 4294967295
232.64009 51.201519 -48.8871 4294967295
232.65485 51.666573 -48.794052 4294967295
232.65601 50.740601 -50.021858 4294967295
232.67099 52.131828 -48.748631 4294967295
232.70093 53.06229 -48.577454 4294967295
232.73236 54.458134 -47.86071 4294967295
232.7366 53.993248 -48.602688 4294967295
232.74951 54.923878 -47.849693 4294967295
232.76729 55.389637 -47.85936 4294967295
232.78893 55.85532 -48.001274 4294967295
232.80426 56.321068 -47.927567 4294967295
232.82719 57.25317 -47.515812 4294967295
232.84167 56.785973 -48.609787 4294967295
232.84264 57.719185 -47.445419 4294967295
232.84808 42.829735 -50.887302 4294967295
232.85872 43.291901 -50.654415 4294967295
232.86668 58.18457 -47.670578 4294967295
232.87383 44.214794 -49.977425 4294967295
232.88184 43.758423 -50.848236 4294967295
232.88243 44.676949 -49.674011 4294967295
232.8905 58.649788 -47.887047 4294967295
232.91226 45.145611 -50.097912 4294967295
232.91473 59.114796 -48.118828 4294967295
232.91928 59.582016 -47.674988 4294967295
232.94922 45.615959 -50.766823 4294967295
232.95874 46.538654 -49.89637 4294967295
232.96638 46.080467 -50.757027 4294967295
232.97882 47.004211 -49.986122 4294967295
232.99184 47.468086 -49.834175 4294967295
232.99831 61.912727 -47.384087 4294967295
233.01491 48.395596 -49.426926 4294967295
233.02829 47.937126 -50.486919 4294967295
233.04807 49.787815 -48.764511 4294967295
233.05322 49.326408 -49.542885 4294967295
233.05794 50.25206 -48.502731 4294967295
233.09346 51.183075 -48.522194 4294967295
233.0947 50.720131 -49.167343 4294967295
233.12198 52.113396 -48.300087 4294967295
233.15103 52.579887 -48.699371 4294967295
233.16211 53.044849 -48.478729 4294967295
233.18143 53.510429 -48.541664 4294967295
233.18816 53.975456 -48.171288 4294967295
233.22516 54.441589 -48.846066 4294967295
233.25845 55.837868 -48.183533 4294967295
233.27888 56.303391 -48.285034 4294967295
233.29224 56.769119 -48.142757 4294967295
233.29854 57.702309 -47.146935 4294967295
233.30487 42.81065 -50.667698 4294967295
233.31227 57.234596 -48.230789 4294967295
233.32153 58.167866 -47.338066 4294967295
233.33202 43.278679 -51.003696 4294967295
233.35974 59.099377 -47.44986 4294967295
233.38022 45.1301 -50.25602 4294967295
233.3847 44.672195 -51.016682 4294967295
233.38524 45.591305 -49.823662 4294967295
233.40768 60.497734 -47.291912 4294967295
233.41443 46.059441 -50.231789 4294967295
233.42534 46.522514 -50.00354 4294967295
233.42563 60.963608 -47.307228 4294967295
