# .PCD v0.7 - Point Cloud Data file format
VERSION 0.7
FIELDS x y z rgb
SIZE 4 4 4 4
TYPE F F F U
COUNT 1 1 1 1
WIDTH 1147
HEIGHT 1
VIEWPOINT 0 0 0 1 0 0 0
POINTS 1147
DATA ascii
204.30374 45.300587 -54.56192 4294967295
204.30551 46.686733 -53.617393 4294967295
204.30719 48.5383 -52.341835 4294967295
204.31473 49.002525 -52.155861 4294967295
204.32405 49.930939 -51.676086 4294967295
204.32437 48.077061 -52.990608 4294967295
204.32465 47.15168 -53.648659 4294967295
204.32715 49.467361 -52.061584 4294967295
204.33405 46.228645 -54.476685 4294967295
204.33607 47.615658 -53.53595 4294967295
204.33867 50.39621 -51.622482 4294967295
204.34418 52.255104 -50.414455 4294967295
204.35358 50.861542 -51.57449 4294967295
204.35358 51.325958 -51.24688 4294967295
204.36749 51.79142 -51.179962 4294967295
204.36963 53.652344 -49.906837 4294967295
204.38708 53.187355 -50.563179 4294967295
204.44733 56.449959 -49.393623 4294967295
204.45233 56.916664 -49.15844 4294967295
204.49728 57.382275 -49.674736 4294967295
204.53325 57.84782 -50.022499 4294967295
204.53485 58.781925 -49.393272 4294967295
204.53749 59.249241 -49.112907 4294967295
204.63373 61.580906 -49.277039 4294967295
204.64142 42.954266 -53.821587 4294967295
204.64394 61.111931 -49.800274 4294967295
204.65558 60.643253 -50.349651 4294967295
204.66637 43.420315 -53.962395 4294967295
204.67514 62.044807 -49.728115 4294967295
204.71249 44.813 -53.846264 4294967295
204.72411 43.892254 -54.720741 4294967295
204.73404 44.355213 -54.579941 4294967295
204.75557 45.743496 -54.000496 4294967295
204.77116 45.284245 -54.622559 4294967295
204.77554 49.448704 -51.744781 4294967295
204.77853 48.058811 -52.789356 4294967295
204.78004 47.59613 -53.147034 4294967295
204.78418 46.209679 -54.210663 4294967295
204.78609 50.377655 -51.284164 4294967295
204.79309 47.135231 -53.721832 4294967295
204.8114 48.988674 -52.750648 4294967295
204.81613 51.308594 -51.190872 4294967295
204.82513 52.238625 -50.700581 4294967295
204.82797 52.703865 -50.423378 4294967295
204.8508 50.846691 -52.176346 4294967295
204.85434 51.775448 -51.583111 4294967295
204.87366 53.636093 -50.625977 4294967295
204.87407 54.101635 -50.302612 4294967295
204.88644 55.499763 -49.543182 4294967295
204.9054 54.567829 -50.564552 4294967295
204.91508 55.033699 -50.416912 4294967295
204.94022 56.432079 -49.898781 4294967295
204.94659 55.965675 -50.351219 4294967295
204.97398 56.897861 -50.207253 4294967295
205.01038 57.363297 -50.56554 4294967295
205.02054 57.829498 -50.426693 4294967295
205.02267 58.296192 -50.135452 4294967295
205.05493 60.163425 -49.418892 4294967295
205.09021 61.564217 -49.090771 4294967295
205.09286 42.934906 -53.575066 4294967295
205.09323 60.628025 -49.81369 4294967295
205.10921 61.094379 -49.784996 4294967295
205.1096 59.692059 -50.789383 4294967295
205.12598 62.028759 -49.43819 4294967295
205.13785 44.327721 -53.435486 4294967295
205.15704 43.869705 -54.129875 4294967295
205.15857 43.408863 -54.489639 4294967295
205.19263 44.798805 -54.143547 4294967295
205.19788 45.261311 -53.912376 4294967295
205.21849 45.726379 -53.97295 4294967295
205.2664 50.361713 -51.566681 4294967295
205.26917 47.582191 -53.610619 4294967295
205.2789 48.045979 -53.463947 4294967295
205.28897 49.899738 -52.328346 4294967295
205.30824 51.757591 -51.365433 4294967295
205.31592 50.829548 -52.176559 4294967295
205.32066 51.293972 -51.934269 4294967295
205.32219 53.15295 -50.631851 4294967295
205.3224 54.083961 -49.969109 4294967295
205.33897 52.223835 -51.617615 4294967295
205.34314 55.482399 -49.363152 4294967295
205.35085 55.016178 -49.844181 4294967295
205.35612 53.619278 -50.945221 4294967295
205.3813 56.415077 -49.423355 4294967295
205.40956 54.551003 -51.297905 4294967295
205.41481 55.948257 -50.397026 4294967295
205.42448 57.814461 -49.244942 4294967295
205.43268 57.34724 -49.736237 4294967295
205.45239 56.880112 -50.446857 4294967295
205.4649 58.2798 -49.683113 4294967295
205.47388 58.746498 -49.519726 4294967295
205.49957 59.212311 -49.676529 4294967295
205.54048 60.612015 -49.454643 4294967295
205.56862 60.14217 -50.327801 4294967295
205.5762 59.674438 -50.808102 4294967295
205.58905 61.075485 -50.04937 4294967295
205.59677 61.542553 -49.862282 4294967295
205.60223 43.388115 -54.098053 4294967295
205.60641 42.927979 -54.510475 4294967295
205.60907 44.773777 -53.229614 4294967295
205.62398 44.314732 -53.847328 4294967295
205.64586 43.857464 -54.597809 4294967295
205.65027 62.004868 -50.552147 4294967295
205.67186 46.632076 -53.095768 4294967295
205.6803 45.247391 -54.257195 4294967295
205.69281 47.097416 -53.162575 4294967295
205.70358 47.56142 -53.034706 4294967295
205.70726 45.713303 -54.439533 4294967295
205.72034 48.489197 -52.68726 4294967295
205.73203 48.027618 -53.245255 4294967295
205.73235 51.737976 -50.573502 4294967295
205.74321 48.954792 -52.791191 4294967295
205.74463 50.809731 -51.479683 4294967295
205.75108 51.274509 -51.268284 4294967295
205.77 49.420685 -52.969986 4294967295
205.79749 53.136036 -50.817154 4294967295
205.82507 54.533016 -50.339394 4294967295
205.82657 53.602139 -51.039665 4294967295
205.83025 54.998901 -50.102104 4294967295
205.84705 55.464954 -50.088799 4294967295
205.85963 56.864101 -49.321232 4294967295
205.91446 56.396538 -50.71299 4294967295
205.9164 57.329205 -50.077202 4294967295
205.93126 57.795376 -50.026283 4294967295
205.95357 59.195507 -49.444843 4294967295
205.96771 58.260571 -50.39156 4294967295
205.97311 58.727165 -50.158791 4294967295
206.03288 60.12471 -50.29911 4294967295
206.05157 42.907383 -54.146606 4294967295
206.0569 61.057678 -50.087841 4294967295
206.06053 43.831398 -53.647697 4294967295
206.06073 44.292931 -53.315865 4294967295
206.06705 61.524483 -49.945686 4294967295
206.08168 43.374298 -54.390018 4294967295
206.08633 60.587631 -50.993046 4294967295
206.12668 44.766071 -54.249813 4294967295
206.15891 47.543243 -52.854218 4294967295
206.16217 45.694965 -54.261662 4294967295
206.17969 46.15937 -54.263004 4294967295
206.19101 48.935966 -52.46339 4294967295
206.19272 49.39954 -52.159409 4294967295
206.19759 46.623833 -54.272415 4294967295
206.20116 48.011166 -53.332729 4294967295
206.20988 47.087536 -54.173359 4294967295
206.21815 48.475872 -53.323685 4294967295
206.21971 51.722065 -50.993423 4294967295
206.22169 51.25769 -51.369469 4294967295
206.22542 50.793732 -51.778976 4294967295
206.23416 53.117718 -50.258308 4294967295
206.2713 53.584255 -50.638638 4294967295
206.2735 52.654263 -51.357742 4294967295
206.32159 54.050785 -51.273727 4294967295
206.33675 55.447548 -50.551563 4294967295
206.34616 54.981865 -51.072701 4294967295
206.34779 54.516479 -51.442757 4294967295
206.40289 58.71162 -49.459236 4294967295
206.40686 58.24432 -49.875938 4294967295
206.41341 57.777256 -50.342484 4294967295
206.41698 57.31065 -50.751011 4294967295
206.49365 43.347252 -53.379776 4294967295
206.49666 42.886711 -53.77562 4294967295
206.50623 43.81105 -53.284756 4294967295
206.53291 61.039112 -50.285828 4294967295
206.53638 61.506489 -50.012863 4294967295
206.56317 61.97155 -50.193871 4294967295
206.56511 44.744743 -53.750221 4294967295
206.58527 44.286999 -54.479385 4294967295
206.61346 45.21447 -54.350037 4294967295
206.62129 46.601093 -53.486652 4294967295
206.64105 46.142048 -54.209221 4294967295
206.65216 49.845581 -51.71188 4294967295
206.65619 50.774002 -51.109863 4294967295
206.65773 47.993206 -53.177765 4294967295
206.66425 48.456764 -52.96537 4294967295
206.67216 50.311165 -51.761223 4294967295
206.68138 51.704639 -50.919586 4294967295
206.6944 51.241024 -51.513901 4294967295
206.69675 49.386299 -52.918846 4294967295
206.73576 53.101791 -50.958069 4294967295
206.75752 52.637871 -51.722523 4294967295
206.79303 54.033627 -51.39275 4294967295
206.80717 55.89613 -50.30415 4294967295
206.81769 54.499237 -51.533211 4294967295
206.83211 56.361942 -50.449734 4294967295
206.84741 55.430138 -51.431229 4294967295
206.84854 56.82785 -50.42923 4294967295
206.86644 57.293716 -50.437042 4294967295
206.8669 57.760269 -50.103851 4294967295
206.88191 58.226398 -50.055733 4294967295
206.90886 58.691914 -50.240528 4294967295
206.94614 59.156635 -50.627586 4294967295
206.96986 59.622002 -50.74984 4294967295
206.96992 60.089123 -50.408958 4294967295
207.00029 43.799881 -53.862282 4294967295
207.00249 61.956764 -49.675789 4294967295
207.01093 60.552998 -50.869789 4294967295
207.02032 61.487007 -50.368782 4294967295
207.02113 44.265018 -53.92897 4294967295
207.05963 46.118179 -53.317654 4294967295
207.06888 46.581715 -53.15728 4294967295
207.07837 47.04541 -53.001549 4294967295
207.10278 47.511162 -53.137733 4294967295
207.14146 49.830696 -52.186127 4294967295
207.15326 47.979996 -53.784733 4294967295
207.15372 49.368473 -52.768391 4294967295
207.1615 50.296085 -52.23658 4294967295
207.17531 50.76096 -52.165131 4294967295
207.18187 53.083797 -50.578621 4294967295
207.18593 51.225666 -52.030399 4294967295
207.19458 52.619373 -51.171616 4294967295
207.23604 55.412849 -49.924072 4294967295
207.25691 54.016308 -51.366692 4294967295
207.2578 54.481556 -51.039833 4294967295
207.29144 55.878586 -50.670479 4294967295
207.29147 57.277565 -49.638145 4294967295
207.29836 56.810802 -50.117912 4294967295
207.31081 56.34433 -50.707367 4294967295
207.35423 58.208599 -50.184975 4294967295
207.35902 57.741753 -50.624199 4294967295
207.37746 59.141251 -49.953278 4294967295
207.41212 58.672333 -50.981472 4294967295
207.42714 59.605042 -50.588295 4294967295
207.44131 42.856529 -54.091866 4294967295
207.45157 43.319485 -53.950172 4294967295
207.45157 44.703571 -52.920219 4294967295
207.4567 60.069901 -50.826225 4294967295
207.4794 43.785946 -54.155258 4294967295
207.48607 60.534588 -51.061234 4294967295
207.48776 45.171612 -53.289352 4294967295
207.49193 61.468773 -50.486557 4294967295
207.50121 44.251129 -54.241135 4294967295
207.50984 45.637081 -53.380592 4294967295
207.51521 46.099895 -53.142529 4294967295
207.53015 61.932346 -50.895859 4294967295
207.53827 46.565491 -53.253571 4294967295
207.5601 47.49324 -52.99596 4294967295
207.57814 47.958149 -53.007568 4294967295
207.5813 48.421322 -52.725643 4294967295
207.58986 47.034973 -53.927094 4294967295
207.59106 49.812187 -51.884171 4294967295
207.62755 50.742847 -51.914833 4294967295
207.62779 49.352356 -52.954315 4294967295
207.63075 50.279346 -52.323181 4294967295
207.63843 48.890549 -53.509109 4294967295
207.64513 51.208115 -51.917038 4294967295
207.67429 52.602806 -51.457405 4294967295
207.69492 53.998398 -50.827484 4294967295
207.69827 53.068497 -51.586143 4294967295
207.70505 53.533554 -51.374336 4294967295
207.73088 56.327652 -49.80658 4294967295
207.74304 54.464542 -51.434433 4294967295
207.77065 55.395443 -51.289455 4294967295
207.77719 56.793056 -50.378487 4294967295
207.80818 57.258488 -50.647209 4294967295
207.81651 57.724606 -50.465088 4294967295
207.83279 58.657299 -50.093887 4294967295
207.83627 58.190331 -50.510406 4294967295
207.83771 59.124069 -49.843727 4294967295
207.89438 60.05452 -50.275032 4294967295
207.89764 60.989315 -49.644028 4294967295
207.90973 59.586285 -50.927788 4294967295
207.91147 43.301842 -53.865479 4294967295
207.92578 61.922375 -49.507591 4294967295
207.92691 60.519119 -50.574421 4294967295
207.94511 44.691906 -53.495346 4294967295
207.95343 44.232105 -54.006561 4294967295
207.96297 61.450584 -50.595795 4294967295
207.97638 45.620541 -53.423527 4294967295
207.97949 46.545128 -52.792358 4294967295
208.03326 47.477406 -53.167255 4294967295
208.04056 47.940887 -52.96558 4294967295
208.06357 48.406357 -53.076126 4294967295
208.07677 50.72448 -51.601135 4294967295
208.0813 49.797462 -52.38731 4294967295
208.0892 49.33498 -52.892052 4294967295
208.11063 52.119553 -51.231133 4294967295
208.11757 50.264126 -52.761833 4294967295
208.11765 51.191486 -52.067757 4294967295
208.12714 51.656166 -51.908714 4294967295
208.1478 53.515594 -50.926979 4294967295
208.15474 53.050915 -51.414246 4294967295
208.19679 54.912445 -50.858337 4294967295
208.20872 53.982231 -51.794266 4294967295
208.20941 54.447258 -51.459202 4294967295
208.21094 55.378101 -50.791763 4294967295
208.21904 55.843853 -50.604256 4294967295
208.24588 56.309471 -50.791397 4294967295
208.28943 57.240555 -50.96315 4294967295
208.28947 56.774521 -51.313484 4294967295
208.32823 58.638145 -50.690269 4294967295
208.34372 59.103992 -50.650322 4294967295
208.3447 59.570904 -50.319527 4294967295
208.36159 43.743328 -53.236435 4294967295
208.37233 42.823616 -54.148346 4294967295
208.37672 43.28529 -53.887787 4294967295
208.37808 60.035519 -50.637859 4294967295
208.39824 60.968403 -50.340912 4294967295
208.40959 60.500038 -50.919308 4294967295
208.41393 46.061317 -52.538177 4294967295
208.42426 44.677742 -53.792133 4294967295
208.43077 45.140331 -53.573708 4294967295
208.44012 61.899357 -50.479927 4294967295
208.45363 46.99194 -52.634201 4294967295
208.45911 46.530437 -53.093513 4294967295
208.47476 47.457363 -52.707611 4294967295
208.51198 47.924755 -53.103897 4294967295
208.51805 49.314262 -52.176105 4294967295
208.52937 48.389503 -53.103409 4294967295
208.54997 50.707985 -51.765175 4294967295
208.55562 49.781277 -52.579357 4294967295
208.56262 50.245323 -52.369728 4294967295
208.58026 52.102589 -51.320755 4294967295
208.5804 52.567223 -50.972603 4294967295
208.60144 51.175678 -52.44828 4294967295
208.61517 51.64045 -52.373276 4294967295
208.62376 53.498657 -51.141312 4294967295
208.62698 53.033955 -51.557381 4294967295
208.6541 53.964485 -51.40065 4294967295
208.65852 54.895081 -50.785965 4294967295
208.65979 54.429718 -51.163303 4294967295
208.67854 55.826523 -50.485085 4294967295
208.71397 55.360748 -51.550179 4294967295
208.72046 56.291916 -50.977257 4294967295
208.73193 57.223831 -50.503902 4294967295
208.76254 59.08942 -49.709633 4294967295
208.7639 56.756889 -51.500717 4294967295
208.77332 57.688667 -50.986183 4294967295
208.79807 58.153896 -51.132412 4294967295
208.81436 60.020256 -50.049843 4294967295
208.8163 58.619389 -51.147926 4294967295
208.82391 44.187492 -52.843849 4294967295
208.8334 60.48608 -50.081127 4294967295
208.83731 43.728775 -53.465302 4294967295
208.84518 42.80875 -54.326439 4294967295
208.84711 43.269806 -54.014305 4294967295
208.85455 59.550198 -51.214752 4294967295
208.85507 60.951622 -50.165665 4294967295
208.8768 44.658787 -53.558144 4294967295
208.87694 45.120316 -53.209366 4294967295
208.88283 45.583073 -52.976395 4294967295
208.88388 61.416367 -50.394463 4294967295
208.89011 61.883434 -50.166767 4294967295
208.92979 46.05254 -53.572075 4294967295
208.93784 46.515663 -53.382355 4294967295
208.94002 47.90313 -52.369129 4294967295
208.96164 47.443405 -53.158554 4294967295
208.96609 46.981831 -53.601028 4294967295
208.99446 48.835346 -52.764206 4294967295
209.01666 50.69099 -51.800583 4294967295
209.01993 49.764172 -52.573517 4294967295
209.03691 49.302799 -53.269608 4294967295
209.06052 52.550705 -51.273941 4294967295
209.08765 52.087765 -52.177589 4294967295
209.10956 54.412159 -50.851257 4294967295
209.11557 53.947113 -51.327576 4294967295
209.12805 53.018169 -52.288513 4294967295
209.15009 56.275085 -50.254002 4294967295
209.16234 55.343399 -51.212502 4294967295
209.18893 56.740425 -50.687691 4294967295
209.20782 57.206062 -50.71677 4294967295
209.22327 59.072208 -49.607647 4294967295
209.25497 59.537296 -49.897419 4294967295
209.25572 43.241501 -52.88884 4294967295
209.26079 60.004219 -49.659206 4294967295
209.2608 58.136547 -51.083008 4294967295
209.26535 58.602791 -50.820244 4294967295
209.27005 42.783569 -53.533783 4294967295
209.30673 44.174179 -53.216263 4294967295
209.30733 60.467762 -50.250973 4294967295
209.30994 60.935032 -49.948246 4294967295
209.34146 44.642029 -53.567501 4294967295
209.34947 45.104889 -53.375813 4294967295
209.36063 45.568436 -53.248516 4294967295
209.36339 46.030727 -52.949692 4294967295
209.36714 61.864498 -50.401108 4294967295
209.42029 46.501514 -53.752594 4294967295
209.42426 48.351387 -52.412766 4294967295
209.44339 49.743107 -51.734726 4294967295
209.45853 47.893063 -53.466232 4294967295
209.46486 49.281937 -52.528217 4294967295
209.47403 50.673252 -51.647377 4294967295
209.4801 48.82069 -53.194901 4294967295
209.52425 52.998146 -50.888962 4294967295
209.52963 51.141312 -52.425964 4294967295
209.53775 52.534077 -51.522282 4294967295
209.55396 53.929169 -50.782063 4294967295
209.55481 52.070713 -52.227081 4294967295
209.56432 53.464462 -51.350639 4294967295
209.61404 54.395512 -51.653618 4294967295
209.62259 55.32605 -51.113632 4294967295
209.63132 56.257442 -50.576698 4294967295
209.6333 54.860806 -51.690277 4294967295
209.6884 58.120865 -50.313553 4294967295
209.69914 57.653942 -50.891777 4294967295
209.7122 59.520348 -49.725441 4294967295
209.71591 59.052952 -50.160366 4294967295
209.73067 43.688091 -52.747414 4294967295
209.7328 58.585175 -50.86528 4294967295
209.75661 44.616074 -52.563789 4294967295
209.75737 60.451527 -49.934357 4294967295
209.76057 61.386753 -49.281483 4294967295
209.77032 43.235252 -53.916138 4294967295
209.80148 44.163269 -53.840271 4294967295
209.81361 45.088017 -53.37442 4294967295
209.82169 60.912991 -50.896194 4294967295
209.82378 46.937626 -52.151451 4294967295
209.82634 45.551788 -53.277786 4294967295
209.83455 46.014919 -53.088661 4294967295
209.85023 61.844875 -50.764622 4294967295
209.8577 46.480484 -53.205582 4294967295
209.8943 47.410019 -53.241131 4294967295
209.89821 48.335506 -52.604477 4294967295
209.936 48.802708 -53.022812 4294967295
209.94008 49.26601 -52.748047 4294967295
209.95615 50.657532 -52.001801 4294967295
209.97453 49.732506 -53.09771 4294967295
209.99513 52.981133 -51.006569 4294967295
209.99786 51.124439 -52.501007 4294967295
210.00241 52.05254 -51.875481 4294967295
210.02811 52.518116 -52.045059 4294967295
210.03706 53.912334 -51.150375 4294967295
210.04704 54.377659 -50.995697 4294967295
210.0509 53.447926 -51.795822 4294967295
210.06242 54.843163 -50.952942 4294967295
210.06825 55.308685 -50.712631 4294967295
210.1109 57.638607 -49.787895 4294967295
210.12367 56.239628 -51.134979 4294967295
210.14011 58.104031 -50.0298 4294967295
210.15778 56.704704 -51.478428 4294967295
210.16977 57.170216 -51.36517 4294967295
210.18181 59.969898 -49.445702 4294967295
210.19167 58.568035 -50.734383 4294967295
210.19394 43.209923 -53.083336 4294967295
210.1965 59.03447 -50.473057 4294967295
210.20555 59.500801 -50.298588 4294967295
210.20924 60.43515 -49.650951 4294967295
210.21126 60.902699 -49.330116 4294967295
210.21504 42.753735 -53.878609 4294967295
210.21603 44.598263 -52.458633 4294967295
210.23213 44.139915 -53.151516 4294967295
210.24077 45.064491 -52.60952 4294967295
210.25217 43.682911 -53.924919 4294967295
210.26848 45.993034 -52.460339 4294967295
210.27367 61.36417 -50.260597 4294967295
210.28012 61.831219 -50.032143 4294967295
210.28419 46.920044 -52.063988 4294967295
210.30476 46.460884 -52.850349 4294967295
210.31023 45.538284 -53.684227 4294967295
210.35867 47.855392 -52.883095 4294967295
210.36906 48.782078 -52.375435 4294967295
210.37723 49.246033 -52.182388 4294967295
210.39078 49.710674 -52.101753 4294967295
210.4541 51.106674 -52.32864 4294967295
210.46248 50.643845 -52.864647 4294967295
210.49092 53.894768 -50.917839 4294967295
210.49203 52.0368 -52.391571 4294967295
210.49232 52.500889 -52.035419 4294967295
210.49594 52.965397 -51.747929 4294967295
210.50461 53.430294 -51.565147 4294967295
210.53714 55.29134 -50.788944 4294967295
210.53738 54.825932 -51.157318 4294967295
210.54305 55.757 -50.548126 4294967295
210.55614 56.22274 -50.456856 4294967295
210.59799 56.687874 -50.964157 4294967295
210.61621 57.61956 -50.615822 4294967295
210.63202 42.726543 -52.901463 4294967295
210.63576 57.152756 -51.38665 4294967295
210.65804 43.193108 -53.079979 4294967295
210.65997 59.484055 -50.069923 4294967295
210.6684 43.6563 -52.932381 4294967295
210.67233 58.549675 -51.056904 4294967295
210.67238 44.118351 -52.652336 4294967295
210.67958 60.417145 -49.749458 4294967295
210.70837 59.947426 -50.715164 4294967295
210.73036 61.347462 -50.079102 4294967295
210.73582 45.053181 -53.246887 4294967295
210.74507 60.878479 -50.751091 4294967295
210.74837 45.516918 -53.144619 4294967295
210.74846 46.903019 -52.055576 4294967295
210.78906 46.44709 -53.265953 4294967295
210.80989 47.836658 -52.609085 4294967295
210.81364 47.374809 -53.051273 4294967295
210.83037 48.76466 -52.307652 4294967295
210.8344 49.69149 -51.662884 4294967295
210.85083 50.156612 -51.641388 4294967295
210.89354 51.551624 -51.438919 4294967295
210.92058 52.01749 -51.638821 4294967295
210.93085 51.090462 -52.58429 4294967295
210.94272 53.412117 -51.005169 4294967295
210.96016 54.342747 -50.638733 4294967295
210.99057 54.808487 -50.909626 4294967295
210.9969 55.273979 -50.675884 4294967295
211.00211 55.739666 -50.418076 4294967295
211.05098 57.13689 -50.343552 4294967295
211.05792 56.204803 -51.222912 4294967295
211.06488 56.670429 -51.002251 4294967295
211.08449 57.60199 -50.680294 4294967295
211.10507 58.067448 -50.745174 4294967295
211.11279 42.713478 -53.247208 4294967295
211.11516 59.000198 -50.222595 4294967295
211.13077 58.532562 -50.918076 4294967295
211.13493 43.179062 -53.345818 4294967295
211.1416 59.932453 -50.04298 4294967295
211.1416 60.399868 -49.675087 4294967295
211.16058 43.645298 -53.518101 4294967295
211.16402 60.865387 -49.778946 4294967295
211.16907 61.332664 -49.517223 4294967295
211.17062 44.10828 -53.362679 4294967295
211.1832 44.571877 -53.260773 4294967295
211.19096 45.034668 -53.057568 4294967295
211.21025 61.796024 -50.016117 4294967295
211.24911 45.967842 -53.546581 4294967295
211.25267 46.892025 -52.888222 4294967295
211.25308 46.430149 -53.263466 4294967295
211.26605 47.818562 -52.435379 4294967295
211.2684 48.281544 -52.117435 4294967295
211.28722 47.359169 -53.247704 4294967295
211.32751 48.751461 -52.994526 4294967295
211.33884 49.678421 -52.498558 4294967295
211.34242 49.215858 -52.941376 4294967295
211.34872 50.142578 -52.339222 4294967295
211.36241 50.607185 -52.259556 4294967295
211.36349 51.070896 -51.914486 4294967295
211.36722 51.535053 -51.625015 4294967295
211.37256 52.46394 -51.000381 4294967295
211.41237 53.39502 -51.103142 4294967295
211.41766 52.002239 -52.320534 4294967295
211.42586 53.860325 -51.019073 4294967295
211.45538 54.325996 -51.273239 4294967295
211.46617 55.256645 -50.762848 4294967295
211.49178 54.791538 -51.673412 4294967295
211.51495 57.119499 -50.315884 4294967295
211.51729 57.585819 -49.995132 4294967295
211.52571 56.653122 -50.913391 4294967295
211.55782 58.050568 -50.483284 4294967295
211.56464 42.693939 -52.987617 4294967295
211.56975 59.450508 -49.62429 4294967295
211.57748 58.982872 -50.158878 4294967295
211.58096 43.619347 -52.595119 4294967295
211.58759 58.515541 -50.743801 4294967295
211.58975 60.383835 -49.306725 4294967295
211.59119 43.16058 -53.179958 4294967295
211.59503 44.083462 -52.523277 4294967295
211.62329 59.913563 -50.388958 4294967295
211.64659 61.313763 -49.770195 4294967295
211.65366 44.556263 -53.395145 4294967295
211.65817 45.479877 -52.752396 4294967295
211.66376 45.942616 -52.501038 4294967295
211.66492 46.404842 -52.155708 4294967295
211.67035 45.020618 -53.379143 4294967295
211.70854 46.873802 -52.710243 4294967295
211.73834 47.802631 -52.602219 4294967295
211.74049 48.72834 -51.907043 4294967295
211.75435 48.26725 -52.571674 4294967295
211.78925 50.123234 -51.830315 4294967295
211.79622 49.660629 -52.349407 4294967295
211.80923 51.052284 -51.512604 4294967295
211.81213 49.199417 -53.057652 4294967295
211.82242 50.589687 -52.164646 4294967295
211.83844 51.518333 -51.762619 4294967295
211.83987 52.446842 -51.050217 4294967295
211.88029 52.913269 -51.538147 4294967295
211.88046 51.984959 -52.285133 4294967295
211.90204 53.378647 -51.629673 4294967295
211.91135 53.843605 -51.455788 4294967295
211.92441 55.704971 -50.244465 4294967295
211.9386 54.774036 -51.292301 4294967295
211.94875 56.170609 -50.391102 4294967295
211.98026 56.635963 -50.690369 4294967295
211.99319 57.567947 -50.220154 4294967295
211.99907 57.101471 -50.718712 4294967295
212.01683 42.674446 -52.73217 4294967295
212.03236 58.966038 -49.936058 4294967295
212.04724 43.142029 -53.008469 4294967295
212.05821 60.365997 -49.367119 4294967295
212.06631 43.606995 -53.043297 4294967295
212.07288 44.069389 -52.811481 4294967295
212.09644 60.830032 -49.81057 4294967295
212.10434 44.998138 -52.737793 4294967295
212.1105 45.460857 -52.497429 4294967295
212.12509 61.762573 -49.675056 4294967295
212.13814 61.29335 -50.328918 4294967295
212.15541 45.930359 -53.084118 4294967295
212.15877 46.39267 -52.782768 4294967295
212.16666 47.318161 -52.205246 4294967295
212.18901 48.709366 -51.563076 4294967295
212.19025 47.783943 -52.336739 4294967295
212.21193 49.638504 -51.305847 4294967295
212.26149 50.106853 -51.993599 4294967295
212.29016 51.964409 -51.110573 4294967295
212.30266 51.501137 -51.753597 4294967295
212.30359 51.03746 -52.147446 4294967295
212.31839 52.430351 -51.341293 4294967295
212.34309 52.895954 -51.497223 4294967295
212.34412 53.360573 -51.143692 4294967295
212.34515 53.82547 -50.791145 4294967295
212.36835 55.221882 -50.16254 4294967295
212.38013 54.291309 -51.166924 4294967295
212.39497 55.687572 -50.359287 4294967295
212.41287 54.756828 -51.49527 4294967295
212.41344 56.153229 -50.380058 4294967295
212.45755 58.483963 -49.447685 4294967295
212.45847 56.618256 -50.97324 4294967295
212.46817 57.083916 -50.805817 4294967295
212.47295 58.95013 -49.402096 4294967295
212.47751 58.016132 -50.254444 4294967295
212.48982 43.120461 -52.545258 4294967295
212.49054 42.659866 -52.935585 4294967295
212.51378 43.586632 -52.685066 4294967295
212.5244 59.413673 -50.134445 4294967295
212.54442 60.814152 -49.434608 4294967295
212.54715 59.879002 -50.248344 4294967295
212.5497 44.977715 -52.331894 4294967295
212.55168 60.345882 -49.969002 4294967295
212.56174 44.518665 -52.966515 4294967295
212.56873 44.059071 -53.491875 4294967295
212.57231 61.279064 -49.65934 4294967295
212.59024 45.908421 -52.453606 4294967295
212.59042 61.744938 -49.672424 4294967295
212.59636 62.212315 -49.423126 4294967295
212.59825 45.448193 -53.001713 4294967295
212.61339 46.836231 -52.199669 4294967295
212.62514 47.762867 -51.700455 4294967295
212.63681 47.302029 -52.328354 4294967295
212.64592 48.691376 -51.395058 4294967295
212.64758 46.379772 -53.313095 4294967295
212.69821 49.623672 -51.770367 4294967295
212.70706 50.551559 -51.206627 4294967295
212.71199 49.162117 -52.444702 4294967295
212.72754 50.089897 -52.026871 4294967295
212.74445 51.018452 -51.637276 4294967295
212.78732 53.342514 -50.675148 4294967295
212.7908 52.413555 -51.506767 4294967295
212.79742 52.87825 -51.272255 4294967295
212.83836 54.273884 -51.024055 4294967295
212.84512 53.809189 -51.549049 4294967295
212.86644 55.67017 -50.49649 4294967295
212.88081 57.068127 -49.670135 4294967295
212.89204 56.135639 -50.67271 4294967295
212.93257 56.600643 -51.172295 4294967295
212.94279 58.93232 -49.496483 4294967295
212.9487 57.998379 -50.384918 4294967295
212.96283 59.398113 -49.551476 4294967295
212.96899 58.463852 -50.446152 4294967295
212.96971 42.646626 -53.26247 4294967295
212.97252 59.864723 -49.381973 4294967295
212.98117 43.10976 -53.132561 4294967295
212.99321 44.034081 -52.637234 4294967295
213.01308 60.328655 -49.884014 4294967295
213.02156 61.263187 -49.30719 4294967295
213.02739 44.502136 -53.000198 4294967295
213.0361 44.965057 -52.81102 4294967295
213.03729 60.793823 -50.030418 4294967295
213.04103 45.889164 -52.15963 4294967295
213.04401 45.427975 -52.603622 4294967295
213.06116 62.19474 -49.407528 4294967295
213.08009 61.724468 -50.20089 4294967295
213.0878 46.358929 -52.796722 4294967295
213.10667 46.823818 -52.828014 4294967295
213.13045 47.751564 -52.586273 4294967295
213.14053 48.215347 -52.42556 4294967295
213.1573 49.142887 -52.030952 4294967295
213.17059 50.070721 -51.560188 4294967295
213.17111 50.534367 -51.190987 4294967295
213.17203 48.681881 -52.731594 4294967295
213.19183 49.609669 -52.40345 4294967295
213.21553 51.001831 -51.77858 4294967295
213.21629 51.465694 -51.414391 4294967295
213.23643 51.931072 -51.472687 4294967295
213.2522 52.396164 -51.435661 4294967295
213.27977 52.861835 -51.656376 4294967295
213.29237 53.326767 -51.550415 4294967295
213.29793 53.791573 -51.289978 4294967295
213.32736 54.257084 -51.551888 4294967295
213.34265 55.187332 -51.122559 4294967295
213.34923 55.652714 -50.884369 4294967295
213.35712 57.050343 -49.909119 4294967295
213.36446 56.583992 -50.452477 4294967295
213.37462 57.516148 -49.909363 4294967295
213.40898 42.624058 -52.722485 4294967295
213.418 57.980709 -50.476791 4294967295
213.42955 58.913399 -49.963757 4294967295
213.4351 58.446312 -50.468983 4294967295
213.43712 43.091164 -52.956665 4294967295
213.43889 44.013367 -52.231655 4294967295
213.44217 59.846809 -49.47332 4294967295
213.45038 60.313644 -49.26947 4294967295
213.46368 59.377941 -50.32917 4294967295
213.46448 43.557903 -53.173599 4294967295
213.47836 45.405598 -51.949951 4294967295
213.48796 44.945831 -52.542099 4294967295
213.49356 61.24485 -49.449982 4294967295
213.51291 60.775185 -50.258293 4294967295
213.51468 45.873878 -52.36256 4294967295
213.51662 62.178329 -49.187599 4294967295
213.53044 47.26284 -51.560326 4294967295
213.57053 46.345116 -53.204765 4294967295
213.58417 47.733093 -52.355843 4294967295
213.58701 46.809444 -53.183372 4294967295
213.60774 48.661324 -52.107246 4294967295
213.64857 50.054932 -51.854263 4294967295
213.66891 50.98378 -51.533195 4294967295
213.69553 52.377777 -50.966484 4294967295
213.70432 51.450226 -51.928097 4294967295
213.72795 53.773277 -50.526009 4294967295
213.72987 52.843929 -51.337662 4294967295
213.73628 54.238625 -50.32423 4294967295
213.7402 53.30888 -51.180973 4294967295
213.77332 54.704483 -50.755417 4294967295
213.79507 56.101254 -50.078945 4294967295
213.82019 55.63533 -51.018681 4294967295
213.84074 57.032349 -50.315441 4294967295
213.8447 56.566254 -50.788055 4294967295
213.8624 57.497803 -50.407722 4294967295
213.87282 58.897327 -49.478256 4294967295
213.88425 42.609947 -52.968239 4294967295
213.88695 57.963047 -50.563545 4294967295
213.89673 43.995171 -52.088715 4294967295
213.90259 59.362366 -49.750191 4294967295
213.90666 58.428444 -50.613785 4294967295
213.9071 60.29686 -49.075806 4294967295
213.92609 43.080093 -53.506508 4294967295
213.92661 43.54071 -53.133606 4294967295
213.93553 59.826927 -50.091667 4294967295
213.95567 61.227596 -49.375847 4294967295
213.96619 45.393063 -52.466881 4294967295
213.96663 60.758736 -50.006126 4294967295
213.97585 44.933586 -53.065655 4294967295
213.98285 62.160564 -49.203407 4294967295
213.98518 45.858089 -52.501354 4294967295
214.01599 46.786907 -52.410545 4294967295
214.01779 47.249313 -52.064774 4294967295
214.02171 46.326054 -52.923393 4294967295
214.04431 48.178009 -51.878872 4294967295
214.05823 49.105526 -51.413815 4294967295
214.05898 48.642639 -51.816902 4294967295
214.06552 47.718559 -52.734673 4294967295
214.09261 49.572525 -51.788918 4294967295
214.0972 50.499802 -51.116085 4294967295
214.11902 50.965446 -51.212765 4294967295
214.12538 50.039074 -52.128456 4294967295
214.1445 51.895325 -51.003021 4294967295
214.1528 52.360138 -50.79929 4294967295
214.15918 51.432362 -51.716324 4294967295
214.19708 53.291325 -51.006947 4294967295
214.20926 52.827408 -51.665359 4294967295
214.25787 56.550003 -49.637451 4294967295
214.26083 54.687462 -51.259464 4294967295
214.28004 56.083591 -50.520752 4294967295
214.30443 57.014957 -50.285351 4294967295
214.30457 57.481258 -49.898888 4294967295
214.31468 57.947384 -49.734497 4294967295
214.32689 58.413521 -49.61631 4294967295
214.3463 58.879272 -49.659458 4294967295
214.35693 42.595287 -53.161949 4294967295
214.36981 43.980217 -52.283607 4294967295
214.37347 59.344402 -49.875423 4294967295
214.3801 60.27858 -49.242439 4294967295
214.38033 43.061127 -53.294437 4294967295
214.3838 44.444313 -52.206726 4294967295
214.38531 43.522755 -53.017227 4294967295
214.40813 44.9105 -52.360004 4294967295
214.42735 60.741592 -49.907082 4294967295
214.43126 61.676819 -49.212982 4294967295
214.44974 61.206821 -50.016846 4294967295
214.45369 62.142227 -49.323235 4294967295
214.45413 45.38065 -52.996578 4294967295
214.48724 47.233131 -52.178627 4294967295
214.49113 46.310059 -53.044121 4294967295
214.50572 48.160591 -51.812309 4294967295
214.52029 48.62521 -51.747276 4294967295
214.53137 47.701836 -52.774487 4294967295
214.55367 49.555077 -51.713066 4294967295
214.57291 50.483692 -51.362389 4294967295
214.57472 50.02047 -51.793488 4294967295
214.58208 50.948166 -51.176842 4294967295
214.62909 51.879448 -51.44783 4294967295
214.65193 52.344891 -51.567982 4294967295
214.65596 52.809334 -51.267303 4294967295
214.67767 53.274704 -51.362392 4294967295
214.68738 54.669647 -50.404625 4294967295
214.69656 54.204693 -51.002808 4294967295
214.70085 53.740051 -51.490486 4294967295
214.72202 56.066521 -50.004929 4294967295
214.7303 55.600704 -50.583805 4294967295
214.7529 56.531921 -50.305992 4294967295
214.75565 56.997959 -49.974506 4294967295
214.77095 57.930355 -49.532524 4294967295
214.78314 42.569408 -52.316803 4294967295
214.79214 57.462929 -50.40255 4294967295
214.79808 43.033588 -52.260574 4294967295
214.81688 58.394608 -50.172646 4294967295
214.8324 43.502182 -52.639626 4294967295
214.84201 58.859737 -50.344864 4294967295
214.84393 60.728943 -48.812492 4294967295
214.85158 43.967201 -52.678741 4294967295
214.85641 59.325542 -50.275436 4294967295
214.85912 59.792389 -49.942978 4294967295
214.8728 61.662018 -48.674507 4294967295
214.87355 61.193779 -49.086044 4294967295
214.89397 44.897949 -52.846939 4294967295
214.89767 45.821419 -52.145924 4294967295
214.90501 46.746582 -51.525223 4294967295
214.90555 46.284607 -51.930298 4294967295
214.91338 62.125294 -49.194954 4294967295
214.9234 45.364784 -53.116592 4294967295
214.92552 47.212139 -51.59417 4294967295
214.97638 47.682072 -52.346149 4294967295
214.98547 49.071178 -51.371582 4294967295
214.99132 49.53503 -51.109268 4294967295
215.02002 50.464943 -50.968948 4294967295
215.02034 48.612766 -52.551144 4294967295
215.02557 50.001995 -51.488319 4294967295
215.04643 50.931 -51.170265 4294967295
215.08185 52.325684 -50.786949 4294967295
215.0907 51.398251 -51.776062 4294967295
215.10097 51.862755 -51.613739 4294967295
215.11095 52.791626 -51.049629 4294967295
215.12927 53.256939 -51.069431 4294967295
215.1438 54.65221 -50.211597 4294967295
215.15407 54.187237 -50.839882 4294967295
215.15726 55.117794 -50.120903 4294967295
215.1694 53.722919 -51.582443 4294967295
215.20915 56.980896 -49.712402 4294967295
215.25726 59.312855 -48.819374 4294967295
215.26662 57.9114 -50.222485 4294967295
215.28497 58.843697 -49.845886 4294967295
215.28926 42.562927 -53.266685 4294967295
215.29501 43.485058 -52.607079 4294967295
215.30365 43.947773 -52.407707 4294967295
215.30426 59.776516 -49.489456 4294967295
215.31708 61.646935 -48.18927 4294967295
215.32333 60.242252 -49.525524 4294967295
215.35207 44.41898 -53.109734 4294967295
215.35631 60.706543 -49.877308 4294967295
215.36424 44.882362 -52.990547 4294967295
215.36502 62.109394 -48.881844 4294967295
215.36732 45.344093 -52.664909 4294967295
215.37097 45.806179 -52.351608 4294967295
215.3781 46.269119 -52.117764 4294967295
215.41345 47.198845 -52.128033 4294967295
215.41594 47.661457 -51.787838 4294967295
215.41759 46.737591 -52.617844 4294967295
215.42583 48.58812 -51.218697 4294967295
215.44029 48.12738 -51.944672 4294967295
215.47968 49.520611 -51.649105 4294967295
215.48654 49.058548 -52.202599 4294967295
215.49406 49.985313 -51.579796 4294967295
215.51479 50.450657 -51.653503 4294967295
215.53329 51.843403 -50.881813 4294967295
215.54584 50.916836 -51.963623 4294967295
215.55725 52.309105 -51.03009 4294967295
215.55942 51.381432 -51.875374 4294967295
215.58534 53.239338 -50.873627 4294967295
215.59209 52.77523 -51.426018 4294967295
215.60399 54.634819 -50.102791 4294967295
215.64525 56.031837 -49.847435 4294967295
215.64668 55.100582 -50.679024 4294967295
215.68645 56.963085 -49.989731 4294967295
215.68994 56.496971 -50.469643 4294967295
215.71365 57.894806 -49.812111 4294967295
215.71869 58.828285 -49.126114 4294967295
215.72063 57.428093 -50.371964 4294967295
215.72983 43.000847 -52.338722 4294967295
215.73598 59.761803 -48.720901 4294967295
215.74609 59.293541 -49.353355 4294967295
215.76794 43.470318 -52.811447 4294967295
215.77161 43.931812 -52.49654 4294967295
215.78148 60.225342 -49.363266 4294967295
215.80084 60.691063 -49.406044 4294967295
215.80461 44.399769 -52.852154 4294967295
215.80838 44.861515 -52.539692 4294967295
215.81168 61.157715 -49.252758 4294967295
215.82422 45.32584 -52.502407 4294967295
215.83163 45.788643 -52.273193 4294967295
215.84413 61.621861 -49.596615 4294967295
215.85921 46.716911 -52.10537 4294967295
215.85989 62.08791 -49.557266 4294967295
215.91199 47.649208 -52.515251 4294967295
215.91719 48.574615 -51.834106 4294967295
215.92793 48.113655 -52.48103 4294967295
215.93759 49.502808 -51.50148 4294967295
215.98051 49.970528 -52.086792 4294967295
215.98157 50.433777 -51.709297 4294967295
216.00938 50.899643 -51.947308 4294967295
216.01598 51.363682 -51.697937 4294967295
216.01866 52.29171 -50.956158 4294967295
216.02052 51.827774 -51.401371 4294967295
216.02081 52.756199 -50.603844 4294967295
216.03734 53.221565 -50.582581 4294967295
216.05551 54.151993 -50.196285 4294967295
216.05623 53.687023 -50.615089 4294967295
216.07867 54.617645 -50.326847 4294967295
216.0927 56.014671 -49.440575 4294967295
216.1304 56.480095 -49.907555 4294967295
216.1357 55.548599 -50.835751 4294967295
216.15598 56.94553 -50.094345 4294967295
216.18452 57.877056 -49.946556 4294967295
216.20343 58.34264 -49.979321 4294967295
216.21614 43.449894 -52.44994 4294967295
216.22812 59.74197 -49.336803 4294967295
216.22879 60.677322 -48.542835 4294967295
216.24876 44.378716 -52.397491 4294967295
216.25273 61.142822 -48.691727 4294967295
216.2541 43.919121 -52.92292 4294967295
216.26239 44.842613 -52.309475 4294967295
216.26709 60.205845 -49.834099 4294967295
216.27429 45.306236 -52.181232 4294967295
216.28749 62.075165 -48.686481 4294967295
216.30228 46.696404 -51.618027 4294967295
216.33058 47.625374 -51.465462 4294967295
216.3396 47.164574 -52.077568 4294967295
216.37971 48.094921 -52.198349 4294967295
216.40208 49.485744 -51.504345 4294967295
216.41431 50.413609 -50.977695 4294967295
216.42722 49.951591 -51.681732 4294967295
216.44853 51.808052 -50.555927 4294967295
216.49298 53.20393 -50.37085 4294967295
216.49524 52.27523 -51.234795 4294967295
216.54701 55.065742 -50.001907 4294967295
216.56416 54.600643 -50.807411 4294967295
216.57639 55.997059 -49.871468 4294967295
216.57718 55.531322 -50.297138 4294967295
216.58827 57.395687 -48.926731 4294967295
216.59312 56.462734 -49.854481 4294967295
216.62991 57.860542 -49.489319 4294967295
216.63007 56.92783 -50.307655 4294967295
216.65858 42.507198 -52.760441 4294967295
216.67288 59.258751 -49.267929 4294967295
216.68094 59.725471 -49.04752 4294967295
216.69841 42.977165 -53.28125 4294967295
216.70877 43.439812 -53.116322 4294967295
216.70938 43.900398 -52.725227 4294967295
216.71332 60.190063 -49.394714 4294967295
216.7164 44.362671 -52.481941 4294967295
216.73701 61.123062 -49.131874 4294967295
216.73891 44.82835 -52.600529 4294967295
216.7451 61.590183 -48.911835 4294967295
216.75745 62.056908 -48.79142 4294967295
216.75864 46.216206 -51.839855 4294967295
216.76337 45.755524 -52.356762 4294967295
216.78073 46.681877 -51.948181 4294967295
216.81569 48.073879 -51.542049 4294967295
216.81908 47.612072 -52.028751 4294967295
216.83279 49.001633 -51.125648 4294967295
216.86282 49.468254 -51.419556 4294967295
216.8685 48.543636 -52.368134 4294967295
216.87216 50.395828 -50.820873 4294967295
216.8811 49.933388 -51.439114 4294967295
216.90137 51.325928 -50.686878 4294967295
216.92554 51.791737 -50.843971 4294967295
216.95265 52.257603 -51.070156 4294967295
216.97144 52.722851 -51.100594 4294967295
216.9814 53.187695 -50.925282 4294967295
216.98198 53.652363 -50.529175 4294967295
217.01314 54.583092 -50.44043 4294967295
217.02362 55.979889 -49.455173 4294967295
217.03029 55.514 -50.022434 4294967295
217.04517 55.048611 -50.782249 4294967295
217.05377 56.445427 -49.752747 4294967295
217.07333 56.911068 -49.801403 4294967295
217.07466 57.377392 -49.421558 4294967295
217.10619 57.842533 -49.751892 4294967295
217.10709 58.309196 -49.3619 4294967295
217.11349 58.775806 -49.100769 4294967295
217.12198 59.710011 -48.476288 4294967295
217.13266 43.413597 -52.181778 4294967295
217.13554 42.493805 -53.068409 4294967295
217.1535 42.958309 -53.081242 4294967295
217.15355 60.174862 -48.80748 4294967295
217.15689 61.110611 -48.061115 4294967295
217.16295 44.803143 -51.663147 4294967295
217.17566 44.344814 -52.372379 4294967295
217.1801 60.639984 -49.021309 4294967295
217.18764 43.886879 -53.063522 4294967295
217.20163 45.272324 -52.162575 4294967295
217.22787 46.200207 -51.959263 4294967295
217.23024 61.570099 -49.37878 4294967295
217.23418 45.739941 -52.51812 4294967295
217.23792 62.037251 -49.147236 4294967295
217.24811 46.665497 -52.024673 4294967295
217.26283 47.591946 -51.549198 4294967295
217.27029 47.131058 -52.136417 4294967295
217.27901 48.056732 -51.519249 4294967295
217.28378 48.982868 -50.808182 4294967295
217.29976 49.447952 -50.77309 4294967295
217.30182 48.522446 -51.645546 4294967295
217.34294 50.37933 -50.967739 4294967295
217.3849 51.310299 -51.133766 4294967295
217.39288 50.847454 -51.735287 4294967295
217.41153 52.704334 -50.524918 4294967295
217.43207 54.099651 -49.769833 4294967295
217.43263 52.241367 -51.437099 4294967295
217.45168 53.170704 -51.061642 4294967295
217.46025 55.030949 -49.609062 4294967295
217.46774 53.635822 -51.028259 4294967295
217.47649 54.565758 -50.407795 4294967295
217.48184 55.496677 -49.706627 4294967295
217.50464 55.962318 -49.83268 4294967295
217.51872 56.428028 -49.751751 4294967295
217.53879 56.893635 -49.813126 4294967295
217.54982 57.359543 -49.660049 4294967295
217.58519 43.394058 -51.909817 4294967295
217.58617 58.757786 -49.277634 4294967295
217.59229 42.93536 -52.491447 4294967295
217.59282 58.290504 -49.850906 4294967295
217.59724 59.691586 -48.709488 4294967295
217.599 59.224018 -49.16674 4294967295
217.60115 43.858521 -51.874367 4294967295
217.61971 60.157207 -48.827232 4294967295
217.63693 45.249626 -51.481277 4294967295
217.64366 44.78978 -52.055199 4294967295
217.65051 44.330402 -52.631805 4294967295
217.65063 45.713879 -51.392029 4294967295
217.66844 62.024212 -48.321075 4294967295
217.67252 46.179703 -51.497177 4294967295
217.67365 60.619408 -49.694176 4294967295
217.70695 47.10957 -51.486053 4294967295
217.71584 47.573196 -51.281502 4294967295
217.71881 48.036125 -50.937454 4294967295
217.75563 48.503983 -51.398026 4294967295
217.78595 48.970646 -51.704185 4294967295
217.78708 49.896713 -50.899307 4294967295
217.7944 49.434467 -51.489853 4294967295
217.81032 50.362503 -51.037102 4294967295
217.85333 51.757278 -50.813229 4294967295
217.85634 52.221603 -50.468086 4294967295
217.86191 51.294174 -51.434715 4294967295
217.89336 53.152451 -50.517967 4294967295
217.91072 53.617802 -50.51527 4294967295
217.91705 55.01355 -49.412926 4294967295
217.95691 55.945084 -49.530312 4294967295
217.97411 56.410828 -49.523102 4294967295
217.98685 55.479229 -50.66494 4294967295
217.99213 57.343006 -49.117054 4294967295
218.00668 58.27602 -48.627506 4294967295
218.02217 57.808296 -49.418068 4294967295
218.05411 59.207264 -48.925346 4294967295
218.06456 43.841545 -51.85807 4294967295
218.06842 42.92168 -52.785252 4294967295
218.075 58.738659 -49.84626 4294967295
218.09138 43.387466 -52.917915 4294967295
218.09261 61.543304 -47.748306 4294967295
218.10208 60.137974 -49.237503 4294967295
218.1076 59.670113 -49.789886 4294967295
218.11395 44.313499 -52.62373 4294967295
218.11536 45.69706 -51.402847 4294967295
218.11829 61.071873 -48.786705 4294967295
218.1268 45.237999 -52.095764 4294967295
218.16496 46.168037 -52.173904 4294967295
218.17775 47.555836 -51.224709 4294967295
218.19084 47.095894 -51.957726 4294967295
218.20941 48.023003 -51.565353 4294967295
218.23064 48.488453 -51.65596 4294967295
218.23975 48.952255 -51.455681 4294967295
218.24683 50.342548 -50.366249 4294967295
218.26407 49.881016 -51.200874 4294967295
218.27588 49.419483 -51.904663 4294967295
218.31236 50.812386 -51.522812 4294967295
218.31396 51.739815 -50.720589 4294967295
218.34134 52.669914 -50.53817 4294967295
218.36082 53.135334 -50.586952 4294967295
218.39365 54.530933 -50.114502 4294967295
218.43921 56.393425 -49.52602 4294967295
218.44553 55.927429 -50.100929 4294967295
218.45262 57.325737 -49.00489 4294967295
218.51288 59.657784 -48.345497 4294967295
218.51407 59.190132 -48.797771 4294967295
218.51505 58.722855 -49.245895 4294967295
218.53484 43.826199 -52.008926 4294967295
218.5415 44.28849 -51.748474 4294967295
218.5428 42.907646 -53.044487 4294967295
218.54735 60.12233 -48.756943 4294967295
218.56741 60.588093 -48.819176 4294967295
218.5795 44.757774 -52.245529 4294967295
218.58693 61.053856 -48.868332 4294967295
218.59819 61.520638 -48.717087 4294967295
218.61148 45.68647 -52.175224 4294967295
218.61267 46.609764 -51.358902 4294967295
218.63014 47.074745 -51.358902 4294967295
218.66353 48.00449 -51.32235 4294967295
218.67242 48.468281 -51.114594 4294967295
218.67484 47.54409 -52.019447 4294967295
218.70976 49.86182 -50.749123 4294967295
218.726 50.326923 -50.71928 4294967295
218.73972 50.791809 -50.627937 4294967295
218.75984 51.257305 -50.692741 4294967295
218.80716 52.188606 -50.994045 4294967295
218.81328 52.653103 -50.717823 4294967295
218.83014 54.513126 -49.426826 4294967295
218.84454 54.048244 -50.20377 4294967295
218.86101 54.978977 -49.753189 4294967295
218.86919 55.444614 -49.526237 4294967295
218.91431 55.910011 -50.199986 4294967295
218.92088 57.30817 -49.081039 4294967295
218.92397 56.375614 -50.009235 4294967295
218.92848 56.841522 -49.693527 4294967295
218.95607 59.174423 -48.230244 4294967295
218.95879 57.773037 -49.579315 4294967295
218.96719 58.706238 -48.930031 4294967295
218.97844 58.23859 -49.632385 4294967295
218.99258 42.887344 -52.708359 4294967295
218.99538 43.348156 -52.351418 4294967295
219.01111 43.812321 -52.309467 4294967295
219.01321 44.273403 -51.935043 4294967295
219.01324 60.572575 -48.344456 4294967295
219.02989 61.038849 -48.323296 4294967295
219.03229 60.102833 -49.238663 4294967295
219.04958 61.973293 -47.94828 4294967295
219.05531 45.665562 -51.684856 4294967295
219.06065 44.744705 -52.667274 4294967295
219.06755 61.502476 -48.817795 4294967295
219.09247 46.595642 -51.740135 4294967295
219.11491 47.985527 -51.008514 4294967295
219.12056 47.062283 -52.000343 4294967295
219.13715 48.91404 -50.697556 4294967295
219.14677 47.528419 -52.215073 4294967295
219.15439 48.453773 -51.547173 4294967295
219.17523 49.381813 -51.202461 4294967295
219.18834 50.773159 -50.239487 4294967295
219.20555 50.31139 -51.089844 4294967295
219.20862 51.238808 -50.308212 4294967295
219.20949 51.70293 -49.90065 4294967295
219.21451 49.849335 -51.737442 4294967295
219.21767 52.167847 -49.672218 4294967295
219.28336 53.100548 -50.427689 4294967295
219.29723 54.030624 -49.90921 4294967295
219.30325 54.495956 -49.627602 4294967295
219.30421 53.56601 -50.510963 4294967295
219.35303 55.427231 -49.992615 4294967295
219.37239 55.892715 -50.038712 4294967295
219.38118 56.824471 -49.393806 4294967295
219.38231 56.358353 -49.85236 4294967295
219.39984 57.290161 -49.422783 4294967295
219.41428 57.756042 -49.347828 4294967295
219.42165 42.861599 -51.856995 4294967295
219.45575 60.557438 -47.779457 4294967295
219.46861 58.686222 -49.82571 4294967295
219.47345 44.255714 -51.843918 4294967295
219.47577 43.335529 -52.76059 4294967295
219.48088 59.61937 -49.265659 4294967295
219.49382 60.085606 -49.153046 4294967295
219.49454 43.800243 -52.793728 4294967295
219.50606 45.184734 -51.787663 4294967295
219.51382 45.647549 -51.548836 4294967295
219.52022 61.018284 -48.941132 4294967295
219.52147 44.727242 -52.598068 4294967295
