# .PCD v0.7 - Point Cloud Data file format
VERSION 0.7
FIELDS x y z rgb
SIZE 4 4 4 4
TYPE F F F U
COUNT 1 1 1 1
WIDTH 1120
HEIGHT 1
VIEWPOINT 0 0 0 1 0 0 0
POINTS 1120
DATA ascii
94.783554 -48.228836 -71.604317 4294967295
94.804657 -40.249271 -72.908424 4294967295
94.810493 -41.150307 -73.180984 4294967295
94.854279 -39.769646 -73.126122 4294967295
94.859314 -47.279766 -71.881485 4294967295
94.863358 -38.407707 -72.837364 4294967295
94.899513 -46.352089 -71.918846 4294967295
94.979836 -45.852947 -72.343849 4294967295
94.980331 -43.59219 -71.762688 4294967295
95.140091 -40.787533 -72.139473 4294967295
95.185349 -39.85746 -72.211159 4294967295
95.193794 -39.400261 -72.151207 4294967295
95.195435 -42.113159 -72.86412 4294967295
95.288452 -46.862995 -71.508354 4294967295
95.576492 -42.174561 -72.285049 4294967295
95.585098 -43.073849 -72.57782 4294967295
95.614807 -43.960514 -73.013229 4294967295
95.668449 -42.57431 -73.024841 4294967295
95.675072 -48.279804 -71.315308 4294967295
95.6903 -41.206001 -72.821152 4294967295
95.720398 -40.737049 -72.907715 4294967295
95.749084 -47.783382 -71.699608 4294967295
95.768745 -38.901367 -72.766167 4294967295
95.773788 -45.960735 -71.397034 4294967295
95.775276 -39.350063 -72.927666 4294967295
95.807076 -47.296833 -71.975349 4294967295
95.869476 -46.356129 -72.163582 4294967295
95.875824 -45.448631 -71.971619 4294967295
95.878319 -38.389149 -73.391258 4294967295
95.898155 -37.926186 -73.408424 4294967295
95.986771 -44.028069 -72.37188 4294967295
96.129242 -39.877735 -72.280876 4294967295
96.148148 -40.319527 -72.526871 4294967295
96.185631 -41.202713 -73.016579 4294967295
96.580208 -47.418678 -70.880707 4294967295
96.601135 -39.887844 -72.316101 4294967295
96.630959 -40.323441 -72.63707 4294967295
96.643372 -48.284393 -71.547684 4294967295
96.646515 -46.474792 -71.09639 4294967295
96.65789 -38.499283 -72.348755 4294967295
96.661575 -41.210251 -73.081352 4294967295
96.71386 -38.920795 -72.84803 4294967295
96.71769 -39.370842 -72.99202 4294967295
96.734329 -47.777668 -72.049667 4294967295
96.766182 -45.499702 -71.676224 4294967295
96.782661 -44.585934 -71.552177 4294967295
96.797462 -45.933083 -72.007721 4294967295
96.945526 -42.68314 -72.190651 4294967295
96.951736 -44.035252 -72.587555 4294967295
96.979134 -43.567558 -72.656349 4294967295
97.003166 -41.293903 -72.229477 4294967295
97.081032 -42.153522 -72.997406 4294967295
97.14521 -40.761547 -73.081078 4294967295
97.273651 -37.978146 -73.249138 4294967295
97.293083 -43.216938 -71.493942 4294967295
97.577309 -38.080585 -72.135239 4294967295
97.622101 -46.927277 -71.498917 4294967295
97.640442 -47.367935 -71.743515 4294967295
97.658134 -39.392563 -73.044662 4294967295
97.66938 -45.091354 -71.347794 4294967295
97.738678 -45.50219 -71.94194 4294967295
97.785233 -42.31073 -71.429291 4294967295
97.804428 -44.559753 -72.155342 4294967295
97.835014 -43.186222 -72.008682 4294967295
97.961914 -41.757198 -72.523033 4294967295
98.012405 -40.372517 -72.513123 4294967295
98.065491 -39.890572 -72.75882 4294967295
98.299751 -41.843971 -71.637787 4294967295
98.316628 -42.286415 -71.873077 4294967295
98.383987 -48.412762 -70.672859 4294967295
98.436798 -40.409313 -72.223503 4294967295
98.440498 -38.598026 -71.771774 4294967295
98.448448 -46.565613 -70.639137 4294967295
98.581116 -38.971947 -72.859627 4294967295
98.610634 -45.564362 -71.518463 4294967295
98.619179 -38.04668 -72.883331 4294967295
98.684082 -42.80896 -71.307961 4294967295
98.765984 -43.665127 -72.112068 4294967295
98.773613 -41.852806 -71.686684 4294967295
98.779839 -44.560322 -72.446526 4294967295
98.835213 -41.365307 -71.992241 4294967295
98.839928 -40.458294 -71.785599 4294967295
98.860909 -40.898525 -72.050049 4294967295
98.883759 -47.95351 -70.778679 4294967295
98.900108 -42.231705 -72.679192 4294967295
98.923668 -47.47728 -70.934677 4294967295
98.976189 -38.572632 -72.248245 4294967295
98.993568 -46.531197 -71.178223 4294967295
98.995461 -39.466114 -72.62043 4294967295
99.042786 -44.69392 -71.039169 4294967295
99.146858 -45.083858 -71.878868 4294967295
99.652267 -43.718369 -71.787643 4294967295
99.673576 -42.35009 -71.574814 4294967295
99.685875 -44.150215 -72.140877 4294967295
99.69381 -43.242092 -71.955612 4294967295
99.696251 -42.788826 -71.852341 4294967295
99.814659 -48.432465 -70.877151 4294967295
99.825279 -40.002441 -72.026733 4294967295
99.852615 -41.342564 -72.57708 4294967295
99.899673 -39.056156 -72.302826 4294967295
99.917656 -38.141766 -72.187218 4294967295
99.918716 -46.561825 -71.118561 4294967295
99.954582 -46.088306 -71.247475 4294967295
99.974258 -46.979599 -71.625145 4294967295
99.981522 -44.716568 -71.073212 4294967295
100.04918 -45.579517 -71.784798 4294967295
100.33671 -46.152431 -70.657211 4294967295
100.40137 -38.597237 -72.4282 4294967295
100.62773 -41.459698 -71.478424 4294967295
100.63217 -43.716263 -72.113716 4294967295
100.67291 -39.624928 -71.310081 4294967295
100.68284 -40.071533 -71.50032 4294967295
100.71709 -42.762939 -72.464561 4294967295
100.7602 -47.54718 -70.716858 4294967295
100.7674 -41.83033 -72.574142 4294967295
100.82334 -45.249367 -70.552261 4294967295
100.88578 -39.051964 -72.675629 4294967295
100.88715 -45.662647 -71.119743 4294967295
100.8947 -47.012806 -71.535904 4294967295
100.89712 -38.59367 -72.633911 4294967295
100.90597 -46.102879 -71.372391 4294967295
100.91779 -44.74057 -71.091553 4294967295
100.97554 -43.350395 -71.131844 4294967295
101.04273 -44.213955 -71.84433 4294967295
101.23783 -40.033829 -72.119019 4294967295
101.24623 -38.672901 -71.814125 4294967295
101.27523 -48.43293 -71.297089 4294967295
101.42694 -42.920341 -70.902695 4294967295
101.5984 -40.107655 -71.37648 4294967295
101.61687 -41.452927 -71.870918 4294967295
101.75681 -47.082039 -71.036743 4294967295
101.76984 -38.653534 -72.215523 4294967295
101.77637 -39.101734 -72.382919 4294967295
101.77927 -45.713326 -70.829063 4294967295
101.82144 -46.59071 -71.369247 4294967295
101.82905 -44.779564 -70.935387 4294967295
101.8418 -46.126732 -71.390663 4294967295
101.91998 -43.821316 -71.331284 4294967295
102.00501 -42.867168 -71.685822 4294967295
102.02645 -43.306046 -71.95845 4294967295
102.04641 -42.390965 -71.855278 4294967295
102.05051 -41.033096 -71.518417 4294967295
102.08351 -48.085003 -70.294319 4294967295
102.1098 -39.642754 -71.569954 4294967295
102.20027 -40.042583 -72.328949 4294967295
102.52184 -41.946819 -71.797073 4294967295
102.64091 -40.070332 -72.148712 4294967295
102.64168 -47.137527 -70.694031 4294967295
102.6463 -39.615421 -72.064522 4294967295
102.65471 -47.580906 -70.908623 4294967295
102.69201 -46.654793 -70.927261 4294967295
102.72997 -44.824883 -70.705536 4294967295
102.81992 -44.318619 -71.21917 4294967295
102.87436 -43.382504 -71.359245 4294967295
102.8788 -42.928131 -71.268044 4294967295
102.93803 -43.795773 -71.932274 4294967295
102.95689 -40.622581 -71.207695 4294967295
102.96869 -41.519493 -71.536484 4294967295
102.98102 -42.415573 -71.868896 4294967295
103.0462 -48.543602 -70.62149 4294967295
103.12289 -46.689678 -70.673645 4294967295
103.14177 -38.707935 -72.026283 4294967295
103.49255 -39.239326 -71.329475 4294967295
103.55309 -38.752453 -71.636505 4294967295
103.63325 -38.254627 -72.082893 4294967295
103.64046 -39.60564 -72.503029 4294967295
103.7125 -45.271938 -71.17794 4294967295
103.73543 -42.999695 -70.724648 4294967295
103.73682 -46.159599 -71.597244 4294967295
103.74713 -44.347755 -71.177826 4294967295
103.76206 -43.435455 -71.037491 4294967295
103.81358 -41.59737 -70.910835 4294967295
103.82774 -42.492603 -71.258278 4294967295
103.94307 -48.592075 -70.360756 4294967295
103.96086 -47.677917 -70.240509 4294967295
103.97646 -40.59774 -71.823868 4294967295
103.98046 -39.691849 -71.605751 4294967295
103.99683 -38.778496 -71.475578 4294967295
104.00771 -39.224174 -71.676514 4294967295
104.02065 -46.737331 -70.419563 4294967295
104.0454 -45.818729 -70.348801 4294967295
104.09631 -47.141392 -71.082565 4294967295
104.39109 -41.995934 -71.826508 4294967295
104.39675 -40.637714 -71.495987 4294967295
104.43318 -41.519405 -72.003387 4294967295
104.54199 -39.197731 -72.162369 4294967295
104.62889 -44.856216 -70.935883 4294967295
104.69544 -45.717701 -71.659767 4294967295
104.76217 -43.42041 -71.517738 4294967295
104.80016 -42.494545 -71.541817 4294967295
104.85309 -42.914032 -72.044518 4294967295
104.85465 -41.558887 -71.683983 4294967295
104.86317 -48.174522 -70.140533 4294967295
104.8866 -40.636768 -71.664627 4294967295
104.93825 -39.703079 -71.786583 4294967295
104.94479 -48.573708 -70.850044 4294967295
104.96702 -46.303154 -70.387978 4294967295
104.9724 -40.134666 -72.155235 4294967295
104.98001 -38.323502 -71.713631 4294967295
104.99437 -39.218678 -72.064621 4294967295
105.01671 -46.723404 -70.868683 4294967295
105.01926 -45.367573 -70.514061 4294967295
105.02447 -38.749565 -72.156204 4294967295
105.3166 -47.744221 -69.920006 4294967295
105.64254 -42.574776 -70.893349 4294967295
105.66396 -44.367405 -71.546257 4294967295
105.6761 -43.45739 -71.384361 4294967295
105.79184 -42.935646 -72.092934 4294967295
105.79214 -40.678574 -71.471733 4294967295
105.84818 -41.548035 -72.124649 4294967295
105.85225 -48.615295 -70.666405 4294967295
105.86213 -47.706711 -70.487679 4294967295
105.86868 -39.730125 -71.773636 4294967295
105.89909 -40.163708 -72.117393 4294967295
105.94485 -38.330719 -71.948242 4294967295
105.98476 -47.177612 -71.247238 4294967295
105.98684 -44.920235 -70.637253 4294967295
106.00459 -45.360569 -70.890396 4294967295
106.04979 -46.685493 -71.591377 4294967295
106.16954 -41.196171 -70.955513 4294967295
106.19284 -43.890411 -71.874054 4294967295
106.28852 -38.866829 -71.18943 4294967295
106.39848 -46.772587 -70.742004 4294967295
106.40417 -44.963604 -70.281563 4294967295
106.6328 -43.91927 -71.685654 4294967295
106.69032 -42.98172 -71.85144 4294967295
106.70174 -41.621021 -71.557999 4294967295
106.71806 -42.062473 -71.801598 4294967295
106.72267 -48.229786 -70.087509 4294967295
106.72321 -42.510532 -71.964226 4294967295
106.73656 -40.697258 -71.559456 4294967295
106.74039 -41.146389 -71.712532 4294967295
106.74422 -38.886063 -71.11293 4294967295
106.78812 -39.763588 -71.682045 4294967295
106.80672 -48.626575 -70.8228 4294967295
106.80899 -40.202667 -71.958672 4294967295
106.83717 -39.283119 -71.912079 4294967295
106.85606 -47.692982 -70.929298 4294967295
106.89653 -46.314095 -70.845924 4294967295
106.9022 -45.859352 -70.761337 4294967295
106.93665 -45.386486 -70.885612 4294967295
106.93784 -44.483147 -70.642746 4294967295
106.94962 -44.927135 -70.854042 4294967295
107.23797 -41.14032 -71.941872 4294967295
107.29922 -46.818394 -70.508972 4294967295
107.30188 -47.718781 -70.780548 4294967295
107.33894 -38.823563 -72.046799 4294967295
107.41845 -45.840546 -71.124489 4294967295
107.64996 -42.990334 -72.053711 4294967295
107.67846 -48.691433 -70.378716 4294967295
107.69171 -40.709301 -71.727448 4294967295
107.70869 -39.796356 -71.598923 4294967295
107.73119 -47.755302 -70.510643 4294967295
107.74713 -38.870579 -71.62664 4294967295
107.76891 -46.828987 -70.532913 4294967295
107.80024 -40.193016 -72.392212 4294967295
107.81506 -45.897354 -70.616898 4294967295
107.84912 -47.228497 -71.244659 4294967295
107.87086 -45.41095 -70.89769 4294967295
107.87135 -38.346069 -72.406136 4294967295
107.95336 -44.45697 -71.247093 4294967295
107.95475 -43.102501 -70.877846 4294967295
108.02315 -42.157803 -71.12439 4294967295
108.07607 -41.222858 -71.257996 4294967295
108.23337 -48.646267 -71.026077 4294967295
108.28102 -46.812328 -70.867775 4294967295
108.33006 -44.074524 -70.465729 4294967295
108.6266 -48.25576 -70.36412 4294967295
108.6558 -46.883835 -70.196854 4294967295
108.69386 -37.984798 -71.481812 4294967295
108.69556 -39.789402 -72.001991 4294967295
108.70203 -47.305016 -70.663338 4294967295
108.72463 -38.869553 -71.961334 4294967295
108.78505 -44.996914 -70.636955 4294967295
108.82353 -45.874435 -71.173874 4294967295
108.88373 -42.679028 -70.725449 4294967295
108.88708 -44.481529 -71.258972 4294967295
108.95817 -42.181835 -71.145203 4294967295
109.00638 -48.776043 -69.854622 4294967295
109.00698 -41.24942 -71.24942 4294967295
109.00848 -40.797173 -71.133102 4294967295
109.02538 -43.042389 -71.893456 4294967295
109.16367 -48.222141 -70.884583 4294967295
109.18561 -47.757168 -70.918594 4294967295
109.27597 -46.346615 -71.201355 4294967295
109.30962 -43.619503 -70.683792 4294967295
109.35011 -43.143017 -70.854584 4294967295
109.545 -39.864769 -71.397591 4294967295
109.65475 -38.44511 -71.824043 4294967295
109.66562 -45.957584 -70.509834 4294967295
109.80943 -44.513145 -71.188309 4294967295
109.81781 -42.703693 -70.738258 4294967295
109.82179 -45.406776 -71.535469 4294967295
109.82299 -43.151646 -70.904579 4294967295
109.85449 -41.327045 -70.625336 4294967295
109.93707 -40.825169 -71.107704 4294967295
109.97299 -42.156368 -71.75737 4294967295
110.01453 -39.875542 -71.424614 4294967295
110.03044 -48.290401 -70.40062 4294967295
110.0826 -38.480721 -71.543854 4294967295
110.10183 -47.342205 -70.672623 4294967295
110.1227 -48.680092 -71.2118 4294967295
110.15066 -39.342316 -72.303421 4294967295
110.16063 -44.598808 -70.338173 4294967295
110.17888 -46.8414 -71.11496 4294967295
110.38434 -41.300793 -71.097679 4294967295
110.43366 -42.623165 -71.848442 4294967295
110.56165 -46.006504 -70.239975 4294967295
110.61142 -47.32642 -70.995621 4294967295
110.64874 -44.597652 -70.500862 4294967295
110.72525 -45.450314 -71.326721 4294967295
110.76549 -44.072529 -71.239807 4294967295
110.78608 -43.157822 -71.13546 4294967295
110.82808 -41.327404 -70.932693 4294967295
110.83984 -40.868919 -70.891411 4294967295
110.86687 -42.205448 -71.47879 4294967295
110.87877 -48.822109 -69.903755 4294967295
110.97959 -47.853943 -70.396484 4294967295
111.00584 -46.033516 -70.075676 4294967295
111.01657 -38.505333 -71.56221 4294967295
111.01735 -38.956085 -71.696831 4294967295
111.03151 -39.84959 -72.059753 4294967295
111.09656 -47.326466 -71.138733 4294967295
111.12299 -45.056141 -70.690445 4294967295
111.24924 -41.819275 -70.727859 4294967295
111.44999 -46.511539 -70.040062 4294967295
111.45074 -40.341747 -71.843597 4294967295
111.53323 -48.259014 -71.179565 4294967295
111.5362 -38.485928 -71.96492 4294967295
111.61947 -44.598526 -70.788887 4294967295
111.68275 -44.107285 -71.132607 4294967295
111.68395 -43.65575 -71.012138 4294967295
111.73221 -42.723545 -71.113968 4294967295
111.79379 -41.783176 -71.315674 4294967295
111.81782 -40.866333 -71.236382 4294967295
111.9165 -39.903664 -71.71582 4294967295
111.9258 -46.067112 -69.982056 4294967295
111.93536 -47.863605 -70.573013 4294967295
111.95937 -48.298031 -70.882729 4294967295
111.97909 -39.414536 -72.05481 4294967295
111.9809 -38.060413 -71.679619 4294967295
112.03293 -44.645046 -70.395538 4294967295
112.04723 -43.733936 -70.242867 4294967295
112.05205 -45.534241 -70.798584 4294967295
112.06083 -38.463276 -72.40773 4294967295
112.07862 -45.066387 -70.867966 4294967295
112.33047 -48.373978 -70.170685 4294967295
112.51481 -46.900337 -71.165726 4294967295
112.62137 -42.776108 -70.79512 4294967295
112.67467 -44.094097 -71.586853 4294967295
112.69971 -41.374043 -70.993698 4294967295
112.70211 -42.274254 -71.272423 4294967295
112.75902 -48.862305 -70.018356 4294967295
112.78442 -39.066257 -70.979774 4294967295
112.81759 -47.471478 -70.068001 4294967295
112.82026 -40.397297 -71.640625 4294967295
112.87547 -38.559692 -71.535057 4294967295
112.88687 -39.905399 -72.011856 4294967295
112.95444 -45.578861 -70.577423 4294967295
112.96707 -46.921898 -71.064423 4294967295
112.99651 -46.001842 -71.025322 4294967295
113.04583 -42.815266 -70.482864 4294967295
113.12457 -43.666489 -71.338448 4294967295
113.24052 -42.241104 -71.821709 4294967295
113.38509 -46.966236 -70.703865 4294967295
113.39528 -47.859924 -71.042793 4294967295
113.44457 -44.223804 -70.367729 4294967295
113.47129 -45.558216 -70.962997 4294967295
113.51546 -44.628532 -71.035172 4294967295
113.67006 -48.451347 -69.726639 4294967295
113.72858 -46.609627 -69.644669 4294967295
113.73172 -41.336666 -71.755188 4294967295
113.73218 -40.435055 -71.496544 4294967295
113.76937 -39.510376 -71.516045 4294967295
113.78315 -47.474461 -70.321472 4294967295
113.80696 -48.809074 -70.896072 4294967295
113.81927 -38.577953 -71.631935 4294967295
113.86453 -38.099468 -71.843834 4294967295
113.87389 -44.260338 -70.089828 4294967295
113.88976 -46.052429 -70.736107 4294967295
113.94189 -45.567734 -71.000221 4294967295
113.96828 -43.74852 -70.67485 4294967295
114.01899 -44.616638 -71.322586 4294967295
114.062 -42.336395 -70.991997 4294967295
114.07253 -43.230827 -71.334824 4294967295
114.21364 -48.861767 -70.447311 4294967295
114.22179 -48.406063 -70.377556 4294967295
114.34355 -45.622639 -70.513329 4294967295
114.47755 -42.831993 -70.742462 4294967295
114.70791 -47.95475 -70.400124 4294967295
114.71857 -39.074242 -71.523827 4294967295
114.75883 -45.218155 -69.995506 4294967295
114.7756 -38.588322 -71.826698 4294967295
114.78491 -47.45266 -70.855606 4294967295
114.82805 -46.073311 -70.788391 4294967295
114.83838 -44.264717 -70.338364 4294967295
114.85925 -45.602367 -70.894363 4294967295
114.90434 -43.771172 -70.70993 4294967295
114.96069 -42.833614 -70.875847 4294967295
114.96399 -41.930145 -70.636421 4294967295
114.97362 -42.374699 -70.842308 4294967295
114.99095 -43.264591 -71.239166 4294967295
115.06605 -40.963898 -71.151733 4294967295
115.0868 -48.926926 -70.000244 4294967295
115.11793 -40.029854 -71.283745 4294967295
115.12104 -47.102291 -69.731857 4294967295
115.13022 -46.194958 -69.536751 4294967295
115.19202 -38.180592 -71.32093 4294967295
115.37025 -42.882656 -70.446434 4294967295
115.55519 -48.937832 -70.019272 4294967295
115.55723 -38.255383 -70.552185 4294967295
115.68239 -46.150146 -70.197807 4294967295
115.69595 -38.620636 -71.749138 4294967295
115.72559 -45.220566 -70.26358 4294967295
115.73628 -44.763004 -70.212715 4294967295
115.77168 -43.838615 -70.218407 4294967295
115.80275 -45.619598 -70.989319 4294967295
115.86805 -42.424141 -70.559845 4294967295
115.91181 -42.846397 -71.029297 4294967295
115.96273 -41.011543 -70.888443 4294967295
115.98608 -47.623493 -69.349731 4294967295
116.01198 -48.056252 -69.682587 4294967295
116.02456 -46.696388 -69.379044 4294967295
116.02779 -39.618259 -70.989464 4294967295
116.04236 -40.510414 -71.367706 4294967295
116.05137 -48.479523 -70.119232 4294967295
116.31232 -42.000137 -70.261459 4294967295
116.38294 -41.053371 -70.53907 4294967295
116.47958 -38.738102 -70.616722 4294967295
116.69389 -44.77124 -70.414345 4294967295
116.70144 -43.414841 -70.070953 4294967295
116.70869 -45.661793 -70.796387 4294967295
116.71892 -42.502045 -69.938202 4294967295
116.80521 -41.544811 -70.337814 4294967295
116.83025 -40.627209 -70.263443 4294967295
116.89316 -41.037766 -70.884224 4294967295
116.94151 -47.632881 -69.530235 4294967295
116.94681 -39.20097 -70.76358 4294967295
116.98621 -48.50246 -70.144989 4294967295
116.98966 -40.075249 -71.363167 4294967295
117.01188 -48.034813 -70.209671 4294967295
117.01443 -46.682644 -69.826653 4294967295
117.03873 -38.69265 -71.341248 4294967295
117.04589 -47.111454 -70.204834 4294967295
117.51363 -47.122719 -70.221001 4294967295
117.72372 -42.029488 -70.373413 4294967295
117.72935 -43.376953 -70.821373 4294967295
117.73844 -40.217072 -69.9487 4294967295
117.75929 -49.087837 -69.046425 4294967295
117.78458 -41.539509 -70.712357 4294967295
117.8206 -48.594994 -69.389267 4294967295
117.84792 -39.696575 -70.666451 4294967295
117.88199 -47.65226 -69.597641 4294967295
117.91599 -48.078857 -69.997902 4294967295
117.91916 -39.200798 -71.086441 4294967295
117.92023 -38.298756 -70.82515 4294967295
117.96155 -46.24725 -69.81279 4294967295
118.01731 -45.759251 -70.112625 4294967295
118.08151 -44.81567 -70.3433 4294967295
118.16713 -43.858219 -70.741135 4294967295
118.22279 -42.921097 -70.905411 4294967295
118.23712 -40.20895 -70.206177 4294967295
118.35815 -38.329041 -70.61068 4294967295
118.37265 -46.74749 -69.520866 4294967295
118.3959 -47.181702 -69.838272 4294967295
118.45282 -44.44133 -69.470238 4294967295
118.55138 -42.122936 -69.56353 4294967295
118.71623 -42.465267 -70.990303 4294967295
118.72901 -48.186413 -69.070068 4294967295
118.75626 -40.187538 -70.6259 4294967295
118.78351 -40.620438 -70.975052 4294967295
118.80515 -47.68343 -69.531311 4294967295
118.81492 -39.248909 -70.814285 4294967295
118.81598 -38.346874 -70.55127 4294967295
118.83857 -46.309898 -69.385681 4294967295
118.86108 -38.769054 -71.040474 4294967295
118.88931 -45.825012 -69.647987 4294967295
118.8895 -47.175125 -70.057251 4294967295
118.89428 -44.92099 -69.414902 4294967295
118.93143 -44.445549 -69.570587 4294967295
118.97755 -45.31493 -70.204712 4294967295
119.06068 -43.008171 -70.177567 4294967295
119.06638 -42.103531 -69.950294 4294967295
119.38428 -46.267807 -70.014671 4294967295
119.42033 -43.541946 -69.479996 4294967295
119.47712 -44.404488 -70.200294 4294967295
119.57179 -49.17458 -68.64045 4294967295
119.59202 -41.176067 -70.150505 4294967295
119.61136 -48.246376 -68.679108 4294967295
119.70889 -39.29834 -70.525986 4294967295
119.77068 -46.785095 -69.52655 4294967295
119.81891 -47.201614 -70.044167 4294967295
119.82515 -38.773624 -71.306511 4294967295
119.84344 -45.834923 -69.82753 4294967295
119.87096 -44.915909 -69.771309 4294967295
119.92356 -43.979961 -69.9132 4294967295
119.97545 -43.494915 -70.186432 4294967295
120.04142 -41.199524 -70.023476 4294967295
120.05106 -42.544155 -70.510437 4294967295
120.06031 -40.286057 -69.898911 4294967295
120.07082 -49.163792 -68.901703 4294967295
120.08685 -48.702465 -68.891281 4294967295
120.14655 -47.310307 -68.95224 4294967295
120.18768 -38.852165 -70.495544 4294967295
120.24117 -46.34441 -69.427361 4294967295
120.26337 -45.879025 -69.465897 4294967295
120.71199 -38.376938 -70.826797 4294967295
120.7599 -45.870461 -69.711327 4294967295
120.76179 -44.068432 -69.17524 4294967295
120.76957 -46.76347 -70.063461 4294967295
120.83826 -44.466728 -69.921211 4294967295
120.88744 -43.533257 -70.036812 4294967295
120.93257 -42.152393 -69.982651 4294967295
120.95621 -41.686394 -70.032944 4294967295
121.00041 -49.19054 -68.88443 4294967295
121.01794 -48.728165 -68.886009 4294967295
121.02421 -47.373562 -68.52137 4294967295
121.05141 -47.804562 -68.876434 4294967295
121.06895 -39.360512 -70.241135 4294967295
121.13403 -39.768684 -70.897186 4294967295
121.14968 -38.857979 -70.746201 4294967295
121.32993 -42.661114 -69.577614 4294967295
121.36043 -49.278862 -68.038696 4294967295
121.36053 -41.739887 -69.545387 4294967295
121.45664 -39.423882 -69.621246 4294967295
121.49151 -47.835384 -68.670822 4294967295
121.50044 -40.746674 -70.38591 4294967295
121.54911 -46.894753 -68.854172 4294967295
121.75455 -44.502293 -69.804657 4294967295
121.76187 -43.597137 -69.586044 4294967295
121.77525 -44.937969 -70.108955 4294967295
121.85988 -42.630665 -70.09333 4294967295
121.87842 -48.804256 -68.31562 4294967295
121.8899 -41.710262 -70.056488 4294967295
121.89041 -40.358826 -69.644463 4294967295
121.92919 -47.868027 -68.444695 4294967295
121.93954 -40.776863 -70.176712 4294967295
121.98522 -39.84623 -70.265305 4294967295
121.99632 -38.036896 -69.799232 4294967295
122.07917 -46.862278 -69.369896 4294967295
122.11465 -38.411278 -70.886398 4294967295
122.24976 -42.244099 -69.348572 4294967295
122.26715 -44.03281 -70.044579 4294967295
122.30887 -41.754169 -69.684158 4294967295
122.3924 -39.897316 -69.798813 4294967295
122.49055 -38.031406 -70.031021 4294967295
122.51412 -47.346344 -69.263046 4294967295
122.52876 -45.536316 -68.822861 4294967295
122.73131 -42.246216 -69.477478 4294967295
122.73267 -43.145584 -69.767609 4294967295
122.74258 -44.038647 -70.126358 4294967295
122.78166 -41.311863 -69.604118 4294967295
122.80253 -40.84761 -69.632729 4294967295
122.85468 -41.713127 -70.332291 4294967295
122.85917 -39.008362 -69.530807 4294967295
122.86141 -48.792709 -68.728111 4294967295
122.87585 -47.432774 -68.424866 4294967295
122.88448 -39.892712 -70.014267 4294967295
122.93786 -47.838474 -69.06543 4294967295
122.95099 -46.929562 -68.891624 4294967295
122.95824 -38.042908 -70.050629 4294967295
122.9818 -45.107758 -68.580376 4294967295
123.02175 -44.629829 -68.763275 4294967295
123.023 -45.529152 -69.053314 4294967295
123.0403 -46.416721 -69.472923 4294967295
123.06345 -44.150852 -68.960114 4294967295
123.32396 -40.823193 -70.085991 4294967295
123.74807 -40.413364 -69.612289 4294967295
123.76374 -41.303207 -70.020508 4294967295
123.76813 -47.936241 -68.245895 4294967295
123.77478 -48.381294 -68.440811 4294967295
123.8205 -40.815136 -70.34063 4294967295
123.87402 -38.979248 -70.212997 4294967295
123.89199 -38.066872 -70.077858 4294967295
123.90091 -47.3913 -69.184105 4294967295
123.91252 -45.133858 -68.574158 4294967295
123.91447 -44.682343 -68.448944 4294967295
123.93066 -46.02103 -69.003372 4294967295
123.99677 -45.524689 -69.399986 4294967295
124.02916 -43.252422 -68.959015 4294967295
124.06139 -42.780159 -69.080238 4294967295
124.12646 -41.385246 -69.18679 4294967295
124.26915 -47.473743 -68.391518 4294967295
124.29761 -38.569241 -69.734207 4294967295
124.43771 -44.654945 -68.918228 4294967295
124.4725 -43.280579 -68.777863 4294967295
124.615 -48.472847 -67.694633 4294967295
124.65955 -47.540672 -67.775368 4294967295
124.73788 -39.499371 -69.81321 4294967295
124.76166 -47.017387 -68.468788 4294967295
124.77463 -38.574524 -69.830551 4294967295
124.83032 -46.518524 -68.888702 4294967295
124.85854 -45.598942 -68.836098 4294967295
124.86517 -44.694427 -68.606743 4294967295
124.93143 -45.99691 -69.574234 4294967295
124.95668 -41.929886 -68.50444 4294967295
124.98681 -42.359581 -68.893097 4294967295
125.02242 -43.235096 -69.468536 4294967295
125.03122 -41.428825 -68.973099 4294967295
125.08005 -48.486156 -67.687134 4294967295
125.09837 -40.482899 -69.239319 4294967295
125.13415 -47.996952 -67.988754 4294967295
125.19936 -38.614258 -69.499222 4294967295
125.20467 -46.14653 -67.998337 4294967295
125.20595 -39.960518 -69.979149 4294967295
125.29402 -46.982079 -69.016312 4294967295
125.32327 -45.162434 -68.687424 4294967295
125.4454 -44.176914 -69.405838 4294967295
125.59017 -39.577522 -69.172119 4294967295
125.63291 -39.098675 -69.381119 4294967295
125.75169 -45.65139 -68.524544 4294967295
125.80828 -44.711578 -68.705185 4294967295
125.84175 -43.788212 -68.695366 4294967295
125.91628 -43.286278 -69.166855 4294967295
126.00294 -40.976677 -69.167229 4294967295
126.06902 -39.581467 -69.283623 4294967295
126.07425 -40.478184 -69.612648 4294967295
126.12224 -47.980965 -68.455612 4294967295
126.14518 -48.862846 -68.931236 4294967295
126.20874 -46.119957 -68.597466 4294967295
126.2545 -46.536564 -69.118805 4294967295
126.26639 -45.628998 -68.930763 4294967295
126.29259 -44.711029 -68.860931 4294967295
126.29859 -43.80711 -68.624023 4294967295
126.41259 -42.37785 -69.136887 4294967295
126.53616 -47.581799 -67.884232 4294967295
126.75311 -45.176891 -68.96431 4294967295
126.76791 -43.817234 -68.655983 4294967295
126.85331 -44.2066 -69.50811 4294967295
126.86466 -42.399895 -69.027489 4294967295
126.91092 -41.018028 -68.980087 4294967295
126.93809 -40.549366 -69.061813 4294967295
126.94224 -39.195778 -68.664612 4294967295
127.00681 -48.939281 -68.357521 4294967295
127.00941 -47.588966 -67.946724 4294967295
127.02878 -39.587658 -69.527283 4294967295
127.05486 -48.454422 -68.612877 4294967295
127.05698 -46.654945 -68.053917 4294967295
127.05972 -38.66666 -69.496727 4294967295
127.09155 -45.28056 -67.908905 4294967295
127.13071 -47.050797 -68.811378 4294967295
127.26797 -42.005894 -68.367371 4294967295
127.34701 -41.051048 -68.736938 4294967295
127.43594 -48.080036 -67.765007 4294967295
127.50214 -46.232796 -67.738579 4294967295
127.65342 -44.774548 -68.567375 4294967295
127.66729 -45.214184 -68.827843 4294967295
127.77101 -41.542648 -68.536346 4294967295
127.84545 -49.033485 -67.585091 4294967295
127.85133 -39.68684 -68.628265 4294967295
127.90498 -40.100353 -69.221695 4294967295
127.91708 -48.530651 -68.039474 4294967295
127.92706 -38.28476 -68.827011 4294967295
128.00372 -46.219398 -68.039116 4294967295
128.03046 -45.75034 -68.117821 4294967295
128.03268 -47.54644 -68.716972 4294967295
128.07611 -44.817993 -68.209862 4294967295
128.13797 -43.87426 -68.437714 4294967295
128.23645 -42.455322 -68.827454 4294967295
128.23839 -43.353279 -69.13401 4294967295
128.33687 -41.485668 -69.378845 4294967295
128.34685 -48.569996 -67.739029 4294967295
128.36792 -39.214767 -68.912956 4294967295
128.48933 -44.868446 -67.770699 4294967295
128.56104 -46.614311 -68.955727 4294967295
128.63678 -42.51392 -68.281723 4294967295
128.7728 -40.619232 -68.842842 4294967295
128.78311 -39.712067 -68.638031 4294967295
128.80505 -49.037487 -67.822647 4294967295
128.81932 -38.786999 -68.651245 4294967295
128.84825 -48.555809 -68.040573 4294967295
128.86195 -46.747925 -67.571617 4294967295
128.89432 -39.186043 -69.428329 4294967295
128.92438 -38.265747 -69.389885 4294967295
128.95448 -45.331295 -67.913124 4294967295
128.96034 -47.573879 -68.693024 4294967295
128.98453 -44.85984 -68.02034 4294967295
129.06837 -43.450447 -68.288963 4294967295
129.10974 -44.319923 -68.930252 4294967295
129.11282 -41.619396 -68.079033 4294967295
129.12706 -42.059376 -68.345482 4294967295
129.1954 -42.460899 -69.068382 4294967295
129.1955 -40.661674 -68.484344 4294967295
129.22649 -48.634014 -67.303268 4294967295
129.27492 -39.256775 -68.716103 4294967295
129.38583 -46.268166 -67.917557 4294967295
129.63298 -43.392204 -69.129257 4294967295
129.73058 -40.626022 -69.075668 4294967295
129.77281 -40.146961 -69.286812 4294967295
129.78838 -38.786713 -68.978531 4294967295
129.81964 -39.66489 -69.536888 4294967295
129.83249 -47.642723 -68.199249 4294967295
129.83467 -46.293175 -67.776451 4294967295
129.85388 -45.379929 -67.645226 4294967295
129.88133 -45.809353 -68.02533 4294967295
129.89119 -44.903049 -67.814781 4294967295
129.93996 -46.664528 -68.81707 4294967295
129.97076 -43.04668 -67.901634 4294967295
130.04703 -42.542492 -68.40229 4294967295
130.06172 -41.182579 -68.085381 4294967295
130.11664 -42.043396 -68.846558 4294967295
130.13385 -40.682106 -68.551239 4294967295
130.1808 -48.192623 -67.350914 4294967295
130.23653 -48.59972 -67.972763 4294967295
130.24254 -47.696873 -67.728851 4294967295
130.24666 -38.354374 -68.773804 4294967295
130.25832 -49.032143 -68.305702 4294967295
130.30701 -46.300808 -67.834991 4294967295
130.49803 -44.363335 -68.871651 4294967295
130.54169 -43.882431 -69.096039 4294967295
130.63962 -39.767033 -68.602043 4294967295
130.78156 -47.20512 -68.209129 4294967295
130.78688 -46.752022 -68.106522 4294967295
130.8308 -44.922226 -67.889404 4294967295
130.8765 -45.787132 -68.576172 4294967295
130.92001 -42.609444 -67.911133 4294967295
130.96518 -43.925354 -68.741997 4294967295
131.00055 -43.450432 -68.896408 4294967295
131.00591 -40.749039 -68.052933 4294967295
131.01305 -41.193851 -68.262405 4294967295
131.08304 -41.593857 -69.009453 4294967295
131.08748 -48.68576 -67.28965 4294967295
131.09981 -39.333549 -68.41172 4294967295
131.11249 -38.874779 -68.371933 4294967295
131.13898 -39.756145 -68.895325 4294967295
131.16103 -47.282341 -67.474152 4294967295
131.1954 -38.367683 -68.933655 4294967295
131.30199 -44.031693 -67.642166 4294967295
131.30371 -45.827991 -68.251572 4294967295
131.35417 -43.094486 -67.792458 4294967295
131.71259 -45.43335 -67.618088 4294967295
131.78705 -44.030136 -67.81134 4294967295
131.79742 -44.921219 -68.199028 4294967295
131.81308 -45.807774 -68.631973 4294967295
131.88351 -43.510277 -68.492722 4294967295
131.93634 -42.123928 -68.500008 4294967295
131.95871 -41.658398 -68.543549 4294967295
131.96213 -42.554691 -68.871429 4294967295
131.97266 -40.749279 -68.365234 4294967295
132.01784 -49.160557 -67.433167 4294967295
132.01955 -41.165493 -68.918503 4294967295
132.07861 -39.325649 -68.830566 4294967295
132.10358 -48.64571 -68.023346 4294967295
132.12151 -47.734295 -67.878868 4294967295
132.12959 -38.390778 -68.971405 4294967295
132.13426 -46.377377 -67.540176 4294967295
132.44116 -39.860352 -68.095314 4294967295
132.50827 -40.262608 -68.825485 4294967295
132.51448 -41.156933 -69.178612 4294967295
132.56796 -47.312313 -67.566216 4294967295
132.63152 -45.916931 -67.666306 4294967295
132.86484 -40.802277 -68.036339 4294967295
132.87624 -43.489922 -69.036461 4294967295
132.87834 -42.141026 -68.604218 4294967295
132.92268 -41.659718 -68.8386 4294967295
133.00482 -48.244648 -67.620163 4294967295
133.00804 -38.452564 -68.527313 4294967295
133.04773 -48.66024 -68.143547 4294967295
133.07642 -37.955265 -68.970604 4294967295
133.10867 -46.818645 -68.070877 4294967295
133.14615 -45.892487 -68.09539 4294967295
133.24103 -44.025528 -68.31778 4294967295
133.3084 -43.526737 -68.753197 4294967295
133.3237 -41.718769 -68.283455 4294967295
133.37614 -49.227825 -67.103767 4294967295
133.4344 -40.740406 -68.945511 4294967295
133.53304 -39.32238 -69.352303 4294967295
133.5388 -46.858009 -67.766098 4294967295
133.54207 -47.304337 -67.945793 4294967295
133.7108 -42.237766 -67.754593 4294967295
133.7337 -41.322018 -67.651947 4294967295
133.86702 -48.322876 -67.023041 4294967295
133.89748 -40.305271 -68.77993 4294967295
133.93875 -39.826477 -68.989342 4294967295
133.95332 -40.714371 -69.419205 4294967295
134.02058 -45.960194 -67.608238 4294967295
134.02753 -47.301338 -68.12413 4294967295
134.08012 -45.466145 -67.977814 4294967295
134.09322 -46.802368 -68.547348 4294967295
134.13599 -43.178787 -67.708229 4294967295
134.1525 -44.513863 -68.308212 4294967295
134.15919 -43.610828 -68.063362 4294967295
134.17416 -42.701344 -67.890953 4294967295
134.26389 -41.28783 -68.22171 4294967295
134.32161 -41.695072 -68.879448 4294967295
134.43504 -38.468925 -68.811264 4294967295
134.45035 -48.243729 -68.058258 4294967295
134.53004 -44.143089 -67.388237 4294967295
134.80692 -49.23835 -67.408829 4294967295
134.81367 -40.340759 -68.663513 4294967295
134.81769 -41.23608 -69.003494 4294967295
134.84253 -39.870762 -68.764946 4294967295
134.8577 -47.852711 -67.398033 4294967295
134.85834 -48.300861 -67.556381 4294967295
134.87177 -40.747871 -69.326859 4294967295
134.88879 -38.489723 -68.714966 4294967295
134.94604 -37.999886 -69.066727 4294967295
134.9536 -47.329651 -68.090424 4294967295
134.9547 -45.982746 -67.641937 4294967295
134.96059 -45.080338 -67.388214 4294967295
134.97348 -46.865761 -68.112877 4294967295
135.00562 -45.49509 -67.938026 4294967295
135.00572 -44.597168 -67.633331 4294967295
135.06445 -44.103981 -67.998451 4294967295
135.13641 -43.152271 -68.327774 4294967295
135.17763 -42.672749 -68.538437 4294967295
135.19679 -41.311447 -68.249039 4294967295
135.31357 -39.879169 -68.821289 4294967295
135.36487 -48.729355 -68.075752 4294967295
135.41234 -46.898586 -67.882812 4294967295
135.79744 -38.979897 -68.685303 4294967295
135.79871 -39.4282 -68.849976 4294967295
135.84007 -40.296227 -69.523331 4294967295
75.592728 -37.228123 -74.941864 4294967295
75.673531 -36.282303 -75.221405 4294967295
75.693344 -34.45837 -74.922211 4294967295
75.734268 -35.346416 -75.379578 4294967295
75.755531 -33.06797 -74.984352 4294967295
75.764374 -36.692173 -75.8759 4294967295
75.888519 -32.099342 -75.580223 4294967295
75.994392 -30.236454 -75.80246 4294967295
76.087112 -35.86758 -74.789818 4294967295
76.127617 -20.436323 -77.238846 4294967295
76.19265 -20.864523 -77.737335 4294967295
76.318932 -33.036915 -75.566574 4294967295
76.448875 -29.347767 -75.515205 4294967295
76.464821 -36.831184 -74.453987 4294967295
76.469376 -31.607231 -76.165009 4294967295
76.483147 -23.672869 -77.298607 4294967295
76.501404 -30.231987 -76.044495 4294967295
76.539413 -28.399971 -75.85508 4294967295
76.547501 -36.337765 -74.85154 4294967295
76.548561 -27.942019 -75.805618 4294967295
76.584679 -29.741167 -76.44529 4294967295
76.602341 -35.85796 -75.079834 4294967295
76.607826 -27.462296 -76.060669 4294967295
76.614189 -37.212395 -75.467613 4294967295
76.639465 -20.886139 -77.618332 4294967295
76.670883 -26.527243 -76.233688 4294967295
76.698036 -33.998428 -75.240921 4294967295
76.737 -24.683126 -76.21524 4294967295
76.756157 -33.064091 -75.384018 4294967295
76.765823 -25.578934 -76.600708 4294967295
76.799095 -26.018566 -76.908127 4294967295
76.821594 -32.580238 -75.676979 4294967295
76.830963 -22.82752 -76.366066 4294967295
76.862801 -20.542767 -76.033806 4294967295
76.915863 -21.884525 -76.672279 4294967295
76.916473 -32.083096 -76.149223 4294967295
76.917015 -37.758957 -74.570969 4294967295
76.976997 -20.95154 -76.833954 4294967295
77.010429 -21.39222 -77.14257 4294967295
77.035965 -27.492712 -75.823837 4294967295
77.061218 -34.968025 -74.816895 4294967295
77.204895 -31.724655 -74.954224 4294967295
77.259888 -30.791801 -75.078636 4294967295
77.353775 -24.179981 -77.023293 4294967295
77.46769 -37.731316 -75.078934 4294967295
77.47673 -29.333004 -76.085556 4294967295
77.492172 -36.812737 -75.017044 4294967295
77.502731 -28.414055 -76.033195 4294967295
77.504539 -21.848747 -77.415916 4294967295
77.508804 -27.049755 -75.753387 4294967295
77.556236 -25.667164 -75.726128 4294967295
77.566978 -26.11665 -75.897461 4294967295
77.586891 -35.406975 -75.278648 4294967295
77.643944 -31.750988 -74.780922 4294967295
77.646606 -34.471771 -75.432266 4294967295
77.668938 -24.711201 -76.203468 4294967295
77.70752 -33.536243 -75.593117 4294967295
77.712784 -21.967669 -75.837273 4294967295
77.724213 -21.508566 -75.801437 4294967295
77.733139 -22.867949 -76.173195 4294967295
77.749741 -30.79495 -75.216423 4294967295
77.772766 -32.145466 -75.674828 4294967295
77.785728 -22.392155 -76.388939 4294967295
77.789436 -31.230625 -75.565147 4294967295
77.812538 -29.858904 -75.388977 4294967295
77.815872 -21.017151 -76.25621 4294967295
77.826561 -23.737251 -76.955551 4294967295
77.846962 -32.56456 -76.234474 4294967295
77.857803 -20.091618 -76.301224 4294967295
77.891846 -28.461927 -75.556717 4294967295
77.942291 -30.254124 -76.28878 4294967295
77.961151 -35.918228 -74.815025 4294967295
77.994171 -27.055334 -75.865501 4294967295
78.036484 -24.312557 -75.489037 4294967295
78.120384 -25.63924 -76.320778 4294967295
78.335495 -21.917828 -76.791634 4294967295
78.392136 -21.440779 -77.03286 4294967295
78.478424 -26.60745 -75.865402 4294967295
78.514549 -34.076187 -74.91832 4294967295
78.560913 -32.239723 -74.77774 4294967295
78.578522 -23.840502 -75.842972 4294967295
78.591499 -35.399586 -75.710075 4294967295
78.611053 -24.734892 -76.25518 4294967295
78.614136 -31.761337 -74.998573 4294967295
78.623322 -32.664398 -75.267807 4294967295
78.63485 -25.63238 -76.613571 4294967295
78.65918 -22.444368 -76.019768 4294967295
78.677139 -33.09272 -75.704895 4294967295
78.681816 -30.368973 -75.09549 4294967295
78.736679 -21.504196 -76.28344 4294967295
78.79174 -36.902058 -74.387283 4294967295
78.819466 -30.759958 -76.048355 4294967295
78.828163 -37.790901 -74.824631 4294967295
78.839119 -20.55439 -76.7006 4294967295
78.843315 -28.481167 -75.663284 4294967295
78.87339 -37.315403 -74.99649 4294967295
78.885742 -28.915966 -76.030632 4294967295
78.897476 -27.095764 -75.67717 4294967295
78.907303 -27.999065 -75.9505 4294967295
78.912659 -36.389698 -75.025215 4294967295
78.954987 -34.102158 -74.752975 4294967295
78.977127 -25.245417 -75.741753 4294967295
79.045219 -31.337545 -74.668999 4294967295
79.088608 -22.927805 -75.895752 4294967295
79.119843 -20.643167 -75.555443 4294967295
79.239105 -29.434029 -75.43763 4294967295
79.272552 -26.695433 -75.00367 4294967295
79.301941 -35.080162 -74.223618 4294967295
79.482399 -26.150261 -76.191666 4294967295
79.49691 -31.35812 -74.572418 4294967295
79.506767 -24.778246 -76.022003 4294967295
79.512642 -34.072411 -75.31102 4294967295
79.529823 -21.589167 -75.416908 4294967295
79.538925 -22.039848 -75.579956 4294967295
79.540451 -33.15247 -75.26902 4294967295
79.556511 -32.691463 -75.261421 4294967295
79.596451 -25.193707 -76.682121 4294967295
79.60672 -20.194452 -75.571396 4294967295
79.624863 -31.752644 -75.469864 4294967295
79.629776 -29.935778 -75.072685 4294967295
79.662392 -22.443045 -76.449104 4294967295
79.687859 -27.185886 -74.78981 4294967295
79.691559 -29.454039 -75.34761 4294967295
79.713753 -22.875586 -76.872932 4294967295
79.72464 -36.022263 -74.160812 4294967295
79.747017 -37.824806 -74.727707 4294967295
79.757469 -28.516937 -75.541206 4294967295
79.7854 -35.085659 -74.322548 4294967295
79.812531 -27.584927 -75.667801 4294967295
79.831581 -26.214901 -75.464699 4294967295
79.832016 -25.760677 -75.36042 4294967295
79.848564 -32.786938 -74.17762 4294967295
79.856216 -37.31765 -75.296295 4294967295
79.866364 -24.837685 -75.358856 4294967295
79.872734 -28.011927 -76.146935 4294967295
79.897705 -36.844212 -75.445953 4294967295
79.900391 -34.123451 -74.820053 4294967295
79.900665 -26.638668 -75.998978 4294967295
79.900833 -35.48333 -75.144226 4294967295
80.020576 -22.955942 -75.885071 4294967295
80.187874 -21.070538 -76.492615 4294967295
80.189262 -20.16169 -76.287216 4294967295
80.333023 -33.699635 -74.498154 4294967295
80.376236 -26.19463 -75.946404 4294967295
80.446236 -23.441034 -75.737137 4294967295
80.496254 -24.327753 -76.261902 4294967295
80.510811 -32.255116 -75.279564 4294967295
80.531471 -31.792007 -75.300446 4294967295
80.538513 -21.131733 -75.773232 4294967295
80.542732 -22.492493 -76.121307 4294967295
80.549408 -29.061562 -74.76709 4294967295
80.551857 -28.606489 -74.674767 4294967295
80.555573 -30.420158 -75.127853 4294967295
80.594917 -21.562778 -76.230659 4294967295
80.607864 -28.127428 -74.915199 4294967295
80.624733 -37.425941 -74.267456 4294967295
80.62748 -36.517765 -74.069267 4294967295
80.643585 -29.472704 -75.459663 4294967295
80.659943 -27.650288 -75.131371 4294967295
80.690445 -20.161556 -76.50174 4294967295
80.696709 -34.216087 -73.96125 4294967295
80.726089 -25.805202 -75.112312 4294967295
80.727951 -26.258442 -75.231438 4294967295
80.762726 -35.091423 -74.587456 4294967295
80.794785 -27.136759 -75.861839 4294967295
80.825516 -34.607712 -74.870384 4294967295
80.827988 -31.431095 -74.131699 4294967295
80.828194 -24.39892 -75.424561 4294967295
80.876984 -32.769363 -74.759949 4294967295
80.947868 -23.44001 -75.953712 4294967295
80.956551 -20.256594 -75.254524 4294967295
81.157867 -24.925699 -74.676956 4294967295
81.194145 -28.087543 -75.657654 4294967295
81.268799 -35.992126 -75.045662 4294967295
81.292107 -26.683126 -75.944824 4294967295
81.333801 -25.303749 -75.881454 4294967295
81.363792 -30.051012 -74.23465 4294967295
81.374969 -23.470461 -75.706924 4294967295
81.380859 -22.105532 -75.420143 4294967295
81.486183 -20.244959 -75.645622 4294967295
81.503052 -21.600662 -76.074478 4294967295
81.533142 -28.158401 -74.859688 4294967295
81.534485 -29.519098 -75.192238 4294967295
81.559219 -27.69281 -74.914497 4294967295
81.581306 -36.534634 -74.18824 4294967295
81.625488 -36.966 -74.572601 4294967295
81.638206 -26.749912 -75.191772 4294967295
81.642227 -35.14452 -74.244377 4294967295
81.672997 -37.395405 -74.977592 4294967295
81.67852 -24.916229 -75.011322 4294967295
81.703934 -34.20768 -74.41375 4294967295
81.728661 -32.835121 -74.243553 4294967295
81.774063 -35.533428 -75.176781 4294967295
81.7957 -23.503687 -75.419327 4294967295
81.843658 -33.233883 -75.071167 4294967295
81.871849 -22.109215 -75.571053 4294967295
81.877289 -30.950651 -74.740303 4294967295
81.901901 -23.0047 -75.975182 4294967295
81.913757 -31.840645 -75.185005 4294967295
81.92601 -22.540609 -76.017807 4294967295
81.970787 -30.45372 -75.217125 4294967295
82.005188 -20.237509 -75.972427 4294967295
82.037697 -37.45966 -74.336952 4294967295
82.058754 -25.875885 -74.684677 4294967295
82.121292 -33.791389 -73.992805 4294967295
82.22374 -34.64875 -74.852081 4294967295
82.266159 -23.969835 -75.550575 4294967295
82.293137 -21.233322 -75.069183 4294967295
82.340065 -30.058605 -74.496346 4294967295
82.393028 -36.621899 -73.416786 4294967295
82.496765 -27.264368 -74.828217 4294967295
82.501755 -29.077076 -75.293823 4294967295
82.55542 -20.217165 -76.496994 4294967295
82.567894 -26.324951 -75.05748 4294967295
82.591339 -37.429367 -74.879982 4294967295
82.59259 -34.256271 -74.126671 4294967295
82.596062 -25.404663 -75.017151 4294967295
82.600388 -27.671715 -75.587311 4294967295
82.608757 -24.490986 -74.879532 4294967295
82.61351 -35.152878 -74.475677 4294967295
82.634323 -36.048988 -74.823967 4294967295
82.661087 -35.582714 -74.883369 4294967295
82.682137 -25.820837 -75.666267 4294967295
82.682358 -31.49152 -74.037941 4294967295
82.693871 -32.393482 -74.328049 4294967295
82.711975 -33.745174 -74.768211 4294967295
82.732574 -22.167223 -75.113991 4294967295
82.755318 -30.095997 -74.170151 4294967295
82.762764 -21.700319 -75.194992 4294967295
82.77697 -23.056757 -75.61039 4294967295
82.798164 -23.955475 -75.960709 4294967295
82.842697 -31.869539 -75.155022 4294967295
82.849289 -23.479836 -76.173302 4294967295
82.8787 -20.743795 -75.706367 4294967295
82.93924 -21.172821 -76.195518 4294967295
82.964233 -37.48975 -74.287819 4294967295
83.011124 -28.164028 -75.344101 4294967295
83.01812 -25.437906 -74.73481 4294967295
83.040657 -24.519819 -74.658882 4294967295
83.22261 -33.284103 -74.934479 4294967295
83.248314 -32.365231 -74.878349 4294967295
83.269676 -29.633783 -74.358376 4294967295
83.287613 -20.781454 -75.342682 4294967295
83.320587 -22.130011 -75.877365 4294967295
83.358322 -28.231766 -74.590065 4294967295
83.386124 -26.403372 -74.32869 4294967295
83.513191 -33.382374 -73.820724 4294967295
83.520477 -36.098969 -74.522789 4294967295
83.549355 -34.271839 -74.267921 4294967295
83.549812 -32.911137 -73.942673 4294967295
83.55822 -23.14904 -74.65033 4294967295
83.563156 -24.055315 -74.900002 4294967295
83.582436 -25.862541 -75.458488 4294967295
83.583649 -32.441315 -74.047112 4294967295
83.589211 -23.589983 -74.955292 4294967295
83.67276 -30.584476 -74.172684 4294967295
83.684204 -22.641253 -75.336685 4294967295
83.698341 -20.818462 -74.988991 4294967295
83.769257 -31.446222 -75.001404 4294967295
83.797241 -30.072803 -74.850258 4294967295
83.806877 -29.161156 -74.692345 4294967295
83.809097 -28.706429 -74.596954 4294967295
83.823471 -29.607113 -74.906647 4294967295
83.825111 -27.791491 -74.47937 4294967295
83.849808 -36.634064 -73.760933 4294967295
83.867844 -37.078247 -73.984665 4294967295
83.911156 -35.696857 -73.930092 4294967295
83.94722 -25.013187 -74.595055 4294967295
83.977966 -24.545666 -74.680046 4294967295
84.041084 -25.425911 -75.298576 4294967295
84.074203 -23.595856 -75.070267 4294967295
84.204582 -20.361616 -75.129211 4294967295
84.208786 -31.472467 -74.828674 4294967295
84.368149 -35.261742 -73.755493 4294967295
84.375854 -28.220594 -75.120163 4294967295
84.380348 -27.311293 -74.929276 4294967295
84.473618 -32.489208 -73.765533 4294967295
84.509918 -32.018181 -73.886169 4294967295
84.52095 -33.373383 -74.286072 4294967295
84.528053 -24.069103 -75.098206 4294967295
84.529205 -23.614618 -74.995697 4294967295
84.536835 -31.098009 -73.837151 4294967295
84.569016 -22.235262 -74.919044 4294967295
84.588676 -21.772738 -74.934021 4294967295
84.659348 -37.630108 -73.186615 4294967295
84.709175 -20.813908 -75.479523 4294967295
84.726227 -20.352697 -75.478073 4294967295
84.738068 -30.096268 -74.895859 4294967295
84.744858 -36.680164 -73.510239 4294967295
84.751389 -28.275785 -74.540756 4294967295
84.761917 -27.363369 -74.38765 4294967295
84.791313 -29.618031 -75.124313 4294967295
84.834282 -28.691345 -75.177567 4294967295
84.854126 -34.812263 -73.764786 4294967295
84.86525 -25.047405 -74.494522 4294967295
84.873833 -26.859072 -74.98922 4294967295
84.881653 -26.401842 -74.928963 4294967295
84.896004 -36.151073 -74.361786 4294967295
84.902863 -24.576849 -74.623726 4294967295
84.941437 -34.315948 -74.210373 4294967295
85.014786 -30.652548 -73.795616 4294967295
85.025772 -25.430365 -75.625557 4294967295
85.117805 -30.15045 -74.34153 4294967295
85.250786 -20.342422 -75.847504 4294967295
85.316299 -35.734486 -73.953903 4294967295
85.344452 -26.417168 -74.903893 4294967295
85.391319 -32.523869 -73.659264 4294967295
