# .PCD v0.7 - Point Cloud Data file format
VERSION 0.7
FIELDS x y z rgb
SIZE 4 4 4 4
TYPE F F F U
COUNT 1 1 1 1
WIDTH 1136
HEIGHT 1
VIEWPOINT 0 0 0 1 0 0 0
POINTS 1136
DATA ascii
271.87262 -71.690933 -0.53527832 4294967295
271.88879 -71.151062 -1.0978985 4294967295
271.9072 -70.678116 -1.008894 4294967295
271.94202 -69.674355 -1.4003811 4294967295
271.96335 -69.282784 -0.50458139 4294967295
271.99783 -68.270416 -0.98262602 4294967295
272.01602 -67.790672 -0.95915413 4294967295
272.03235 -67.26004 -1.4481316 4294967295
272.05225 -66.826096 -0.9633503 4294967295
272.07159 -66.378731 -0.61074638 4294967295
272.08905 -65.877571 -0.80378342 4294967295
272.34946 -71.644943 -1.1035938 4294967295
272.36716 -71.151207 -1.2180691 4294967295
272.38544 -70.674492 -1.166563 4294967295
272.44266 -69.302399 -0.4342747 4294967295
272.46112 -68.829926 -0.33678439 4294967295
272.49594 -67.828629 -0.70479959 4294967295
272.53448 -66.920929 -0.13222121 4294967295
272.5524 -66.433472 -0.1836243 4294967295
272.56815 -65.894096 -0.76458931 4294967295
272.83026 -71.706467 -0.62594801 4294967295
272.84616 -71.170448 -1.1516037 4294967295
272.86499 -70.706352 -0.97640038 4294967295
272.88589 -70.290146 -0.32890129 4294967295
272.90533 -69.837929 -0.0318413 4294967295
272.97815 -67.915749 0.042758901 4294967295
272.99371 -67.375336 -0.54105949 4294967295
273.01358 -66.932571 -0.1423111 4294967295
273.02933 -66.397034 -0.68211371 4294967295
273.04861 -65.941811 -0.4075546 4294967295
273.31097 -71.757645 -0.24897189 4294967295
273.32907 -71.275764 -0.2449246 4294967295
273.36694 -70.345184 0.089771301 4294967295
273.38342 -69.828125 -0.25232509 4294967295
273.40073 -69.328224 -0.4268246 4294967295
273.43677 -68.359871 -0.46569631 4294967295
273.45532 -67.886688 -0.37508199 4294967295
273.47485 -67.433517 -0.082187697 4294967295
273.4921 -66.933167 -0.2639389 4294967295
273.51105 -66.468201 -0.088232003 4294967295
273.52469 -65.895065 -1.0130577 4294967295
273.78949 -71.760139 -0.34552959 4294967295
273.80856 -71.296402 -0.1650105 4294967295
273.82315 -70.744072 -0.85107422 4294967295
273.84396 -70.315758 -0.32255939 4294967295
273.85919 -69.776054 -0.88982958 4294967295
273.88229 -69.391922 0.0805206 4294967295
273.90048 -68.911484 0.1000633 4294967295
273.95419 -67.45047 -0.038549401 4294967295
273.97195 -66.961327 -0.1071739 4294967295
273.98755 -66.431686 -0.5872612 4294967295
274.00708 -65.976357 -0.31390569 4294967295
274.26599 -71.726036 -0.79798508 4294967295
274.28479 -71.256676 -0.67428023 4294967295
274.30643 -70.8405 -0.0284252 4294967295
274.3262 -70.388985 0.27482599 4294967295
274.34155 -69.854782 -0.23602299 4294967295
274.36133 -69.403175 0.067718498 4294967295
274.37894 -68.911545 -0.0242767 4294967295
274.39923 -68.468651 0.3698521 4294967295
274.41812 -67.999664 0.50523758 4294967295
274.43564 -67.506294 0.3963947 4294967295
274.45264 -67.003792 0.1943398 4294967295
274.46909 -66.491348 -0.1101551 4294967295
274.4863 -65.993576 -0.2676945 4294967295
274.74771 -71.791039 -0.28668591 4294967295
274.76352 -71.268303 -0.68220329 4294967295
274.78748 -70.888718 0.32180411 4294967295
274.80536 -70.401489 0.27494049 4294967295
274.82202 -69.893356 0.0212231 4294967295
274.84216 -69.445908 0.36703679 4294967295
274.85843 -68.932053 0.054777101 4294967295
274.8736 -68.399529 -0.44613269 4294967295
274.89255 -67.931686 -0.30262181 4294967295
274.91394 -67.50415 0.2477093 4294967295
274.93427 -67.05864 0.62094313 4294967295
274.95157 -66.561653 0.47459221 4294967295
274.96539 -66.009155 -0.23809239 4294967295
275.23248 -71.900627 0.65781212 4294967295
275.24603 -71.34304 -0.074214898 4294967295
275.2702 -70.959709 0.89515311 4294967295
275.28351 -70.398605 0.1236515 4294967295
275.29913 -69.874962 -0.28380591 4294967295
275.3219 -69.468315 0.46491811 4294967295
275.33823 -68.957085 0.1789684 4294967295
275.35461 -68.44738 -0.093826301 4294967295
275.392 -67.500999 0.089158997 4294967295
275.41302 -67.063904 0.54629332 4294967295
275.43027 -66.567162 0.40202519 4294967295
275.44998 -66.108925 0.64896959 4294967295
275.71231 -71.923103 0.75545877 4294967295
275.72638 -71.377136 0.1370506 4294967295
275.746 -70.917915 0.36347201 4294967295
275.76736 -70.485153 0.85186189 4294967295
275.78354 -69.973122 0.56171417 4294967295
275.80045 -69.471512 0.37229919 4294967295
275.82285 -69.053413 1.0123386 4294967295
275.83847 -68.533279 0.63843542 4294967295
275.85507 -68.027596 0.40634161 4294967295
275.87653 -67.594612 0.90420151 4294967295
275.89096 -67.058037 0.3593407 4294967295
275.90765 -66.555077 0.151226 4294967295
275.92947 -66.125793 0.69151878 4294967295
276.19101 -71.927879 0.68104547 4294967295
276.21198 -71.486862 1.0860672 4294967295
276.27942 -69.483513 0.36711121 4294967295
276.31479 -68.505501 0.23536681 4294967295
276.33942 -68.114868 1.1550026 4294967295
276.37222 -67.101318 0.66890341 4294967295
276.38644 -66.565102 0.1243858 4294967295
276.66806 -71.911438 0.40046501 4294967295
276.68872 -71.463585 0.73760802 4294967295
276.72699 -70.526222 1.0099182 4294967295
276.759 -69.503372 0.4396629 4294967295
276.80057 -68.609482 1.1480141 4294967295
276.83249 -67.5868 0.57160568 4294967295
276.86975 -66.634995 0.70492172 4294967295
276.89194 -66.204895 1.2386208 4294967295
277.15024 -71.965912 0.80907059 4294967295
277.17139 -71.523354 1.1991196 4294967295
277.18399 -70.96769 0.48456001 4294967295
277.20325 -70.500153 0.63092798 4294967295
277.21832 -69.978027 0.2396336 4294967295
277.23526 -69.480919 0.093118697 4294967295
277.25836 -69.062454 0.72758669 4294967295
277.27252 -68.528931 0.2184467 4294967295
277.29517 -68.103691 0.79030418 4294967295
277.31052 -67.586212 0.43873981 4294967295
277.33536 -67.188225 1.2914162 4294967295
277.34702 -66.624634 0.47143939 4294967295
277.36371 -66.124802 0.294054 4294967295
277.62964 -71.982262 0.84718901 4294967295
277.65271 -71.561829 1.452898 4294967295
277.66718 -71.032997 1.0019245 4294967295
277.68286 -70.519699 0.70016479 4294967295
277.70743 -70.116837 1.4858398 4294967295
277.71521 -69.506767 0.225069 4294967295
277.74005 -69.106415 1.0397758 4294967295
277.77493 -68.125244 0.88008499 4294967295
277.79227 -67.632706 0.77957541 4294967295
277.83173 -66.705635 1.1643429 4294967295
277.8454 -66.170921 0.63451391 4294967295
278.11288 -72.044502 1.3311291 4294967295
278.13046 -71.555145 1.2662868 4294967295
278.14468 -71.025902 0.81037331 4294967295
278.16003 -70.510338 0.48546979 4294967295
278.1846 -70.103989 1.2355061 4294967295
278.19931 -69.581268 0.83888429 4294967295
278.22238 -69.156235 1.4102974 4294967295
278.2341 -68.59922 0.66897959 4294967295
278.25363 -68.133156 0.8332004 4294967295
278.27945 -67.738525 1.7170773 4294967295
278.31384 -66.751579 1.5017776 4294967295
278.33237 -66.273048 1.5449467 4294967295
278.6116 -71.589912 1.4839134 4294967295
278.62634 -71.068336 1.1036377 4294967295
278.64203 -70.558113 0.83223718 4294967295
278.65622 -70.03112 0.39327809 4294967295
278.68076 -69.620453 1.1027527 4294967295
278.694 -69.083542 0.56278992 4294967295
278.71808 -68.667786 1.2277222 4294967295
278.7308 -68.12529 0.62809563 4294967295
278.7597 -67.760941 1.8155155 4294967295
278.76715 -67.161301 0.63656813 4294967295
278.78534 -66.679726 0.64504433 4294967295
278.80804 -66.246864 1.1494331 4294967295
279.08878 -71.579895 1.2647972 4294967295
279.11383 -71.172867 2.0048103 4294967295
279.12405 -70.603348 1.1539326 4294967295
279.15625 -69.594627 0.72294039 4294967295
279.1806 -69.179207 1.3890095 4294967295
279.19244 -68.629288 0.71812439 4294967295
279.21118 -68.153259 0.78209502 4294967295
279.23425 -67.722885 1.3058205 4294967295
279.25031 -67.218781 1.0892754 4294967295
279.27084 -66.761215 1.3427086 4294967295
279.28323 -66.219093 0.73776633 4294967295
279.31198 -65.845604 1.8508015 4294967295
279.57602 -71.678009 2.0999432 4294967295
279.59341 -71.18721 2.0230389 4294967295
279.60321 -70.616806 1.1635094 4294967295
279.63953 -69.652313 1.1700115 4294967295
279.65747 -69.16803 1.1531467 4294967295
279.67328 -68.661392 0.91297722 4294967295
279.70023 -68.268661 1.8118591 4294967295
279.75308 -66.804962 1.6577911 4294967295
280.04623 -71.597183 1.1905727 4294967295
280.06287 -71.099747 1.0451298 4294967295
280.08762 -70.683456 1.6956329 4294967295
280.10132 -70.156448 1.259325 4294967295
280.12149 -69.694176 1.4603653 4294967295
280.1434 -69.248802 1.8310738 4294967295
280.17319 -68.219849 1.196907 4294967295
280.20178 -67.838715 2.2166538 4294967295
280.21533 -67.311539 1.7705021 4294967295
280.26544 -65.821983 1.349926 4294967295
280.52887 -71.645126 1.5365543 4294967295
280.54379 -71.131134 1.2302818 4294967295
280.5744 -70.769638 2.4193802 4294967295
280.58472 -70.211418 1.6779003 4294967295
280.60739 -69.772163 2.1083031 4294967295
280.62021 -69.238487 1.6038094 4294967295
280.63461 -68.720085 1.2477093 4294967295
280.65997 -68.305786 1.9313374 4294967295
280.67404 -67.784492 1.5447235 4294967295
280.7522 -65.905388 2.0720577 4294967295
281.00745 -71.652756 1.4895325 4294967295
281.03842 -71.290863 2.671051 4294967295
281.04358 -70.686142 1.4764709 4294967295
281.06659 -70.248726 1.9223957 4294967295
281.08328 -69.752808 1.7925682 4294967295
281.10788 -69.329643 2.3846741 4294967295
281.14066 -68.331253 2.0602989 4294967295
281.16107 -67.869141 2.2688599 4294967295
281.18243 -67.415169 2.5612183 4294967295
281.19882 -66.916206 2.4000168 4294967295
281.21469 -66.413025 2.1946335 4294967295
281.23593 -65.957504 2.4745617 4294967295
281.49829 -71.772888 2.539175 4294967295
281.51395 -71.267548 2.3208637 4294967295
281.52988 -70.764557 2.1239662 4294967295
281.57352 -69.864494 2.7739258 4294967295
281.58096 -69.286293 1.8292198 4294967295
281.60345 -68.841835 2.2111759 4294967295
281.61948 -68.340393 2.0255947 4294967295
281.63889 -67.868324 2.1336327 4294967295
281.66006 -67.412079 2.4023762 4294967295
281.668 -66.840744 1.5072594 4294967295
281.69171 -66.40596 1.9938145 4294967295
281.71692 -65.983902 2.6142521 4294967295
281.966 -71.68264 1.5383301 4294967295
281.98575 -71.213943 1.6744289 4294967295
282.0137 -70.816772 2.5139465 4294967295
282.03836 -69.750412 1.5208244 4294967295
282.05899 -69.289192 1.7333412 4294967295
282.08115 -68.841179 2.0791359 4294967295
282.09555 -68.326294 1.7581825 4294967295
282.11572 -67.860878 1.9320583 4294967295
282.14005 -67.430313 2.4587517 4294967295
282.15738 -66.940086 2.3853989 4294967295
282.17105 -66.420471 2.0125103 4294967295
282.18509 -65.90358 1.6643658 4294967295
282.46317 -71.849762 3.0453835 4294967295
282.46982 -71.269318 2.0940666 4294967295
282.49551 -70.850014 2.717638 4294967295
282.51196 -70.352936 2.5794239 4294967295
282.52505 -69.827568 2.1602497 4294967295
282.54175 -69.332764 2.0414772 4294967295
282.55704 -68.826202 1.8043213 4294967295
282.58234 -68.402802 2.3979836 4294967295
282.59552 -67.879143 1.9887791 4294967295
282.6134 -67.394142 1.9662495 4294967295
282.63828 -66.965866 2.5180721 4294967295
282.67331 -65.989861 2.4155407 4294967295
282.93427 -71.792786 2.3688869 4294967295
282.96198 -71.388817 3.1409073 4294967295
282.97235 -70.841812 2.5144596 4294967295
282.99527 -70.397858 2.8988037 4294967295
283.03113 -69.428062 2.8632183 4294967295
283.05969 -68.400131 2.2451344 4294967295
283.0777 -67.916283 2.235157 4294967295
283.11023 -66.921127 1.9369297 4294967295
283.14832 -65.969643 2.0795555 4294967295
283.42175 -71.871887 3.0182362 4294967295
283.47595 -70.420578 2.9993782 4294967295
283.4917 -69.918182 2.8087234 4294967295
283.50534 -69.400085 2.4606514 4294967295
283.52481 -68.927406 2.5626736 4294967295
283.53995 -68.421227 2.3301716 4294967295
283.55551 -67.918465 2.1302853 4294967295
283.57663 -67.458694 2.3625221 4294967295
283.60422 -67.047607 3.089407 4294967295
283.61597 -66.515747 2.5942631 4294967295
283.63184 -66.015915 2.4220638 4294967295
283.90433 -71.908844 3.256794 4294967295
283.92636 -70.832397 2.1767216 4294967295
283.9534 -70.417778 2.8482533 4294967295
283.96411 -69.877884 2.2861252 4294967295
283.99454 -69.488487 3.2137909 4294967295
284.00079 -68.915306 2.3166313 4294967295
284.02194 -68.455162 2.5437126 4294967295
284.04288 -67.99308 2.753067 4294967295
284.05869 -67.492783 2.5787716 4294967295
284.08435 -67.06572 3.1445732 4294967295
284.08868 -66.480606 2.1080837 4294967295
284.39676 -71.399124 2.8756046 4294967295
284.40781 -70.862976 2.3541927 4294967295
284.4375 -70.466171 3.2017689 4294967295
284.45178 -69.954178 2.9165668 4294967295
284.46106 -69.40567 2.266655 4294967295
284.48108 -68.936783 2.4053631 4294967295
284.50531 -68.49839 2.8501949 4294967295
284.51645 -67.964485 2.3391228 4294967295
284.54562 -67.561745 3.1466923 4294967295
284.55786 -67.035698 2.7123089 4294967295
284.57779 -66.565514 2.8422794 4294967295
284.59631 -66.085327 2.8711948 4294967295
284.87088 -71.990028 3.8048534 4294967295
284.87189 -71.381065 2.5769863 4294967295
284.91617 -70.473122 3.1470146 4294967295
284.93463 -69.992447 3.1711311 4294967295
284.96396 -68.976295 2.6738148 4294967295
284.98718 -68.529449 3.0348396 4294967295
285.00162 -68.020157 2.7715321 4294967295
285.02563 -67.578621 3.1893044 4294967295
285.03833 -67.057297 2.8027782 4294967295
285.06152 -66.609344 3.158884 4294967295
285.07285 -66.079071 2.6778221 4294967295
285.36636 -71.502975 3.6468296 4294967295
285.40451 -70.549393 3.7749538 4294967295
285.43246 -69.523979 3.1918182 4294967295
285.45132 -69.046112 3.2443695 4294967295
285.46045 -68.500473 2.6190205 4294967295
285.48294 -68.047424 2.9186306 4294967295
285.50787 -67.610909 3.3873825 4294967295
285.52859 -67.145363 3.5659904 4294967295
285.54282 -66.635506 3.2957783 4294967295
285.55948 -66.142242 3.1926136 4294967295
285.81906 -71.938591 3.0612526 4294967295
285.83655 -71.451118 3.0180378 4294967295
285.86057 -71.008522 3.4146709 4294967295
285.86816 -70.452873 2.700901 4294967295
285.88995 -69.99498 2.9482098 4294967295
285.91626 -69.56707 3.4950314 4294967295
285.92554 -69.024284 2.9014111 4294967295
285.95926 -68.040558 2.7230186 4294967295
285.98904 -67.635635 3.5091496 4294967295
286.0036 -67.128494 3.2671165 4294967295
286.03302 -66.116997 2.805582 4294967295
286.30612 -72.004417 3.5809021 4294967295
286.32422 -71.520653 3.5755959 4294967295
286.34128 -71.030128 3.5040607 4294967295
286.34711 -70.46434 2.690546 4294967295
286.37659 -70.056992 3.4373188 4294967295
286.40094 -69.614967 3.8456631 4294967295
286.41019 -69.072716 3.2585468 4294967295
286.42258 -68.551872 2.8810825 4294967295
286.45166 -68.140381 3.5985565 4294967295
286.46973 -67.656662 3.5936222 4294967295
286.48587 -67.160393 3.4616356 4294967295
286.78952 -72.043365 3.8388424 4294967295
286.80621 -71.550362 3.7440357 4294967295
286.81512 -71.006683 3.15135 4294967295
286.8302 -70.503113 2.9491863 4294967295
286.85184 -70.043007 3.1750927 4294967295
286.86966 -69.557999 3.1556358 4294967295
286.89304 -69.108612 3.4908657 4294967295
286.90533 -68.587852 3.1148643 4294967295
286.93039 -68.148949 3.5579433 4294967295
286.96835 -67.192879 3.6623268 4294967295
286.98529 -66.702202 3.5867271 4294967295
287.00723 -66.242409 3.8254395 4294967295
287.28885 -71.583656 3.9475746 4294967295
287.30258 -71.072121 3.6707878 4294967295
287.32727 -70.630333 4.0786819 4294967295
287.33005 -70.049454 3.1148853 4294967295
287.35599 -69.615593 3.6025543 4294967295
287.38303 -69.18811 4.157444 4294967295
287.38495 -68.603378 3.1442776 4294967295
287.40582 -68.137245 3.3136845 4294967295
287.42889 -67.684685 3.6212292 4294967295
287.44089 -67.163559 3.2374535 4294967295
287.47449 -66.77504 4.1977863 4294967295
287.47501 -66.184128 3.1015129 4294967295
287.74423 -72.042084 3.5838947 4294967295
287.77481 -71.040077 3.2339497 4294967295
287.79855 -70.59198 3.5777092 4294967295
287.82236 -70.143715 3.9226971 4294967295
287.83875 -69.649429 3.8136005 4294967295
287.87451 -68.679764 3.7819347 4294967295
287.89243 -68.194809 3.7648163 4294967295
287.9115 -67.717178 3.8211975 4294967295
287.92819 -67.225296 3.7340126 4294967295
287.94604 -66.740074 3.7136917 4294967295
287.9689 -66.285042 4.0010529 4294967295
288.25888 -71.677231 4.6178188 4294967295
288.25931 -71.085487 3.5566673 4294967295
288.28452 -70.645309 3.9796085 4294967295
288.31415 -70.231163 4.6629791 4294967295
288.32675 -69.714172 4.331377 4294967295
288.34662 -69.240952 4.433075 4294967295
288.36459 -68.756332 4.4214897 4294967295
288.38599 -67.70108 3.5316048 4294967295
288.41898 -67.305374 4.4159222 4294967295
288.4241 -66.7453 3.6378498 4294967295
288.44952 -66.304855 4.0734749 4294967295
288.46329 -65.795982 3.8120613 4294967295
288.73834 -71.689102 4.6118259 4294967295
288.74393 -71.130226 3.8728771 4294967295
288.76605 -70.670654 4.1058388 4294967295
288.78897 -70.215584 4.3849812 4294967295
288.82141 -69.225571 4.1544533 4294967295
288.83258 -68.701492 3.7472324 4294967295
288.86188 -68.283081 4.3972588 4294967295
288.89539 -67.299919 4.2326069 4294967295
288.91586 -66.829933 4.3685398 4294967295
288.94012 -65.794655 3.6681232 4294967295
289.22137 -71.721428 4.8056927 4294967295
289.26233 -70.192635 4.0343018 4294967295
289.29276 -69.779884 4.7338638 4294967295
289.29688 -69.21579 3.9318314 4294967295
289.32101 -68.766678 4.2728043 4294967295
289.34464 -68.314377 4.5847073 4294967295
289.36719 -67.855499 4.8325882 4294967295
289.37241 -67.299133 4.0964355 4294967295
289.40158 -66.877457 4.7222309 4294967295
289.42496 -66.423027 5.0191174 4294967295
289.43439 -65.890854 4.5224781 4294967295
289.69455 -71.697098 4.4461422 4294967295
289.72229 -70.681717 3.9683094 4294967295
289.75958 -70.306679 5.0370979 4294967295
289.78882 -69.2995 4.6399288 4294967295
289.80096 -68.78228 4.3028679 4294967295
289.82382 -68.325104 4.5655327 4294967295
289.88 -66.88414 4.6611881 4294967295
289.90707 -66.448997 5.1541348 4294967295
290.18558 -71.775085 5.0859413 4294967295
290.20563 -71.301811 5.1875362 4294967295
290.22061 -70.80027 5.0117874 4294967295
290.24588 -69.771957 4.4059811 4294967295
290.26633 -69.30114 4.5309715 4294967295
290.2868 -68.830612 4.6598988 4294967295
290.31519 -67.820457 4.2247829 4294967295
290.31546 -68.404007 5.2305813 4294967295
290.34445 -67.396973 4.8297005 4294967295
290.36224 -66.91127 4.8077698 4294967295
290.37732 -66.411232 4.6395397 4294967295
290.39786 -65.940514 4.7700653 4294967295
290.6597 -71.757034 4.7876968 4294967295
290.6806 -71.288589 4.9353523 4294967295
290.70096 -70.816902 5.0522213 4294967295
290.72937 -69.806854 4.6274281 4294967295
290.74707 -69.320999 4.6034069 4294967295
290.76184 -68.819405 4.4219856 4294967295
290.78146 -68.343681 4.4985809 4294967295
290.7981 -67.85215 4.4165497 4294967295
290.81924 -67.38456 4.5760307 4294967295
290.83615 -66.894653 4.5102539 4294967295
290.85626 -66.421303 4.6125927 4294967295
290.88916 -66.014549 5.3972187 4294967295
291.13858 -71.766205 4.7554588 4294967295
291.1593 -71.296577 4.8910465 4294967295
291.18085 -70.831306 5.070612 4294967295
291.19577 -70.330116 4.8968182 4294967295
291.21497 -69.852043 4.950882 4294967295
291.23343 -69.370285 4.9687309 4294967295
291.25015 -68.87899 4.8913727 4294967295
291.29062 -67.933548 5.1089821 4294967295
291.30453 -67.427818 4.8854313 4294967295
291.33749 -66.443466 4.7089233 4294967295
291.35776 -65.970695 4.8182831 4294967295
291.63373 -71.861992 5.5687618 4294967295
291.64944 -70.786285 4.5044403 4294967295
291.67676 -70.350792 4.977272 4294967295
291.69461 -69.865562 4.960392 4294967295
291.72043 -69.4216 5.3542728 4294967295
291.72379 -68.861687 4.5925961 4294967295
291.75641 -68.45237 5.335537 4294967295
291.81284 -67.010796 5.4314613 4294967295
291.83453 -66.544769 5.6116428 4294967295
291.84845 -66.039742 5.3943672 4294967295
292.11365 -71.298088 4.6608868 4294967295
292.15625 -70.94017 5.8950787 4294967295
292.16757 -70.421112 5.5477238 4294967295
292.19284 -69.973625 5.907135 4294967295
292.19849 -69.426453 5.2772083 4294967295
292.21738 -68.946198 5.3108273 4294967295
292.24255 -67.923042 4.7485199 4294967295
292.24423 -68.506149 5.7480888 4294967295
292.26495 -67.460632 4.9608688 4294967295
292.29382 -67.030228 5.4997444 4294967295
292.31693 -65.997803 4.8350735 4294967295
292.3175 -66.573555 5.7753963 4294967295
292.59732 -71.908539 5.779253 4294967295
292.60281 -71.360664 5.151638 4294967295
292.61581 -70.851013 4.8950462 4294967295
292.64313 -70.413406 5.3477249 4294967295
292.67361 -69.991135 5.9559746 4294967295
292.68051 -69.451065 5.3967323 4294967295
292.69876 -68.968018 5.4028797 4294967295
292.71884 -68.493599 5.4956264 4294967295
292.73209 -67.985703 5.2519703 4294967295
292.76044 -67.55188 5.7551441 4294967295
292.76355 -66.994774 5.0112572 4294967295
292.79446 -66.572937 5.6394634 4294967295
292.8125 -66.088493 5.632431 4294967295
293.07697 -71.346634 4.8916206 4294967295
293.07898 -71.930817 5.8748913 4294967295
293.10114 -70.893181 5.1865139 4294967295
293.11612 -70.393883 5.0310459 4294967295
293.14188 -69.947426 5.3981285 4294967295
293.17346 -69.529106 6.0480423 4294967295
293.18811 -69.028152 5.8776684 4294967295
293.21039 -68.564133 6.0762329 4294967295
293.22208 -68.048828 5.7601318 4294967295
293.24118 -67.569557 5.805582 4294967295
293.26575 -67.116226 6.1147594 4294967295
293.2865 -66.644386 6.2376919 4294967295
293.5705 -71.428619 5.5723782 4294967295
293.58795 -70.941422 5.5378761 4294967295
293.61865 -70.518173 6.1342297 4294967295
293.6344 -70.022614 6.0187931 4294967295
293.64407 -69.498177 5.6150856 4294967295
293.66833 -69.043335 5.9033432 4294967295
293.6929 -68.589661 6.2053986 4294967295
293.73154 -67.632706 6.3156319 4294967295
293.74966 -67.148239 6.3106976 4294967295
293.74969 -66.579941 5.451807 4294967295
293.78531 -66.177025 6.2771721 4294967295
294.03625 -71.946007 5.7795105 4294967295
294.09189 -70.499817 5.8292542 4294967295
294.11017 -70.016541 5.8339291 4294967295
294.12457 -69.515259 5.6598396 4294967295
294.1723 -68.032623 5.3422146 4294967295
294.20407 -67.61171 5.9754314 4294967295
294.2522 -66.131111 5.6773968 4294967295
294.52042 -71.980194 5.9913311 4294967295
294.53522 -71.480446 5.8351021 4294967295
294.56302 -70.473114 5.4418259 4294967295
294.56592 -71.055222 6.4104462 4294967295
294.59897 -69.504051 5.4230843 4294967295
294.59961 -70.074905 6.2877178 4294967295
294.638 -69.116348 6.3804646 4294967295
294.65814 -68.64135 6.4702721 4294967295
294.68277 -68.18692 6.7677898 4294967295
294.69028 -67.654144 6.2760906 4294967295
294.70755 -67.166267 6.2359161 4294967295
294.71204 -66.620796 5.6089363 4294967295
294.7439 -66.198257 6.2338028 4294967295
295.00803 -72.029839 6.3538418 4294967295
295.01624 -71.499733 5.9015465 4294967295
295.04523 -71.065826 6.3915291 4294967295
295.07642 -70.074379 6.1580315 4294967295
295.11102 -69.664871 6.8973846 4294967295
295.11948 -69.136833 6.459013 4294967295
295.14441 -68.683189 6.7629471 4294967295
295.16217 -68.197113 6.742857 4294967295
295.17422 -67.685806 6.4678516 4294967295
295.2085 -66.708511 6.3725948 4294967295
295.23236 -66.249504 6.6275005 4294967295
295.47778 -71.996849 5.9102135 4294967295
295.49985 -71.53093 6.084549 4294967295
295.53192 -71.109879 6.7013359 4294967295
295.53827 -70.572678 6.1768131 4294967295
295.56836 -70.142014 6.7034149 4294967295
295.57593 -69.610695 6.2333488 4294967295
295.59341 -69.123779 6.2027855 4294967295
295.63281 -68.169281 6.3354683 4294967295
295.67526 -66.665207 5.8023014 4294967295
295.68347 -67.263924 6.9686317 4294967295
295.7063 -66.237053 6.3699284 4294967295
295.97559 -71.526344 5.9172535 4294967295
296.00204 -71.079453 6.2791328 4294967295
296.04294 -70.131638 6.476265 4294967295
296.0668 -69.672699 6.7247829 4294967295
296.07596 -69.149124 6.3299866 4294967295
296.086 -68.629913 5.9758511 4294967295
296.11716 -68.202339 6.5407906 4294967295
296.13495 -67.716759 6.524395 4294967295
296.16116 -66.705406 6.0821533 4294967295
296.16803 -67.296677 7.1720123 4294967295
296.19562 -66.290802 6.7890358 4294967295
296.21048 -65.792648 6.6443691 4294967295
296.43979 -72.035446 6.0432205 4294967295
296.47891 -71.643715 6.9439735 4294967295
296.4939 -70.582321 6.0243416 4294967295
296.5018 -71.180115 7.1454296 4294967295
296.51733 -70.121414 6.2504463 4294967295
296.55542 -69.72345 7.1039982 4294967295
296.55841 -69.173981 6.4521427 4294967295
296.58408 -68.160767 5.9953384 4294967295
296.62427 -67.770126 6.9353943 4294967295
296.64624 -67.301926 7.0964336 4294967295
296.65414 -66.774826 6.6592312 4294967295
296.67105 -66.285507 6.6047573 4294967295
296.68719 -65.792839 6.5154152 4294967295
296.95099 -71.622795 6.6167393 4294967295
296.98175 -70.630943 6.3803711 4294967295
297.00793 -70.181229 6.7183723 4294967295
297.02667 -69.699646 6.7422714 4294967295
297.04614 -69.221039 6.79599 4294967295
297.06665 -68.186584 6.1278324 4294967295
297.073 -68.773361 7.1598701 4294967295
297.10089 -67.769653 6.802494 4294967295
297.12659 -67.31678 7.1183167 4294967295
297.14578 -66.836823 7.1608181 4294967295
297.43985 -71.674545 7.0009041 4294967295
297.47272 -71.252678 7.6121292 4294967295
297.48175 -70.729652 7.2302208 4294967295
297.49634 -69.670372 6.3260403 4294967295
297.50958 -70.285919 7.6305962 4294967295
297.5358 -69.274879 7.2073975 4294967295
297.56934 -68.294815 7.089077 4294967295
297.57681 -67.76683 6.6460419 4294967295
297.58792 -67.25412 6.3544617 4294967295
297.62119 -66.831383 6.9759197 4294967295
297.66974 -65.912437 7.4805355 4294967295
297.92596 -71.713676 7.2614861 4294967295
297.94653 -71.239365 7.3580971 4294967295
297.99411 -70.317307 7.8167686 4294967295
298.00021 -69.783073 7.3210964 4294967295
298.009 -69.26046 6.9375725 4294967295
298.03842 -68.26429 6.6548405 4294967295
298.04953 -68.867546 7.8502636 4294967295
298.0611 -67.798416 6.8369789 4294967295
298.08829 -67.350716 7.2047119 4294967295
298.11752 -66.910675 7.6534157 4294967295
298.12753 -66.39373 7.3199234 4294967295
298.13733 -65.876328 6.9792805 4294967295
298.41025 -71.744713 7.4428425 4294967295
298.45111 -70.79451 7.6221466 4294967295
298.46844 -69.748817 6.855545 4294967295
298.47504 -70.333649 7.8540764 4294967295
298.50531 -69.340118 7.6064644 4294967295
298.54648 -68.390694 7.7985802 4294967295
298.55945 -67.885551 7.5886879 4294967295
298.59369 -66.90844 7.5012894 4294967295
298.61563 -66.43898 7.65201 4294967295
298.91974 -71.319366 7.8978157 4294967295
298.94278 -70.296967 7.3664684 4294967295
298.97559 -69.871254 7.9470825 4294967295
299.01382 -68.353729 7.2997494 4294967295
299.02521 -67.842888 7.0300751 4294967295
299.0535 -67.398361 7.4302521 4294967295
299.06238 -66.878113 7.0632095 4294967295
299.08533 -66.412369 7.2500458 4294967295
299.10663 -65.940147 7.3719311 4294967295
299.39703 -71.321213 7.7928848 4294967295
299.4151 -70.836472 7.7884369 4294967295
299.4324 -70.348694 7.753912 4294967295
299.44199 -69.830627 7.4182816 4294967295
299.46713 -69.373505 7.6878338 4294967295
299.48001 -68.868561 7.480629 4294967295
299.50485 -68.410034 7.7384701 4294967295
299.51028 -67.876656 7.2429771 4294967295
299.54672 -66.908714 7.2451801 4294967295
299.56299 -66.417328 7.1705971 4294967295
299.58118 -65.933205 7.1698494 4294967295
299.89392 -70.844978 7.7485714 4294967295
299.9165 -69.822937 7.2166862 4294967295
299.91867 -70.38623 8.0009975 4294967295
299.98169 -68.965332 8.3230495 4294967295
299.98471 -68.422867 7.7401447 4294967295
299.99088 -67.892807 7.2780342 4294967295
300.04028 -67.526825 8.4743824 4294967295
300.05005 -66.457809 7.4538994 4294967295
300.05096 -67.013916 8.1858234 4294967295
300.08859 -66.049606 8.2323971 4294967295
300.34146 -71.84185 7.9036007 4294967295
300.37521 -71.417686 8.4941559 4294967295
300.38416 -70.89753 8.1429596 4294967295
300.39175 -70.372559 7.7413559 4294967295
300.41776 -69.364738 7.3487377 4294967295
300.42343 -69.939758 8.2521553 4294967295
300.45023 -68.934425 7.8871517 4294967295
300.49142 -68.536621 8.7562866 4294967295
300.50778 -67.492691 7.9999104 4294967295
300.5412 -67.064751 8.5734558 4294967295
300.5412 -66.512917 7.8864899 4294967295
300.55167 -66.000298 7.5960655 4294967295
300.82593 -71.872169 8.0777245 4294967295
300.83542 -71.354599 7.751545 4294967295
300.86163 -70.90081 8.0513287 4294967295
300.88895 -70.450768 8.390686 4294967295
300.922 -70.022026 8.9441643 4294967295
300.9325 -69.508667 8.6581612 4294967295
300.95358 -68.482613 8.0862865 4294967295
301.01315 -66.496986 7.5936642 4294967295
301.05109 -66.084312 8.3263779 4294967295
301.30832 -71.894119 8.1700134 4294967295
301.3241 -71.400734 8.0814896 4294967295
301.35413 -70.408211 7.8451519 4294967295
301.38892 -69.985466 8.4559727 4294967295
301.42191 -69.555656 9.000967 4294967295
301.43051 -69.035713 8.6478958 4294967295
301.43265 -68.492371 8.0571442 4294967295
301.44437 -67.984451 7.8189697 4294967295
301.47394 -67.54142 8.236124 4294967295
301.50171 -67.09156 8.5872059 4294967295
301.52167 -66.063736 7.9847355 4294967295
301.53482 -66.660477 9.1326904 4294967295
301.81519 -72.007072 9.1523876 4294967295
301.84668 -71.019485 8.973608 4294967295
301.86639 -70.540306 9.0275993 4294967295
301.87271 -70.0121 8.5952415 4294967295
301.89322 -69.535873 8.6778297 4294967295
301.8974 -69.000717 8.171257 4294967295
301.9516 -68.095932 8.8156281 4294967295
301.97406 -67.626465 8.9687366 4294967295
301.97485 -67.079758 8.3379002 4294967295
301.99774 -66.612106 8.5088749 4294967295
302.01852 -66.136658 8.6012039 4294967295
302.29294 -71.459534 8.4126415 4294967295
302.29306 -72.010941 9.0678005 4294967295
302.32538 -70.47628 8.2698593 4294967295
302.33771 -71.07164 9.3636646 4294967295
302.36841 -70.08136 9.1578808 4294967295
302.37045 -69.538673 8.5799046 4294967295
302.42914 -68.648804 9.3743458 4294967295
302.45822 -67.653366 9.1123447 4294967295
302.48083 -66.63575 8.6199188 4294967295
302.77835 -72.042274 9.2518482 4294967295
302.79092 -71.537254 9.052475 4294967295
302.80557 -71.039703 8.9252319 4294967295
302.82809 -70.570587 9.0782261 4294967295
302.85434 -69.565338 8.7199211 4294967295
302.8551 -70.117218 9.3887882 4294967295
302.89182 -69.148743 9.3994961 4294967295
302.91272 -68.673347 9.4936829 4294967295
302.92175 -67.60836 8.5281658 4294967295
302.96689 -67.217194 9.4761448 4294967295
302.96759 -66.67202 8.8600502 4294967295
302.99902 -66.232834 9.3250961 4294967295
303.2663 -71.533157 8.8892002 4294967295
303.30243 -71.112022 9.5139408 4294967295
303.32709 -70.101028 9.102972 4294967295
303.38715 -68.118401 8.6584473 4294967295
303.38785 -68.668221 9.3148956 4294967295
303.40311 -67.626205 8.5802689 4294967295
303.43756 -67.197403 9.1456985 4294967295
303.4534 -66.704567 9.0622158 4294967295
303.50275 -65.779007 9.5114899 4294967295
303.78128 -71.668427 10.09371 4294967295
303.78778 -70.594299 9.0638618 4294967295
303.79095 -71.153427 9.7981434 4294967295
303.80991 -70.123215 9.1981335 4294967295
303.84561 -69.698906 9.7994671 4294967295
303.86401 -68.667496 9.1804695 4294967295
303.90094 -67.699844 9.1969719 4294967295
303.91092 -68.280403 10.164045 4294967295
303.92572 -67.237366 9.4223595 4294967295
303.94287 -66.748886 9.3842545 4294967295
303.97015 -66.294647 9.6965656 4294967295
303.98834 -65.809723 9.6958179 4294967295
304.24265 -71.615059 9.4468384 4294967295
304.24597 -71.079178 8.9429951 4294967295
304.26849 -70.609497 9.0899658 4294967295
304.30832 -70.198624 9.8215466 4294967295
304.3848 -68.271202 9.9432125 4294967295
304.39395 -67.755913 9.6360416 4294967295
304.39493 -67.213646 9.0520496 4294967295
304.44257 -66.826561 10.046637 4294967295
304.76367 -71.220192 10.208145 4294967295
304.77304 -70.705246 9.9121819 4294967295
304.79568 -70.23526 10.06015 4294967295
304.80811 -69.730789 9.865551 4294967295
304.82129 -69.229149 9.697834 4294967295
304.86456 -68.827591 10.533768 4294967295
304.87338 -68.311295 10.219557 4294967295
304.88443 -67.802605 9.979826 4294967295
304.88953 -67.274651 9.5425434 4294967295
304.92151 -66.834869 10.001263 4294967295
304.95276 -65.848152 9.8277416 4294967295
304.95285 -66.392738 10.439503 4294967295
305.2218 -71.704292 10.076208 4294967295
305.25424 -71.267097 10.54641 4294967295
305.26379 -70.207253 9.6570148 4294967295
305.28214 -69.722862 9.6608315 4294967295
305.29721 -69.227722 9.5569878 4294967295
305.34338 -68.834999 10.480877 4294967295
305.35797 -67.793541 9.7594471 4294967295
305.36237 -68.352158 10.503441 4294967295
305.39893 -67.382462 10.508595 4294967295
305.41748 -66.898445 10.519682 4294967295
305.42032 -66.363724 10.011482 4294967295
305.45184 -65.921448 10.449867 4294967295
305.71967 -71.775513 10.651875 4294967295
305.73718 -71.287979 10.628193 4294967295
305.75201 -70.791634 10.517311 4294967295
305.77454 -70.32058 10.656532 4294967295
305.78876 -69.822327 10.525925 4294967295
305.7915 -69.286713 10.020533 4294967295
305.81613 -68.822632 10.229435 4294967295
305.84045 -68.357475 10.429085 4294967295
305.87155 -67.913704 10.846775 4294967295
305.88306 -66.8638 10.036146 4294967295
305.89182 -67.435104 10.913975 4294967295
305.9166 -65.884857 9.942028 4294967295
305.93121 -66.473892 11.008791 4294967295
306.21045 -71.277092 10.397326 4294967295
306.24466 -70.299721 10.324421 4294967295
306.28622 -69.890251 11.076597 4294967295
306.29095 -69.361481 10.641727 4294967295
306.29584 -68.833687 10.21327 4294967295
306.34274 -67.896957 10.548582 4294967295
306.35431 -67.390923 10.335829 4294967295
306.39862 -66.988007 11.172735 4294967295
306.4212 -65.973892 10.725769 4294967295
306.71335 -70.818802 10.537052 4294967295
306.71429 -70.278252 9.986351 4294967295
306.73666 -69.806641 10.117939 4294967295
306.75351 -69.31752 10.075748 4294967295
306.81387 -68.966103 11.415155 4294967295
306.82016 -68.442955 11.034781 4294967295
306.85828 -66.935593 10.508114 4294967295
306.86105 -67.486237 11.174503 4294967295
306.90332 -65.992065 10.78091 4294967295
306.9093 -66.552094 11.547571 4294967295
307.15707 -71.800995 10.532631 4294967295
307.17044 -71.300415 10.379557 4294967295
307.20465 -70.866364 10.88265 4294967295
307.21292 -70.349701 10.570093 4294967295
307.22055 -69.831146 10.236448 4294967295
307.23798 -69.343704 10.211037 4294967295
307.28351 -68.944221 11.068361 4294967295
307.30963 -68.483635 11.316637 4294967295
307.31711 -67.964905 10.978674 4294967295
307.35608 -67.543671 11.628302 4294967295
307.37967 -67.074707 11.7964 4294967295
307.38147 -66.53891 11.281693 4294967295
307.41583 -66.102646 11.785896 4294967295
307.67728 -71.940277 11.775455 4294967295
307.68182 -71.411438 11.348671 4294967295
307.70117 -70.929573 11.382952 4294967295
307.71133 -69.876801 10.565271 4294967295
307.7128 -70.423492 11.176956 4294967295
307.72885 -69.389702 10.544416 4294967295
307.74783 -68.906967 10.567228 4294967295
307.79489 -68.510757 11.461967 4294967295
307.80347 -67.99575 11.162104 4294967295
307.82358 -67.516235 11.22031 4294967295
307.83859 -67.021149 11.12039 4294967295
307.86514 -66.561089 11.377928 4294967295
307.89905 -66.12291 11.862421 4294967295
308.1391 -71.893616 11.194883 4294967295
308.1459 -71.37265 10.843201 4294967295
308.16794 -70.899506 10.961359 4294967295
308.18811 -70.42028 11.020067 4294967295
308.23682 -70.029045 11.955427 4294967295
308.25131 -69.531998 11.840208 4294967295
308.27948 -68.535683 11.58522 4294967295
308.28552 -68.013245 11.210472 4294967295
308.3197 -67.576118 11.698933 4294967295
308.35934 -66.074898 11.237572 4294967295
308.60483 -71.860649 10.748716 4294967295
308.63712 -71.41893 11.175026 4294967295
308.69067 -70.500862 11.694214 4294967295
308.7178 -70.042435 11.962875 4294967295
308.72574 -69.525558 11.649422 4294967295
308.74481 -68.502411 11.122049 4294967295
308.75787 -68.001801 10.966118 4294967295
308.77377 -67.509727 10.89567 4294967295
308.81781 -67.101227 11.676504 4294967295
308.81958 -66.567116 11.178013 4294967295
308.83057 -66.060577 10.958923 4294967295
309.11374 -71.961075 11.610136 4294967295
309.12906 -71.466682 11.521189 4294967295
309.18185 -70.54538 12.010546 4294967295
309.1911 -70.032806 11.741234 4294967295
309.2012 -69.523026 11.497711 4294967295
309.2699 -68.108398 11.915384 4294967295
309.32242 -66.107086 11.305199 4294967295
309.63672 -71.020851 11.78693 4294967295
309.64767 -70.513756 11.571888 4294967295
309.66022 -70.011497 11.403355 4294967295
309.7066 -69.070168 11.696091 4294967295
309.73666 -68.619514 12.045708 4294967295
309.73746 -68.082848 11.528416 4294967295
310.17853 -69.596436 11.978271 4294967295
310.1965 -68.571762 11.436897 4294967295
310.2196 -68.100624 11.579628 4294967295
310.65402 -69.59449 11.832348 4294967295
310.746 -67.16967 11.853643 4294967295
310.76755 -66.693703 11.950111 4294967295
256.95801 -60.254967 -4.9382095 4294967295
256.97836 -59.749302 -5.1998539 4294967295
257.02695 -58.366558 -4.5436401 4294967295
257.04706 -57.863499 -4.779747 4294967295
257.08649 -56.865711 -5.1663876 4294967295
257.10806 -56.347179 -5.5785561 4294967295
257.12607 -55.866489 -5.5756245 4294967295
257.13943 -55.435722 -5.0177364 4294967295
257.19925 -53.933399 -5.6797657 4294967295
257.20999 -53.529633 -4.8069611 4294967295
257.23035 -53.024193 -5.0816174 4294967295
257.23492 -65.595398 -4.5868988 4294967295
257.25381 -65.105003 -4.6797276 4294967295
257.25415 -52.483124 -5.7654915 4294967295
257.27017 -64.643547 -4.4760418 4294967295
257.2822 -51.605293 -4.7987728 4294967295
257.29422 -64.092392 -5.1955585 4294967295
257.30902 -63.649422 -4.8009453 4294967295
257.32062 -50.619419 -5.0699959 4294967295
257.33267 -63.103878 -5.4692516 4294967295
257.33295 -50.197205 -4.3818531 4294967295
257.34689 -62.667145 -5.0076008 4294967295
257.36343 -62.203697 -4.8219624 4294967295
257.37433 -49.181114 -5.0090065 4294967295
257.39331 -48.690331 -5.1224632 4294967295
257.40417 -61.188404 -5.3799038 4294967295
257.41779 -60.758537 -4.8374596 4294967295
257.43161 -60.325798 -4.3210468 4294967295
257.45486 -59.785469 -4.9510498 4294967295
257.47098 -59.326679 -4.7105312 4294967295
257.48477 -58.893826 -4.1882248 4294967295
257.50546 -58.383301 -4.5027981 4294967295
257.52747 -57.857315 -4.9881649 4294967295
257.54166 -57.419975 -4.5094471 4294967295
257.56729 -56.853344 -5.4449291 4294967295
257.58725 -56.351086 -5.6793308 4294967295
257.60132 -55.915134 -5.1818256 4294967295
257.61395 -55.494377 -4.5113297 4294967295
257.63953 -54.929955 -5.4385796 4294967295
257.65994 -54.423248 -5.7267551 4294967295
257.67169 -54.011703 -4.9459991 4294967295
257.68707 -53.560825 -4.6033192 4294967295
257.71158 -53.00824 -5.4128304 4294967295
257.71381 -65.606865 -4.5989819 4294967295
257.73373 -65.102524 -4.8344994 4294967295
257.73929 -52.138443 -4.3558216 4294967295
257.75223 -64.616608 -4.882885 4294967295
257.76636 -64.183449 -4.3879375 4294967295
257.76846 -51.536003 -5.749155 4294967295
257.78217 -51.102547 -5.2006989 4294967295
257.80618 -63.175911 -4.8531971 4294967295
257.81784 -50.145775 -5.1377296 4294967295
257.82465 -62.689884 -4.9035473 4294967295
257.83572 -49.666492 -5.1162529 4294967295
257.84332 -62.201996 -4.9739094 4294967295
257.85629 -49.158585 -5.4318047 4294967295
257.87811 -61.256084 -4.8006763 4294967295
257.89856 -60.745998 -5.1069164 4294967295
257.91043 -60.339497 -4.3123703 4294967295
257.93234 -59.812248 -4.8025475 4294967295
257.94574 -59.387028 -4.2012634 4294967295
257.9631 -58.913826 -4.1122513 4294967295
257.98526 -58.383633 -4.639637 4294967295
258.00192 -57.919422 -4.4538651 4294967295
258.01886 -57.451599 -4.30616 4294967295
258.03647 -56.975582 -4.2468662 4294967295
258.05771 -56.457077 -4.6552639 4294967295
258.0741 -55.995628 -4.4358521 4294967295
258.09921 -55.431801 -5.3522186 4294967295
258.11783 -54.944557 -5.4218464 4294967295
258.13254 -54.502457 -4.9858437 4294967295
258.15219 -54.002773 -5.1945877 4294967295
258.17093 -53.514412 -5.2771053 4294967295
258.18924 -53.030136 -5.3138351 4294967295
258.1944 -65.594742 -4.8511353 4294967295
258.2066 -52.557716 -5.2157307 4294967295
258.21262 -65.112373 -4.8634224 4294967295
258.22882 -64.655212 -4.6168633 4294967295
258.24091 -51.616188 -4.9786491 4294967295
258.24652 -64.178413 -4.5708237 4294967295
258.25641 -51.164551 -4.63731 4294967295
258.26105 -63.742527 -4.1010284 4294967295
258.27722 -50.652016 -5.0002747 4294967295
258.29242 -50.203609 -4.6181736 4294967295
258.30151 -62.725323 -4.6671162 4294967295
258.32324 -62.197502 -5.1548595 4294967295
258.32944 -49.231216 -4.7336102 4294967295
258.33795 -61.758781 -4.7095032 4294967295
258.35913 -61.238354 -5.1235676 4294967295
258.39102 -60.329838 -4.552475 4294967295
258.41162 -59.816277 -4.8975296 4294967295
258.42871 -59.347595 -4.7634506 4294967295
258.44183 -58.928604 -4.0925217 4294967295
258.46182 -58.423302 -4.3505154 4294967295
258.50085 -57.424793 -4.7410126 4294967295
258.53711 -56.460968 -4.7561359 4294967295
258.55927 -55.929413 -5.3130054 4294967295
258.57419 -55.487576 -4.87784 4294967295
258.595 -54.972572 -5.255434 4294967295
258.61096 -54.516891 -4.971426 4294967295
258.63016 -54.022224 -5.1236973 4294967295
258.64749 -53.549667 -5.027317 4294967295
258.67111 -65.632927 -4.5911217 4294967295
258.68274 -52.598499 -4.901226 4294967295
258.68805 -65.167511 -4.4292793 4294967295
258.70859 -64.652908 -4.7709122 4294967295
258.71945 -51.629967 -4.9727039 4294967295
258.72153 -64.240921 -4.0577106 4294967295
258.7355 -51.172688 -4.6968002 4294967295
258.75638 -50.658096 -5.0840931 4294967295
258.76807 -50.253658 -4.1896877 4294967295
258.78287 -62.701141 -5.0525265 4294967295
258.79019 -49.724148 -4.7531853 4294967295
258.79767 -62.263905 -4.5933914 4294967295
258.81393 -61.807243 -4.3347893 4294967295
258.82935 -48.725342 -5.1833439 4294967295
258.83124 -61.335915 -4.2288246 4294967295
258.85165 -60.823391 -4.5589104 4294967295
258.88705 -59.870682 -4.4536953 4294967295
258.90598 -59.378422 -4.5712204 4294967295
258.92844 -58.839066 -5.1974945 4294967295
258.9581 -57.962414 -4.2689152 4294967295
258.98297 -57.391216 -5.249588 4294967295
258.99573 -56.980274 -4.4812508 4294967295
259.01868 -56.435398 -5.1814556 4294967295
259.05273 -55.500175 -4.8833141 4294967295
259.08765 -54.554199 -4.7003651 4294967295
259.10577 -54.071831 -4.7132664 4294967295
259.14023 -53.131596 -4.4613037 4294967295
259.14789 -65.672493 -4.317215 4294967295
259.15784 -52.656528 -4.3900909 4294967295
259.16812 -65.160309 -4.6324596 4294967295
259.17902 -52.135208 -4.8480091 4294967295
259.18677 -64.6707 -4.7184334 4294967295
259.19772 -51.646088 -4.9396267 4294967295
259.19998 -64.259094 -4.0015125 4294967295
259.21268 -51.204483 -4.4827061 4294967295
259.22388 -63.694683 -4.8595467 4294967295
259.24088 -63.228821 -4.7010155 4294967295
259.25342 -50.183582 -5.1627769 4294967295
259.25421 -62.815224 -3.9960098 4294967295
259.26929 -49.730614 -4.8338108 4294967295
259.2739 -62.311165 -4.2324162 4294967295
259.2832 -49.302189 -4.2127075 4294967295
259.28967 -61.861828 -3.8955803 4294967295
259.30716 -61.389015 -3.8037281 4294967295
259.30832 -48.731922 -5.2637424 4294967295
259.33148 -60.819668 -4.7347088 4294967295
259.34604 -60.38797 -4.2077713 4294967295
259.36313 -59.92009 -4.0633602 4294967295
259.38138 -59.436218 -4.089407 4294967295
259.40421 -58.888897 -4.7997036 4294967295
259.43692 -57.974564 -4.2780533 4294967295
259.45981 -57.42572 -5.0148849 4294967295
259.47516 -56.983101 -4.5930595 4294967295
259.49677 -56.45237 -5.138195 4294967295
259.51193 -56.011391 -4.6952534 4294967295
259.52719 -55.569115 -4.2628708 4294967295
259.54947 -55.029938 -4.9077206 4294967295
259.56625 -54.566387 -4.7109985 4294967295
259.58224 -54.114128 -4.3853321 4294967295
259.59872 -53.654751 -4.1372795 4294967295
259.6192 -53.140778 -4.5069237 4294967295
259.62466 -65.714569 -4.0174942 4294967295
259.63925 -52.632172 -4.8186092 4294967295
259.64676 -65.171722 -4.6450577 4294967295
259.66974 -51.74704 -3.9303932 4294967295
259.69113 -51.220959 -4.4458065 4294967295
259.71097 -50.715687 -4.7242107 4294967295
259.724 -50.302368 -3.9323826 4294967295
259.7381 -62.751366 -4.7951736 4294967295
259.74304 -49.808273 -4.0800018 4294967295
259.75266 -62.322617 -4.2465973 4294967295
259.76669 -49.25214 -4.9592762 4294967295
259.77087 -61.839699 -4.2630615 4294967295
259.78076 -48.824619 -4.3256187 4294967295
259.80634 -60.887733 -4.1493568 4294967295
259.82819 -60.349724 -4.7519894 4294967295
259.83966 -59.966984 -3.7000179 4294967295
259.86115 -59.435158 -4.2395229 4294967295
259.87775 -58.975147 -4.0095139 4294967295
259.9014 -58.411415 -4.9001312 4294967295
259.91656 -57.973362 -4.4322376 4294967295
259.93747 -57.450226 -4.8892155 4294967295
259.95499 -56.976997 -4.8028946 4294967295
259.9899 -56.032944 -4.6013794 4294967295
260.00854 -55.543823 -4.6891956 4294967295
260.02417 -55.098686 -4.2871284 4294967295
260.04163 -54.626209 -4.187788 4294967295
260.05737 -54.178402 -3.8100376 4294967295
260.07513 -53.702282 -3.7488842 4294967295
260.09988 -53.123703 -4.8504829 4294967295
260.10077 -65.769882 -3.5833969 4294967295
260.11642 -52.664383 -4.6019344 4294967295
260.12292 -65.223129 -4.2493057 4294967295
260.1315 -52.227093 -4.0986748 4294967295
260.14148 -64.733757 -4.3318481 4294967295
260.14883 -51.756577 -3.9732914 4294967295
260.15814 -64.2752 -4.0975266 4294967295
260.16544 -51.296227 -3.7292843 4294967295
260.17923 -63.745346 -4.5987396 4294967295
260.18634 -50.774181 -4.1994019 4294967295
260.20502 -50.284374 -4.2977829 4294967295
260.21542 -62.782787 -4.6007175 4294967295
260.22031 -49.843491 -3.8237457 4294967295
260.228 -62.38982 -3.677042 4294967295
260.23721 -49.378231 -3.6323032 4294967295
260.24878 -61.864929 -4.1325722 4294967295
260.26004 -48.829231 -4.4293308 4294967295
260.26801 -61.364994 -4.3284683 4294967295
260.28876 -60.841194 -4.7789593 4294967295
260.30588 -60.37582 -4.6114464 4294967295
260.31888 -59.975204 -3.7501621 4294967295
260.34326 -59.392941 -4.8314285 4294967295
260.35916 -58.946629 -4.4563599 4294967295
260.39642 -57.966866 -4.6440353 4294967295
260.41519 -57.474209 -4.7693157 4294967295
260.42987 -57.046879 -4.1794472 4294967295
260.44617 -56.593399 -3.8726711 4294967295
260.46332 -56.12674 -3.7087212 4294967295
260.48376 -55.608471 -4.1165943 4294967295
260.50131 -55.135105 -4.0271931 4294967295
260.51727 -54.686958 -3.6543407 4294967295
260.53931 -54.143559 -4.3500938 4294967295
260.55624 -53.680332 -4.1459827 4294967295
260.60336 -65.203949 -4.5747185 4294967295
260.61295 -52.19812 -4.5821209 4294967295
260.61749 -64.791962 -3.8649521 4294967295
260.62973 -51.736588 -4.3559055 4294967295
260.6347 -64.326004 -3.7052956 4294967295
260.64468 -51.303745 -3.7960033 4294967295
260.65521 -63.801758 -4.1470871 4294967295
260.66251 -50.826286 -3.7489796 4294967295
260.67142 -63.352661 -3.81217 4294967295
260.68246 -50.316139 -4.082674 4294967295
260.69254 -62.819969 -4.3461933 4294967295
260.69894 -49.858978 -3.7987366 4294967295
260.70779 -62.385628 -3.8548069 4294967295
260.73755 -48.859009 -4.2354794 4294967295
260.74307 -61.438873 -3.6842251 4294967295
260.7522 -48.42997 -3.6141739 4294967295
260.76398 -60.908855 -4.1981087 4294967295
260.79776 -59.98661 -3.7661762 4294967295
260.81528 -59.515175 -3.6582203 4294967295
260.83347 -59.032368 -3.6718655 4294967295
260.85251 -58.533672 -3.8575783 4294967295
260.87448 -57.986324 -4.5736198 4294967295
260.8877 -57.587986 -3.6693115 4294967295
260.90567 -57.108162 -3.650528 4294967295
260.92444 -56.614857 -3.7801132 4294967295
260.9826 -55.105499 -4.50354 4294967295
260.99701 -54.68544 -3.8185902 4294967295
261.01758 -54.161812 -4.2926846 4294967295
261.03674 -53.661964 -4.502346 4294967295
261.0535 -53.203472 -4.2444267 4294967295
261.06042 -65.760597 -3.9353676 4294967295
261.07022 -52.744884 -3.9854145 4294967295
261.0817 -65.219933 -4.5407791 4294967295
261.09009 -52.233433 -4.329319 4294967295
261.09473 -64.833092 -3.5731754 4294967295
261.10385 -51.824471 -3.4973469 4294967295
261.11179 -64.370186 -3.3810863 4294967295
261.13031 -63.880764 -3.461792 4294967295
261.14682 -50.7486 -4.8051434 4294967295
261.14999 -63.36961 -3.7687416 4294967295
261.16428 -50.277176 -4.6922817 4294967295
261.16895 -62.872372 -3.9329624 4294967295
261.18887 -62.356663 -4.2921124 4294967295
261.19617 -49.385551 -3.8608112 4294967295
261.20459 -61.918121 -3.8429565 4294967295
261.21786 -48.845024 -4.5590458 4294967295
261.22223 -61.44519 -3.7530537 4294967295
