# .PCD v0.7 - Point Cloud Data file format
VERSION 0.7
FIELDS x y z rgb
SIZE 4 4 4 4
TYPE F F F U
COUNT 1 1 1 1
WIDTH 1127
HEIGHT 1
VIEWPOINT 0 0 0 1 0 0 0
POINTS 1127
DATA ascii
142.40016 9.3141632 -78.739304 4294967295
142.42426 7.9701109 -79.438263 4294967295
142.4268 10.226505 -78.668167 4294967295
142.43539 11.132592 -78.430122 4294967295
142.44124 8.4273386 -79.436806 4294967295
142.44688 -5.2762628 -79.9935 4294967295
142.46875 -5.7142582 -80.35405 4294967295
142.49333 10.701729 -79.125183 4294967295
142.50674 -3.9011545 -80.071426 4294967295
142.55043 -3.4316611 -80.317009 4294967295
142.55438 -2.0827448 -79.877678 4294967295
142.57559 -1.1744931 -79.756645 4294967295
142.59096 -2.5149493 -80.374786 4294967295
142.59894 -0.71456909 -79.814186 4294967295
142.60233 -1.6116121 -80.162827 4294967295
142.62895 0.1977644 -79.774605 4294967295
142.63441 -0.24929669 -79.983894 4294967295
142.64253 1.5528336 -79.423897 4294967295
142.6534 2.0074091 -79.365501 4294967295
142.67268 2.4656043 -79.385292 4294967295
142.69672 1.126555 -80.084526 4294967295
142.70734 3.8305101 -79.229538 4294967295
142.70767 0.68186039 -80.344795 4294967295
142.71805 2.9347367 -79.646774 4294967295
142.72134 5.6381426 -78.723206 4294967295
142.73088 3.390121 -79.606827 4294967295
142.74063 5.1952477 -79.061165 4294967295
142.75012 6.1002607 -78.83075 4294967295
142.754 -7.1607852 -79.214218 4294967295
142.76244 4.3033819 -79.581329 4294967295
142.80351 7.9244766 -78.689323 4294967295
142.81033 -5.7864213 -79.259491 4294967295
142.81367 4.7744164 -79.897568 4294967295
142.8242 -8.0223198 -80.183228 4294967295
142.83876 -5.3236251 -79.364136 4294967295
142.84361 7.0382004 -79.379936 4294967295
142.84381 8.3907509 -78.904068 4294967295
142.84642 9.7452984 -78.450294 4294967295
142.8541 -6.2136436 -79.824608 4294967295
142.85728 9.2980061 -78.710686 4294967295
142.86644 -6.6560612 -80.098 4294967295
142.86874 -7.5515575 -80.437202 4294967295
142.87968 7.502749 -79.555473 4294967295
142.89375 8.8604622 -79.208519 4294967295
142.90678 10.218596 -78.851501 4294967295
142.95099 10.685797 -79.102783 4294967295
142.97748 -4.3590288 -80.333389 4294967295
143.02867 -2.090517 -80.013016 4294967295
143.03273 -0.74083281 -79.572807 4294967295
143.06242 0.17149501 -79.529953 4294967295
143.07904 -2.9648752 -80.798958 4294967295
143.09282 -0.2644482 -79.971848 4294967295
143.0966 -2.5079627 -80.803085 4294967295
143.10909 -1.6045387 -80.600708 4294967295
143.11858 1.9949822 -79.414497 4294967295
143.13025 0.65099102 -80.001106 4294967295
143.13109 1.5505648 -79.690323 4294967295
143.13713 1.1035323 -79.905807 4294967295
143.13756 -1.1426113 -80.706078 4294967295
143.15796 2.461688 -79.621239 4294967295
143.15865 3.8121467 -79.148743 4294967295
143.18039 2.921082 -79.670288 4294967295
143.19002 6.0773735 -78.642387 4294967295
143.21181 3.3841949 -79.802979 4294967295
143.2146 5.6365199 -79.031105 4294967295
143.22052 7.4419556 -78.44693 4294967295
143.22809 4.2909999 -79.635559 4294967295
143.23007 6.5439177 -78.855446 4294967295
143.24959 7.904129 -78.557762 4294967295
143.26471 -7.1495423 -79.686554 4294967295
143.27863 7.0136075 -79.147896 4294967295
143.28606 9.7226772 -78.257912 4294967295
143.28865 8.3700056 -78.761841 4294967295
143.29124 -8.0327396 -80.25267 4294967295
143.29428 -6.2376413 -79.642723 4294967295
143.29703 -5.3387918 -79.348793 4294967295
143.31522 -5.7786484 -79.677803 4294967295
143.35486 -6.6559658 -80.366173 4294967295
143.36095 9.2991171 -79.115829 4294967295
143.37865 -4.8502665 -79.949387 4294967295
143.40329 10.667942 -79.030731 4294967295
143.4706 -4.3572478 -80.646118 4294967295
143.49988 -0.75207281 -79.641243 4294967295
143.52554 -2.536618 -80.519737 4294967295
143.52682 -0.29053399 -79.732666 4294967295
143.54474 -1.6299706 -80.379143 4294967295
143.56412 1.0745869 -79.600807 4294967295
143.60576 1.5423694 -79.829178 4294967295
143.6069 2.4423618 -79.519958 4294967295
143.61943 0.64942312 -80.276802 4294967295
143.62679 5.151855 -78.744408 4294967295
143.62784 3.3511195 -79.39502 4294967295
143.64211 4.7076416 -79.047928 4294967295
143.67636 -7.6366515 -79.39756 4294967295
143.6839 3.8245525 -79.758507 4294967295
143.68492 5.6257987 -79.127197 4294967295
143.69431 4.2788649 -79.695503 4294967295
143.71286 -6.2724543 -79.257935 4294967295
143.72305 8.3452606 -78.521141 4294967295
143.73172 -8.0567188 -80.074799 4294967295
143.7337 6.9967856 -79.102066 4294967295
143.73953 -6.7077546 -79.667336 4294967295
143.75142 -7.1501918 -79.938576 4294967295
143.7668 6.5592456 -79.571907 4294967295
143.76967 -5.7956018 -79.628357 4294967295
143.78403 9.7215195 -78.610008 4294967295
143.78404 -5.339828 -79.602493 4294967295
143.79996 7.9237423 -79.400848 4294967295
143.8029 -4.8818626 -79.618523 4294967295
143.82039 10.186081 -78.789688 4294967295
143.84781 -4.4113302 -79.878105 4294967295
143.85023 -3.5124302 -79.580276 4294967295
143.85757 9.2977467 -79.458511 4294967295
143.8788 -3.0499034 -79.687119 4294967295
143.88235 -3.9459548 -80.040909 4294967295
143.96443 -2.1118264 -80.167412 4294967295
143.97681 -2.5548961 -80.443619 4294967295
143.9856 -0.30553681 -79.72377 4294967295
144.00134 0.1509266 -79.710655 4294967295
144.01974 -1.6373012 -80.524727 4294967295
144.03616 0.61585617 -79.876259 4294967295
144.03665 2.4147749 -79.238365 4294967295
144.0401 -0.73007351 -80.394577 4294967295
144.06133 1.5259256 -79.790787 4294967295
144.08862 3.3367763 -79.403847 4294967295
144.09413 1.0908294 -80.258583 4294967295
144.09966 2.8915386 -79.667915 4294967295
144.10098 1.992722 -80.001671 4294967295
144.12691 4.2528582 -79.441231 4294967295
144.13281 6.0566096 -78.853241 4294967295
144.13474 6.9587698 -78.549347 4294967295
144.13666 3.8068957 -79.693413 4294967295
144.14143 5.1592112 -79.255966 4294967295
144.15617 4.715034 -79.555008 4294967295
144.16911 -7.6340847 -79.706406 4294967295
144.20082 -8.0660267 -80.164391 4294967295
144.20656 5.6358275 -79.70578 4294967295
144.20932 -5.8198814 -79.440262 4294967295
144.21111 7.8900599 -78.943932 4294967295
144.22281 -7.1584826 -80.049171 4294967295
144.22673 8.3468761 -78.929604 4294967295
144.23721 8.8017607 -78.866951 4294967295
144.25053 -4.9021444 -79.505096 4294967295
144.25375 -6.694603 -80.178596 4294967295
144.25665 6.556282 -79.854141 4294967295
144.25768 -5.3473282 -79.733116 4294967295
144.2684 9.7154541 -78.837456 4294967295
144.30519 9.2781897 -79.344101 4294967295
144.33777 -3.9623537 -80.002045 4294967295
144.3533 -4.403451 -80.308868 4294967295
144.36777 -1.7033873 -79.478851 4294967295
144.38544 -2.5932527 -79.966957 4294967295
144.39131 -3.4880056 -80.343834 4294967295
144.3999 -3.0352273 -80.263687 4294967295
144.41418 -1.2327602 -79.753983 4294967295
144.44141 -0.77111912 -79.848564 4294967295
144.47095 -2.1043568 -80.609001 4294967295
144.47189 -0.30806351 -79.973991 4294967295
144.47902 0.1444068 -79.87989 4294967295
144.51964 2.8598738 -79.294418 4294967295
144.52156 2.4108615 -79.473984 4294967295
144.53221 3.7652383 -79.090073 4294967295
144.54645 1.5224333 -80.030441 4294967295
144.56442 1.9797373 -80.038208 4294967295
144.56577 1.0815654 -80.372955 4294967295
144.5759 3.3336658 -79.662422 4294967295
144.59158 -7.2189293 -79.195076 4294967295
144.59492 4.6915841 -79.35743 4294967295
144.60135 6.9464097 -78.610352 4294967295
144.62074 -7.6524439 -79.630859 4294967295
144.62088 6.5034852 -78.955894 4294967295
144.62614 5.1545463 -79.489883 4294967295
144.64087 6.0610147 -79.30558 4294967295
144.64258 -8.0894032 -79.997559 4294967295
144.6438 4.2618303 -79.978828 4294967295
144.64983 -6.2924266 -79.420319 4294967295
144.65614 -6.737721 -79.641434 4294967295
144.66487 5.6204395 -79.693008 4294967295
144.6795 -5.8290133 -79.53846 4294967295
144.72308 7.4447184 -79.59539 4294967295
144.73067 8.3487301 -79.343697 4294967295
144.76164 -4.8912969 -79.989174 4294967295
144.78391 -4.4318733 -80.037384 4294967295
144.82089 -3.0679746 -79.901382 4294967295
144.85719 -3.9478068 -80.566406 4294967295
144.86296 -3.4965458 -80.459305 4294967295
144.89426 -2.5844312 -80.431511 4294967295
144.89745 -0.787292 -79.81517 4294967295
144.911 -1.2301376 -80.104515 4294967295
144.92276 -2.1223445 -80.538483 4294967295
144.94122 1.479331 -79.419449 4294967295
144.94803 0.58336109 -79.807266 4294967295
144.95544 -1.6583872 -80.685272 4294967295
144.96411 0.1413164 -80.120659 4294967295
144.98398 -0.29875901 -80.469742 4294967295
144.98715 2.3986874 -79.529198 4294967295
144.99753 1.0547118 -80.112518 4294967295
145.01654 3.310853 -79.482826 4294967295
145.03117 2.867332 -79.782974 4294967295
145.05266 4.6759386 -79.338203 4294967295
145.05855 1.9801559 -80.364952 4294967295
145.07033 -7.6718626 -79.535889 4294967295
145.07826 -6.3224964 -79.124741 4294967295
145.08136 -7.2179008 -79.478096 4294967295
145.08936 5.1411614 -79.522888 4294967295
145.0941 5.5932474 -79.405838 4294967295
145.09479 7.3953381 -78.763634 4294967295
145.10677 6.94943 -79.039017 4294967295
145.10774 -5.859067 -79.241302 4294967295
145.10793 6.0490804 -79.37426 4294967295
145.13464 -8.0867338 -80.305374 4294967295
145.13873 -6.740365 -79.858276 4294967295
145.14284 8.7663231 -78.731209 4294967295
145.14706 8.3171005 -78.933502 4294967295
145.1546 7.8693237 -79.166992 4294967295
145.18526 -4.9233451 -79.64978 4294967295
145.25679 -4.4396944 -80.164268 4294967295
145.25943 -3.5412362 -79.865067 4294967295
145.28273 -3.0813253 -79.923225 4294967295
145.35213 -2.150898 -80.255569 4294967295
145.3784 -1.6898174 -80.342148 4294967295
145.38275 -1.238961 -80.221085 4294967295
145.40021 0.56544262 -79.737434 4294967295
145.4314 0.13028289 -80.194977 4294967295
145.43141 1.4781194 -79.708176 4294967295
145.45746 1.939054 -79.792557 4294967295
145.46533 2.8416829 -79.542175 4294967295
145.47067 3.7436461 -79.267876 4294967295
145.48622 4.6502705 -79.090096 4294967295
145.49289 1.0560727 -80.452888 4294967295
145.49402 3.3037081 -79.651573 4294967295
145.50969 -7.6966019 -79.343529 4294967295
145.5112 4.2106524 -79.489471 4294967295
145.52705 5.1173019 -79.314621 4294967295
145.528 -6.7904277 -79.192093 4294967295
145.53802 -7.2337036 -79.449783 4294967295
145.54466 6.4753041 -78.993446 4294967295
145.54486 -8.1265192 -79.839706 4294967295
145.54887 6.9274797 -78.870674 4294967295
145.5524 5.5778279 -79.392212 4294967295
145.55373 6.028594 -79.242249 4294967295
145.5612 -5.8765569 -79.181534 4294967295
145.59236 -6.3093424 -79.639946 4294967295
145.61882 7.4056134 -79.371674 4294967295
145.62651 -5.3953443 -79.638596 4294967295
145.63007 7.8604889 -79.315826 4294967295
145.63875 8.3144064 -79.235321 4294967295
145.66402 8.7747288 -79.312416 4294967295
145.75345 -4.8839955 -80.680611 4294967295
145.76224 -1.7397168 -79.624985 4294967295
145.78218 -3.0765741 -80.302948 4294967295
145.78961 -1.2778926 -79.722504 4294967295
145.79024 -3.5211749 -80.541931 4294967295
145.83939 -2.6007199 -80.683395 4294967295
145.85045 -0.35172799 -79.974838 4294967295
145.85265 -0.79971743 -80.15844 4294967295
145.85512 -2.1447554 -80.670158 4294967295
145.85771 0.1006846 -79.880844 4294967295
145.8862 1.4613543 -79.662743 4294967295
145.88861 1.911911 -79.522606 4294967295
145.89868 2.3659215 -79.45546 4294967295
145.90436 3.2678857 -79.183083 4294967295
145.94403 0.58878952 -80.538513 4294967295
145.97459 -6.81145 -79.066872 4294967295
145.99265 2.8562241 -80.186234 4294967295
145.9973 6.457521 -78.924911 4294967295
145.99747 6.0072398 -79.089935 4294967295
146.00813 7.3628993 -78.701225 4294967295
146.01622 3.7653213 -80.084351 4294967295
146.01834 -7.685431 -79.80983 4294967295
146.02924 6.9207425 -79.065773 4294967295
146.04735 -6.3259749 -79.596336 4294967295
146.05081 4.6791849 -80.087387 4294967295
146.05389 -8.1148539 -80.311241 4294967295
146.06651 8.2870502 -78.930618 4294967295
146.11008 -4.052052 -79.377373 4294967295
146.12294 -5.3912425 -79.989792 4294967295
146.12953 7.8611031 -79.694542 4294967295
146.1306 -4.4906073 -79.736229 4294967295
146.14223 -4.9332957 -80.010307 4294967295
146.1881 -5.8066339 -80.773544 4294967295
146.21194 -2.2077844 -79.694565 4294967295
146.22331 -2.6511457 -79.966339 4294967295
146.23021 -1.3012717 -79.541924 4294967295
146.28502 -0.37772131 -79.737671 4294967295
146.28741 0.072538897 -79.597046 4294967295
146.31033 -1.7125304 -80.46946 4294967295
146.32468 -0.80837733 -80.279526 4294967295
146.36986 0.55911303 -80.220261 4294967295
146.37056 1.9071097 -79.736214 4294967295
146.38188 2.3615479 -79.680595 4294967295
146.3914 1.0178761 -80.262283 4294967295
146.40764 5.0715556 -78.943817 4294967295
146.41603 1.4779849 -80.333809 4294967295
146.44107 6.8866568 -78.607437 4294967295
146.4545 5.9912682 -79.063927 4294967295
146.45699 2.8436856 -80.233978 4294967295
146.47394 4.1994796 -79.904877 4294967295
146.47733 7.8022838 -78.626137 4294967295
146.48108 -6.3534365 -79.349678 4294967295
146.48218 6.452774 -79.164597 4294967295
146.48686 3.7553883 -80.192078 4294967295
146.4948 7.358593 -78.957291 4294967295
146.50136 -6.7913327 -79.707329 4294967295
146.54185 -8.1140118 -80.58548 4294967295
146.64632 -4.4771514 -80.274094 4294967295
146.64941 -5.819798 -80.795212 4294967295
146.66615 -4.0190754 -80.299965 4294967295
146.67812 -5.3574495 -80.905724 4294967295
146.70035 -2.2084887 -79.971451 4294967295
146.71742 -3.5456882 -80.626762 4294967295
146.71906 -1.3020582 -79.822319 4294967295
146.72055 -3.0958664 -80.492569 4294967295
146.7339 -0.84619761 -79.800461 4294967295
146.73416 -1.7437322 -80.131149 4294967295
146.76337 0.96393061 -79.425926 4294967295
146.77617 -0.3776674 -80.041039 4294967295
146.78209 0.074037999 -79.93367 4294967295
146.83696 0.54805517 -80.29509 4294967295
146.84296 4.1463709 -79.038391 4294967295
146.85736 2.8033404 -79.669655 4294967295
146.87526 4.6099777 -79.183632 4294967295
146.87761 1.9135165 -80.19223 4294967295
146.87779 3.2617464 -79.701111 4294967295
146.88507 3.7145023 -79.606621 4294967295
146.8887 2.3676476 -80.134293 4294967295
146.90775 6.4240551 -78.837158 4294967295
146.91232 5.5254774 -79.210106 4294967295
146.92772 5.0818782 -79.522331 4294967295
146.938 -8.1613731 -79.981934 4294967295
146.95654 6.8940892 -79.140877 4294967295
146.96967 7.3496799 -79.102135 4294967295
146.98288 6.0045204 -79.72271 4294967295
146.98511 -6.3450022 -79.776077 4294967295
147.07944 -5.8488369 -80.517036 4294967295
147.11087 -2.2463212 -79.502434 4294967295
147.13182 -4.0302858 -80.362053 4294967295
147.13535 -2.6832938 -79.90213 4294967295
147.13972 -3.1296992 -80.109077 4294967295
147.14389 -4.4724679 -80.642365 4294967295
147.16518 -3.5656409 -80.517998 4294967295
147.1861 0.0340252 -79.401749 4294967295
147.20113 -0.85708863 -79.875641 4294967295
147.20618 -1.3035257 -80.088905 4294967295
147.22577 -1.7428863 -80.441841 4294967295
147.22615 0.95076799 -79.457123 4294967295
147.2345 0.50533199 -79.702087 4294967295
147.28943 2.7766609 -79.406242 4294967295
147.30437 1.4352136 -80.044571 4294967295
147.30646 4.5831637 -78.90976 4294967295
147.33929 3.2479162 -79.721024 4294967295
147.34494 1.902452 -80.269974 4294967295
147.35324 3.7034936 -79.690422 4294967295
147.35963 2.35811 -80.246414 4294967295
147.37129 4.1608377 -79.699051 4294967295
147.37613 -6.8427114 -79.28286 4294967295
147.38884 5.517653 -79.372826 4294967295
147.40131 7.3235645 -78.83226 4294967295
147.41908 -6.372344 -79.531471 4294967295
147.44011 6.4387398 -79.536293 4294967295
147.4424 5.9897099 -79.723564 4294967295
147.51817 -5.8735352 -80.32093 4294967295
147.52994 -4.5232525 -79.939072 4294967295
147.53778 -3.6225696 -79.684258 4294967295
147.58223 -4.0490007 -80.277924 4294967295
147.60368 -5.3822098 -80.979813 4294967295
147.62234 -2.2358322 -80.003922 4294967295
147.65384 -1.3235157 -79.977196 4294967295
147.66748 -3.1107209 -80.769562 4294967295
147.67084 -1.7640791 -80.306335 4294967295
147.68445 -0.41157719 -79.941849 4294967295
147.70847 0.49740979 -79.842865 4294967295
147.76395 0.97169352 -80.212936 4294967295
147.77693 4.5729456 -79.013931 4294967295
147.78641 1.8798862 -80.098999 4294967295
147.79031 4.1287971 -79.308945 4294967295
147.80862 1.4408364 -80.479034 4294967295
147.81282 2.7899923 -80.023094 4294967295
147.81734 2.3427687 -80.232109 4294967295
147.83856 3.6999316 -79.94075 4294967295
147.84061 -7.3024931 -79.496628 4294967295
147.85519 6.4057269 -79.107445 4294967295
147.86745 -6.8404784 -79.590149 4294967295
147.8678 5.0611329 -79.726372 4294967295
147.87347 5.963172 -79.449829 4294967295
147.90515 6.8761873 -79.424553 4294967295
147.94221 -6.3537803 -80.1474 4294967295
147.9613 -5.8960462 -80.166229 4294967295
148.03546 -3.1697004 -79.88929 4294967295
148.05304 -5.4013762 -80.88781 4294967295
148.05856 -3.6066778 -80.278687 4294967295
148.06187 -2.7083578 -79.978928 4294967295
148.06491 -1.3609195 -79.510452 4294967295
148.07713 -0.90624863 -79.462837 4294967295
148.10605 -4.4790907 -81.069397 4294967295
148.10954 -4.0295019 -80.937485 4294967295
148.11336 -2.2349963 -80.311356 4294967295
148.17708 -1.7560194 -80.762695 4294967295
148.22064 1.4049292 -80.023117 4294967295
148.23033 0.96037871 -80.283043 4294967295
148.24551 3.662528 -79.433548 4294967295
148.25043 0.52080679 -80.643784 4294967295
148.2675 5.0211501 -79.147636 4294967295
148.2711 1.8766661 -80.346207 4294967295
148.27391 4.5740538 -79.376343 4294967295
148.2894 -8.2180939 -79.72596 4294967295
148.29738 3.2356606 -80.102554 4294967295
148.30133 2.7882051 -80.307091 4294967295
148.30646 2.3414283 -80.522797 4294967295
148.31519 4.142107 -79.942955 4294967295
148.32004 -7.7540655 -79.857018 4294967295
148.3335 5.4987268 -79.621941 4294967295
148.36577 6.4117975 -79.602371 4294967295
148.37029 -7.2798271 -80.178291 4294967295
148.40982 -6.8114376 -80.395592 4294967295
148.42494 -5.0120244 -79.877304 4294967295
148.44823 -6.3437939 -80.602211 4294967295
148.47318 -5.8832417 -80.678116 4294967295
148.48746 -5.4281816 -80.650665 4294967295
148.52049 -3.6196916 -80.306183 4294967295
148.53738 -3.1631575 -80.303757 4294967295
148.55646 -4.0498314 -80.8218 4294967295
148.55884 -4.4964724 -81.011169 4294967295
148.57597 -2.6960189 -80.512421 4294967295
148.60846 -1.3353159 -80.328773 4294967295
148.60887 -0.88657618 -80.166252 4294967295
148.61069 -2.230932 -80.683327 4294967295
148.61099 0.4607954 -79.686829 4294967295
148.61453 -0.4352622 -80.054504 4294967295
148.629 1.8164535 -79.361786 4294967295
148.65175 3.1749535 -79.082535 4294967295
148.67097 0.93731689 -80.103691 4294967295
148.67097 1.3862691 -79.936913 4294967295
148.67747 4.0855393 -78.999207 4294967295
148.69662 4.9934525 -78.851501 4294967295
148.70534 2.7491336 -79.771111 4294967295
148.72685 2.3095231 -80.147285 4294967295
148.74487 -8.2343502 -79.688942 4294967295
148.7628 3.6729541 -79.996788 4294967295
148.77988 4.5791602 -79.829407 4294967295
148.83612 5.9517064 -79.876526 4294967295
148.84543 -7.7331271 -80.501328 4294967295
148.85715 -6.3841076 -80.114929 4294967295
148.86162 -6.8294787 -80.325439 4294967295
148.90756 -7.2528162 -80.939835 4294967295
148.94209 -4.548974 -80.275017 4294967295
148.96623 -5.8799119 -81.01088 4294967295
148.97627 -5.4271674 -80.942139 4294967295
148.97958 -3.1859002 -80.13958 4294967295
148.98582 -4.0790009 -80.534363 4294967295
148.98891 -3.6294408 -80.397583 4294967295
149.00827 -0.92946577 -79.583481 4294967295
149.01912 -1.8215311 -80.023811 4294967295
149.04945 -0.0124016 -79.650894 4294967295
149.06969 -2.2453606 -80.68425 4294967295
149.0773 -1.3451331 -80.42453 4294967295
149.09666 0.4584341 -79.944611 4294967295
149.12492 1.3692441 -79.885803 4294967295
149.13855 2.2735939 -79.684166 4294967295
149.16847 1.8379912 -80.143936 4294967295
149.17654 4.087882 -79.385468 4294967295
149.1815 0.94634008 -80.605888 4294967295
149.20439 -8.2484207 -79.691521 4294967295
149.21576 2.7571812 -80.271103 4294967295
149.22015 4.5562415 -79.644196 4294967295
149.22314 5.9066887 -79.170456 4294967295
149.31932 -7.7393699 -80.647652 4294967295
149.34769 -6.3819599 -80.422554 4294967295
149.38086 -4.1255374 -79.909195 4294967295
149.38483 -7.2572494 -81.120796 4294967295
149.39232 -5.0157166 -80.356583 4294967295
149.3983 -6.8028793 -81.085075 4294967295
149.41006 -5.45435 -80.697807 4294967295
149.43599 -2.7533948 -79.945747 4294967295
149.44286 -3.1982503 -80.180679 4294967295
149.44469 -2.3007674 -79.863014 4294967295
149.44821 -1.4019601 -79.561996 4294967295
149.46211 -3.6367378 -80.536842 4294967295
149.46417 -4.5313635 -80.892166 4294967295
149.50447 -0.92640728 -79.945129 4294967295
149.56213 -0.45048279 -80.342232 4294967295
149.59711 0.91175222 -80.181519 4294967295
149.60692 3.1615009 -79.437469 4294967295
149.62975 2.273294 -79.997475 4294967295
149.64429 1.8309417 -80.308212 4294967295
149.65877 4.5325513 -79.441483 4294967295
149.65933 4.0833035 -79.615311 4294967295
149.66411 2.73773 -80.166565 4294967295
149.67764 5.4399524 -79.290367 4294967295
149.6841 4.9930182 -79.522011 4294967295
149.68414 3.6448298 -80.026993 4294967295
149.72772 -7.3330889 -79.984436 4294967295
149.73524 -8.2239704 -80.394554 4294967295
149.77339 -6.8612909 -80.264687 4294967295
149.78085 -7.7521477 -80.674202 4294967295
149.85092 -5.4779549 -80.521492 4294967295
149.87234 -4.1235762 -80.227142 4294967295
149.88092 -6.3572617 -81.152351 4294967295
149.90558 -4.5545425 -80.722054 4294967295
149.91991 -4.9948392 -81.030983 4294967295
149.93779 -1.8502707 -80.028755 4294967295
149.93871 -3.6422424 -80.711243 4294967295
149.93929 -1.4011295 -79.87484 4294967295
149.93948 -2.2977638 -80.213531 4294967295
149.95554 -2.7379863 -80.539948 4294967295
149.96227 -3.1826117 -80.774399 4294967295
149.97507 0.8595686 -79.383926 4294967295
149.97734 -0.48580599 -79.91201 4294967295
150.00488 -0.92115313 -80.351646 4294967295
150.00832 1.7730141 -79.373718 4294967295
150.03067 0.43661261 -80.099815 4294967295
150.03154 -0.0115824 -80.276817 4294967295
150.07677 2.2531786 -79.87896 4294967295
150.07751 1.3557482 -80.223602 4294967295
150.07965 2.7035465 -79.738525 4294967295
150.08873 4.0555248 -79.321716 4294967295
150.09856 3.1611581 -79.756012 4294967295
150.1105 3.6156812 -79.704865 4294967295
150.11302 4.9651923 -79.222954 4294967295
150.12312 4.5199714 -79.491547 4294967295
150.16905 -7.8043528 -79.978653 4294967295
150.20158 -8.2341518 -80.467758 4294967295
150.25043 -5.5230842 -79.936363 4294967295
150.26065 -7.3078742 -80.712433 4294967295
150.26518 -6.410697 -80.419647 4294967295
150.26736 -5.0664649 -79.934425 4294967295
150.27275 -6.8541102 -80.663101 4294967295
150.28192 -4.1630287 -79.740158 4294967295
150.28403 -5.9532728 -80.436531 4294967295
150.30936 -4.597023 -80.179825 4294967295
150.36375 -3.2256541 -80.209457 4294967295
150.39325 -3.6587787 -80.669411 4294967295
150.40877 -1.4106078 -79.977417 4294967295
150.41762 -2.3027849 -80.402977 4294967295
150.41943 -0.95701081 -79.913635 4294967295
150.41963 0.38914919 -79.407883 4294967295
150.46585 -1.8310513 -80.710098 4294967295
150.47701 1.7626538 -79.466682 4294967295
150.4946 0.87299252 -79.979111 4294967295
150.49654 2.2206511 -79.490364 4294967295
150.50163 1.3250341 -79.879486 4294967295
150.50372 -0.019887401 -80.407715 4294967295
150.53366 3.1357121 -79.518425 4294967295
150.56578 3.5992327 -79.666641 4294967295
150.64436 -7.8097792 -80.139923 4294967295
150.65811 -6.9074674 -79.937035 4294967295
150.67548 -8.2401371 -80.61702 4294967295
150.71249 -7.3258028 -80.644356 4294967295
150.74289 -5.0722823 -80.097755 4294967295
150.75099 -4.1723475 -79.83873 4294967295
150.76422 -6.4037237 -80.817352 4294967295
150.7731 -4.6089177 -80.227509 4294967295
150.77789 -5.5017309 -80.613968 4294967295
150.83081 -1.8915288 -79.780899 4294967295
150.84711 -3.6756382 -80.621262 4294967295
150.88159 -0.97003168 -79.944664 4294967295
150.92 -1.3996985 -80.495132 4294967295
150.94595 -0.49071741 -80.412888 4294967295
150.97031 0.86619037 -80.144875 4294967295
150.97044 0.4177151 -80.316177 4294967295
150.97707 -0.027555 -80.55162 4294967295
150.97858 1.767477 -79.887062 4294967295
150.97949 2.6658373 -79.556007 4294967295
151.01233 1.334341 -80.391747 4294967295
151.01617 4.0299063 -79.409843 4294967295
151.02388 2.2370448 -80.166611 4294967295
151.04558 3.1446276 -80.041847 4294967295
151.06953 3.6043239 -80.109756 4294967295
151.08315 -8.2822323 -80.110107 4294967295
151.15538 -5.5585747 -79.806595 4294967295
151.18265 -5.9918914 -80.247864 4294967295
151.19672 -7.7732983 -81.067863 4294967295
151.1971 -6.8789425 -80.731674 4294967295
151.20125 -6.4294786 -80.602638 4294967295
151.21542 -4.6318278 -80.06282 4294967295
151.21634 -4.1835012 -79.901596 4294967295
151.22067 -5.0768228 -80.285294 4294967295
151.22563 -3.7307851 -79.823837 4294967295
151.26883 -1.9163773 -79.571724 4294967295
151.30011 -1.4526381 -79.71254 4294967295
151.30304 -2.3477087 -80.082504 4294967295
151.34567 -0.53367418 -79.824921 4294967295
151.34612 -0.084922299 -79.658707 4294967295
151.34981 -3.220099 -80.888268 4294967295
151.37228 -0.96918869 -80.260239 4294967295
151.3759 0.3778505 -79.784576 4294967295
151.42563 0.84989983 -80.109215 4294967295
151.44952 1.3096642 -80.176643 4294967295
151.47626 2.2193947 -80.101807 4294967295
151.49277 3.1246319 -79.924782 4294967295
151.49767 2.6779532 -80.144447 4294967295
151.51704 3.5845127 -79.996208 4294967295
151.57883 -8.2762547 -80.47686 4294967295
151.60573 -6.4726667 -80.062042 4294967295
151.62268 -5.5685372 -79.889511 4294967295
151.64343 -6.0051565 -80.267387 4294967295
151.64998 -7.3433967 -80.845016 4294967295
151.65315 -7.7886381 -81.047195 4294967295
151.69415 -3.7403419 -79.918907 4294967295
151.70087 -6.8689613 -81.181694 4294967295
151.7321 -4.1686883 -80.468712 4294967295
151.73358 -4.6155 -80.654358 4294967295
151.74965 -3.2642446 -80.302002 4294967295
151.78377 -2.7991924 -80.471741 4294967295
151.82683 -0.089110903 -79.875275 4294967295
151.82867 -0.53662157 -80.064941 4294967295
151.83784 -1.4285278 -80.498711 4294967295
151.84938 0.37015009 -79.929466 4294967295
151.86494 1.2747364 -79.742599 4294967295
151.88763 0.83677387 -80.140633 4294967295
151.89114 2.6334453 -79.490227 4294967295
151.90637 1.742732 -79.985466 4294967295
151.95015 3.5582142 -79.737961 4294967295
151.96263 2.2173753 -80.376945 4294967295
152.05031 -6.9419937 -80.090668 4294967295
152.05597 -8.2802811 -80.661522 4294967295
152.07484 -6.0340123 -79.993225 4294967295
152.07953 -6.4789453 -80.211693 4294967295
152.08957 -7.8149166 -80.82653 4294967295
152.12717 -5.5588231 -80.345833 4294967295
152.13884 -4.6576042 -80.119705 4294967295
152.16956 -2.8504255 -79.740715 4294967295
152.17461 -3.2958517 -79.963196 4294967295
152.19844 -2.3878248 -79.858574 4294967295
152.20956 -3.7258046 -80.485077 4294967295
152.29359 -0.54821539 -80.126007 4294967295
152.30344 0.35325 -79.880806 4294967295
152.32387 -0.085331 -80.257843 4294967295
152.35474 2.1719379 -79.707771 4294967295
152.38303 1.7363572 -80.16391 4294967295
152.40274 2.6428037 -80.01786 4294967295
152.43399 3.1058264 -80.159775 4294967295
152.49586 -7.8578219 -80.301704 4294967295
152.49751 -6.5151582 -79.801788 4294967295
152.52377 -7.395473 -80.410088 4294967295
152.56395 -6.0321612 -80.297684 4294967295
152.57208 -4.2375612 -79.690231 4294967295
152.57858 -4.6819382 -79.927795 4294967295
152.58958 -5.5711813 -80.383102 4294967295
152.61815 -3.3181 -79.809067 4294967295
152.64014 -5.0971456 -80.719452 4294967295
152.65422 -2.851845 -79.999596 4294967295
152.65933 -1.9531929 -79.706261 4294967295
152.68549 -3.7313142 -80.65905 4294967295
152.73111 -2.3651931 -80.601448 4294967295
152.73349 -0.57197571 -79.935547 4294967295
152.73706 -1.4664817 -80.31662 4294967295
152.79054 0.80057669 -79.992661 4294967295
152.81534 2.6068621 -79.551804 4294967295
152.82239 1.2641072 -80.140892 4294967295
152.83792 2.1685123 -79.952194 4294967295
152.8707 1.7352266 -80.455246 4294967295
152.92767 -8.3339167 -80.203354 4294967295
152.96135 -6.5267673 -79.851799 4294967295
152.99759 -7.4013891 -80.563301 4294967295
153.01051 -6.0529556 -80.175285 4294967295
153.0118 -6.9466372 -80.53376 4294967295
153.06609 -4.6812553 -80.21756 4294967295
153.06659 -5.5757289 -80.568512 4294967295
153.07289 -5.1250901 -80.459267 4294967295
153.08771 -4.222425 -80.263016 4294967295
153.09042 -3.3256583 -79.944382 4294967295
153.13828 -2.8534274 -80.254974 4294967295
153.14124 -3.747144 -80.630966 4294967295
153.15874 -1.4993882 -79.942314 4294967295
153.16467 -2.392267 -80.348793 4294967295
153.18422 -0.59047788 -79.853714 4294967295
153.20601 -0.13157851 -79.900993 4294967295
153.20686 0.76569271 -79.562927 4294967295
153.21994 0.3234868 -79.868546 4294967295
153.22086 -1.9162674 -80.743599 4294967295
153.24229 -1.0100198 -80.614304 4294967295
153.26454 1.2416358 -79.973167 4294967295
153.28242 1.698566 -79.980705 4294967295
153.29585 2.6021223 -79.769981 4294967295
153.32767 2.168251 -80.265411 4294967295
153.38533 -7.901711 -80.019333 4294967295
153.42648 -7.4319534 -80.262756 4294967295
153.45256 -6.9706039 -80.353645 4294967295
153.46967 -6.5141983 -80.353523 4294967295
153.55606 -4.2317333 -80.361542 4294967295
153.56313 -5.5697255 -80.953728 4294967295
153.60286 -4.6544714 -81.009743 4294967295
153.62581 -3.3006268 -80.721733 4294967295
153.6656 -1.9376454 -80.604446 4294967295
153.67216 0.75413889 -79.627754 4294967295
153.68051 -1.4824312 -80.58197 4294967295
153.68274 -0.58551639 -80.256897 4294967295
153.68372 1.20818 -79.571007 4294967295
153.68669 -0.1354899 -80.123093 4294967295
153.70535 -1.0222921 -80.660347 4294967295
153.70708 0.32259989 -80.156387 4294967295
153.75357 1.6897683 -80.106674 4294967295
153.87968 -6.5549307 -79.859367 4294967295
153.88994 -6.9965 -80.137794 4294967295
153.92612 -7.8702593 -80.854088 4294967295
153.95068 -7.4099369 -80.930038 4294967295
153.96179 -6.0632029 -80.520607 4294967295
153.98055 -5.158813 -80.362976 4294967295
153.98331 -4.710021 -80.216652 4294967295
154.04611 -3.7822404 -80.507713 4294967295
154.04863 -4.2282696 -80.707512 4294967295
154.04892 -1.9901028 -79.83844 4294967295
154.06277 -2.8786042 -80.328568 4294967295
154.08784 -0.1782036 -79.536682 4294967295
154.10074 -3.3065116 -80.889801 4294967295
154.12427 -1.0564709 -80.257355 4294967295
154.14587 -1.4934747 -80.652199 4294967295
154.14775 -0.59690237 -80.322128 4294967295
154.18558 1.2140784 -80.009415 4294967295
154.18854 0.3190999 -80.389091 4294967295
154.20917 0.77716023 -80.424683 4294967295
154.21851 1.678103 -80.1707 4294967295
154.37875 -6.5471506 -80.271454 4294967295
154.38847 -5.2002335 -79.845711 4294967295
154.4218 -6.9703941 -80.886047 4294967295
154.4257 -4.2855129 -79.876221 4294967295
154.43704 -7.4086132 -81.216263 4294967295
154.45038 -5.6141868 -80.653427 4294967295
154.45792 -6.0570612 -80.905251 4294967295
154.49072 -3.8038902 -80.365875 4294967295
154.49983 -4.693594 -80.809113 4294967295
154.51706 -3.3427355 -80.460175 4294967295
154.53259 -2.4396424 -80.26889 4294967295
154.5369 -2.8850152 -80.487892 4294967295
154.54497 -1.9856479 -80.220268 4294967295
154.58299 0.27326959 -79.732903 4294967295
154.58611 -1.5171273 -80.466003 4294967295
154.61258 1.1842685 -79.685135 4294967295
154.6181 -0.15766139 -80.267776 4294967295
154.83197 -7.9047394 -80.74337 4294967295
154.83922 -5.2188544 -79.764 4294967295
154.85381 -5.6582537 -80.089485 4294967295
154.86588 -4.3097029 -79.685974 4294967295
154.87842 -6.5388255 -80.69342 4294967295
154.87949 -6.9849792 -80.879738 4294967295
154.90527 -7.4172173 -81.319717 4294967295
154.91679 -6.0710106 -80.911461 4294967295
154.93121 -3.8277516 -80.181 4294967295
154.94273 -3.3742485 -80.123627 4294967295
154.95882 -2.9183481 -80.112816 4294967295
154.98151 -2.4590409 -80.170052 4294967295
155.01402 -1.0992231 -79.976318 4294967295
155.0143 -1.9946284 -80.330971 4294967295
155.01451 -1.5468223 -80.157295 4294967295
155.04103 0.70662451 -79.549583 4294967295
155.05788 -0.1814847 -80.074883 4294967295
155.06923 0.27215621 -80.015694 4294967295
155.2709 -6.5894284 -80.015091 4294967295
155.3358 -3.8706257 -79.624794 4294967295
155.34714 -5.2066164 -80.271294 4294967295
155.34723 -6.993958 -80.977478 4294967295
155.35216 -7.4376988 -81.204529 4294967295
155.35593 -7.8819237 -81.419418 4294967295
155.36688 -4.748836 -80.298401 4294967295
155.38405 -4.2924562 -80.299011 4294967295
155.38872 -5.631052 -80.876106 4294967295
155.42337 -3.3770995 -80.351265 4294967295
155.43484 -2.4761713 -80.116554 4294967295
155.43591 -2.0279775 -79.950768 4294967295
155.46375 0.67442852 -79.177368 4294967295
155.46642 -1.1168694 -79.912239 4294967295
155.4677 -1.5640337 -80.102097 4294967295
155.47226 -0.2179503 -79.61895 4294967295
155.47389 -0.66518778 -79.812698 4294967295
155.55258 0.26975679 -80.271271 4294967295
155.75148 -7.9314699 -80.773911 4294967295
155.75931 -7.0339298 -80.500786 4294967295
155.78 -7.4689207 -80.891815 4294967295
155.78761 -5.2306914 -80.085312 4294967295
155.83528 -6.5450592 -81.109634 4294967295
155.84128 -3.4128275 -79.931793 4294967295
155.8448 -4.7527165 -80.499924 4294967295
155.85541 -4.299933 -80.432701 4294967295
155.87654 -3.8415394 -80.47403 4294967295
155.88301 -2.4959912 -80.009338 4294967295
155.89798 -2.0406501 -79.987091 4294967295
155.91696 -1.1354561 -79.828949 4294967295
155.92165 -2.9233177 -80.58683 4294967295
155.94762 0.2238598 -79.614052 4294967295
155.94987 -0.67101097 -79.992561 4294967295
156.23419 -7.931756 -81.028107 4294967295
156.23724 -6.1437984 -80.348969 4294967295
156.25044 -5.6896524 -80.308243 4294967295
156.25241 -7.4751081 -81.039658 4294967295
156.26097 -4.342629 -79.883896 4294967295
156.27138 -5.231266 -80.34787 4294967295
156.28178 -7.012207 -81.167038 4294967295
156.29187 -4.7731509 -80.382996 4294967295
156.30399 -2.9775817 -79.797089 4294967295
156.33488 -3.408711 -80.29644 4294967295
156.35463 -0.71266413 -79.433144 4294967295
156.38541 -2.4876003 -80.465881 4294967295
156.41965 -0.2320576 -79.931396 4294967295
156.42615 -1.5717754 -80.53347 4294967295
156.67586 -6.6158123 -80.321861 4294967295
156.6906 -6.1608386 -80.297066 4294967295
156.69286 -4.8186274 -79.784683 4294967295
156.70897 -4.3626747 -79.774094 4294967295
156.72604 -5.6944575 -80.488159 4294967295
156.73363 -7.0299239 -81.102661 4294967295
156.73634 -7.4746547 -81.309311 4294967295
156.78181 -3.4291878 -80.177071 4294967295
156.78333 -2.5336194 -79.835243 4294967295
156.7924 -5.2112994 -81.001999 4294967295
156.7989 -2.0779424 -79.819191 4294967295
156.81778 -2.9629176 -80.373871 4294967295
156.83823 -1.1623845 -79.872192 4294967295
156.84346 -1.6073313 -80.105835 4294967295
156.85562 -0.70577723 -79.875107 4294967295
157.147 -7.9620409 -80.99366 4294967295
157.16727 -6.6114883 -80.668457 4294967295
157.17029 -7.5025349 -81.058327 4294967295
157.17264 -5.268364 -80.186806 4294967295
157.18536 -4.3673844 -79.961426 4294967295
157.18982 -3.9177737 -79.828659 4294967295
157.22379 -5.6869035 -80.901985 4294967295
157.23044 -3.0014863 -79.895531 4294967295
157.23592 -4.7868681 -80.670639 4294967295
157.2388 -2.5496542 -79.803619 4294967295
157.24954 -1.6488748 -79.556961 4294967295
157.25616 -3.43507 -80.344719 4294967295
157.26686 -2.0874946 -79.918251 4294967295
157.34932 -1.1499157 -80.42421 4294967295
157.54228 -7.5659389 -80.154373 4294967295
157.56076 -6.2154155 -79.808731 4294967295
157.57031 -7.1034451 -80.269012 4294967295
157.5961 -5.7488475 -80.000336 4294967295
157.59796 -6.6412263 -80.379875 4294967295
157.63402 -4.3870535 -79.85881 4294967295
157.64427 -5.2753434 -80.326988 4294967295
157.68285 -3.913517 -80.192528 4294967295
157.71605 -1.6592398 -79.640823 4294967295
157.72211 -2.998251 -80.245529 4294967295
157.74431 -3.4334779 -80.659355 4294967295
157.76205 -2.5299501 -80.485748 4294967295
158.00386 -7.5782719 -80.189148 4294967295
158.03732 -6.6661606 -80.181 4294967295
158.07542 -6.1980939 -80.402512 4294967295
158.09831 -7.0778828 -81.005539 4294967295
158.10664 -5.7340207 -80.551559 4294967295
158.15654 -3.4725461 -80.174545 4294967295
158.16856 -4.8065252 -80.844193 4294967295
158.17143 -3.9114857 -80.512772 4294967295
158.18706 -4.3497591 -80.85878 4294967295
158.20337 -1.6587033 -79.945724 4294967295
158.21991 -2.0973825 -80.301712 4294967295
158.24983 -2.5287023 -80.79908 4294967295
158.43753 -8.0530872 -80.110146 4294967295
158.52808 -4.8752723 -79.799362 4294967295
158.53987 -7.1015005 -80.831978 4294967295
158.55318 -5.3081756 -80.247398 4294967295
158.56354 -7.5339746 -81.264198 4294967295
158.58072 -6.6319876 -81.083763 4294967295
158.61674 -3.9328294 -80.376999 4294967295
158.6584 -3.0164769 -80.456024 4294967295
158.66711 -3.4586775 -80.730072 4294967295
158.69643 -2.1021879 -80.49614 4294967295
158.95445 -6.6943164 -80.188087 4294967295
158.9664 -8.0260544 -80.861938 4294967295
158.98279 -7.5705032 -80.854271 4294967295
158.99388 -5.778913 -80.243652 4294967295
159.0029 -7.1127992 -80.886368 4294967295
159.00337 -4.4333363 -79.797531 4294967295
159.01918 -4.8714423 -80.148323 4294967295
159.02814 -5.3131166 -80.426155 4294967295
159.03934 -6.1996255 -80.909958 4294967295
159.05818 -3.9563413 -80.199142 4294967295
159.08447 -3.0481467 -80.114624 4294967295
159.10767 -2.1414745 -79.996811 4294967295
159.13672 -3.4667745 -80.854012 4294967295
159.16972 -2.5554686 -80.841118 4294967295
159.39278 -7.1663632 -80.158936 4294967295
159.39909 -8.0550365 -80.592422 4294967295
159.43086 -6.6981068 -80.38327 4294967295
159.43733 -5.8015265 -80.086456 4294967295
159.44556 -5.3502641 -79.991249 4294967295
159.48604 -4.4342275 -80.058121 4294967295
159.49797 -4.8743048 -80.36879 4294967295
159.50223 -3.9784684 -80.048149 4294967295
159.50366 -3.0836713 -79.696983 4294967295
159.57245 -3.493247 -80.616722 4294967295
159.84946 -8.0737123 -80.51088 4294967295
159.87242 -7.1681108 -80.390129 4294967295
159.8781 -6.2722211 -80.083443 4294967295
159.8876 -6.7131104 -80.369324 4294967295
159.89258 -7.6024284 -80.79007 4294967295
159.89612 -4.9221859 -79.725327 4294967295
159.9034 -5.8113446 -80.171356 4294967295
159.92633 -5.3518548 -80.233978 4294967295
159.93581 -4.4532652 -79.967796 4294967295
159.97241 -3.0924287 -79.809227 4294967295
160.00739 -3.9669354 -80.553169 4294967295
160.00894 -3.5194042 -80.385971 4294967295
160.31529 -6.7449365 -80.042252 4294967295
160.31572 -7.1909237 -80.231598 4294967295
160.3354 -8.0713367 -80.812744 4294967295
160.35622 -7.6132431 -80.852509 4294967295
160.36496 -4.4838181 -79.654816 4294967295
160.37254 -4.9263053 -79.921379 4294967295
160.37938 -5.3690267 -80.179657 4294967295
160.38658 -4.0249434 -79.703331 4294967295
160.3923 -6.254262 -80.688332 4294967295
160.40669 -5.7998309 -80.659035 4294967295
160.77669 -5.8645091 -79.707253 4294967295
160.78246 -7.6460538 -80.511223 4294967295
160.80798 -6.7390661 -80.416969 4294967295
160.8092 -7.1843777 -80.615685 4294967295
160.82901 -5.3881283 -80.088608 4294967295
160.83794 -6.2755814 -80.556206 4294967295
160.88089 -4.9122853 -80.465363 4294967295
160.88168 -4.0187941 -80.103203 4294967295
161.1954 -8.1328907 -80.208702 4294967295
161.25922 -6.3110843 -80.158218 4294967295
161.27017 -7.6425724 -80.835739 4294967295
161.27275 -6.7493181 -80.49157 4294967295
161.27856 -5.8536458 -80.182671 4294967295
161.2905 -4.5074439 -79.753479 4294967295
161.29359 -4.9522653 -79.973724 4294967295
161.30247 -5.3936257 -80.256485 4294967295
161.37997 -4.0106702 -80.54142 4294967295
161.64888 -7.7038455 -79.972809 4294967295
161.65379 -8.1468296 -80.213371 4294967295
161.65477 -7.2542834 -79.850204 4294967295
161.7327 -5.4238577 -79.953697 4294967295
161.74997 -4.967566 -79.955399 4294967295
161.79425 -4.4959769 -80.25251 4294967295
161.79948 -5.831502 -80.87072 4294967295
162.11327 -7.2682562 -79.85511 4294967295
162.15718 -6.7962389 -80.149078 4294967295
162.16528 -6.3453908 -80.050308 4294967295
162.16631 -8.1281319 -80.812187 4294967295
162.16692 -7.6821351 -80.631454 4294967295
162.22012 -5.4211969 -80.276657 4294967295
162.24913 -5.8504448 -80.782745 4294967295
162.26379 -4.9499183 -80.568314 4294967295
162.61185 -7.2582769 -80.302269 4294967295
162.62239 -6.8061447 -80.229904 4294967295
162.63669 -6.3517466 -80.198761 4294967295
162.66501 -7.6720762 -81.076454 4294967295
162.68501 -5.4314175 -80.354446 4294967295
162.71487 -5.8600087 -80.872101 4294967295
163.03101 -8.1872158 -80.253448 4294967295
163.07202 -7.7167606 -80.517761 4294967295
163.10339 -5.914793 -80.107719 4294967295
163.10922 -6.3573289 -80.361572 4294967295
163.11319 -7.2463975 -80.784264 4294967295
163.11371 -5.4626808 -80.032295 4294967295
163.50227 -8.1931553 -80.403381 4294967295
163.54187 -6.8323307 -80.272964 4294967295
163.56534 -7.2638841 -80.724014 4294967295
163.56618 -6.3720613 -80.35289 4294967295
163.57462 -5.9212112 -80.256416 4294967295
163.94078 -8.2191105 -80.189362 4294967295
164.01875 -6.8350873 -80.486656 4294967295
164.05106 -7.2610636 -81.038574 4294967295
164.07288 -6.3570886 -80.900383 4294967295
164.36632 -8.2531509 -79.828491 4294967295
164.4814 -6.8462663 -80.543564 4294967295
164.89845 -7.7760515 -80.47261 4294967295
164.90686 -6.8799677 -80.182091 4294967295
164.90996 -7.3236022 -80.409714 4294967295
165.33385 -8.2492189 -80.415894 4294967295
165.35271 -7.7922716 -80.435722 4294967295
165.35959 -7.3426819 -80.320267 4294967295
165.78093 -8.2699137 -80.297607 4294967295
165.80807 -7.8077984 -80.411484 4294967295
166.67404 -8.3120861 -80.046661 4294967295
135.09302 12.741003 -78.22876 4294967295
135.10023 13.195916 -78.141663 4294967295
135.495 12.706734 -77.710228 4294967295
135.51408 13.618439 -77.576057 4294967295
135.54263 13.17474 -77.977585 4294967295
135.97919 14.057309 -77.458183 4294967295
135.98573 13.606499 -77.667442 4294967295
135.99629 12.704529 -78.063057 4294967295
136.02554 14.52472 -77.71524 4294967295
136.02798 13.167302 -78.190918 4294967295
136.5016 14.061328 -77.998695 4294967295
136.50574 14.515381 -77.883438 4294967295
136.52199 12.710391 -78.634407 4294967295
136.5354 14.977387 -77.993721 4294967295
136.53575 13.619566 -78.452431 4294967295
136.93985 14.038873 -77.796638 4294967295
136.95213 12.685207 -78.362732 4294967295
136.96027 14.498064 -77.825264 4294967295
136.96576 15.405561 -77.569031 4294967295
136.97902 14.956716 -77.839218 4294967295
136.99828 13.604881 -78.467316 4294967295
137.00874 13.155912 -78.712509 4294967295
137.36316 13.106203 -77.766243 4294967295
137.39755 12.664961 -78.225357 4294967295
137.43874 13.583131 -78.286263 4294967295
137.45975 14.494867 -78.167473 4294967295
137.48056 14.048924 -78.505623 4294967295
137.49867 14.959631 -78.361 4294967295
137.81583 12.635761 -77.845062 4294967295
137.89287 13.565752 -78.226288 4294967295
137.89737 13.114849 -78.419945 4294967295
137.92319 14.027906 -78.343735 4294967295
137.93051 14.482723 -78.255653 4294967295
137.97662 14.949705 -78.514328 4294967295
138.30302 13.986757 -77.617989 4294967295
138.36478 13.101833 -78.479736 4294967295
138.39462 14.468506 -78.285225 4294967295
138.40408 13.56684 -78.678131 4294967295
138.76936 13.973215 -77.665741 4294967295
138.8179 12.632007 -78.566246 4294967295
138.84225 13.092161 -78.630798 4294967295
138.84518 13.545294 -78.502655 4294967295
138.86768 14.457155 -78.395874 4294967295
139.194 13.493608 -77.493011 4294967295
139.24005 12.604021 -78.219048 4294967295
139.33592 13.992058 -78.619629 4294967295
139.71138 13.496853 -78.004105 4294967295
139.74635 13.056139 -78.476547 4294967295
139.74847 12.604809 -78.651306 4294967295
140.18506 13.033691 -78.277878 4294967295
140.5864 12.998722 -77.736938 4294967295
140.62625 12.559921 -78.257492 4294967295
134.75301 -15.980923 -80.676399 4278255360
134.75517 -16.427567 -80.844528 4278255360
134.78737 -12.376676 -79.780884 4278255360
134.79564 -15.06232 -80.749176 4278255360
134.82164 -15.496348 -81.124626 4278255360
134.82394 -14.59937 -80.846344 4278255360
134.82877 -11.906933 -79.992203 4278255360
134.83218 -13.698892 -80.619499 4278255360
134.86487 -13.233746 -80.754875 4278255360
134.87462 -12.780488 -80.690453 4278255360
134.87932 -14.12233 -81.179222 4278255360
135.12753 -16.488995 -80.078857 4278255360
135.21458 -15.098129 -80.389908 4278255360
135.22867 -15.986403 -80.812447 4278255360
135.23338 -15.536055 -80.703873 4278255360
135.2778 -13.720436 -80.492889 4278255360
135.29149 -11.919806 -80.012848 4278255360
135.30614 -14.601583 -81.040024 4278255360
135.31746 -13.251614 -80.689667 4278255360
135.64517 -16.471632 -80.58139 4278255360
135.65068 -13.780152 -79.727776 4278255360
135.6593 -14.672195 -80.104126 4278255360
135.66943 -12.873362 -79.591171 4278255360
135.68333 -13.314652 -79.863663 4278255360
135.69765 -15.995409 -80.891251 4278255360
135.71114 -14.196626 -80.408272 4278255360
135.73535 -15.079669 -80.921211 4278255360
135.73779 -15.526081 -81.09288 4278255360
135.80811 -12.353425 -80.657333 4278255360
135.82225 -11.897894 -80.631004 4278255360
136.07661 -16.053276 -80.179016 4278255360
136.08971 -13.805378 -79.539757 4278255360
136.10147 -16.487534 -80.548454 4278255360
136.12057 -13.340734 -79.660469 4278255360
136.13254 -15.575109 -80.520302 4278255360
136.15771 -12.872935 -79.836266 4278255360
136.18446 -11.962084 -79.769775 4278255360
136.19933 -12.40295 -80.05162 4278255360
136.21475 -15.083116 -81.09272 4278255360
136.60486 -11.996684 -79.416985 4278255360
136.61487 -16.472099 -81.019531 4278255360
136.61929 -16.02216 -80.907425 4278255360
135.59134 -17.396564 -80.410217 4278255360
135.64517 -16.471632 -80.58139 4278255360
135.65068 -13.780152 -79.727776 4278255360
135.6593 -14.672195 -80.104126 4278255360
135.66943 -12.873362 -79.591171 4278255360
135.68333 -13.314652 -79.863663 4278255360
135.69765 -15.995409 -80.891251 4278255360
135.71114 -14.196626 -80.408272 4278255360
135.73535 -15.079669 -80.921211 4278255360
135.73779 -15.526081 -81.09288 4278255360
135.74915 -16.862335 -81.64283 4278255360
136.07661 -16.053276 -80.179016 4278255360
136.08971 -13.805378 -79.539757 4278255360
136.10147 -16.487534 -80.548454 4278255360
136.1037 -16.933952 -80.718796 4278255360
136.12057 -13.340734 -79.660469 4278255360
136.13254 -15.575109 -80.520302 4278255360
136.13509 -17.364109 -81.1455 4278255360
136.15771 -12.872935 -79.836266 4278255360
136.21475 -15.083116 -81.09272 4278255360
136.54536 -17.405416 -80.708679 4278255360
136.61487 -16.472099 -81.019531 4278255360
136.61929 -16.02216 -80.907425 4278255360
136.63707 -16.907261 -81.366661 4278255360
136.97234 -17.437601 -80.416939 4278255360
137.01668 -16.517874 -80.506119 4278255360
137.08891 -16.925411 -81.297478 4278255360
135.65068 -13.780152 -79.727776 4278255360
135.6593 -14.672195 -80.104126 4278255360
135.66943 -12.873362 -79.591171 4278255360
135.68333 -13.314652 -79.863663 4278255360
135.71114 -14.196626 -80.408272 4278255360
135.73404 -11.494267 -79.706551 4278255360
135.73535 -15.079669 -80.921211 4278255360
135.76172 -10.582714 -79.648315 4278255360
135.77124 -11.02673 -79.882462 4278255360
135.80811 -12.353425 -80.657333 4278255360
135.82225 -11.897894 -80.631004 4278255360
136.08971 -13.805378 -79.539757 4278255360
136.12057 -13.340734 -79.660469 4278255360
136.15771 -12.872935 -79.836266 4278255360
136.18446 -11.962084 -79.769775 4278255360
136.19933 -12.40295 -80.05162 4278255360
136.21475 -15.083116 -81.09272 4278255360
136.22055 -11.046412 -79.785431 4278255360
136.59641 -10.654388 -78.887123 4278255360
136.60486 -11.996684 -79.416985 4278255360
136.62665 -11.088036 -79.306206 4278255360
137.11249 -10.640465 -79.379013 4278255360
137.17984 -11.054905 -80.128754 4278255360
135.65068 -13.780152 -79.727776 4278255360
135.66943 -12.873362 -79.591171 4278255360
135.68333 -13.314652 -79.863663 4278255360
135.71114 -14.196626 -80.408272 4278255360
135.73404 -11.494267 -79.706551 4278255360
135.76172 -10.582714 -79.648315 4278255360
135.77124 -11.02673 -79.882462 4278255360
135.80811 -12.353425 -80.657333 4278255360
135.82225 -11.897894 -80.631004 4278255360
135.82896 -10.100374 -80.087967 4278255360
135.85429 -9.6390543 -80.15979 4278255360
136.08971 -13.805378 -79.539757 4278255360
136.12057 -13.340734 -79.660469 4278255360
136.15771 -12.872935 -79.836266 4278255360
136.18446 -11.962084 -79.769775 4278255360
