# .PCD v0.7 - Point Cloud Data file format
VERSION 0.7
FIELDS x y z rgb
SIZE 4 4 4 4
TYPE F F F U
COUNT 1 1 1 1
WIDTH 1147
HEIGHT 1
VIEWPOINT 0 0 0 1 0 0 0
POINTS 1147
DATA ascii
52.558876 122.12595 -62.753223 4294967295
52.57206 120.70203 -63.112274 4294967295
52.575806 119.28178 -63.419701 4294967295
52.580849 121.17255 -63.064625 4294967295
52.595551 118.80307 -63.623051 4294967295
52.617065 122.58122 -62.975243 4294967295
52.620686 109.35616 -65.668915 4294967295
52.624489 108.41296 -65.880203 4294967295
52.627598 116.43092 -64.275696 4294967295
52.631699 110.2959 -65.538361 4294967295
52.663307 113.11679 -65.13855 4294967295
52.675438 114.52898 -64.91848 4294967295
52.680817 117.3604 -64.374977 4294967295
52.768539 106.58823 -64.46479 4294967295
52.802647 107.42783 -67.040909 4294967295
53.032257 120.21288 -63.130199 4294967295
53.058113 113.11805 -64.70784 4294967295
53.08976 107.45325 -66.026894 4294967295
53.089996 114.05325 -64.690758 4294967295
53.12925 112.15558 -65.287598 4294967295
53.13084 119.23746 -63.861115 4294967295
53.193462 109.31136 -66.211273 4294967295
53.197014 120.63586 -63.935619 4294967295
53.292683 109.38583 -64.165009 4294967295
53.293941 107.02758 -64.650795 4294967295
53.322838 107.49199 -64.713142 4294967295
53.385029 108.89101 -64.766113 4294967295
53.401382 119.27794 -62.745235 4294967295
53.403183 105.49693 -68.11869 4294967295
53.41338 107.9412 -65.112686 4294967295
53.452702 119.73573 -62.930443 4294967295
53.45887 109.8154 -64.978645 4294967295
53.483906 110.75207 -64.924141 4294967295
53.486877 108.39433 -65.419083 4294967295
53.500381 117.35719 -63.671959 4294967295
53.549667 118.28815 -63.750072 4294967295
53.569855 120.64639 -63.380535 4294967295
53.572861 121.11855 -63.300995 4294967295
53.574387 112.14318 -65.132118 4294967295
53.594639 111.66627 -65.338737 4294967295
53.613022 116.37994 -64.481003 4294967295
53.614841 115.43511 -64.682793 4294967295
53.618454 117.79543 -64.223015 4294967295
53.652817 115.89649 -64.79496 4294967295
53.653809 113.06517 -65.375336 4294967295
53.654316 114.00841 -65.186539 4294967295
53.854317 109.81548 -64.549828 4294967295
53.882706 120.6754 -62.493607 4294967295
53.946709 114.9826 -64.000038 4294967295
53.957344 122.07258 -62.614689 4294967295
54.034752 121.10201 -63.23278 4294967295
54.119644 110.69017 -65.813255 4294967295
54.208759 116.32498 -65.150459 4294967295
54.332859 119.24261 -62.648716 4294967295
54.3629 108.84377 -64.933594 4294967295
54.448196 110.70789 -65.017746 4294967295
54.456455 109.29156 -65.351578 4294967295
54.464211 112.11858 -64.817131 4294967295
54.467846 111.64592 -64.933395 4294967295
54.47197 116.83752 -63.89674 4294967295
54.47868 122.51089 -62.775978 4294967295
54.501411 114.93995 -64.444191 4294967295
54.506115 122.02895 -63.023655 4294967295
54.509647 118.24421 -63.814919 4294967295
54.518364 115.40733 -64.441078 4294967295
54.533001 120.1283 -63.557747 4294967295
54.548248 113.03943 -65.086853 4294967295
54.558468 119.64775 -63.794479 4294967295
54.563759 117.75577 -64.209183 4294967295
54.565628 107.47642 -63.731174 4294967295
54.583412 114.44513 -64.991554 4294967295
54.628059 116.32038 -64.852089 4294967295
54.765961 107.89877 -64.737976 4294967295
54.776447 106.95357 -64.988434 4294967295
54.818043 111.65865 -64.253471 4294967295
54.819386 112.13023 -64.164413 4294967295
54.882744 116.83562 -63.548126 4294967295
54.89537 117.77731 -63.424526 4294967295
54.908035 119.1921 -63.204422 4294967295
54.950676 118.23374 -63.632992 4294967295
54.989151 108.78562 -65.774521 4294967295
55.036255 106.04258 -64.002396 4294967295
55.081791 109.7042 -66.092285 4294967295
55.121906 110.1649 -66.21698 4294967295
55.206238 108.35875 -64.457405 4294967295
55.329243 114.9334 -63.782978 4294967295
55.347969 118.70915 -63.111763 4294967295
55.358009 119.17912 -63.07037 4294967295
55.371876 112.08926 -64.598892 4294967295
55.39537 120.11387 -63.083138 4294967295
55.398132 109.25324 -65.323563 4294967295
55.408302 117.7457 -63.639061 4294967295
55.433201 110.18687 -65.324051 4294967295
55.450645 116.78829 -64.066818 4294967295
55.478397 111.58927 -65.283867 4294967295
55.590778 113.9166 -65.421593 4294967295
55.629517 108.35158 -64.178612 4294967295
55.636524 109.29322 -64.023582 4294967295
55.709259 105.97533 -65.103615 4294967295
55.736221 110.21112 -64.381577 4294967295
55.830688 108.77252 -65.194763 4294967295
55.852085 121.99192 -62.597389 4294967295
55.868328 121.04021 -62.881809 4294967295
55.895676 112.05589 -64.876678 4294967295
55.906975 115.82851 -64.163902 4294967295
55.937626 117.23672 -64.042709 4294967295
55.960594 113.92522 -64.848656 4294967295
55.973923 108.83616 -63.36425 4294967295
56.004612 114.85667 -64.898628 4294967295
56.214951 118.21998 -62.756973 4294967295
56.250641 116.31823 -63.34449 4294967295
56.331394 112.51785 -64.570213 4294967295
56.34893 120.54472 -63.014488 4294967295
56.362335 121.48692 -62.894241 4294967295
56.405514 116.74587 -64.107178 4294967295
56.419304 119.10449 -63.69746 4294967295
56.422474 115.79646 -64.395714 4294967295
56.435093 105.89525 -66.502853 4294967295
56.436104 113.90465 -64.85997 4294967295
56.457626 111.54079 -65.464691 4294967295
56.46244 114.36914 -64.909088 4294967295
56.506042 108.32983 -63.784424 4294967295
56.516422 108.79901 -63.744827 4294967295
56.648853 110.18042 -64.188927 4294967295
56.658455 109.70622 -64.339638 4294967295
56.676956 106.40202 -65.123032 4294967295
56.678364 106.30701 -67.754395 4294967295
56.748245 120.07429 -62.695271 4294967295
56.791565 118.16925 -63.326759 4294967295
56.817371 122.41926 -62.592144 4294967295
56.817402 114.38228 -64.250137 4294967295
56.852711 112.48495 -64.835876 4294967295
56.868355 115.31213 -64.33886 4294967295
56.902782 106.91401 -63.647736 4294967295
56.951225 119.06667 -64.02063 4294967295
56.975685 115.75352 -64.838684 4294967295
57.020485 109.71519 -63.718075 4294967295
57.149559 116.76491 -62.972866 4294967295
57.162453 119.12596 -62.555889 4294967295
57.221138 111.07809 -64.543442 4294967295
57.23275 110.13187 -64.803116 4294967295
57.258316 121.936 -62.503914 4294967295
57.294167 117.19522 -63.68182 4294967295
57.33683 111.99047 -64.993225 4294967295
57.347553 115.7626 -64.27253 4294967295
57.349857 117.65131 -63.894783 4294967295
57.368164 111.51056 -65.265289 4294967295
57.372681 113.86746 -64.802917 4294967295
57.383835 106.89252 -63.688023 4294967295
57.388107 120.4759 -63.521873 4294967295
57.437637 106.31267 -66.723198 4294967295
57.472839 109.229 -63.696117 4294967295
57.488773 107.33825 -64.175964 4294967295
57.53006 110.15795 -63.820015 4294967295
57.53381 109.68513 -63.938713 4294967295
57.570816 108.73228 -64.340805 4294967295
57.604767 106.36723 -65.018578 4294967295
57.622364 118.16384 -62.671711 4294967295
57.640434 113.43257 -63.751907 4294967295
57.674526 119.56731 -62.669331 4294967295
57.67757 119.09328 -62.784416 4294967295
57.724792 110.57864 -64.809746 4294967295
57.725113 120.49805 -62.756264 4294967295
57.737488 117.18404 -63.511299 4294967295
57.741333 118.60104 -63.239002 4294967295
57.754303 111.98561 -64.681427 4294967295
57.761772 113.87096 -64.332077 4294967295
57.76635 107.36712 -63.07951 4294967295
57.831261 116.68404 -64.133476 4294967295
57.921314 115.71365 -64.832565 4294967295
58.13636 108.68906 -64.855728 4294967295
58.162743 109.62507 -64.807587 4294967295
58.180084 111.03513 -64.61087 4294967295
58.187153 115.7534 -63.670284 4294967295
58.195427 116.22345 -63.618523 4294967295
58.24884 122.35519 -62.641235 4294967295
58.325203 114.29765 -64.737694 4294967295
58.333679 118.07253 -64.000793 4294967295
58.341747 107.32219 -63.648113 4294967295
58.344479 114.76407 -64.747688 4294967295
58.386948 117.58425 -64.397377 4294967295
58.410278 108.72014 -63.737823 4294967295
58.568851 109.15114 -64.528992 4294967295
58.58054 110.09123 -64.398247 4294967295
58.592308 108.20238 -64.856712 4294967295
58.593315 119.06263 -62.601982 4294967295
58.596436 111.97409 -64.09462 4294967295
58.616547 111.49681 -64.305672 4294967295
58.64949 109.60175 -64.883095 4294967295
58.698105 113.83392 -64.272354 4294967295
58.751122 106.84666 -63.384987 4294967295
58.764465 115.70336 -64.251907 4294967295
58.775314 116.64467 -64.116226 4294967295
58.848473 118.03996 -64.232193 4294967295
58.849697 107.29394 -63.840492 4294967295
58.854332 114.73362 -64.952873 4294967295
58.864441 112.84425 -65.402306 4294967295
58.917877 109.63521 -63.731674 4294967295
59.041397 108.6601 -64.622795 4294967295
59.077343 118.5663 -62.7565 4294967295
59.080944 117.1466 -63.07267 4294967295
59.106319 120.44987 -62.524864 4294967295
59.128902 110.99479 -64.622948 4294967295
59.134621 116.6581 -63.473373 4294967295
59.139301 121.38609 -62.513199 4294967295
59.233238 110.49561 -65.307922 4294967295
59.23568 118.04572 -63.746597 4294967295
59.265125 119.92744 -63.517967 4294967295
59.335361 106.79967 -64.007126 4294967295
59.338654 115.6541 -64.818779 4294967295
59.354607 114.23416 -65.203827 4294967295
59.372707 107.7334 -64.020264 4294967295
59.380215 109.61832 -63.668076 4294967295
59.407227 108.19624 -64.116112 4294967295
59.527016 110.99501 -64.199356 4294967295
59.531143 114.29815 -63.531834 4294967295
59.531151 109.10751 -64.617043 4294967295
59.568954 110.51215 -64.534332 4294967295
59.586388 119.00837 -62.855301 4294967295
59.600426 116.16778 -63.527527 4294967295
59.61451 112.85851 -64.297997 4294967295
59.650154 120.40773 -62.918537 4294967295
59.657917 121.35159 -62.764542 4294967295
59.658993 117.0955 -63.660351 4294967295
59.66328 113.78873 -64.375671 4294967295
59.678116 119.92601 -63.175247 4294967295
59.683746 116.61574 -63.898758 4294967295
59.689297 106.33785 -63.43116 4294967295
59.714397 117.55147 -63.87421 4294967295
59.737942 118.01687 -63.908291 4294967295
59.763893 115.64792 -64.54837 4294967295
59.792297 115.16776 -64.807243 4294967295
59.845325 106.77094 -64.213036 4294967295
60.070148 114.25954 -63.901131 4294967295
60.128189 109.99812 -65.118736 4294967295
60.157715 115.17876 -64.198212 4294967295
60.201874 113.27862 -64.843376 4294967295
60.240215 112.79635 -65.158859 4294967295
60.356133 107.68471 -64.226906 4294967295
60.378265 109.56536 -63.955978 4294967295
60.400593 108.14487 -64.379486 4294967295
60.403927 105.7879 -64.893181 4294967295
60.499886 117.55961 -62.958748 4294967295
60.51416 115.19248 -63.535904 4294967295
60.521149 118.02602 -62.979942 4294967295
60.522354 109.99908 -64.672501 4294967295
60.525543 119.91663 -62.607502 4294967295
60.55582 121.32677 -62.481083 4294967295
60.572819 116.12016 -63.669823 4294967295
60.574795 112.81479 -64.375092 4294967295
60.60281 110.44918 -65.028954 4294967295
60.604908 114.22208 -64.248306 4294967295
60.616669 122.72729 -62.527946 4294967295
60.617897 120.36081 -63.031879 4294967295
60.623127 119.41332 -63.260185 4294967295
60.639954 113.26844 -64.645088 4294967295
60.656944 106.29346 -63.546478 4294967295
60.687546 111.36914 -65.31076 4294967295
60.706608 113.72144 -64.9235 4294967295
60.749866 106.74202 -63.974133 4294967295
60.784466 105.79082 -64.368759 4294967295
60.958466 108.10352 -64.859413 4294967295
60.965763 118.48758 -62.714619 4294967295
61.021217 111.387 -64.520813 4294967295
61.062424 115.15077 -63.96003 4294967295
61.092087 105.34008 -63.527325 4294967295
61.26841 109.06879 -63.733425 4294967295
61.39645 109.50695 -64.361977 4294967295
61.417061 118.47425 -62.586063 4294967295
61.426029 117.99855 -62.736958 4294967295
61.451103 116.57275 -63.178928 4294967295
61.454067 113.73767 -63.793819 4294967295
61.481335 111.84235 -64.347191 4294967295
61.547722 114.1831 -64.22715 4294967295
61.560688 115.12347 -64.101784 4294967295
61.562355 111.34864 -64.907562 4294967295
61.568619 117.01022 -63.748344 4294967295
61.577309 116.06297 -63.99715 4294967295
61.579788 110.40119 -65.20562 4294967295
61.594486 106.25645 -63.492393 4294967295
61.607239 118.88866 -63.569523 4294967295
61.643837 112.26922 -65.172165 4294967295
61.662766 117.45429 -64.184799 4294967295
61.676163 107.17924 -63.758213 4294967295
61.820068 108.55708 -64.279007 4294967295
61.884308 107.59798 -64.844337 4294967295
61.983013 109.92861 -64.908562 4294967295
61.994495 121.26029 -62.577141 4294967295
62.016994 110.39088 -65.002632 4294967295
62.163322 106.21317 -64.036812 4294967295
62.198002 105.26219 -64.434502 4294967295
62.27924 107.12681 -64.498833 4294967295
62.279678 116.56782 -62.500313 4294967295
62.392502 108.98286 -64.746132 4294967295
62.395012 111.81149 -64.16082 4294967295
62.408516 116.05688 -63.337387 4294967295
62.409443 119.36597 -62.641273 4294967295
62.421001 113.21989 -64.009315 4294967295
62.425728 114.16265 -63.836243 4294967295
62.44265 112.74191 -64.233093 4294967295
62.448479 115.5727 -63.666073 4294967295
62.456985 117.46003 -63.314159 4294967295
62.461243 110.37872 -64.839134 4294967295
62.491016 109.42824 -65.209007 4294967295
62.510323 118.38904 -63.418961 4294967295
62.519508 108.00778 -65.671257 4294967295
62.54393 119.79681 -63.310699 4294967295
62.574642 113.64822 -64.787628 4294967295
62.597015 105.73191 -63.910843 4294967295
62.643463 106.19178 -64.076462 4294967295
62.758575 116.54615 -62.529423 4294967295
62.777424 105.21667 -65.04306 4294967295
62.804028 107.09403 -64.795067 4294967295
62.85606 118.88113 -62.586067 4294967295
62.868351 110.37655 -64.462433 4294967295
62.987175 113.64544 -64.441635 4294967295
63.087524 112.20242 -65.317154 4294967295
63.132751 107.11082 -63.968212 4294967295
63.259781 114.62737 -63.0896 4294967295
63.302139 108.48145 -64.638931 4294967295
63.382175 116.48115 -63.390388 4294967295
63.396286 115.53219 -63.672611 4294967295
63.431828 112.21825 -64.580185 4294967295
63.440773 117.40846 -63.525913 4294967295
63.447716 113.62899 -64.370132 4294967295
63.464737 110.79477 -65.070305 4294967295
63.471039 108.90848 -65.507774 4294967295
63.489307 115.97689 -64.106491 4294967295
63.510719 109.84 -65.534889 4294967295
63.546188 114.07255 -64.835213 4294967295
63.596817 106.62201 -64.016548 4294967295
63.66824 105.66182 -64.628235 4294967295
63.73431 111.7739 -63.700165 4294967295
63.737793 108.00008 -64.525383 4294967295
63.745239 106.11372 -64.970352 4294967295
63.777649 105.16409 -65.357613 4294967295
63.789913 107.04445 -65.026138 4294967295
63.790401 114.59071 -63.418442 4294967295
63.877853 110.79111 -64.727432 4294967295
63.878994 111.26229 -64.633362 4294967295
63.921505 118.80386 -63.265991 4294967295
63.955391 120.68456 -63.057625 4294967295
64.002426 114.0573 -64.739883 4294967295
64.243263 115.049 -63.199337 4294967295
64.269653 118.82271 -62.542728 4294967295
64.324036 109.83569 -64.775558 4294967295
64.368607 120.68359 -62.709599 4294967295
64.386749 111.23281 -64.834724 4294967295
64.388695 110.76088 -64.946754 4294967295
64.396996 112.17297 -64.692108 4294967295
64.403412 107.45967 -65.736969 4294967295
64.403427 118.3083 -63.416454 4294967295
64.407661 108.87116 -65.459312 4294967295
64.417099 114.52599 -64.30352 4294967295
64.430214 115.93824 -64.076332 4294967295
64.436119 113.57684 -64.615143 4294967295
64.631218 115.99942 -62.502434 4294967295
64.679459 106.54821 -64.804878 4294967295
64.721321 105.59595 -65.248558 4294967295
64.740158 115.02201 -63.335358 4294967295
64.783371 111.70554 -64.293655 4294967295
64.814796 110.28235 -64.778656 4294967295
64.815224 116.41682 -63.465843 4294967295
64.82209 105.10051 -65.931381 4294967295
64.865913 117.34634 -63.556572 4294967295
64.874901 106.02837 -66.034637 4294967295
64.890869 109.7906 -65.319321 4294967295
65.163361 115.96178 -62.841923 4294967295
65.189835 114.53654 -63.300072 4294967295
65.206062 108.87036 -64.610786 4294967295
65.228897 119.25145 -62.510769 4294967295
65.286392 120.17928 -62.641144 4294967295
65.357971 121.1023 -62.853306 4294967295
65.390701 111.1769 -65.174042 4294967295
65.406639 113.0581 -64.861183 4294967295
65.413811 109.28628 -65.712898 4294967295
65.431396 110.22346 -65.61232 4294967295
65.630371 112.63721 -63.516815 4294967295
65.641495 105.56289 -65.104561 4294967295
65.71875 112.14034 -64.131866 4294967295
65.724701 117.33286 -63.047604 4294967295
65.730232 107.42384 -65.21386 4294967295
65.75296 111.18752 -64.533783 4294967295
65.762787 119.21209 -62.861717 4294967295
65.787491 115.89646 -63.717941 4294967295
65.791458 106.46667 -65.771919 4294967295
65.793884 114.47817 -64.060211 4294967295
65.811646 105.99104 -65.990471 4294967295
65.818993 108.34253 -65.526154 4294967295
65.828972 113.05251 -64.568985 4294967295
65.834869 115.41013 -64.095039 4294967295
65.872314 107.85782 -65.937111 4294967295
66.052757 114.99349 -62.711426 4294967295
66.114555 117.33836 -62.561207 4294967295
66.11734 116.86472 -62.679523 4294967295
66.144073 115.91136 -63.039402 4294967295
66.153084 108.35917 -64.721909 4294967295
66.228859 110.6953 -64.654106 4294967295
66.253975 120.13203 -62.761379 4294967295
66.584953 115.901 -62.85025 4294967295
66.596146 109.76131 -64.243553 4294967295
66.616669 111.17044 -64.057159 4294967295
66.619965 117.78114 -62.645554 4294967295
66.633156 117.30428 -62.824963 4294967295
66.638954 114.93999 -63.370041 4294967295
66.649651 108.33311 -64.861649 4294967295
66.670555 116.82015 -63.145714 4294967295
66.689568 106.43913 -65.502052 4294967295
66.700356 118.70162 -62.910652 4294967295
66.708939 114.44714 -63.880924 4294967295
66.714943 120.5888 -62.586437 4294967295
66.720909 107.84341 -65.379158 4294967295
66.730469 113.02518 -64.312988 4294967295
66.740143 110.19352 -64.981682 4294967295
66.742401 112.07848 -64.586731 4294967295
66.759308 119.15575 -63.152851 4294967295
66.783562 105.9448 -66.151855 4294967295
66.797226 112.53447 -64.804718 4294967295
67.02858 116.36253 -62.573971 4294967295
67.05146 107.38966 -64.652802 4294967295
67.091499 113.98153 -63.454662 4294967295
67.096123 108.32022 -64.70945 4294967295
67.09861 110.67641 -64.212784 4294967295
67.157181 116.79588 -63.22443 4294967295
67.224312 109.69933 -65.15242 4294967295
67.309738 111.56048 -65.243172 4294967295
67.474335 115.40542 -62.61747 4294967295
67.502747 107.84666 -64.425766 4294967295
67.507286 114.92302 -62.91354 4294967295
67.510269 108.31593 -64.367447 4294967295
67.553436 106.89131 -64.92765 4294967295
67.561264 109.24494 -64.461334 4294967295
67.563469 107.35968 -64.884033 4294967295
67.573013 117.73877 -62.68269 4294967295
67.580917 113.9567 -63.550865 4294967295
67.610771 115.83681 -63.315311 4294967295
67.641861 111.58001 -64.421234 4294967295
67.643806 110.16516 -64.740181 4294967295
67.644394 116.29899 -63.409908 4294967295
67.666847 119.60047 -62.82238 4294967295
67.674797 112.98557 -64.306778 4294967295
67.675949 112.51355 -64.416061 4294967295
67.683708 121.01405 -62.612843 4294967295
67.684387 109.68288 -65.080482 4294967295
67.696884 108.73744 -65.358589 4294967295
67.725098 111.08529 -65.01181 4294967295
67.763084 106.36689 -66.258118 4294967295
67.967415 112.5455 -63.351345 4294967295
68.009369 116.78453 -62.671494 4294967295
68.081848 119.12597 -62.582706 4294967295
68.098244 105.91158 -65.558014 4294967295
68.112679 111.0891 -64.513634 4294967295
68.176888 115.7885 -63.862823 4294967295
68.208206 114.83502 -64.252777 4294967295
68.401382 115.37112 -62.502296 4294967295
68.46479 113.46271 -63.288868 4294967295
68.465759 114.40691 -63.088219 4294967295
68.484123 112.0411 -63.712086 4294967295
68.504478 108.26342 -64.656029 4294967295
68.504936 111.09171 -64.04084 4294967295
68.518341 109.20214 -64.531792 4294967295
68.528717 118.1683 -62.633564 4294967295
68.532356 105.43098 -65.437286 4294967295
68.541115 117.69163 -62.80999 4294967295
68.542976 116.27324 -63.130661 4294967295
68.553535 110.13519 -64.533127 4294967295
68.556213 107.77867 -65.063484 4294967295
68.562119 112.49061 -64.068581 4294967295
68.620743 106.34966 -65.751839 4294967295
68.625427 113.88766 -64.132462 4294967295
68.661774 105.86874 -66.096146 4294967295
68.693932 107.27183 -65.977089 4294967295
68.952469 116.27261 -62.755173 4294967295
68.981186 115.7913 -63.028381 4294967295
69.016922 108.7041 -64.789085 4294967295
69.063164 118.12874 -62.995636 4294967295
69.096916 115.28394 -63.815727 4294967295
69.118118 114.33358 -64.147743 4294967295
69.132416 110.08601 -65.161385 4294967295
69.177597 106.7786 -66.149605 4294967295
69.451927 113.41063 -63.533165 4294967295
69.46405 115.29581 -63.190414 4294967295
69.464729 109.63346 -64.437164 4294967295
69.471848 117.18343 -62.821743 4294967295
69.483093 110.09978 -64.44236 4294967295
69.488983 106.80061 -65.201019 4294967295
69.496162 112.45396 -64.002228 4294967295
69.500572 108.21024 -64.959503 4294967295
69.521027 114.3343 -63.735172 4294967295
69.540764 116.68947 -63.333855 4294967295
69.544434 111.49691 -64.495033 4294967295
69.590714 107.71545 -65.596107 4294967295
69.636215 110.52853 -65.245178 4294967295
69.666496 107.22491 -66.147621 4294967295
69.672295 105.81248 -66.491585 4294967295
69.851311 112.94003 -63.201408 4294967295
69.918282 105.37984 -65.257919 4294967295
69.95697 118.1049 -62.685486 4294967295
70.04055 109.58527 -65.050545 4294967295
70.373489 107.71883 -64.638672 4294967295
70.378967 117.62809 -62.485554 4294967295
70.39093 105.83073 -65.157684 4294967295
70.418121 113.83659 -63.552116 4294967295
70.42234 111.47617 -64.097511 4294967295
70.425446 112.41869 -63.907925 4294967295
70.431931 107.23241 -65.089836 4294967295
70.441895 116.66304 -63.068691 4294967295
70.454933 109.58137 -64.707153 4294967295
70.463417 105.34171 -65.692131 4294967295
70.479866 115.70659 -63.503086 4294967295
70.522774 108.62078 -65.31826 4294967295
70.537979 106.73396 -65.823891 4294967295
70.560333 109.08146 -65.437714 4294967295
70.801636 116.20544 -62.497986 4294967295
70.803955 108.18142 -64.285507 4294967295
70.808296 112.8968 -63.268677 4294967295
70.808929 107.2378 -64.523445 4294967295
70.825073 110.53277 -63.890282 4294967295
70.826057 114.7804 -62.957108 4294967295
70.879364 106.2776 -65.151215 4294967295
70.922028 113.33539 -63.842705 4294967295
71.208878 113.37026 -62.732574 4294967295
71.267746 115.71483 -62.561195 4294967295
71.284546 110.98827 -63.707886 4294967295
71.288673 106.27422 -64.776833 4294967295
71.335648 117.11165 -62.653183 4294967295
71.430908 106.70789 -65.521812 4294967295
71.44857 111.41315 -64.583664 4294967295
71.467667 109.05194 -65.219749 4294967295
71.469154 110.46471 -64.915504 4294967295
71.672928 113.82528 -62.574478 4294967295
71.735268 115.69642 -62.528328 4294967295
71.766632 114.74186 -62.926262 4294967295
71.808594 111.89709 -63.80685 4294967295
71.81208 113.3117 -63.513329 4294967295
71.832886 110.94688 -64.161858 4294967295
71.833122 115.19394 -63.219925 4294967295
71.852905 107.64291 -65.014481 4294967295
71.8694 112.3512 -64.066406 4294967295
71.886505 105.28096 -65.738251 4294967295
71.89357 108.5738 -65.048729 4294967295
71.901459 117.53472 -63.105064 4294967295
71.989944 105.72475 -66.252769 4294967295
72.150818 114.27622 -62.498947 4294967295
72.164345 111.91096 -63.105927 4294967295
72.179558 112.85071 -62.987064 4294967295
72.226654 108.5919 -64.215126 4294967295
72.27002 117.07497 -62.583973 4294967295
72.274651 116.1283 -62.822308 4294967295
72.314186 109.03915 -64.635635 4294967295
72.381073 114.67878 -63.777336 4294967295
72.459465 105.2355 -66.345688 4294967295
72.683914 113.76573 -62.966656 4294967295
72.694008 108.57348 -64.1856 4294967295
72.709717 116.5926 -62.489388 4294967295
72.759338 109.49806 -64.368385 4294967295
72.761292 114.68682 -63.221897 4294967295
72.766258 110.43886 -64.199615 4294967295
72.780228 111.3779 -64.073273 4294967295
72.78476 105.25334 -65.46714 4294967295
72.829178 115.13824 -63.525482 4294967295
72.834213 106.65211 -65.449554 4294967295
72.838249 112.30428 -64.212044 4294967295
72.843086 107.12039 -65.397835 4294967295
72.845108 108.06136 -65.199883 4294967295
72.869263 108.99654 -65.135033 4294967295
72.89566 106.1655 -65.92408 4294967295
72.9095 109.92731 -65.166878 4294967295
73.198357 111.37363 -63.746544 4294967295
73.216278 117.03451 -62.586998 4294967295
73.272827 118.90741 -62.505634 4294967295
73.568031 111.85538 -63.019497 4294967295
73.590378 109.49007 -63.683704 4294967295
73.628731 113.25372 -63.069187 4294967295
73.652725 109.00132 -64.166466 4294967295
73.653931 114.6628 -62.9039 4294967295
73.669815 107.58317 -64.586769 4294967295
73.679924 117.01727 -62.531487 4294967295
73.685715 105.69568 -65.105217 4294967295
73.709526 115.11804 -63.134563 4294967295
73.722809 112.75378 -63.74427 4294967295
73.730972 108.5086 -64.745216 4294967295
73.73645 112.278 -63.932594 4294967295
73.769142 110.85391 -64.44767 4294967295
73.774773 117.9322 -62.893925 4294967295
73.796402 108.01983 -65.246429 4294967295
73.807899 110.37158 -64.787804 4294967295
74.154503 106.61827 -64.875473 4294967295
74.181213 111.79444 -63.872078 4294967295
74.18531 111.32163 -64.002899 4294967295
74.190308 116.98514 -62.759682 4294967295
74.221794 107.54189 -65.071541 4294967295
74.259171 114.13017 -63.814587 4294967295
74.34227 105.15787 -66.330238 4294967295
74.528069 111.8112 -63.109882 4294967295
74.565117 107.55692 -64.291435 4294967295
74.565186 106.61485 -64.504135 4294967295
74.574875 112.26941 -63.288113 4294967295
74.586662 113.20994 -63.147041 4294967295
74.608337 105.19128 -65.084488 4294967295
74.624237 108.48303 -64.438194 4294967295
74.657623 114.13266 -63.365788 4294967295
74.659134 107.06065 -64.968628 4294967295
74.678482 106.11415 -65.298294 4294967295
74.691574 109.87778 -64.528893 4294967295
74.698822 110.81833 -64.360451 4294967295
74.709473 112.70139 -64.00016 4294967295
74.737854 111.27844 -64.491524 4294967295
75.074791 116.49162 -62.495525 4294967295
75.109909 116.00796 -62.816532 4294967295
75.191025 115.03804 -63.524612 4294967295
75.222702 105.60505 -65.846573 4294967295
75.444862 109.42062 -63.472221 4294967295
75.461395 111.77479 -63.038948 4294967295
75.480034 113.1855 -62.832153 4294967295
75.489777 110.82281 -63.426048 4294967295
75.504608 112.23402 -63.196095 4294967295
75.538925 115.05665 -62.764275 4294967295
75.550797 109.86219 -64.012367 4294967295
75.551826 114.58032 -62.9501 4294967295
75.557098 107.9755 -64.477715 4294967295
75.559555 116.46764 -62.569416 4294967295
75.56395 106.09015 -64.946091 4294967295
75.574188 110.32696 -64.048431 4294967295
75.619026 105.13465 -65.495262 4294967295
75.67363 107.47285 -65.2957 4294967295
75.879372 112.24306 -62.598278 4294967295
75.976105 114.10284 -62.762074 4294967295
76.108459 115.95084 -63.144272 4294967295
76.109161 111.23179 -64.219849 4294967295
76.406128 109.84785 -63.467911 4294967295
76.434601 105.59937 -64.607697 4294967295
76.4496 111.25039 -63.412685 4294967295
76.466354 112.66103 -63.193443 4294967295
76.473465 113.603 -63.022198 4294967295
76.479904 114.07322 -62.954308 4294967295
76.483849 107.94072 -64.373871 4294967295
76.501083 105.11134 -65.122444 4294967295
76.52182 110.28625 -64.070702 4294967295
76.53698 108.39709 -64.592659 4294967295
76.552528 106.5095 -65.116669 4294967295
76.62851 106.95965 -65.475594 4294967295
76.824883 108.42849 -63.462006 4294967295
76.841202 110.31039 -63.132034 4294967295
76.868065 112.6623 -62.759018 4294967295
76.887421 109.3539 -63.631592 4294967295
76.91568 115.00923 -62.513363 4294967295
76.93718 106.04236 -64.689919 4294967295
76.984955 109.79758 -64.124054 4294967295
77.026237 116.86409 -62.76329 4294967295
77.029495 111.67048 -63.967888 4294967295
77.278053 106.9999 -63.668385 4294967295
77.32135 113.12035 -62.532864 4294967295
77.381912 114.51871 -62.582695 4294967295
77.459831 108.36336 -64.465919 4294967295
77.524918 107.87435 -64.974915 4294967295
77.741859 107.92514 -63.401627 4294967295
77.826309 106.95949 -64.139572 4294967295
77.826706 110.25883 -63.385605 4294967295
77.837715 112.14287 -63.020992 4294967295
77.850723 109.78034 -63.642166 4294967295
77.856659 111.66532 -63.246311 4294967295
77.873138 113.54834 -62.91547 4294967295
77.881805 106.00275 -64.698402 4294967295
77.889771 105.52994 -64.855568 4294967295
77.900192 109.29481 -64.056129 4294967295
77.938004 106.45838 -64.937721 4294967295
77.938362 111.16947 -63.859901 4294967295
77.973885 110.68759 -64.187622 4294967295
78.201714 108.38029 -63.217464 4294967295
78.401306 114.92758 -62.936722 4294967295
78.464142 107.36523 -65.06002 4294967295
78.715805 111.65089 -62.717396 4294967295
78.730652 110.70264 -63.027164 4294967295
78.737061 112.11658 -62.740795 4294967295
78.744232 111.17049 -63.002922 4294967295
78.760666 113.52592 -62.561195 4294967295
78.790749 105.97266 -64.486389 4294967295
78.816597 108.7917 -63.995815 4294967295
78.851028 109.25319 -64.101128 4294967295
78.852356 110.1955 -63.892212 4294967295
78.856567 107.83826 -64.461205 4294967295
78.900291 112.53924 -63.64687 4294967295
79.166626 109.74978 -63.019699 4294967295
79.200325 107.85416 -63.665337 4294967295
79.264046 113.02421 -62.863869 4294967295
79.328842 108.76047 -64.248016 4294967295
79.34108 106.4025 -64.868073 4294967295
79.617538 108.32117 -63.215034 4294967295
79.621346 111.15068 -62.583382 4294967295
79.691254 106.88681 -64.002571 4294967295
79.692032 107.8289 -63.789284 4294967295
79.693398 112.07317 -62.814903 4294967295
79.696945 109.71313 -63.383339 4294967295
79.704979 110.65408 -63.215057 4294967295
79.713745 113.01115 -62.723465 4294967295
79.764389 109.22225 -63.913685 4294967295
79.8069 108.73889 -64.288277 4294967295
79.822266 105.43909 -65.147217 4294967295
80.100983 107.35542 -63.505577 4294967295
80.172318 112.52323 -62.747856 4294967295
80.199142 112.98713 -62.806248 4294967295
80.216621 111.0942 -63.35397 4294967295
80.22036 114.8695 -62.50079 4294967295
80.533875 110.64838 -62.492912 4294967295
80.556992 108.28295 -63.186886 4294967295
80.559364 111.11283 -62.543114 4294967295
80.602943 112.04385 -62.597054 4294967295
80.617111 110.15203 -63.125252 4294967295
80.620087 107.7938 -63.692543 4294967295
80.649696 105.4307 -64.426338 4294967295
80.663307 109.66696 -63.524979 4294967295
80.669724 113.91201 -62.576927 4294967295
80.691765 114.37737 -62.60553 4294967295
80.705528 112.9566 -63.021645 4294967295
80.721626 107.29436 -64.439262 4294967295
80.731071 106.35016 -64.717598 4294967295
80.731422 109.17588 -64.062241 4294967295
81.126534 108.23553 -63.801086 4294967295
81.172112 111.52266 -63.317883 4294967295
81.201057 113.40135 -63.059818 4294967295
81.440834 109.6758 -62.477867 4294967295
81.474884 105.42316 -63.684937 4294967295
81.481804 110.13569 -62.625927 4294967295
81.488869 106.83273 -63.442543 4294967295
81.49704 109.18768 -62.942783 4294967295
81.500374 108.71512 -63.074059 4294967295
81.584671 107.27727 -63.936428 4294967295
81.592209 112.46232 -62.770744 4294967295
81.602783 110.57169 -63.278969 4294967295
81.609505 111.0414 -63.211037 4294967295
81.658112 105.84447 -64.729782 4294967295
82.034142 111.97957 -62.691265 4294967295
82.041397 106.31968 -64.06369 4294967295
82.490952 111.02036 -62.816921 4294967295
82.491615 109.13338 -63.264606 4294967295
82.496666 110.54684 -62.964012 4294967295
82.514175 107.2417 -63.850822 4294967295
82.515778 106.29922 -64.08239 4294967295
82.549179 105.34854 -64.51535 4294967295
82.549355 113.83478 -62.52166 4294967295
82.881592 108.19415 -62.967308 4294967295
82.902817 105.83177 -63.65757 4294967295
82.926895 107.23853 -63.477417 4294967295
82.982201 111.93848 -62.717541 4294967295
83.075584 105.31401 -64.865944 4294967295
83.307724 108.18752 -62.676392 4294967295
83.371429 106.7552 -63.416428 4294967295
83.404633 107.21711 -63.516602 4294967295
83.807266 107.21687 -63.07653 4294967295
83.815163 106.27209 -63.35025 4294967295
83.834373 110.03872 -62.579437 4294967295
83.880692 105.78297 -63.880192 4294967295
83.88633 109.55159 -63.023209 4294967295
83.925987 108.59701 -63.499931 4294967295
83.936951 106.70927 -64.016357 4294967295
83.952637 110.94682 -63.111694 4294967295
84.264717 108.1442 -62.761608 4294967295
84.700798 105.30636 -63.205948 4294967295
84.775032 106.6993 -63.345848 4294967295
84.823151 109.51392 -62.981361 4294967295
84.829269 107.15518 -63.581829 4294967295
84.892914 108.07933 -63.766155 4294967295
84.906303 106.1916 -64.300598 4294967295
85.224678 109.51496 -62.530125 4294967295
85.292274 110.91016 -62.627556 4294967295
85.292496 105.72472 -63.866676 4294967295
85.300949 109.96395 -62.908669 4294967295
85.700119 108.07913 -62.892433 4294967295
85.700562 109.49393 -62.556747 4294967295
85.716125 106.66048 -63.334229 4294967295
85.737221 109.01138 -62.906334 4294967295
85.757706 107.59112 -63.376965 4294967295
85.807091 107.10584 -63.808388 4294967295
85.81665 105.21975 -64.320801 4294967295
85.817543 106.16101 -64.101234 4294967295
85.828949 105.68705 -64.287483 4294967295
86.223991 110.87402 -62.552013 4294967295
49.342197 123.65637 -63.044186 4294967295
49.3447 125.55016 -62.680325 4294967295
49.793297 124.11689 -62.82209 4294967295
50.192451 123.64658 -62.508053 4294967295
50.731361 123.13245 -62.949417 4294967295
50.734367 125.49976 -62.490959 4294967295
51.167213 123.59771 -62.643578 4294967295
51.174301 124.06913 -62.586906 4294967295
51.670143 123.56834 -62.796715 4294967295
51.725273 123.25152 -78.28791 4294967295
51.759975 124.17538 -78.288399 4294967295
51.794678 125.09927 -78.288887 4294967295
51.846733 126.48508 -78.289619 4294967295
51.864086 126.94701 -78.289864 4294967295
51.881439 127.40895 -78.290108 4294967295
51.916145 128.33282 -78.290596 4294967295
51.950844 129.25668 -78.291084 4294967295
51.98555 130.18056 -78.291573 4294967295
52.604538 124.00569 -62.61956 4294967295
52.636715 124.46902 -62.699596 4294967295
53.144836 124.43769 -62.882973 4294967295
55.480549 123.39996 -62.875679 4294967295
50.596329 122.22728 -62.408375 4294967295
51.973469 122.18069 -62.149815 4294967295
53.333435 122.61338 -61.699512 4294967295
53.387482 121.64908 -62.188328 4294967295
54.777 120.65152 -62.191025 4294967295
54.805779 121.11615 -62.25301 4294967295
54.811691 122.53511 -61.995224 4294967295
55.755089 122.49612 -61.962212 4294967295
56.593719 122.01653 -61.443954 4294967295
57.561798 121.96976 -61.548176 4294967295
57.579525 122.91182 -61.451031 4294967295
57.587868 121.48781 -61.792198 4294967295
58.090847 122.87954 -61.656654 4294967295
58.540581 121.91953 -61.714428 4294967295
58.608685 122.37143 -61.998703 4294967295
59.424377 121.89951 -61.346825 4294967295
59.45789 122.83647 -61.337929 4294967295
59.514061 119.50368 -62.348137 4294967295
59.521942 120.92126 -62.095776 4294967295
60.47813 120.87808 -62.139801 4294967295
60.834991 120.42127 -61.572868 4294967295
61.335022 122.28756 -61.319645 4294967295
61.396309 122.74142 -61.568947 4294967295
61.405342 119.89732 -62.219845 4294967295
61.782864 120.85443 -61.46862 4294967295
61.806587 121.79424 -61.403717 4294967295
62.282688 120.35236 -61.715191 4294967295
62.376511 122.21647 -61.850838 4294967295
62.73893 121.28494 -61.411362 4294967295
62.776421 117.95959 -62.330338 4294967295
62.796822 120.79279 -61.844124 4294967295
63.143478 122.70895 -60.707962 4294967295
63.32943 121.70053 -61.979343 4294967295
63.41003 122.14771 -62.342155 4294967295
63.633247 121.26167 -61.099678 4294967295
63.653358 119.83426 -61.518867 4294967295
63.722782 119.33899 -62.01997 4294967295
63.859444 121.66189 -62.302601 4294967295
64.560699 121.7016 -60.8764 4294967295
64.629395 117.89172 -62.086357 4294967295
64.636444 119.78254 -61.721237 4294967295
64.687645 122.60752 -61.408535 4294967295
64.69059 118.81894 -62.237682 4294967295
64.837112 122.08459 -62.3759 4294967295
65.220856 121.62032 -61.95565 4294967295
65.551384 121.64695 -61.122009 4294967295
65.563652 122.59062 -60.989243 4294967295
65.564171 118.32838 -61.910389 4294967295
65.606369 119.73488 -61.84993 4294967295
65.75386 121.10722 -62.402225 4294967295
65.926193 122.60741 -60.338306 4294967295
66.202293 122.04183 -62.051258 4294967295
66.538048 121.59345 -61.347435 4294967295
66.588509 118.26385 -62.359402 4294967295
66.599991 122.04663 -61.607094 4294967295
66.670578 121.07645 -62.22472 4294967295
67.123917 119.6431 -62.41423 4294967295
67.136505 122.95248 -61.769257 4294967295
67.468597 122.50597 -61.040306 4294967295
67.633751 121.50375 -62.216511 4294967295
67.956093 122.00718 -61.223412 4294967295
68.289864 121.08565 -60.603798 4294967295
68.368301 117.27264 -61.894093 4294967295
68.466385 119.13412 -62.059219 4294967295
68.469429 120.55297 -61.766991 4294967295
68.551224 122.41969 -61.836063 4294967295
68.598686 121.93031 -62.219654 4294967295
68.774574 121.06174 -60.667011 4294967295
68.79995 120.1059 -61.024578 4294967295
68.870117 119.13624 -61.646923 4294967295
68.924065 117.22685 -62.380249 4294967295
68.959824 122.89494 -61.348083 4294967295
68.967369 121.94502 -61.600197 4294967295
69.408607 119.0951 -62.031738 4294967295
69.465576 120.02296 -62.161797 4294967295
69.683006 122.45634 -60.119595 4294967295
69.738419 119.59464 -61.074509 4294967295
69.747726 120.53886 -60.921448 4294967295
69.778465 116.26938 -62.041229 4294967295
69.807762 121.94018 -60.96558 4294967295
69.980377 121.40869 -62.09602 4294967295
70.276756 122.39524 -60.832722 4294967295
70.284622 115.2937 -62.445145 4294967295
70.366074 120.94419 -61.678379 4294967295
70.661331 118.14157 -61.242348 4294967295
70.707314 122.86357 -60.469746 4294967295
70.75016 121.42731 -61.039997 4294967295
70.77713 119.52426 -61.619774 4294967295
70.82399 118.56271 -62.108791 4294967295
70.831955 119.03324 -62.051788 4294967295
71.308884 122.32552 -61.339546 4294967295
71.311195 120.90407 -61.668259 4294967295
71.590088 122.37086 -60.185272 4294967295
71.604492 119.04924 -61.008469 4294967295
71.628098 121.88386 -60.5187 4294967295
71.640488 118.09085 -61.434727 4294967295
71.663818 116.19125 -61.994904 4294967295
71.741753 120.42457 -61.516598 4294967295
71.788803 121.35575 -61.588585 4294967295
72.188515 122.78164 -60.829117 4294967295
72.237114 120.39693 -61.648865 4294967295
72.282578 118.96236 -62.238369 4294967295
72.288773 119.90651 -62.065014 4294967295
72.308907 121.31959 -61.869972 4294967295
72.532654 122.80596 -60.048096 4294967295
72.540466 118.53886 -61.047012 4294967295
72.540871 119.95943 -60.732368 4294967295
72.552261 121.37704 -60.483784 4294967295
72.564377 117.58451 -61.402416 4294967295
72.58416 114.26816 -62.260418 4294967295
72.609428 120.88394 -60.934315 4294967295
72.647675 119.45066 -61.48201 4294967295
72.762466 120.35922 -61.962948 4294967295
73.019371 116.62386 -61.50333 4294967295
73.129646 122.74285 -60.792664 4294967295
73.216011 119.39906 -62.056404 4294967295
73.448509 118.51102 -60.811535 4294967295
73.476929 121.34399 -60.346283 4294967295
73.50071 122.758 -60.171463 4294967295
73.539291 119.90175 -61.042927 4294967295
73.564011 121.78819 -60.767815 4294967295
73.627731 120.34572 -61.472656 4294967295
73.650681 118.91831 -61.930088 4294967295
73.702896 120.79382 -61.82196 4294967295
73.87825 122.77105 -59.586876 4294967295
73.935699 119.90711 -60.575336 4294967295
74.124611 122.21156 -61.190552 4294967295
74.394951 120.36537 -60.381546 4294967295
74.461403 121.29056 -60.572685 4294967295
74.464424 122.71145 -60.270653 4294967295
74.513321 120.79914 -60.995693 4294967295
74.522888 119.84883 -61.267349 4294967295
74.533562 115.588 -62.291767 4294967295
74.582497 117.46351 -62.163372 4294967295
74.593506 117.93285 -62.123829 4294967295
74.619102 118.87045 -62.066437 4294967295
74.848854 120.35168 -60.261551 4294967295
74.948639 117.95091 -61.405426 4294967295
74.97377 118.88921 -61.344902 4294967295
75.259758 122.72377 -59.340961 4294967295
75.286865 119.86945 -60.151188 4294967295
75.493347 118.38046 -61.736137 4294967295
75.520073 118.84479 -61.792454 4294967295
75.524658 119.31642 -61.713352 4294967295
75.755623 122.6956 -59.475731 4294967295
75.841049 120.76955 -60.430489 4294967295
75.842918 116.98098 -61.301895 4294967295
75.844238 117.92701 -61.09507 4294967295
75.86834 121.70797 -60.382744 4294967295
75.901329 120.27533 -60.907814 4294967295
75.91452 122.16586 -60.558586 4294967295
76.403633 121.66612 -60.763245 4294967295
76.427055 119.76379 -61.33839 4294967295
76.43895 122.12761 -60.872643 4294967295
76.470055 121.16951 -61.279552 4294967295
76.520821 117.36753 -62.453114 4294967295
76.720139 122.17445 -59.6884 4294967295
76.732986 117.90545 -60.740547 4294967295
76.798134 122.62125 -60.061333 4294967295
76.837685 119.76455 -60.953815 4294967295
76.852295 121.1805 -60.719727 4294967295
76.87262 117.38664 -61.708927 4294967295
76.882858 118.80264 -61.448181 4294967295
76.903923 120.21559 -61.254131 4294967295
76.927902 118.31458 -61.833763 4294967295
77.1707 121.68787 -59.654243 4294967295
77.253021 119.29021 -60.704887 4294967295
77.460846 118.74738 -62.097267 4294967295
77.642548 118.35072 -60.403831 4294967295
77.698509 121.64854 -59.990154 4294967295
77.723267 115.95805 -61.446217 4294967295
77.724541 114.06649 -61.887661 4294967295
77.732071 122.11087 -60.089436 4294967295
77.750969 117.84148 -61.183884 4294967295
77.756325 120.20695 -60.67429 4294967295
77.765549 119.7302 -60.840015 4294967295
77.785088 116.41116 -61.720516 4294967295
77.797897 115.46148 -62.016624 4294967295
77.81604 118.76639 -61.369896 4294967295
78.068794 122.61308 -59.131187 4294967295
78.102303 121.65252 -59.557468 4294967295
78.115501 117.85703 -60.510723 4294967295
78.146065 119.26764 -60.373951 4294967295
78.171196 114.52724 -61.617546 4294967295
78.209785 112.62527 -62.291348 4294967295
78.295143 116.37901 -61.952072 4294967295
78.304077 115.90339 -62.116116 4294967295
78.528145 119.27818 -59.806412 4294967295
78.560837 117.84602 -60.337406 4294967295
78.564575 121.16187 -59.596409 4294967295
78.570656 122.58263 -59.306431 4294967295
78.62484 114.51318 -61.498684 4294967295
78.641617 116.39964 -61.167213 4294967295
78.651947 120.65754 -60.249748 4294967295
78.658379 118.76061 -60.726326 4294967295
78.66658 115.91856 -61.431511 4294967295
78.667084 121.60014 -60.125626 4294967295
78.678886 122.07001 -60.089924 4294967295
78.687141 118.27757 -61.014397 4294967295
78.754051 114.0003 -62.411251 4294967295
78.980148 120.68744 -59.344265 4294967295
79.197929 117.29843 -61.469124 4294967295
79.227257 115.39754 -62.088928 4294967295
79.253731 119.64578 -61.270821 4294967295
79.271027 116.80156 -62.034409 4294967295
79.477753 119.23668 -59.823902 4294967295
79.499222 121.59968 -59.409412 4294967295
79.525009 122.5392 -59.351151 4294967295
79.543633 113.53596 -61.550949 4294967295
79.545425 117.79293 -60.576336 4294967295
79.568466 116.36549 -61.049232 4294967295
79.572823 120.15187 -60.199352 4294967295
79.581787 113.99677 -61.679924 4294967295
79.633636 121.07844 -60.360546 4294967295
79.670685 115.85948 -61.797928 4294967295
79.738388 117.25594 -61.892895 4294967295
79.743568 119.61967 -61.377541 4294967295
79.883614 122.08528 -58.740055 4294967295
79.926132 118.27718 -59.887363 4294967295
80.036018 122.50534 -59.586525 4294967295
80.145615 117.25733 -61.483521 4294967295
80.197464 120.55273 -61.039696 4294967295
80.443024 120.61164 -59.610275 4294967295
80.471985 122.49834 -59.351017 4294967295
80.487648 119.17454 -60.221848 4294967295
80.493797 118.22522 -60.480873 4294967295
80.525002 115.84863 -61.227688 4294967295
80.539108 117.73664 -60.875885 4294967295
80.539444 121.99998 -59.885864 4294967295
80.589539 116.30063 -61.523293 4294967295
80.933197 116.32262 -60.711002 4294967295
80.934105 117.74245 -60.385361 4294967295
80.961975 120.57536 -59.897934 4294967295
80.987358 113.94052 -61.603836 4294967295
81.028763 114.87281 -61.644032 4294967295
81.039757 121.022 -60.277893 4294967295
81.042458 118.65288 -60.847488 4294967295
81.055779 119.12178 -60.820961 4294967295
81.29213 120.60513 -58.993717 4294967295
81.385818 115.83587 -60.693798 4294967295
81.387314 121.04591 -59.484573 4294967295
81.477913 111.55292 -62.270222 4294967295
81.487549 121.48451 -60.007534 4294967295
81.522224 114.37341 -61.887028 4294967295
81.537056 118.62522 -60.985233 4294967295
81.559929 113.88902 -62.235622 4294967295
81.585922 119.08188 -61.183376 4294967295
81.745964 122.48988 -58.423935 4294967295
81.792023 118.6792 -59.605598 4294967295
81.807098 119.62196 -59.478901 4294967295
81.820953 115.82802 -60.455189 4294967295
81.830673 116.77156 -60.294708 4294967295
81.837402 114.40335 -60.892109 4294967295
81.840179 120.55861 -59.466244 4294967295
81.854904 122.92503 -59.003513 4294967295
81.868744 119.12682 -59.980637 4294967295
81.905869 113.90883 -61.436447 4294967295
81.911484 112.96185 -61.693588 4294967295
81.974182 120.03782 -60.42664 4294967295
81.977997 115.30406 -61.560509 4294967295
81.979309 117.66872 -61.014267 4294967295
82.261383 121.03088 -59.023884 4294967295
82.383652 118.14497 -60.469154 4294967295
82.412086 119.55599 -60.315796 4294967295
82.467407 122.37973 -59.999069 4294967295
82.51413 116.2088 -61.742615 4294967295
82.534859 114.78413 -62.207554 4294967295
82.759789 118.63138 -59.741772 4294967295
82.76564 117.20836 -60.113934 4294967295
82.772072 120.99728 -59.261505 4294967295
82.776588 118.15189 -59.960438 4294967295
82.779701 119.57229 -59.645241 4294967295
82.822289 121.4536 -59.469677 4294967295
82.823975 116.71548 -60.596889 4294967295
82.834373 120.5011 -59.770164 4294967295
82.841095 115.76347 -60.928871 4294967295
82.845398 122.39381 -59.393417 4294967295
82.889328 110.55066 -62.460598 4294967295
82.921143 122.84049 -59.764393 4294967295
82.923927 112.42853 -62.235676 4294967295
82.946121 119.04099 -60.816917 4294967295
83.26825 115.75826 -60.638958 4294967295
83.297356 114.80268 -61.048187 4294967295
83.317459 119.05575 -60.17001 4294967295
83.374359 117.61586 -60.868881 4294967295
83.687271 120.49345 -59.173435 4294967295
83.691414 122.38955 -58.750557 4294967295
83.709885 121.43395 -59.09354 4294967295
83.716866 112.90824 -61.157135 4294967295
83.733223 120.00311 -59.580025 4294967295
83.735458 114.32079 -60.940022 4294967295
83.750008 111.48045 -61.704807 4294967295
83.780609 117.61814 -60.444389 4294967295
83.792969 116.19415 -60.859783 4294967295
83.797264 120.92847 -59.765549 4294967295
83.810799 119.50207 -60.188908 4294967295
83.834969 118.54649 -60.567986 4294967295
83.855972 113.80957 -61.822746 4294967295
83.861763 117.11747 -61.075832 4294967295
83.881721 111.91228 -62.434868 4294967295
83.916145 115.6806 -61.759892 4294967295
83.916809 118.04514 -61.204021 4294967295
84.215408 116.66394 -60.425987 4294967295
84.261269 113.81089 -61.394066 4294967295
84.646446 122.34566 -58.804043 4294967295
84.667046 121.38932 -59.162514 4294967295
84.683098 119.96117 -59.604504 4294967295
84.701172 118.05973 -60.172024 4294967295
84.712044 112.85248 -61.480839 4294967295
84.72213 117.10569 -60.532303 4294967295
84.733955 113.79075 -61.396599 4294967295
84.736862 116.1543 -60.852386 4294967295
84.7425 120.88803 -59.761181 4294967295
84.74334 114.73324 -61.231861 4294967295
84.745834 119.46521 -60.121101 4294967295
84.767761 120.40507 -60.036617 4294967295
84.775024 117.56107 -60.759823 4294967295
84.781631 121.82201 -59.787388 4294967295
84.807487 113.29482 -61.981758 4294967295
84.808571 111.40564 -62.438469 4294967295
84.813156 114.23795 -61.793236 4294967295
85.075493 118.07334 -59.537178 4294967295
85.088638 113.80842 -60.638939 4294967295
85.119164 111.90779 -61.286987 4294967295
85.144234 120.4191 -59.415054 4294967295
85.150673 115.6805 -60.587173 4294967295
85.528458 118.06001 -59.407955 4294967295
85.560738 112.84278 -60.862591 4294967295
85.571838 119.94082 -59.234871 4294967295
85.577629 121.83593 -58.818321 4294967295
85.57795 117.09566 -59.954765 4294967295
85.625229 122.29294 -59.012917 4294967295
85.648621 111.39778 -61.769478 4294967295
85.664345 115.64677 -60.853088 4294967295
85.678276 119.42926 -60.03688 4294967295
85.686638 116.58556 -60.770775 4294967295
85.693756 120.37141 -59.910259 4294967295
85.698898 113.74417 -61.529053 4294967295
85.702209 112.32573 -61.889606 4294967295
85.703957 118.47302 -60.429665 4294967295
85.714005 114.21193 -61.513481 4294967295
85.732307 113.26097 -61.857986 4294967295
85.945702 122.80368 -57.908394 4294967295
86.021774 116.61175 -59.880962 4294967295
86.06337 115.65104 -60.377701 4294967295
86.093262 114.69496 -60.798378 4294967295
86.09465 120.37684 -59.444122 4294967295
