# .PCD v0.7 - Point Cloud Data file format
VERSION 0.7
FIELDS x y z rgb
SIZE 4 4 4 4
TYPE F F F U
COUNT 1 1 1 1
WIDTH 1121
HEIGHT 1
VIEWPOINT 0 0 0 1 0 0 0
POINTS 1121
DATA ascii
193.34375 -50.808666 -15.672112 4294967295
193.3479 -63.760048 -15.841789 4294967295
193.36053 -50.330555 -15.652225 4294967295
193.36407 -62.832218 -15.515047 4294967295
193.38467 -62.348225 -15.557779 4294967295
193.38805 -48.47356 -14.918701 4294967295
193.39767 -49.823593 -15.967018 4294967295
193.39943 -61.873543 -15.503956 4294967295
193.40363 -61.415432 -15.276442 4294967295
193.40683 -49.356384 -15.821293 4294967295
193.40897 -48.898933 -15.559855 4294967295
193.43257 -60.014603 -14.862923 4294967295
193.43413 -60.464142 -15.1854 4294967295
193.44884 -60.892773 -15.724789 4294967295
193.49594 -59.464157 -15.610811 4294967295
193.49956 -59.006577 -15.373281 4294967295
193.52927 -58.508659 -15.566156 4294967295
193.53036 -58.054733 -15.287004 4294967295
193.57681 -57.531364 -15.75647 4294967295
193.59605 -57.049717 -15.776743 4294967295
193.60738 -56.58007 -15.666409 4294967295
193.666 -54.680809 -15.444901 4294967295
193.6705 -55.579758 -16.114149 4294967295
193.68121 -53.751804 -15.100336 4294967295
193.68584 -54.198212 -15.47506 4294967295
193.6877 -53.288708 -14.909805 4294967295
193.71072 -65.315086 -14.796528 4294967295
193.73213 -52.31625 -15.048853 4294967295
193.73247 -52.769451 -15.352045 4294967295
193.74666 -65.706696 -15.689203 4294967295
193.75865 -51.823864 -15.189358 4294967295
193.77313 -64.762711 -15.530899 4294967295
193.79996 -63.366985 -15.080498 4294967295
193.81004 -64.252197 -15.844017 4294967295
193.81154 -50.839611 -15.468288 4294967295
193.82399 -63.779045 -15.776764 4294967295
193.82858 -62.418758 -14.95796 4294967295
193.83075 -50.357971 -15.488441 4294967295
193.83502 -62.859608 -15.363094 4294967295
193.84709 -49.880497 -15.460621 4294967295
193.85274 -49.418152 -15.256052 4294967295
193.88914 -48.91217 -15.560606 4294967295
193.90306 -60.494717 -14.998039 4294967295
193.90363 -61.396774 -15.60482 4294967295
193.94226 -60.884388 -15.946863 4294967295
193.95972 -59.954136 -15.638905 4294967295
193.96571 -59.493061 -15.439819 4294967295
193.98288 -58.562553 -15.126364 4294967295
193.99506 -58.99559 -15.627693 4294967295
194.01022 -57.61591 -14.981976 4294967295
194.02461 -58.045982 -15.520168 4294967295
194.05968 -56.182709 -14.905716 4294967295
194.0914 -55.681892 -15.133749 4294967295
194.09447 -57.034512 -16.082428 4294967295
194.13925 -55.157021 -15.629471 4294967295
194.17368 -54.652588 -15.902796 4294967295
194.18512 -54.182682 -15.793795 4294967295
194.19664 -53.259491 -15.385862 4294967295
194.19739 -53.711498 -15.697985 4294967295
194.20482 -52.794075 -15.222181 4294967295
194.21783 -64.833244 -14.942045 4294967295
194.23643 -65.703117 -15.851719 4294967295
194.24504 -64.338226 -15.094891 4294967295
194.24516 -65.238701 -15.69718 4294967295
194.25099 -52.27277 -15.691174 4294967295
194.26535 -50.890953 -15.029961 4294967295
194.27176 -51.788963 -15.737082 4294967295
194.2719 -63.39312 -14.94195 4294967295
194.28284 -63.826015 -15.424988 4294967295
194.30075 -51.293201 -15.920195 4294967295
194.31737 -62.41785 -15.099321 4294967295
194.32793 -61.949802 -14.975061 4294967295
194.34196 -48.964317 -15.105804 4294967295
194.35342 -49.85606 -15.897884 4294967295
194.35416 -61.456669 -15.111912 4294967295
194.36525 -49.385212 -15.794746 4294967295
194.39366 -48.436535 -15.667688 4294967295
194.41968 -60.45002 -15.604134 4294967295
194.43285 -59.526302 -15.222918 4294967295
194.43799 -59.969727 -15.609392 4294967295
194.44841 -59.05024 -15.181665 4294967295
194.45515 -58.587822 -14.993557 4294967295
194.5036 -57.156395 -14.899593 4294967295
194.50514 -58.058167 -15.527763 4294967295
194.52147 -57.580948 -15.499693 4294967295
194.58633 -56.124878 -15.681246 4294967295
194.58698 -56.576042 -15.993008 4294967295
194.58826 -55.217056 -15.110207 4294967295
194.6024 -54.742905 -15.045515 4294967295
194.62703 -54.25296 -15.156248 4294967295
194.65942 -53.298435 -15.095352 4294967295
194.66544 -53.742451 -15.497942 4294967295
194.68851 -65.311913 -15.083408 4294967295
194.70007 -52.331623 -15.172886 4294967295
194.74944 -51.352139 -15.396667 4294967295
194.75839 -63.846066 -15.349081 4294967295
194.75854 -62.944683 -14.746637 4294967295
194.76141 -64.291382 -15.701633 4294967295
194.76538 -50.87529 -15.361887 4294967295
194.78802 -63.34724 -15.54405 4294967295
194.8306 -49.41954 -15.549417 4294967295
194.8356 -48.958374 -15.33116 4294967295
194.83714 -48.501984 -15.054552 4294967295
194.83942 -61.461277 -15.197138 4294967295
194.86652 -60.966808 -15.349747 4294967295
194.88075 -60.492947 -15.286518 4294967295
194.92584 -59.970051 -15.741638 4294967295
194.9337 -59.506374 -15.571106 4294967295
194.95085 -58.576454 -15.253473 4294967295
194.95445 -58.119041 -15.011402 4294967295
195.03922 -57.083504 -15.831423 4294967295
195.0428 -56.173996 -15.285503 4294967295
195.04349 -55.268143 -14.689905 4294967295
195.05182 -56.612144 -15.740606 4294967295
195.06383 -55.689495 -15.336178 4294967295
195.10068 -54.7285 -15.349995 4294967295
195.13734 -54.220379 -15.664719 4294967295
195.155 -53.288437 -15.355146 4294967295
195.17172 -52.810543 -15.332935 4294967295
195.17906 -52.346512 -15.153124 4294967295
195.1804 -65.304955 -15.281202 4294967295
195.18541 -64.846695 -15.061583 4294967295
195.20413 -51.402802 -14.967949 4294967295
195.20598 -51.853367 -15.303415 4294967295
195.23003 -63.872643 -15.206388 4294967295
195.23068 -64.321617 -15.521849 4294967295
195.23213 -63.418842 -14.937937 4294967295
195.24925 -50.429436 -15.121788 4294967295
195.25014 -50.881645 -15.440769 4294967295
195.26945 -62.456738 -14.959562 4294967295
195.27655 -62.895618 -15.384291 4294967295
195.29193 -49.913559 -15.53833 4294967295
195.30443 -61.047489 -14.636925 4294967295
195.31015 -48.979668 -15.237549 4294967295
195.31465 -61.932579 -15.419344 4294967295
195.3213 -48.509594 -15.121706 4294967295
195.34851 -60.525513 -15.078024 4294967295
195.3952 -59.548649 -15.258362 4294967295
195.3952 -59.097317 -14.953527 4294967295
195.45071 -58.558067 -15.588497 4294967295
195.46582 -58.08289 -15.539303 4294967295
195.4886 -57.595612 -15.620382 4294967295
195.5033 -56.217293 -14.953588 4294967295
195.52386 -56.637329 -15.607338 4294967295
195.53792 -55.711712 -15.234877 4294967295
195.54506 -54.796146 -14.744478 4294967295
195.56499 -55.217899 -15.38859 4294967295
195.60181 -53.351776 -14.790539 4294967295
195.62773 -54.217495 -15.842396 4294967295
195.63181 -53.758987 -15.605804 4294967295
195.63208 -52.400311 -14.692398 4294967295
195.65076 -64.884033 -14.810341 4294967295
195.66245 -52.807587 -15.514381 4294967295
195.67357 -65.29554 -15.503801 4294967295
195.67587 -51.881687 -15.130936 4294967295
195.7092 -50.925835 -15.084688 4294967295
195.71199 -51.374874 -15.438477 4294967295
195.72043 -63.418102 -15.075792 4294967295
195.7417 -62.932793 -15.131351 4294967295
195.74991 -63.819176 -15.88353 4294967295
195.75101 -49.957474 -15.182858 4294967295
195.75476 -49.498371 -14.940287 4294967295
195.77397 -62.429508 -15.373833 4294967295
195.78403 -61.962669 -15.238565 4294967295
195.82014 -61.453339 -15.546608 4294967295
195.82166 -60.549583 -14.959129 4294967295
195.8264 -60.99263 -15.346758 4294967295
195.8544 -60.045898 -15.210037 4294967295
195.87825 -59.556656 -15.309551 4294967295
195.88574 -59.093632 -15.130087 4294967295
195.89557 -58.626736 -14.990547 4294967295
195.93721 -57.65794 -15.086407 4294967295
195.94263 -58.100754 -15.48587 4294967295
195.95135 -57.184113 -15.020241 4294967295
195.96327 -56.713673 -14.916351 4294967295
195.98927 -56.221249 -15.052496 4294967295
196.01038 -55.284416 -14.797832 4294967295
196.01842 -55.724026 -15.242476 4294967295
196.07881 -54.726707 -15.659184 4294967295
196.10069 -53.336487 -15.109686 4294967295
196.10246 -53.786217 -15.44762 4294967295
196.11073 -65.380356 -14.772738 4294967295
196.11827 -52.857262 -15.101885 4294967295
196.16586 -52.332691 -15.608072 4294967295
196.16847 -64.383873 -15.144297 4294967295
196.17145 -50.96566 -14.778997 4294967295
196.19678 -51.380878 -15.520554 4294967295
196.19678 -50.474747 -14.904268 4294967295
196.20013 -51.828526 -15.886322 4294967295
196.23329 -63.376209 -15.636843 4294967295
196.24535 -62.456409 -15.226503 4294967295
196.24834 -62.901413 -15.586309 4294967295
196.25581 -49.934177 -15.606657 4294967295
196.2648 -49.467701 -15.452345 4294967295
196.29041 -61.931984 -15.690472 4294967295
196.29225 -60.577923 -14.795422 4294967295
196.30196 -48.506447 -15.471895 4294967295
196.30573 -61.456757 -15.644087 4294967295
196.44069 -57.182396 -15.179111 4294967295
196.44839 -56.267117 -14.692461 4294967295
196.44878 -57.620815 -15.627188 4294967295
196.53647 -55.225979 -15.586943 4294967295
196.55232 -54.749573 -15.550203 4294967295
196.56396 -54.27969 -15.440573 4294967295
196.57013 -53.365891 -14.926697 4294967295
196.58289 -53.798496 -15.456455 4294967295
196.60387 -52.861916 -15.19751 4294967295
196.6163 -64.900429 -14.899874 4294967295
196.62352 -52.379578 -15.225597 4294967295
196.64832 -64.396812 -15.141155 4294967295
196.65488 -50.97401 -14.834929 4294967295
196.65558 -63.935047 -14.955816 4294967295
196.6678 -51.407402 -15.368105 4294967295
196.67343 -51.851482 -15.774794 4294967295
196.70425 -62.504169 -14.863167 4294967295
196.72261 -49.060379 -14.759996 4294967295
196.72421 -63.370224 -15.828602 4294967295
196.75214 -49.92292 -15.890699 4294967295
196.75685 -49.463039 -15.661169 4294967295
196.7755 -61.935947 -15.781616 4294967295
196.79018 -61.461864 -15.723875 4294967295
196.79146 -61.009697 -15.435604 4294967295
196.79469 -59.65303 -14.55834 4294967295
196.795 -60.103218 -14.874693 4294967295
196.79622 -60.55164 -15.207045 4294967295
196.83801 -59.131939 -14.995712 4294967295
196.87932 -58.614487 -15.397799 4294967295
196.88635 -58.152336 -15.208309 4294967295
196.89214 -57.240841 -14.685373 4294967295
196.89906 -57.680958 -15.116745 4294967295
196.92535 -56.736664 -14.948385 4294967295
196.97546 -55.754597 -15.192238 4294967295
196.9977 -55.268147 -15.26502 4294967295
197.01094 -53.891857 -14.558578 4294967295
197.03076 -54.313091 -15.214123 4294967295
197.0316 -53.407711 -14.60413 4294967295
197.05515 -52.919117 -14.700233 4294967295
197.05975 -65.424858 -14.577164 4294967295
197.06937 -52.444904 -14.634064 4294967295
197.09747 -51.949451 -14.809286 4294967295
197.10718 -64.894577 -15.087215 4294967295
197.12982 -64.406815 -15.167812 4294967295
197.14029 -63.939762 -15.036924 4294967295
197.14871 -63.476089 -14.87038 4294967295
197.15016 -51.416878 -15.410515 4294967295
197.15968 -63.008011 -14.747795 4294967295
197.17438 -50.927738 -15.518219 4294967295
197.19847 -49.986164 -15.311153 4294967295
197.2 -62.49065 -15.135002 4294967295
197.20428 -62.03371 -14.89666 4294967295
197.20502 -61.582497 -14.596535 4294967295
197.20697 -50.426102 -15.771217 4294967295
197.21754 -49.051723 -15.01679 4294967295
197.2249 -48.587543 -14.831821 4294967295
197.23602 -60.63068 -14.509127 4294967295
197.24055 -49.470474 -15.729109 4294967295
197.24303 -61.069302 -14.944181 4294967295
197.2496 -60.157852 -14.432213 4294967295
197.26807 -59.677017 -14.439791 4294967295
197.35385 -57.734459 -14.678299 4294967295
197.35582 -58.632828 -15.339239 4294967295
197.35918 -59.077751 -15.71092 4294967295
197.39992 -57.209442 -15.166487 4294967295
197.40443 -56.751167 -14.931564 4294967295
197.40587 -56.297623 -14.642794 4294967295
197.47098 -55.742924 -15.463358 4294967295
197.50603 -53.881725 -14.818308 4294967295
197.51541 -53.415169 -14.667641 4294967295
197.51704 -54.316223 -15.324671 4294967295
197.56682 -52.883503 -15.250214 4294967295
197.5766 -51.964127 -14.792217 4294967295
197.59096 -51.489731 -14.728361 4294967295
197.60295 -64.431076 -15.049044 4294967295
197.60983 -64.868179 -15.483385 4294967295
197.61201 -63.966507 -14.892628 4294967295
197.646 -50.04818 -14.745852 4294967295
197.65231 -63.448673 -15.282295 4294967295
197.65816 -50.934868 -15.587997 4294967295
197.67375 -62.513763 -15.0271 4294967295
197.67632 -62.958775 -15.386829 4294967295
197.68289 -62.048782 -14.872271 4294967295
197.68481 -50.442142 -15.738804 4294967295
197.69272 -49.072231 -14.932449 4294967295
197.71022 -60.653404 -14.404491 4294967295
197.71533 -48.585445 -15.01305 4294967295
197.75551 -61.027905 -15.512398 4294967295
197.77304 -60.099148 -15.188826 4294967295
197.78288 -59.632828 -15.045591 4294967295
197.81628 -58.226841 -14.684296 4294967295
197.82193 -59.118397 -15.414257 4294967295
197.85416 -56.812874 -14.400415 4294967295
197.86086 -57.703762 -15.149546 4294967295
197.87569 -57.229065 -15.093998 4294967295
197.94438 -56.217018 -15.666838 4294967295
197.95325 -55.751972 -15.506762 4294967295
197.96901 -54.824688 -15.15119 4294967295
197.97198 -55.271126 -15.519588 4294967295
197.99062 -54.339184 -15.214455 4294967295
198.00394 -53.866768 -15.131918 4294967295
198.06252 -52.871956 -15.528431 4294967295
198.07565 -65.35334 -15.554995 4294967295
198.0759 -64.904449 -15.242874 4294967295
198.08502 -52.385269 -15.607935 4294967295
198.08946 -64.432343 -15.164854 4294967295
198.09859 -51.008324 -14.896179 4294967295
198.09892 -51.911991 -15.53553 4294967295
198.10652 -51.44833 -15.352495 4294967295
198.12292 -63.477161 -15.119686 4294967295
198.13777 -49.590996 -14.634892 4294967295
198.1423 -50.036808 -15.03137 4294967295
198.15495 -62.524307 -15.049612 4294967295
198.16457 -62.957054 -15.535501 4294967295
198.17336 -61.144634 -14.421841 4294967295
198.18314 -62.027267 -15.228523 4294967295
198.19722 -61.554089 -15.159655 4294967295
198.19997 -60.65015 -14.573517 4294967295
198.21443 -60.176086 -14.510515 4294967295
198.26311 -59.195057 -14.733641 4294967295
198.27119 -58.731483 -14.558168 4294967295
198.30365 -58.227776 -14.812914 4294967295
198.30905 -57.768452 -14.590305 4294967295
198.31584 -57.306717 -14.391998 4294967295
198.40103 -56.717705 -15.578487 4294967295
198.40938 -55.351967 -14.771202 4294967295
198.41026 -56.252224 -15.423531 4294967295
198.42386 -55.779636 -15.345631 4294967295
198.44968 -54.385262 -14.846935 4294967295
198.45473 -53.925869 -14.617487 4294967295
198.4743 -54.797199 -15.600384 4294967295
198.47809 -52.985687 -14.393545 4294967295
198.50592 -53.39357 -15.204632 4294967295
198.51398 -65.438278 -14.823189 4294967295
198.51703 -52.021027 -14.444487 4294967295
198.52063 -52.4673 -14.827435 4294967295
198.53529 -64.952629 -14.881575 4294967295
198.55911 -64.013985 -14.665314 4294967295
198.5968 -50.541241 -14.90062 4294967295
198.60284 -63.489716 -15.120716 4294967295
198.60295 -50.983902 -15.328262 4294967295
198.60641 -51.430363 -15.708519 4294967295
198.61087 -49.614933 -14.510841 4294967295
198.61723 -63.016121 -15.056734 4294967295
198.64011 -49.117836 -14.710028 4294967295
198.64439 -62.520664 -15.218922 4294967295
198.65096 -48.648693 -14.58279 4294967295
198.65822 -61.149387 -14.50588 4294967295
198.66454 -49.985317 -15.781572 4294967295
198.6763 -62.0172 -15.465496 4294967295
198.68851 -60.198978 -14.403927 4294967295
198.68939 -60.647213 -14.739141 4294967295
198.73291 -59.224926 -14.552322 4294967295
198.73543 -59.670631 -14.916603 4294967295
198.77861 -58.698986 -15.044115 4294967295
198.80431 -58.206482 -15.180538 4294967295
198.8567 -56.769848 -15.151497 4294967295
198.88713 -55.819313 -15.052477 4294967295
198.89532 -56.256554 -15.51812 4294967295
198.90556 -54.88792 -14.739376 4294967295
198.94843 -54.368248 -15.181585 4294967295
198.95912 -53.900116 -15.051537 4294967295
198.98463 -53.408405 -15.185146 4294967295
198.99017 -65.457474 -14.756186 4294967295
199.00569 -64.533516 -14.390797 4294967295
199.01674 -52.906357 -15.436363 4294967295
199.02992 -52.434284 -15.350397 4294967295
199.03886 -64.923698 -15.303205 4294967295
199.05408 -50.589539 -14.496195 4294967295
199.05525 -63.998505 -14.953207 4294967295
199.07233 -63.520283 -14.936604 4294967295
199.07347 -50.107403 -14.520628 4294967295
199.08159 -51.450493 -15.629217 4294967295
199.08849 -50.988132 -15.431393 4294967295
199.09813 -62.129234 -14.432495 4294967295
199.12508 -62.531796 -15.235104 4294967295
199.12718 -49.120331 -14.83633 4294967295
199.14331 -48.643291 -14.802755 4294967295
199.15979 -61.125484 -14.890488 4294967295
199.19414 -60.617924 -15.182257 4294967295
199.20064 -60.157616 -14.976728 4294967295
199.21884 -59.227875 -14.657873 4294967295
199.24034 -58.742111 -14.720167 4294967295
199.25999 -58.259438 -14.749731 4294967295
199.29893 -57.744862 -15.12394 4294967295
199.35426 -56.303406 -15.147535 4294967295
199.35439 -55.852833 -14.826962 4294967295
199.35933 -56.745239 -15.56056 4294967295
199.37737 -54.914181 -14.592983 4294967295
199.4315 -54.376011 -15.240511 4294967295
199.43686 -53.465553 -14.690592 4294967295
199.44751 -53.899483 -15.204861 4294967295
199.46234 -52.522373 -14.501436 4294967295
199.50287 -52.909206 -15.552206 4294967295
199.50459 -52.004131 -14.936462 4294967295
199.51212 -51.088993 -14.425016 4294967295
199.5298 -64.020447 -14.857994 4294967295
199.55287 -50.121616 -14.509424 4294967295
199.55856 -49.660633 -14.287895 4294967295
199.56116 -62.620239 -14.450586 4294967295
199.57008 -63.50164 -15.258234 4294967295
199.57018 -50.5466 -15.143982 4294967295
199.60069 -49.143482 -14.721085 4294967295
199.60759 -61.642303 -14.637594 4294967295
199.62585 -48.652596 -14.849815 4294967295
199.64351 -61.131626 -14.959908 4294967295
199.65131 -60.669312 -14.775864 4294967295
199.68324 -60.165707 -15.026611 4294967295
199.70132 -58.786808 -14.379341 4294967295
199.7123 -58.3186 -14.252211 4294967295
199.73686 -59.17643 -15.343319 4294967295
199.74744 -57.809925 -14.560846 4294967295
199.78816 -56.842266 -14.64501 4294967295
199.81142 -57.253548 -15.389402 4294967295
199.82773 -56.326756 -15.034136 4294967295
199.88254 -53.984791 -14.397631 4294967295
199.88391 -55.334198 -15.397991 4294967295
199.92453 -53.466179 -14.830721 4294967295
199.92569 -54.365566 -15.502184 4294967295
199.93161 -65.515434 -14.424553 4294967295
199.94458 -52.983074 -14.867245 4294967295
199.95592 -64.576233 -14.212664 4294967295
199.95958 -65.017708 -14.604593 4294967295
199.96167 -52.504658 -14.851011 4294967295
199.99615 -64.056862 -14.614634 4294967295
200.00868 -63.586617 -14.515217 4294967295
200.01439 -63.128246 -14.292568 4294967295
200.01614 -51.966839 -15.510414 4294967295
200.02069 -51.05727 -14.940807 4294967295
200.02367 -51.503841 -15.320753 4294967295
200.048 -50.56282 -15.10948 4294967295
200.05055 -50.107216 -14.829687 4294967295
200.0602 -62.599632 -14.795542 4294967295
200.06754 -49.177006 -14.48468 4294967295
200.06871 -48.722977 -14.179607 4294967295
200.0899 -49.594131 -15.216246 4294967295
200.09647 -61.639465 -14.800329 4294967295
200.10751 -61.171696 -14.673676 4294967295
200.1483 -60.203728 -14.760046 4294967295
200.17436 -58.811501 -14.252836 4294967295
200.17758 -59.704609 -14.964396 4294967295
200.19412 -58.328533 -14.284111 4294967295
200.21547 -59.191002 -15.324955 4294967295
200.25346 -57.779022 -15.033924 4294967295
200.2563 -57.324627 -14.758881 4294967295
200.2674 -56.856312 -14.633087 4294967295
200.29266 -55.91428 -14.437563 4294967295
200.30659 -56.341198 -15.017954 4294967295
200.34859 -55.371815 -15.126677 4294967295
200.37912 -54.871552 -15.354227 4294967295
200.38033 -53.96891 -14.721329 4294967295
200.38672 -53.507881 -14.509674 4294967295
200.41324 -53.014172 -14.664551 4294967295
200.43512 -65.038109 -14.525248 4294967295
200.44791 -52.507523 -14.967464 4294967295
200.45117 -65.456696 -15.145483 4294967295
200.4752 -52.012836 -15.136875 4294967295
200.48149 -51.100567 -14.595337 4294967295
200.48312 -51.549202 -14.953068 4294967295
200.48567 -64.499992 -15.118145 4294967295
200.49384 -63.141914 -14.282347 4294967295
200.4957 -63.586697 -14.644489 4294967295
200.50208 -64.023155 -15.08884 4294967295
200.53468 -62.621708 -14.698374 4294967295
200.53482 -50.564823 -15.238892 4294967295
200.55234 -50.085899 -15.229984 4294967295
200.56 -62.129013 -14.83176 4294967295
200.56749 -49.159054 -14.849787 4294967295
200.56816 -49.609638 -15.190178 4294967295
200.58051 -61.196415 -14.54841 4294967295
200.58295 -61.640583 -14.921793 4294967295
200.61595 -48.631943 -15.404915 4294967295
200.61632 -60.68565 -14.872952 4294967295
200.63094 -60.211689 -14.811281 4294967295
200.6496 -59.730751 -14.823137 4294967295
200.68481 -58.772457 -14.80862 4294967295
200.70728 -58.285069 -14.889856 4294967295
200.7292 -57.349285 -14.631907 4294967295
200.74156 -57.777683 -15.187771 4294967295
200.75587 -56.854797 -14.790703 4294967295
200.78346 -56.358978 -14.9655 4294967295
200.80449 -55.424278 -14.691553 4294967295
200.8127 -55.860489 -15.171078 4294967295
200.84378 -54.459179 -14.751055 4294967295
200.85036 -53.547531 -14.211689 4294967295
200.85585 -53.989052 -14.642359 4294967295
200.87349 -65.573212 -14.094713 4294967295
200.88483 -52.589951 -14.182878 4294967295
200.89822 -53.018909 -14.759022 4294967295
200.9323 -65.019455 -14.842518 4294967295
200.95645 -51.12167 -14.504879 4294967295
200.95813 -64.525566 -14.986055 4294967295
200.9659 -64.064217 -14.798077 4294967295
200.97542 -50.640194 -14.522476 4294967295
200.99956 -49.699104 -14.303858 4294967295
201.00041 -50.149181 -14.650612 4294967295
201.00624 -63.096889 -14.877615 4294967295
201.02209 -62.620926 -14.838049 4294967295
201.02289 -48.7589 -14.070707 4294967295
201.05038 -49.167431 -14.907257 4294967295
201.06387 -61.651192 -14.943968 4294967295
201.09653 -60.697578 -14.881933 4294967295
201.10063 -61.138596 -15.288313 4294967295
201.10814 -60.228951 -14.764193 4294967295
201.14528 -59.715973 -15.115992 4294967295
201.16165 -59.239098 -15.086073 4294967295
201.1743 -58.768608 -14.987505 4294967295
201.18254 -58.305614 -14.807589 4294967295
201.1877 -57.847706 -14.571247 4294967295
201.20567 -57.367897 -14.570274 4294967295
201.2076 -56.915234 -14.27383 4294967295
201.26971 -55.9114 -14.754623 4294967295
201.28661 -54.983582 -14.402 4294967295
201.31351 -54.038754 -14.23321 4294967295
201.36914 -65.557213 -14.383644 4294967295
201.3708 -53.494118 -14.958172 4294967295
201.37563 -65.098251 -14.170618 4294967295
201.37788 -53.032242 -14.756758 4294967295
201.3968 -52.55093 -14.7735 4294967295
201.41763 -64.127411 -14.280817 4294967295
201.42767 -51.599632 -14.678123 4294967295
201.43439 -64.54435 -14.923098 4294967295
201.45549 -63.611698 -14.647657 4294967295
201.45567 -63.163815 -14.318096 4294967295
201.46275 -51.092289 -14.993519 4294967295
201.48117 -50.611881 -15.001223 4294967295
201.49425 -49.688892 -14.5769 4294967295
201.49529 -50.138348 -14.929409 4294967295
201.49808 -62.192543 -14.435745 4294967295
201.49883 -62.638985 -14.782537 4294967295
201.51762 -48.749073 -14.342394 4294967295
201.54706 -61.657738 -15.008661 4294967295
201.55917 -60.740356 -14.566355 4294967295
201.58235 -60.251404 -14.662134 4294967295
201.61688 -59.294323 -14.634428 4294967295
201.61824 -59.740376 -14.993181 4294967295
201.64595 -58.795353 -14.839043 4294967295
201.65102 -58.337883 -14.599384 4294967295
201.66658 -57.862228 -14.553831 4294967295
201.69539 -57.36388 -14.753927 4294967295
201.71739 -56.877258 -14.828089 4294967295
201.72278 -56.418922 -14.593803 4294967295
201.75739 -55.461559 -14.56756 4294967295
201.76004 -55.906502 -14.951109 4294967295
201.76421 -54.550606 -14.024603 4294967295
201.78577 -54.964287 -14.760084 4294967295
201.81949 -53.558521 -14.382532 4294967295
201.8248 -53.999653 -14.816168 4294967295
138.53867 -47.261856 -16.905178 4294967295
138.54378 -46.79034 -16.78277 4294967295
138.57622 -32.808624 -16.71521 4294967295
138.5952 -44.879322 -16.585346 4294967295
138.60721 -45.805298 -17.040985 4294967295
138.61536 -45.331348 -16.946999 4294967295
138.61996 -43.456242 -16.306545 4294967295
138.62033 -42.987743 -16.138964 4294967295
138.62489 -31.836422 -16.833759 4294967295
138.63977 -32.29583 -17.145603 4294967295
138.6541 -44.365852 -16.971556 4294967295
138.67302 -42.479427 -16.466393 4294967295
138.68079 -43.87748 -17.053173 4294967295
138.70119 -40.584549 -16.048302 4294967295
138.75169 -41.015316 -16.698021 4294967295
138.75755 -40.074074 -16.411072 4294967295
138.76369 -41.942631 -17.153904 4294967295
138.78236 -39.587143 -16.474842 4294967295
138.84479 -39.072666 -16.895172 4294967295
138.8494 -38.132038 -16.596321 4294967295
138.85178 -36.723495 -16.104504 4294967295
138.87744 -37.174118 -16.519224 4294967295
138.88757 -38.572876 -17.129204 4294967295
138.90233 -48.306946 -16.102266 4294967295
138.92139 -37.611191 -17.107372 4294967295
138.93401 -36.195736 -16.712954 4294967295
138.9381 -47.343155 -16.098524 4294967295
138.97922 -47.777714 -16.660223 4294967295
138.98045 -34.755661 -16.639275 4294967295
138.98628 -35.689663 -17.037466 4294967295
138.99538 -46.829937 -16.470539 4294967295
139.01144 -35.202957 -17.104757 4294967295
139.03108 -32.843052 -16.433472 4294967295
139.0405 -45.859035 -16.555698 4294967295
139.04613 -44.45116 -16.094101 4294967295
139.05042 -33.299179 -16.788685 4294967295
139.07967 -34.217216 -17.409122 4294967295
139.09283 -33.739048 -17.362617 4294967295
139.10173 -43.940105 -16.450451 4294967295
139.10472 -32.323174 -16.961039 4294967295
139.11787 -45.330662 -17.118877 4294967295
139.11893 -44.862293 -16.957239 4294967295
139.13504 -42.978424 -16.423632 4294967295
139.14154 -43.441441 -16.657047 4294967295
139.16719 -31.811275 -17.382702 4294967295
139.21051 -40.11137 -16.109997 4294967295
139.21486 -41.513317 -16.666689 4294967295
139.23972 -40.558067 -16.559593 4294967295
139.24272 -39.61887 -16.244213 4294967295
139.25389 -41.01572 -16.866245 4294967295
139.33527 -39.082012 -16.952518 4294967295
139.34497 -38.606403 -16.873104 4294967295
139.38521 -37.639931 -16.911991 4294967295
139.41489 -37.149807 -17.022522 4294967295
139.42062 -38.082653 -17.420979 4294967295
139.43988 -47.810314 -16.433239 4294967295
139.44406 -34.784363 -16.439983 4294967295
139.45145 -35.248276 -16.682386 4294967295
139.45293 -48.267021 -16.729702 4294967295
139.47786 -46.845032 -16.450752 4294967295
139.48003 -45.908104 -16.126976 4294967295
139.4895 -36.158916 -17.388838 4294967295
139.49641 -35.685276 -17.282825 4294967295
139.49828 -34.277138 -16.784187 4294967295
139.5416 -46.326874 -16.885696 4294967295
139.54942 -45.385689 -16.616089 4294967295
139.55048 -31.42452 -16.247934 4294967295
139.57353 -43.495583 -16.156425 4294967295
139.59552 -33.271229 -17.366314 4294967295
139.6069 -31.855719 -16.958401 4294967295
139.62167 -44.39389 -16.960075 4294967295
139.62575 -32.312153 -17.310108 4294967295
139.63339 -44.852215 -17.244272 4294967295
139.66872 -42.954296 -16.891851 4294967295
139.69485 -41.062191 -16.4515 4294967295
139.78995 -40.054371 -17.014227 4294967295
139.8656 -37.188042 -16.701305 4294967295
139.87158 -38.589146 -17.276119 4294967295
139.88542 -38.110664 -17.235806 4294967295
139.88858 -36.702702 -16.748198 4294967295
139.8916 -36.23172 -16.604282 4294967295
139.91478 -37.620853 -17.34367 4294967295
139.93161 -35.265282 -16.641354 4294967295
139.96216 -34.774654 -16.760513 4294967295
139.98366 -48.242794 -17.172331 4294967295
139.98763 -46.838268 -16.691988 4294967295
139.98978 -33.817055 -16.679041 4294967295
139.99654 -35.687862 -17.434563 4294967295
140.01714 -34.266941 -17.113352 4294967295
140.02612 -32.853294 -16.680885 4294967295
140.04683 -33.308125 -17.051922 4294967295
140.04811 -45.855373 -16.924849 4294967295
140.05519 -45.38237 -16.819677 4294967295
140.05983 -46.313316 -17.209667 4294967295
140.06247 -31.420027 -16.509789 4294967295
140.10403 -32.330296 -17.253437 4294967295
140.10974 -43.936905 -16.822992 4294967295
140.11092 -31.856371 -17.146446 4294967295
140.13033 -44.388367 -17.193073 4294967295
140.13066 -42.517288 -16.504314 4294967295
140.18307 -41.541218 -16.659927 4294967295
140.18817 -41.069229 -16.535807 4294967295
140.22231 -41.979187 -17.208797 4294967295
140.24992 -40.55447 -16.954252 4294967295
140.25471 -39.614517 -16.65378 4294967295
140.28168 -39.126099 -16.739056 4294967295
140.29085 -38.182396 -16.480492 4294967295
140.35019 -38.607075 -17.222481 4294967295
140.35304 -36.731026 -16.556927 4294967295
140.38936 -35.767235 -16.558407 4294967295
140.39659 -47.847126 -16.314838 4294967295
140.40865 -47.370075 -16.257156 4294967295
140.41949 -36.214344 -17.020916 4294967295
140.43625 -46.880486 -16.348507 4294967295
140.44615 -34.78891 -16.756653 4294967295
140.49022 -48.237949 -17.38665 4294967295
140.4991 -45.895409 -16.60495 4294967295
140.50661 -32.400753 -16.469578 4294967295
140.53043 -32.853542 -16.871723 4294967295
140.53281 -33.789936 -17.241547 4294967295
140.53876 -33.316811 -17.12532 4294967295
140.5453 -44.456329 -16.527971 4294967295
140.54739 -34.248451 -17.555147 4294967295
140.55504 -31.428612 -16.58754 4294967295
140.56934 -43.96983 -16.585316 4294967295
140.57195 -45.370155 -17.131029 4294967295
140.57602 -31.88361 -16.962595 4294967295
140.59947 -43.010887 -16.527519 4294967295
140.60173 -44.879311 -17.243643 4294967295
140.60716 -41.600964 -16.080076 4294967295
140.6093 -43.471004 -16.795465 4294967295
140.67451 -42.485115 -17.075102 4294967295
140.68259 -40.607246 -16.457739 4294967295
140.70973 -40.118565 -16.544962 4294967295
140.71661 -41.04948 -16.958775 4294967295
140.72311 -39.640266 -16.499786 4294967295
140.74797 -38.216415 -16.217171 4294967295
140.76453 -39.141018 -16.72451 4294967295
140.76939 -37.73201 -16.249374 4294967295
140.8358 -38.619812 -17.236382 4294967295
140.8392 -37.212254 -16.747641 4294967295
140.8782 -36.715309 -16.949043 4294967295
140.88832 -35.770695 -16.698477 4294967295
140.90701 -35.28849 -16.704567 4294967295
140.91245 -47.367867 -16.442776 4294967295
140.92445 -46.890942 -16.384237 4294967295
140.92805 -46.4207 -16.244801 4294967295
140.93121 -34.802368 -16.763605 4294967295
140.93321 -48.28495 -16.990957 4294967295
140.93361 -36.206642 -17.30859 4294967295
140.93593 -33.861053 -16.460575 4294967295
140.94731 -47.806561 -16.952705 4294967295
140.95529 -32.90905 -16.298805 4294967295
140.99428 -45.432903 -16.534901 4294967295
141.00273 -34.282772 -17.278513 4294967295
141.01376 -44.482452 -16.374216 4294967295
141.03551 -33.32206 -17.246227 4294967295
141.03722 -43.060806 -16.077255 4294967295
141.04568 -32.376953 -16.996033 4294967295
141.0457 -43.522018 -16.333546 4294967295
141.05977 -44.913517 -16.99201 4294967295
141.09015 -43.954803 -16.936398 4294967295
141.11148 -42.535316 -16.619394 4294967295
141.12741 -42.055199 -16.598751 4294967295
141.13802 -40.64299 -16.177769 4294967295
141.1519 -41.100536 -16.486294 4294967295
141.21381 -41.521027 -17.258114 4294967295
141.24464 -40.094109 -17.032818 4294967295
141.25792 -39.616131 -16.986303 4294967295
141.30539 -38.644421 -17.096018 4294967295
141.34828 -37.67627 -17.161392 4294967295
141.35638 -36.265072 -16.715748 4294967295
141.36284 -38.13364 -17.476601 4294967295
141.3996 -37.170319 -17.482697 4294967295
141.41145 -48.303219 -16.933304 4294967295
141.42693 -34.339382 -16.698912 4294967295
141.43176 -46.885818 -16.605598 4294967295
141.43483 -47.817242 -16.984703 4294967295
141.44185 -45.943245 -16.353554 4294967295
141.44226 -33.859573 -16.672567 4294967295
141.44557 -47.34161 -16.913895 4294967295
141.45662 -45.464046 -16.321493 4294967295
141.46738 -46.389919 -16.775309 4294967295
141.46817 -32.903236 -16.573343 4294967295
141.47066 -35.245438 -17.471445 4294967295
141.51041 -31.935421 -16.632523 4294967295
141.5114 -44.018005 -16.326996 4294967295
141.53311 -31.450451 -16.677483 4294967295
141.53947 -44.463306 -16.773655 4294967295
141.53972 -44.930424 -16.950882 4294967295
141.55153 -32.375969 -17.20537 4294967295
141.55264 -43.517975 -16.551136 4294967295
141.58359 -42.558456 -16.500866 4294967295
141.59566 -42.081306 -16.442688 4294967295
141.61761 -41.12854 -16.305325 4294967295
141.65038 -41.571266 -16.797901 4294967295
141.6593 -40.160591 -16.359039 4294967295
141.68694 -40.607597 -16.801807 4294967295
141.73416 -39.63588 -16.909342 4294967295
141.73833 -39.164688 -16.774632 4294967295
141.80592 -37.709709 -16.90453 4294967295
141.83253 -36.753407 -16.812225 4294967295
141.86734 -35.791027 -16.799255 4294967295
141.86998 -36.257595 -17.000286 4294967295
141.88039 -37.186539 -17.45155 4294967295
141.89769 -34.363029 -16.567513 4294967295
141.90993 -47.838081 -16.896805 4294967295
141.91292 -48.302303 -17.10125 4294967295
141.92845 -46.422134 -16.550369 4294967295
141.94109 -34.800674 -17.164314 4294967295
141.9614 -45.461201 -16.519295 4294967295
141.97002 -33.842712 -17.09449 4294967295
141.97414 -31.494505 -16.256968 4294967295
142.00519 -45.893059 -17.12026 4294967295
142.00531 -46.826603 -17.472294 4294967295
142.01328 -33.343353 -17.339153 4294967295
142.02609 -31.927706 -16.937346 4294967295
142.03041 -44.938721 -17.014351 4294967295
142.03693 -32.857941 -17.393589 4294967295
142.0522 -43.986935 -16.874912 4294967295
142.05522 -43.517155 -16.728779 4294967295
142.0563 -43.048809 -16.563578 4294967295
142.05702 -32.375076 -17.413277 4294967295
142.06271 -42.576145 -16.450363 4294967295
142.06656 -41.637531 -16.136234 4294967295
142.07021 -44.439873 -17.225372 4294967295
142.12488 -42.060116 -16.878967 4294967295
142.18321 -41.079777 -17.094986 4294967295
142.20291 -39.193283 -16.583347 4294967295
142.23932 -39.633701 -17.113728 4294967295
142.24335 -40.098412 -17.328619 4294967295
142.25246 -38.687923 -16.889736 4294967295
142.29669 -38.186737 -17.144737 4294967295
142.31532 -37.704796 -17.150215 4294967295
142.31802 -37.234631 -17.000685 4294967295
142.3468 -36.276859 -16.929033 4294967295
142.35855 -48.347527 -16.726768 4294967295
142.36864 -35.792507 -16.965733 4294967295
142.37703 -36.722946 -17.399277 4294967295
142.4017 -34.831532 -16.935871 4294967295
142.40846 -33.420364 -16.473423 4294967295
142.42967 -34.342823 -17.032461 4294967295
142.44124 -46.879253 -17.004402 4294967295
142.44716 -33.861671 -17.026882 4294967295
142.46246 -45.92823 -16.859001 4294967295
142.46506 -31.504112 -16.320404 4294967295
142.47554 -44.516224 -16.45813 4294967295
142.50842 -43.08773 -16.249817 4294967295
142.51375 -44.95285 -17.007004 4294967295
142.51527 -32.407188 -17.162615 4294967295
142.51746 -43.548119 -16.5144 4294967295
142.52353 -32.87014 -17.419174 4294967295
142.53015 -44.005417 -16.814587 4294967295
142.62112 -41.596794 -16.820717 4294967295
142.6371 -42.051868 -17.152977 4294967295
142.66245 -41.097191 -17.047916 4294967295
142.71342 -40.590359 -17.369381 4294967295
142.71378 -38.718899 -16.666864 4294967295
142.76712 -38.210751 -17.01166 4294967295
142.77657 -39.139336 -17.457008 4294967295
142.77818 -39.60574 -17.649189 4294967295
142.79135 -36.319843 -16.54203 4294967295
142.80003 -37.250031 -16.980335 4294967295
142.80009 -36.781757 -16.804314 4294967295
142.80418 -37.715034 -17.1973 4294967295
142.81143 -48.386909 -16.420658 4294967295
142.83392 -47.901493 -16.463799 4294967295
142.83559 -34.881844 -16.44451 4294967295
142.85367 -33.931225 -16.267651 4294967295
142.8553 -35.804546 -16.990818 4294967295
142.88464 -33.440189 -16.394009 4294967295
142.88863 -32.968369 -16.25613 4294967295
142.90138 -45.978432 -16.416828 4294967295
142.90421 -47.37672 -16.974689 4294967295
142.90799 -34.36095 -16.976154 4294967295
142.9194 -46.430721 -16.769997 4294967295
142.93446 -44.550087 -16.209837 4294967295
142.95198 -31.516453 -16.345459 4294967295
142.97464 -46.852203 -17.487284 4294967295
142.97778 -44.048119 -16.456846 4294967295
143.0052 -32.417091 -17.220387 4294967295
143.00551 -44.960163 -17.08239 4294967295
143.01183 -43.553673 -16.613464 4294967295
143.04703 -42.591038 -16.604376 4294967295
143.09613 -43.01963 -17.262371 4294967295
143.10844 -40.672661 -16.497871 4294967295
143.12744 -41.125645 -16.861244 4294967295
143.15445 -41.572113 -17.302986 4294967295
143.2121 -38.722 -16.805538 4294967295
143.23534 -39.172203 -17.210703 4294967295
143.25447 -39.625202 -17.575655 4294967295
143.28252 -37.26506 -16.964849 4294967295
143.30443 -47.926292 -16.329107 4294967295
143.30727 -48.390606 -16.534426 4294967295
143.31081 -34.902382 -16.355621 4294967295
143.3186 -38.173779 -17.673496 4294967295
143.3277 -35.827038 -16.876316 4294967295
143.353 -46.952507 -16.451113 4294967295
143.37747 -32.979225 -16.300264 4294967295
143.3822 -47.395111 -16.915592 4294967295
143.38469 -33.442944 -16.548826 4294967295
143.39072 -46.454674 -16.644188 4294967295
143.41582 -33.889278 -17.03224 4294967295
143.43504 -45.951588 -16.902262 4294967295
143.43689 -44.081802 -16.210011 4294967295
143.45798 -32.453217 -16.914061 4294967295
143.47891 -31.500708 -16.764769 4294967295
143.48015 -44.514244 -16.812996 4294967295
143.49741 -45.434029 -17.337845 4294967295
143.50307 -44.962688 -17.21575 4294967295
143.51923 -43.548721 -16.842054 4294967295
143.55177 -42.588402 -16.806725 4294967295
143.55508 -43.05302 -17.017149 4294967295
143.61699 -41.135067 -16.915133 4294967295
143.62518 -42.063309 -17.351292 4294967295
143.65173 -40.640591 -17.079411 4294967295
143.66733 -39.225601 -16.699524 4294967295
143.70541 -40.131641 -17.430067 4294967295
143.7075 -37.791271 -16.561165 4294967295
143.73145 -38.241184 -16.975098 4294967295
143.76299 -38.685024 -17.463509 4294967295
143.77904 -36.801521 -16.910137 4294967295
143.78481 -35.860806 -16.610786 4294967295
143.81847 -34.899277 -16.586388 4294967295
143.83061 -35.358795 -16.884293 4294967295
143.84203 -47.895172 -16.855022 4294967295
143.8447 -47.426395 -16.703396 4294967295
143.86345 -34.398067 -16.851875 4294967295
143.87645 -46.933464 -16.838402 4294967295
143.88867 -33.442764 -16.744127 4294967295
143.91714 -32.953697 -16.846928 4294967295
143.92401 -45.960995 -16.95118 4294967295
143.9281 -33.882862 -17.311268 4294967295
143.92859 -31.539024 -16.424877 4294967295
143.97122 -45.455704 -17.238792 4294967295
143.97452 -32.444191 -17.234762 4294967295
144.00191 -43.563374 -16.82876 4294967295
144.0186 -42.615696 -16.636684 4294967295
144.03487 -44.003895 -17.332262 4294967295
144.04016 -43.06575 -17.027916 4294967295
144.09126 -41.156357 -16.819094 4294967295
144.11314 -41.606541 -17.213728 4294967295
144.12291 -40.196697 -16.774769 4294967295
144.17798 -38.283432 -16.604712 4294967295
144.1938 -39.206875 -17.118526 4294967295
144.2066 -36.857601 -16.351776 4294967295
144.25853 -35.882412 -16.508053 4294967295
144.27101 -37.745148 -17.34626 4294967295
144.27713 -37.272766 -17.228167 4294967295
144.30431 -47.926735 -16.64027 4294967295
144.31891 -47.448013 -16.606016 4294967295
144.32869 -36.298473 -17.38092 4294967295
144.34665 -34.41264 -16.843801 4294967295
144.35097 -34.8778 -17.065289 4294967295
144.36897 -33.459499 -16.706886 4294967295
144.36922 -33.927841 -16.888161 4294967295
144.37988 -35.324692 -17.530148 4294967295
144.38287 -46.461761 -16.881624 4294967295
144.40987 -32.024113 -16.575092 4294967295
144.4308 -45.489071 -16.998413 4294967295
144.43526 -46.884777 -17.578949 4294967295
144.43701 -32.473511 -17.022942 4294967295
144.44421 -43.610493 -16.415335 4294967295
144.45979 -44.064999 -16.748869 4294967295
144.46721 -31.514704 -16.964401 4294967295
144.47867 -43.115665 -16.577929 4294967295
144.50317 -44.4967 -17.357738 4294967295
144.54562 -41.660709 -16.704212 4294967295
144.55989 -40.246979 -16.308247 4294967295
144.58052 -39.763252 -16.333652 4294967295
144.58975 -42.092987 -17.3211 4294967295
144.63571 -38.78521 -16.522501 4294967295
144.6609 -39.233559 -16.952026 4294967295
144.66531 -40.632252 -17.533291 4294967295
144.67595 -38.286648 -16.742685 4294967295
144.72231 -37.315781 -16.844292 4294967295
144.73846 -37.771362 -17.184021 4294967295
144.74033 -35.898064 -16.485025 4294967295
144.78749 -36.79887 -17.312355 4294967295
144.83012 -47.904968 -17.055431 4294967295
144.83458 -33.955368 -16.703421 4294967295
144.84297 -47.427902 -17.003675 4294967295
144.8521 -46.953907 -16.914742 4294967295
144.85483 -35.345097 -17.44313 4294967295
144.85484 -34.877068 -17.2638 4294967295
144.85986 -45.080776 -16.273554 4294967295
144.87027 -33.461014 -16.878647 4294967295
144.88554 -32.981483 -16.851078 4294967295
144.90282 -44.57877 -16.520969 4294967295
144.90947 -31.089436 -16.370071 4294967295
144.91504 -45.968781 -17.181612 4294967295
144.91949 -32.488575 -17.009048 4294967295
144.92683 -45.492554 -17.119286 4294967295
144.93895 -32.006115 -17.022913 4294967295
144.97778 -31.50992 -17.22961 4294967295
144.98598 -43.110584 -16.809357 4294967295
144.99446 -42.636715 -16.714104 4294967295
144.99542 -42.168789 -16.543631 4294967295
145.0099 -43.558212 -17.227116 4294967295
145.03682 -40.733936 -16.416191 4294967295
145.07103 -39.772072 -16.39702 4294967295
145.09575 -40.220345 -16.823282 4294967295
145.09821 -39.28334 -16.487677 4294967295
145.10811 -41.612202 -17.485743 4294967295
145.11263 -41.141617 -17.35099 4294967295
145.12573 -38.326626 -16.401915 4294967295
145.16902 -37.825748 -16.653214 4294967295
145.17363 -38.757584 -17.05917 4294967295
145.20399 -37.331345 -16.821888 4294967295
145.26157 -36.352215 -17.035778 4294967295
145.27574 -34.937462 -16.636513 4294967295
145.28651 -33.992783 -16.383669 4294967295
145.29295 -47.003357 -16.485493 4294967295
145.30273 -35.385597 -17.086109 4294967295
145.30954 -48.388161 -17.191614 4294967295
145.31216 -46.520763 -16.497053 4294967295
145.34015 -35.825623 -17.639349 4294967295
145.34341 -45.561569 -16.448101 4294967295
145.36484 -32.530365 -16.624302 4294967295
145.37448 -32.99192 -16.900854 4294967295
145.38722 -45.991867 -17.065901 4294967295
145.39154 -32.042568 -16.710705 4294967295
145.39542 -45.052021 -16.787033 4294967295
145.40738 -31.562586 -16.688484 4294967295
145.41904 -33.427887 -17.525909 4294967295
145.42899 -44.557827 -16.94186 4294967295
145.43098 -43.622578 -16.601023 4294967295
145.43127 -44.089214 -16.784382 4294967295
145.44595 -31.066494 -16.893368 4294967295
145.4595 -42.198357 -16.344404 4294967295
145.53253 -41.672962 -16.893686 4294967295
145.54282 -40.262951 -16.454792 4294967295
145.58266 -40.698986 -17.033823 4294967295
145.60168 -39.282021 -16.682299 4294967295
145.60574 -41.147839 -17.445154 4294967295
145.63858 -39.720718 -17.231802 4294967295
145.64734 -37.376038 -16.415972 4294967295
145.66545 -38.765179 -17.139345 4294967295
145.67456 -36.887466 -16.507492 4294967295
145.69672 -37.806129 -17.090883 4294967295
145.70255 -38.269176 -17.329903 4294967295
145.76282 -35.417217 -16.848509 4294967295
145.78757 -36.334347 -17.458027 4294967295
145.7925 -47.936169 -17.003 4294967295
145.79776 -34.923199 -17.017673 4294967295
145.82553 -33.966476 -16.934092 4294967295
145.82608 -34.434193 -17.120613 4294967295
145.82933 -47.438904 -17.191135 4294967295
145.84343 -46.494663 -16.970591 4294967295
145.84721 -46.95771 -17.189445 4294967295
145.87926 -32.990776 -17.110563 4294967295
145.88184 -33.457108 -17.317251 4294967295
145.88266 -44.596123 -16.639597 4294967295
145.88885 -45.524117 -17.063822 4294967295
145.89053 -44.122917 -16.537283 4294967295
145.89856 -32.040089 -16.941914 4294967295
145.90121 -45.980171 -17.368593 4294967295
145.90178 -32.506172 -17.155169 4294967295
145.92793 -43.625595 -16.731253 4294967295
145.94647 -45.010082 -17.460495 4294967295
145.95169 -42.672539 -16.607197 4294967295
145.96477 -42.194984 -16.557138 4294967295
145.96552 -43.128265 -16.927042 4294967295
145.97639 -41.251282 -16.311319 4294967295
145.98883 -31.507023 -17.666061 4294967295
146.03436 -41.672256 -17.074244 4294967295
146.0356 -40.269794 -16.542727 4294967295
146.06714 -40.712143 -17.040722 4294967295
146.0914 -38.823776 -16.55892 4294967295
146.09584 -39.755173 -16.966249 4294967295
146.10904 -37.874798 -16.373255 4294967295
146.1315 -37.389809 -16.417257 4294967295
146.13609 -38.321651 -16.82641 4294967295
146.1373 -39.255501 -17.201414 4294967295
146.18611 -36.412552 -16.602972 4294967295
146.22661 -36.849598 -17.191628 4294967295
146.23564 -35.907303 -16.919434 4294967295
146.25467 -35.425137 -16.929167 4294967295
146.28012 -34.938194 -17.003551 4294967295
146.28064 -34.001617 -16.645441 4294967295
146.30133 -47.928165 -17.25528 4294967295
146.311 -46.52174 -16.807468 4294967295
146.32121 -47.445354 -17.27352 4294967295
146.32387 -46.97707 -17.118698 4294967295
146.33881 -46.03212 -16.905558 4294967295
146.33968 -33.490025 -17.057665 4294967295
146.35213 -45.554642 -16.857927 4294967295
146.35526 -32.542168 -16.850851 4294967295
146.36386 -31.130285 -16.392012 4294967295
146.36745 -45.075481 -16.830231 4294967295
146.3736 -43.670387 -16.346575 4294967295
146.39374 -32.982399 -17.419819 4294967295
146.41534 -44.569408 -17.130669 4294967295
146.41737 -43.167839 -16.605446 4294967295
146.42838 -44.09222 -17.08 4294967295
146.43959 -31.544617 -17.336367 4294967295
146.45534 -32.00153 -17.676378 4294967295
146.48627 -42.645134 -17.117588 4294967295
146.51562 -41.220913 -16.867634 4294967295
146.54539 -40.263065 -16.803484 4294967295
146.54863 -42.128105 -17.563858 4294967295
146.56221 -40.716839 -17.154943 4294967295
146.56664 -39.779099 -16.835581 4294967295
146.5961 -39.288727 -16.950558 4294967295
146.60487 -38.347099 -16.674831 4294967295
146.63081 -36.92411 -16.389755 4294967295
146.65057 -38.778961 -17.317839 4294967295
146.66261 -36.432068 -16.528313 4294967295
146.66307 -37.834648 -17.079662 4294967295
146.6795 -37.354538 -17.063265 4294967295
146.70947 -35.460865 -16.636494 4294967295
146.72308 -47.528374 -16.447916 4294967295
146.75098 -34.493801 -16.69084 4294967295
146.75932 -34.955551 -16.957594 4294967295
146.77696 -35.87775 -17.5002 4294967295
146.80649 -47.923138 -17.472578 4294967295
146.82654 -46.042252 -16.945642 4294967295
146.82848 -32.563931 -16.743998 4294967295
146.83989 -46.497116 -17.263084 4294967295
146.84618 -33.01923 -17.105293 4294967295
146.85356 -46.951477 -17.583565 4294967295
146.86804 -45.541248 -17.182774 4294967295
146.88458 -45.06123 -17.167347 4294967295
146.89836 -31.57662 -17.085278 4294967295
146.90056 -44.115238 -16.963795 4294967295
146.92149 -43.6315 -16.992855 4294967295
146.94058 -44.548492 -17.550928 4294967295
146.97871 -40.784084 -16.475422 4294967295
146.9959 -41.237411 -16.832119 4294967295
147.01094 -42.625423 -17.532135 4294967295
147.02608 -41.679985 -17.320196 4294967295
147.07291 -40.242096 -17.24585 4294967295
147.08846 -39.762821 -17.220461 4294967295
147.09924 -38.82003 -16.964409 4294967295
147.1035 -39.283878 -17.190334 4294967295
147.10445 -38.348679 -16.834011 4294967295
147.12323 -37.86668 -16.841436 4294967295
147.16652 -37.365814 -17.097034 4294967295
147.17513 -36.891743 -17.001156 4294967295
147.20467 -36.401608 -17.117599 4294967295
147.20982 -35.930088 -16.986839 4294967295
147.22566 -47.991764 -16.820518 4294967295
147.23608 -35.442509 -17.070103 4294967295
147.24783 -34.965904 -17.006189 4294967295
147.25911 -47.497185 -16.976706 4294967295
147.27095 -33.544781 -16.691076 4294967295
147.28653 -46.541859 -16.888372 4294967295
147.29445 -33.995377 -17.112673 4294967295
147.31364 -46.984779 -17.346573 4294967295
147.31744 -33.042377 -16.979614 4294967295
147.32155 -46.046169 -17.060364 4294967295
147.33018 -45.572754 -16.964964 4294967295
147.33221 -45.104809 -16.802231 4294967295
147.34137 -32.088497 -16.855913 4294967295
147.34686 -44.159737 -16.58433 4294967295
147.35213 -32.54884 -17.148317 4294967295
147.38591 -31.587914 -17.124641 4294967295
147.42209 -31.093554 -17.308533 4294967295
147.44836 -43.60947 -17.431362 4294967295
147.48666 -43.111687 -17.637022 4294967295
147.53287 -41.674843 -17.556232 4294967295
147.56476 -40.715958 -17.513594 4294967295
147.57266 -39.309029 -17.043507 4294967295
147.59775 -39.756138 -17.482014 4294967295
147.62848 -38.798058 -17.427467 4294967295
147.64519 -38.317921 -17.413864 4294967295
147.66904 -35.026947 -16.370512 4294967295
147.67294 -37.362022 -17.328928 4294967295
147.68233 -37.821907 -17.607855 4294967295
147.6866 -48.024788 -16.588711 4294967295
147.7377 -35.910301 -17.436893 4294967295
147.74374 -47.509754 -16.986544 4294967295
147.75398 -46.102962 -16.539408 4294967295
147.76472 -47.025906 -17.016457 4294967295
147.77705 -45.150925 -16.40634 4294967295
