# .PCD v0.7 - Point Cloud Data file format
VERSION 0.7
FIELDS x y z rgb
SIZE 4 4 4 4
TYPE F F F U
COUNT 1 1 1 1
WIDTH 1147
HEIGHT 1
VIEWPOINT 0 0 0 1 0 0 0
POINTS 1147
DATA ascii
186.2811 62.727249 -53.846416 4294967295
186.28134 78.608017 -51.987587 4294967295
186.28598 75.313248 -53.837486 4294967295
186.29984 65.062759 -52.846886 4294967295
186.32811 65.995354 -52.749374 4294967295
186.32986 79.536438 -52.184929 4294967295
186.35693 83.777367 -50.280197 4294967295
186.35991 77.644409 -53.641979 4294967295
186.36746 64.11998 -54.34095 4294967295
186.36978 81.882706 -51.490665 4294967295
186.37448 65.521469 -53.680168 4294967295
186.37871 82.351967 -51.36549 4294967295
186.37872 82.824356 -51.110004 4294967295
186.3833 64.585442 -54.317184 4294967295
186.38698 66.923752 -53.097885 4294967295
186.38754 66.455521 -53.361168 4294967295
186.39371 79.988518 -52.860924 4294967295
186.40247 84.234306 -50.689507 4294967295
186.42499 67.854805 -53.142494 4294967295
186.43874 86.114059 -50.195374 4294967295
186.44189 83.275215 -51.777115 4294967295
186.44379 85.165474 -50.781288 4294967295
186.44781 86.584244 -50.071663 4294967295
186.45044 69.256668 -52.748413 4294967295
186.46198 67.380997 -53.936882 4294967295
186.47162 84.682373 -51.444115 4294967295
186.48216 85.62439 -51.08638 4294967295
186.4845 68.782227 -53.500633 4294967295
186.50406 70.185051 -53.020981 4294967295
186.52621 71.588493 -52.578632 4294967295
186.53073 87.499237 -50.772038 4294967295
186.53558 87.023788 -51.09943 4294967295
186.54539 88.915031 -50.217339 4294967295
186.55118 87.964752 -50.815063 4294967295
186.55432 69.707275 -54.009789 4294967295
186.55695 70.644165 -53.538307 4294967295
186.56473 71.111641 -53.396667 4294967295
186.5791 57.58905 -54.197449 4294967295
186.58266 72.985527 -52.636909 4294967295
186.60408 58.0541 -54.307281 4294967295
186.60858 59.918816 -53.352077 4294967295
186.61615 58.519569 -54.228535 4294967295
186.61618 88.412056 -51.510319 4294967295
186.61714 72.039337 -53.652039 4294967295
186.61716 59.451862 -53.732773 4294967295
186.64618 61.316822 -53.135101 4294967295
186.65321 75.319412 -52.389954 4294967295
186.65536 75.789337 -52.165188 4294967295
186.65576 74.848549 -52.683235 4294967295
186.66353 58.983524 -54.665543 4294967295
186.67003 60.848301 -53.739349 4294967295
186.67842 76.724754 -51.990387 4294967295
186.68349 73.902328 -53.600235 4294967295
186.72969 62.711178 -53.590034 4294967295
186.73891 76.238403 -53.13242 4294967295
186.76378 77.643265 -52.728714 4294967295
186.77496 63.174038 -53.997059 4294967295
186.78818 79.520523 -52.06086 4294967295
186.79372 64.10656 -53.76022 4294967295
186.79485 77.164246 -53.440086 4294967295
186.80362 65.040512 -53.393303 4294967295
186.8045 78.102638 -53.069168 4294967295
186.80769 63.637848 -54.220879 4294967295
186.81564 66.442924 -52.801243 4294967295
186.82397 78.567841 -53.098663 4294967295
186.82747 79.037697 -52.893402 4294967295
186.83035 65.504967 -53.529221 4294967295
186.83424 65.972336 -53.330158 4294967295
186.84203 80.447014 -52.337566 4294967295
186.85478 83.275299 -50.982975 4294967295
186.85503 67.842522 -52.609497 4294967295
186.85936 79.970329 -52.848541 4294967295
186.88217 68.775688 -52.494423 4294967295
186.89203 66.90036 -53.66502 4294967295
186.89496 84.20665 -51.058914 4294967295
186.89684 68.30455 -52.966427 4294967295
186.90001 80.900261 -52.931683 4294967295
186.99823 58.50536 -52.996674 4294967295
186.99889 69.224602 -53.951141 4294967295
187.01732 70.158432 -53.709167 4294967295
187.02777 82.272598 -54.037884 4294967295
187.02802 88.88987 -50.43961 4294967295
187.02811 69.687912 -54.124001 4294967295
187.03018 57.572014 -53.979237 4294967295
187.03551 71.561836 -53.206093 4294967295
187.03929 72.499863 -52.747749 4294967295
187.04393 59.903008 -52.897568 4294967295
187.04413 70.622169 -53.846062 4294967295
187.04938 58.969604 -53.491493 4294967295
187.05357 87.45829 -51.589546 4294967295
187.05869 59.435585 -53.371052 4294967295
187.06493 58.036808 -54.232918 4294967295
187.0692 73.432755 -52.673279 4294967295
187.0704 72.023918 -53.462204 4294967295
187.08377 85.555252 -53.063229 4294967295
187.08423 86.973015 -52.298225 4294967295
187.09686 72.956978 -53.337265 4294967295
187.09901 74.83596 -52.340012 4294967295
187.10416 75.77562 -51.900688 4294967295
187.10764 75.304199 -52.209572 4294967295
187.11646 81.772354 -55.59642 4294967295
187.11894 61.298729 -53.229523 4294967295
187.11931 60.365204 -53.748837 4294967295
187.14246 62.231041 -53.061546 4294967295
187.14262 62.698357 -52.806519 4294967295
187.15231 63.16494 -52.691566 4294967295
187.17291 60.828213 -54.280594 4294967295
187.19859 76.221855 -53.034359 4294967295
187.21713 76.687355 -53.049721 4294967295
187.23077 64.09198 -53.332306 4294967295
187.23718 64.558876 -53.169437 4294967295
187.24953 65.961227 -52.578201 4294967295
187.26591 79.498795 -52.222527 4294967295
187.27809 63.619686 -54.286827 4294967295
187.29294 65.487633 -53.475914 4294967295
187.30171 78.546181 -53.265976 4294967295
187.30219 79.016869 -53.015236 4294967295
187.30719 65.018242 -53.943542 4294967295
187.31709 79.954575 -52.719387 4294967295
187.32111 67.356148 -52.860664 4294967295
187.34305 80.417816 -52.844337 4294967295
187.37561 66.412193 -54.179802 4294967295
187.37877 67.815727 -53.453499 4294967295
187.39565 69.218605 -52.928574 4294967295
187.39752 68.281097 -53.472153 4294967295
187.39763 80.871857 -53.392036 4294967295
187.45395 69.677094 -53.531769 4294967295
187.46231 71.551735 -52.622364 4294967295
187.48103 70.140877 -53.67379 4294967295
187.48152 72.017288 -52.647728 4294967295
187.48857 88.399811 -50.597534 4294967295
187.48975 84.142136 -52.945412 4294967295
187.4994 58.020397 -53.769173 4294967295
187.49979 86.501266 -51.800423 4294967295
187.51965 70.602356 -53.98624 4294967295
187.52638 58.951611 -53.651527 4294967295
187.54269 83.651428 -53.986557 4294967295
187.55446 74.350227 -52.433296 4294967295
187.5585 59.882732 -53.609966 4294967295
187.56062 60.815956 -53.124146 4294967295
187.57771 75.285118 -52.259834 4294967295
187.58147 58.483303 -54.723866 4294967295
187.58882 61.280849 -53.283005 4294967295
187.59073 82.221512 -55.470062 4294967295
187.593 72.463097 -54.037811 4294967295
187.59525 74.810539 -52.77829 4294967295
187.60136 86.934326 -53.045265 4294967295
187.60202 62.213966 -52.960918 4294967295
187.60562 62.680981 -52.755741 4294967295
187.61324 82.684586 -55.544914 4294967295
187.62642 75.74321 -52.722225 4294967295
187.63069 83.149368 -55.545158 4294967295
187.63916 81.734955 -56.442825 4294967295
187.64325 60.344036 -54.605003 4294967295
187.66472 88.800156 -52.947876 4294967295
187.67694 65.012085 -52.517174 4294967295
187.68541 78.08065 -52.30069 4294967295
187.68933 78.550629 -52.099419 4294967295
187.69572 63.139748 -53.831245 4294967295
187.70926 76.192047 -53.690392 4294967295
187.71002 64.540352 -53.266312 4294967295
187.71571 63.6049 -53.868675 4294967295
187.73447 79.008553 -52.509758 4294967295
187.73523 77.125458 -53.55777 4294967295
187.75117 66.40686 -52.840248 4294967295
187.76294 65.937195 -53.273758 4294967295
187.76662 80.412811 -52.20805 4294967295
187.78056 79.937042 -52.674702 4294967295
187.78844 67.33812 -52.87426 4294967295
187.80128 66.867958 -53.32412 4294967295
187.80806 79.457573 -53.342003 4294967295
187.81952 81.339119 -52.474289 4294967295
187.82935 82.279572 -52.100418 4294967295
187.83453 67.799438 -53.299248 4294967295
187.83775 81.80484 -52.485271 4294967295
187.83879 80.861404 -53.019943 4294967295
187.84122 68.735435 -52.879272 4294967295
187.8638 69.200333 -52.955215 4294967295
187.87263 68.261734 -53.605244 4294967295
187.8759 70.605316 -52.355667 4294967295
187.88687 71.072594 -52.258751 4294967295
187.89523 69.663574 -53.162472 4294967295
187.92624 57.538105 -53.44669 4294967295
187.96687 59.401749 -53.01133 4294967295
187.97014 71.525269 -53.237087 4294967295
187.9772 57.07111 -54.463112 4294967295
187.98784 59.867256 -53.063385 4294967295
187.99739 58.467777 -53.984711 4294967295
187.99786 58.001862 -54.251465 4294967295
188.01665 72.454079 -53.408752 4294967295
188.02267 82.685272 -54.713943 4294967295
188.02304 74.801765 -52.203064 4294967295
188.02831 60.798264 -53.145439 4294967295
188.03659 58.932129 -54.308155 4294967295
188.04291 74.326805 -52.759216 4294967295
188.05205 60.330036 -53.758812 4294967295
188.05762 85.030258 -53.935223 4294967295
188.05965 73.383415 -53.528709 4294967295
188.06107 62.66431 -52.592319 4294967295
188.06528 73.8517 -53.352432 4294967295
188.09256 83.13205 -55.493156 4294967295
188.09258 85.961044 -53.935719 4294967295
188.093 61.727203 -53.588249 4294967295
188.09412 61.260338 -53.865005 4294967295
188.09976 75.252998 -53.085327 4294967295
188.10529 62.19313 -53.5112 4294967295
188.11006 86.426437 -53.935963 4294967295
188.12407 64.528618 -52.489067 4294967295
188.12747 84.061607 -55.493652 4294967295
188.1275 85.475784 -54.715416 4294967295
188.12753 86.89183 -53.936207 4294967295
188.14151 63.124035 -53.530602 4294967295
188.14493 84.526382 -55.493896 4294967295
188.14848 75.710701 -53.551033 4294967295
188.15469 76.649452 -53.122643 4294967295
188.15935 65.460411 -52.493454 4294967295
188.16261 64.991974 -52.802879 4294967295
188.16266 78.05925 -52.459579 4294967295
188.17383 64.055344 -53.491089 4294967295
188.17671 63.587708 -53.794548 4294967295
188.18365 77.112 -53.293804 4294967295
188.18614 77.581825 -53.070221 4294967295
188.20258 65.922897 -52.877617 4294967295
188.21288 66.389664 -52.770454 4294967295
188.22643 78.511696 -53.149834 4294967295
188.23013 80.867027 -51.900146 4294967295
188.23103 79.923561 -52.435814 4294967295
188.23291 78.980659 -52.985985 4294967295
188.24875 79.446899 -52.961494 4294967295
188.24968 87.315056 -55.495369 4294967295
188.25117 66.852455 -53.081104 4294967295
188.26071 81.328911 -52.09557 4294967295
188.26715 87.779831 -55.495613 4294967295
188.29544 83.205681 -51.568928 4294967295
188.31767 67.31076 -53.812973 4294967295
188.3251 81.779373 -52.796436 4294967295
188.33469 68.712914 -53.284466 4294967295
188.34789 68.242317 -53.742626 4294967295
188.36525 69.644913 -53.21888 4294967295
188.3679 70.113312 -52.997482 4294967295
188.36917 70.582146 -52.754871 4294967295
188.37996 82.232521 -53.35503 4294967295
188.38385 58.453392 -52.796818 4294967295
188.3867 69.172508 -53.800423 4294967295
188.38727 57.520798 -53.37059 4294967295
188.39569 57.986649 -53.235374 4294967295
188.39578 58.919418 -52.714039 4294967295
188.3969 82.698311 -53.346985 4294967295
188.44357 71.03669 -53.60622 4294967295
188.44778 88.648087 -57.667717 4294967295
188.45111 72.442825 -52.93483 4294967295
188.45212 59.383247 -53.29525 4294967295
188.47299 73.847198 -52.477165 4294967295
188.47754 59.848385 -53.414246 4294967295
188.48157 72.905685 -53.129044 4294967295
188.49138 60.314137 -53.359993 4294967295
188.49338 74.312431 -52.520805 4294967295
188.49478 73.37233 -53.065285 4294967295
188.51981 83.598106 -54.662407 4294967295
188.52608 75.244812 -52.486923 4294967295
188.54846 74.769096 -53.083942 4294967295
188.55255 75.708435 -52.621277 4294967295
188.56056 60.77615 -54.134071 4294967295
188.56261 62.176235 -53.379868 4294967295
188.57051 77.115532 -52.104233 4294967295
188.58936 84.044289 -55.441658 4294967295
188.59084 76.168808 -52.933388 4294967295
188.605 78.047829 -52.096687 4294967295
188.60681 84.509064 -55.441902 4294967295
188.60822 77.575912 -52.407444 4294967295
188.62357 63.104774 -53.769905 4294967295
188.62428 84.973846 -55.442146 4294967295
188.62747 76.629395 -53.220505 4294967295
188.63577 78.51001 -52.296265 4294967295
188.64174 85.438622 -55.44239 4294967295
188.65846 79.445747 -52.111687 4294967295
188.65919 85.903397 -55.442635 4294967295
188.66492 63.567688 -54.127869 4294967295
188.67665 86.368179 -55.442886 4294967295
188.69411 86.832962 -55.44313 4294967295
188.69624 65.433617 -53.550217 4294967295
188.69858 64.965729 -53.84721 4294967295
188.70117 80.375458 -52.227631 4294967295
188.70743 78.959793 -53.1092 4294967295
188.71156 87.297737 -55.443375 4294967295
188.72903 87.762512 -55.443619 4294967295
188.75954 68.233284 -52.926476 4294967295
188.76082 65.892799 -54.257118 4294967295
188.77472 68.699394 -52.891731 4294967295
188.78725 67.292336 -53.86734 4294967295
188.79004 66.824036 -54.171532 4294967295
188.79918 67.758568 -53.784317 4294967295
188.80237 57.038551 -52.866875 4294967295
188.82137 88.667778 -56.305164 4294967295
188.82179 81.27932 -53.514702 4294967295
188.82185 86.475983 -50.620575 4294967295
188.82843 57.504036 -52.995758 4294967295
188.83745 82.688644 -52.961945 4294967295
188.84796 70.092728 -53.204582 4294967295
188.86607 83.622398 -52.866734 4294967295
188.87161 69.619667 -53.822849 4294967295
188.87207 87.403114 -50.849911 4294967295
188.87407 71.964439 -52.545853 4294967295
188.87894 70.555733 -53.407707 4294967295
188.88063 88.171356 -57.454651 4294967295
188.89018 71.022507 -53.314323 4294967295
188.89569 58.434124 -53.48201 4294967295
188.90965 71.487686 -53.34407 4294967295
188.92982 83.127937 -54.088448 4294967295
188.93867 58.898464 -53.865475 4294967295
188.95638 59.830109 -53.606384 4294967295
188.95956 84.060417 -54.010551 4294967295
188.96223 75.23423 -52.030136 4294967295
188.96298 59.363445 -53.96851 4294967295
188.9668 87.837776 -52.013832 4294967295
188.97371 72.881775 -53.519524 4294967295
188.98064 88.30542 -51.958855 4294967295
188.98117 61.22847 -53.190498 4294967295
188.98549 60.294815 -53.781471 4294967295
188.993 73.346855 -53.546959 4294967295
188.99973 88.770874 -51.982876 4294967295
189.00975 60.759716 -53.883892 4294967295
189.01985 62.626545 -52.983589 4294967295
189.02399 74.278778 -53.487461 4294967295
189.04089 75.684494 -52.95224 4294967295
189.04578 85.915367 -54.257072 4294967295
189.04825 63.558598 -52.884586 4294967295
189.05988 77.090904 -52.447487 4294967295
189.07375 61.68803 -54.322109 4294967295
189.07742 76.615509 -52.976013 4294967295
189.07985 63.088039 -53.624451 4294967295
189.09579 64.021004 -53.338165 4294967295
189.09746 77.551147 -52.750828 4294967295
189.12389 64.952919 -53.23465 4294967295
189.12611 64.485046 -53.532024 4294967295
189.14087 78.480263 -52.878365 4294967295
189.15573 78.946785 -52.839108 4294967295
189.1581 66.820465 -52.695984 4294967295
189.18562 65.880493 -53.639214 4294967295
189.20006 65.41098 -54.120567 4294967295
189.20312 79.403381 -53.290703 4294967295
189.21661 66.344025 -53.843193 4294967295
189.21979 81.283356 -52.486031 4294967295
189.23204 80.807777 -52.935677 4294967295
189.23253 82.222778 -52.14978 4294967295
189.24178 80.333366 -53.346672 4294967295
189.25522 67.274147 -53.89904 4294967295
189.25708 67.741943 -53.662994 4294967295
189.25723 81.742523 -52.787914 4294967295
189.27661 71.020401 -52.108437 4294967295
189.28175 70.080811 -52.71563 4294967295
189.29396 57.020576 -53.24995 4294967295
189.29471 68.204056 -53.968056 4294967295
189.29579 82.672836 -52.842419 4294967295
189.30049 71.485115 -52.205254 4294967295
189.3045 58.88546 -52.351677 4294967295
189.31 68.669724 -53.934898 4294967295
189.32175 69.604561 -53.584602 4294967295
189.3243 72.889503 -51.771561 4294967295
189.32599 85.496208 -51.711002 4294967295
189.32603 69.135277 -53.913677 4294967295
189.33087 83.60434 -52.844246 4294967295
189.33258 86.913353 -51.015575 4294967295
189.33444 85.020157 -52.104202 4294967295
189.35719 71.942795 -52.799156 4294967295
189.36203 57.484756 -54.015091 4294967295
189.36478 58.416523 -53.528214 4294967295
189.37332 85.950737 -52.163452 4294967295
189.37688 83.116028 -53.804863 4294967295
189.37878 70.531158 -53.91917 4294967295
189.3866 59.814594 -53.065239 4294967295
189.38832 86.41777 -52.12542 4294967295
189.40024 72.402992 -53.186035 4294967295
189.40993 74.279984 -52.27354 4294967295
189.41101 87.354904 -51.938889 4294967295
189.42322 73.806747 -52.740036 4294967295
189.4268 74.746101 -52.264404 4294967295
189.43663 60.744816 -53.293869 4294967295
189.4427 59.345222 -54.179222 4294967295
189.44731 75.211296 -52.310249 4294967295
189.45146 73.330452 -53.432823 4294967295
189.45222 84.503624 -54.152466 4294967295
189.45416 87.810364 -52.328056 4294967295
189.45935 61.67688 -53.108414 4294967295
189.47078 62.143021 -53.016716 4294967295
189.47462 61.20882 -53.604675 4294967295
189.4955 88.266281 -52.690041 4294967295
189.4982 75.668564 -52.816856 4294967295
189.51881 88.729614 -52.778564 4294967295
189.5284 62.604942 -53.625534 4294967295
189.52884 77.54274 -52.220642 4294967295
189.54814 77.066505 -52.779182 4294967295
189.55061 76.595314 -53.081688 4294967295
189.55548 63.536583 -53.506409 4294967295
189.55956 64.938881 -52.772869 4294967295
189.56107 78.00444 -52.444504 4294967295
189.58801 64.467773 -53.470196 4294967295
189.5952 79.407799 -52.165916 4294967295
189.59908 65.401794 -53.107452 4294967295
189.60484 79.876274 -52.046791 4294967295
189.62015 78.928947 -52.810898 4294967295
189.62639 66.802315 -52.726051 4294967295
189.64523 65.863533 -53.543121 4294967295
189.64639 81.278084 -51.880486 4294967295
189.64832 80.805611 -52.175789 4294967295
189.66391 66.328812 -53.561783 4294967295
189.69453 82.677971 -51.814899 4294967295
189.7016 82.203354 -52.188599 4294967295
189.70631 70.070679 -52.080437 4294967295
189.71474 81.726982 -52.654236 4294967295
189.73019 68.659584 -53.241348 4294967295
189.73102 83.137344 -52.103867 4294967295
189.73479 68.190384 -53.576782 4294967295
189.76297 69.591103 -53.208313 4294967295
189.76384 85.015648 -51.538017 4294967295
189.76761 69.12162 -53.544601 4294967295
189.76949 71.936203 -51.977173 4294967295
189.78741 58.400726 -52.868881 4294967295
189.79373 84.059174 -52.526348 4294967295
189.79448 85.476814 -51.73822 4294967295
189.81909 57.46756 -53.882679 4294967295
189.8275 85.936897 -51.974888 4294967295
189.82785 86.409828 -51.71347 4294967295
189.83182 83.573151 -53.372021 4294967295
189.83484 58.86507 -53.324814 4294967295
189.83928 72.860489 -52.50758 4294967295
189.84427 86.876457 -51.697021 4294967295
189.84486 72.38958 -52.859108 4294967295
189.854 57.001175 -54.679546 4294967295
189.85445 73.326874 -52.472225 4294967295
189.8605 74.26564 -52.031445 4294967295
189.86571 74.734749 -51.844032 4294967295
189.87077 71.445564 -53.785797 4294967295
189.92232 60.725868 -53.593334 4294967295
189.92342 59.326942 -54.407757 4294967295
189.92825 62.593426 -52.617832 4294967295
189.92976 61.192028 -53.44043 4294967295
189.94539 75.655289 -52.526253 4294967295
189.94565 87.78112 -52.709991 4294967295
189.95502 88.250359 -52.586357 4294967295
189.964 76.591454 -52.276535 4294967295
189.96701 77.532478 -51.788208 4294967295
189.96738 87.299179 -53.308273 4294967295
189.97449 62.122093 -53.589802 4294967295
189.98201 77.057259 -52.284588 4294967295
189.98322 88.711601 -52.749733 4294967295
189.99614 75.17202 -53.56694 4294967295
190.0013 76.110863 -53.112389 4294967295
190.03435 64.452324 -53.170464 4294967295
190.03543 64.919922 -52.920132 4294967295
190.04916 65.38607 -52.86282 4294967295
190.0499 78.450485 -52.520042 4294967295
190.07153 80.329445 -51.781631 4294967295
190.07401 63.980404 -54.042328 4294967295
190.07553 66.318657 -52.731743 4294967295
190.09676 67.252243 -52.521896 4294967295
190.09862 79.37793 -52.730507 4294967295
190.10182 78.905876 -53.046425 4294967295
190.12074 80.785187 -52.266563 4294967295
190.12178 68.185539 -52.369965 4294967295
190.1266 68.653603 -52.176208 4294967295
190.14114 65.841667 -54.000992 4294967295
190.17535 82.654396 -52.031975 4294967295
190.17844 70.520988 -51.898804 4294967295
190.18649 70.050064 -52.289738 4294967295
190.19717 82.174728 -52.633575 4294967295
190.24881 57.451096 -53.330898 4294967295
190.26283 84.039543 -52.568489 4294967295
190.26601 84.510765 -52.348999 4294967295
190.26811 86.401688 -51.308693 4294967295
190.27231 71.440887 -52.800659 4294967295
190.27869 85.924255 -51.739113 4294967295
190.27895 84.978424 -52.279388 4294967295
190.29651 58.381573 -53.526131 4294967295
190.30849 71.902596 -53.087341 4294967295
190.3242 60.245853 -52.879959 4294967295
190.32851 72.837181 -52.858341 4294967295
190.34172 59.311848 -53.683815 4294967295
190.34261 86.844788 -52.182945 4294967295
190.36159 61.644054 -52.649376 4294967295
190.36234 74.709 -52.305 4294967295
190.38548 73.293694 -53.464012 4294967295
190.38577 60.708458 -53.556137 4294967295
190.3873 74.232712 -52.956028 4294967295
190.38957 88.245071 -52.098946 4294967295
190.39775 62.108177 -52.935944 4294967295
190.40567 75.638634 -52.433281 4294967295
190.42194 88.704674 -52.326958 4294967295
190.43195 87.753922 -53.017204 4294967295
190.43477 76.101364 -52.611931 4294967295
190.4436 76.569542 -52.479134 4294967295
190.45146 77.980148 -51.793732 4294967295
190.45209 63.504898 -52.965584 4294967295
190.47963 62.567802 -53.924171 4294967295
190.48001 77.500809 -52.501213 4294967295
190.48085 65.372742 -52.333191 4294967295
190.493 78.439064 -52.163334 4294967295
190.49554 77.025696 -53.008102 4294967295
190.49599 63.033157 -53.907227 4294967295
190.50671 78.906189 -52.105408 4294967295
190.50743 64.433746 -53.278488 4294967295
190.51453 63.965496 -53.655663 4294967295
190.54683 66.768372 -52.541359 4294967295
190.55855 67.235062 -52.452583 4294967295
190.56657 80.773491 -51.950191 4294967295
190.57253 66.296448 -53.204849 4294967295
190.57695 65.827942 -53.541534 4294967295
190.584 80.296127 -52.487206 4294967295
190.58752 79.352448 -53.07896 4294967295
190.59978 79.819717 -52.998608 4294967295
190.60245 81.233368 -52.233086 4294967295
190.63002 67.692238 -53.283264 4294967295
190.64223 82.163574 -52.307114 4294967295
190.64629 68.157951 -53.264481 4294967295
190.65808 82.630074 -52.281872 4294967295
190.65962 70.030777 -52.393818 4294967295
190.6803 84.511871 -51.54599 4294967295
190.6913 68.618713 -53.688484 4294967295
190.69876 70.492371 -52.727459 4294967295
190.69946 58.366543 -52.557129 4294967295
190.70091 71.90036 -51.95203 4294967295
190.70641 84.029388 -52.218231 4294967295
190.70755 57.433861 -53.220165 4294967295
190.71996 83.552048 -52.696461 4294967295
190.72014 69.550529 -53.594597 4294967295
190.72307 69.081497 -53.908714 4294967295
190.73267 85.910561 -51.544167 4294967295
190.73299 56.967457 -53.880638 4294967295
190.7393 86.381157 -51.376877 4294967295
190.74867 85.431221 -52.061184 4294967295
190.75383 84.956497 -52.410034 4294967295
190.75972 58.830391 -53.216507 4294967295
190.76175 71.417953 -53.159145 4294967295
190.76279 57.898125 -53.801865 4294967295
190.76857 73.76503 -51.916679 4294967295
190.77307 60.229374 -52.614212 4294967295
190.78014 72.822357 -52.634674 4294967295
190.78046 59.295719 -53.267006 4294967295
190.79324 60.694939 -52.65567 4294967295
190.80617 86.827209 -52.138622 4294967295
190.81772 59.760082 -53.571754 4294967295
190.82104 61.159889 -52.814705 4294967295
190.8351 74.219025 -52.673698 4294967295
190.83778 75.62941 -51.90522 4294967295
190.83928 61.625492 -52.826408 4294967295
190.84442 74.686821 -52.547859 4294967295
190.84616 87.283829 -52.486015 4294967295
190.84866 62.559212 -52.431908 4294967295
190.87547 88.217941 -52.398712 4294967295
190.87636 63.024006 -52.589352 4294967295
190.88054 75.147812 -52.835159 4294967295
190.8855 62.088627 -53.270302 4294967295
190.88911 88.685501 -52.339214 4294967295
190.93382 77.015244 -52.57872 4294967295
190.93634 76.543922 -52.887474 4294967295
190.93956 64.887848 -52.485947 4294967295
190.93977 77.955368 -52.130226 4294967295
190.94687 78.424469 -51.969131 4294967295
190.96306 63.482422 -53.658596 4294967295
190.96481 79.361839 -51.706108 4294967295
190.97983 63.947842 -53.647629 4294967295
190.99261 65.349022 -53.035698 4294967295
191.01154 65.8144 -53.058006 4294967295
191.01585 66.281837 -52.854843 4294967295
191.01831 78.873917 -52.803711 4294967295
191.02177 79.815369 -52.316551 4294967295
191.03903 80.281326 -52.313145 4294967295
191.04573 81.222672 -51.875256 4294967295
191.0618 66.743263 -53.295204 4294967295
191.06772 68.147476 -52.575592 4294967295
191.07355 67.209625 -53.206676 4294967295
191.08466 83.09819 -51.394077 4294967295
191.10258 57.418331 -52.121349 4294967295
191.10367 82.146751 -52.230843 4294967295
191.10936 83.561783 -51.505783 4294967295
191.11038 67.672028 -53.506184 4294967295
191.12148 81.668694 -52.777634 4294967295
191.12285 69.075378 -52.887787 4294967295
191.15331 84.490791 -51.644676 4294967295
191.15498 84.017433 -51.942211 4294967295
191.15511 70.007172 -52.846321 4294967295
191.15833 71.41449 -52.082813 4294967295
191.16084 68.600128 -53.746544 4294967295
191.16435 69.53656 -53.25985 4294967295
191.1716 56.484974 -53.731514 4294967295
191.17737 72.819992 -51.564415 4294967295
191.1779 58.348576 -52.746609 4294967295
191.18449 59.281376 -52.306858 4294967295
191.18806 72.347557 -52.00209 4294967295
191.19389 58.814316 -52.72369 4294967295
191.19786 85.419327 -51.793449 4294967295
191.20355 70.466713 -53.325951 4294967295
191.20375 71.874397 -52.51635 4294967295
191.20416 85.889908 -51.61956 4294967295
191.20636 84.943161 -52.196472 4294967295
191.20876 70.934669 -53.136078 4294967295
191.22015 56.949608 -54.213478 4294967295
191.2475 74.214111 -51.838692 4294967295
191.25308 59.744289 -53.099808 4294967295
191.25377 60.210892 -52.839062 4294967295
191.25557 73.741913 -52.235504 4294967295
191.26668 86.337791 -52.318657 4294967295
191.27922 88.699982 -51.154739 4294967295
191.30515 86.795036 -52.644501 4294967295
191.30844 73.259499 -53.327061 4294967295
191.31403 60.673546 -53.502857 4294967295
191.32686 62.073143 -52.88858 4294967295
191.33012 61.139027 -53.482018 4294967295
191.34357 61.604733 -53.419334 4294967295
191.34727 76.070251 -52.301979 4294967295
191.34918 63.005642 -52.69286 4294967295
191.35858 77.008713 -51.934067 4294967295
191.36185 75.595856 -52.800011 4294967295
191.37387 77.946579 -51.627609 4294967295
191.3813 62.535286 -53.46299 4294967295
191.39685 77.468697 -52.257225 4294967295
191.3996 63.935299 -52.932869 4294967295
191.40509 78.408569 -51.841393 4294967295
191.40584 64.402237 -52.758106 4294967295
191.40727 76.524292 -52.962814 4294967295
191.41362 64.86911 -52.607742 4294967295
191.42401 63.465237 -53.583733 4294967295
191.4272 78.873199 -51.913097 4294967295
191.45924 65.331146 -53.045441 4294967295
191.47914 79.328369 -52.449432 4294967295
191.48819 79.796898 -52.318092 4294967295
191.49763 80.265396 -52.1931 4294967295
191.49919 67.666603 -52.306763 4294967295
191.51877 81.201927 -51.977379 4294967295
191.5217 65.790535 -53.745087 4294967295
191.53001 66.257126 -53.602894 4294967295
191.53459 81.66851 -51.951523 4294967295
191.54987 82.607597 -51.644226 4294967295
191.55518 67.189323 -53.450821 4294967295
191.56047 70.000862 -51.899696 4294967295
191.56592 66.719711 -53.890099 4294967295
191.57187 69.52948 -52.349579 4294967295
191.57684 68.122345 -53.244476 4294967295
191.58595 57.866776 -52.114235 4294967295
191.58749 70.464981 -52.048485 4294967295
191.59557 68.587608 -53.263748 4294967295
191.60223 84.478897 -51.369476 4294967295
191.60323 82.116508 -52.748703 4294967295
191.61081 84.002815 -51.776184 4294967295
191.61371 83.056847 -52.367004 4294967295
191.62195 58.331959 -52.402786 4294967295
191.6255 58.798374 -52.185577 4294967295
191.63068 72.334763 -51.630558 4294967295
191.63408 71.864105 -51.956535 4294967295
191.6474 85.407356 -51.528267 4294967295
191.64886 84.933777 -51.824234 4294967295
191.65886 59.263424 -52.433289 4294967295
191.66817 71.387238 -52.760941 4294967295
191.67148 72.795532 -51.994469 4294967295
191.67747 70.916084 -53.178879 4294967295
191.68372 59.728779 -52.548168 4294967295
191.68933 56.932129 -54.270485 4294967295
191.7112 57.39706 -54.339142 4294967295
191.7205 73.254051 -52.486923 4294967295
191.73265 60.65926 -52.766724 4294967295
191.73561 87.26442 -51.813141 4294967295
191.74202 86.788445 -52.186546 4294967295
191.76718 74.182716 -52.669617 4294967295
191.76724 60.1903 -53.57946 4294967295
191.778 88.193344 -51.929001 4294967295
191.81004 61.587059 -53.429581 4294967295
191.8157 62.520596 -52.972237 4294967295
191.81837 75.109894 -52.923645 4294967295
191.82065 76.050041 -52.412788 4294967295
191.83479 74.635658 -53.453285 4294967295
191.83612 62.985855 -53.018097 4294967295
191.84506 77.455643 -51.974121 4294967295
191.84773 76.983902 -52.289501 4294967295
191.84776 77.926033 -51.742664 4294967295
191.85611 63.918636 -52.784428 4294967295
191.86325 78.864235 -51.437416 4294967295
191.86649 63.450024 -53.220062 4294967295
191.86757 64.852852 -52.416725 4294967295
191.88223 76.503525 -53.10244 4294967295
191.89111 78.384232 -52.147675 4294967295
191.89861 64.381294 -53.176041 4294967295
191.92563 65.313309 -53.051773 4294967295
191.92722 79.787254 -51.891209 4294967295
191.95126 80.251122 -51.994019 4294967295
191.95372 66.245361 -52.944687 4294967295
191.95987 66.712631 -52.767365 4294967295
191.96692 65.775551 -53.424721 4294967295
191.97131 79.301743 -52.855858 4294967295
191.97244 80.715858 -52.052067 4294967295
191.9975 81.179222 -52.170609 4294967295
192.00957 69.51683 -51.902321 4294967295
192.02214 81.642639 -52.282928 4294967295
192.02261 83.531982 -51.192924 4294967295
192.02544 68.575974 -52.699326 4294967295
192.02856 67.638443 -53.296066 4294967295
192.02991 83.056618 -51.581581 4294967295
192.03542 69.042999 -52.581879 4294967295
192.03664 69.980972 -52.052338 4294967295
192.0464 83.995903 -51.291462 4294967295
192.05132 55.985229 -53.195763 4294967295
192.06433 82.571762 -52.395988 4294967295
192.0674 57.382557 -52.626072 4294967295
192.07246 71.852135 -51.517063 4294967295
192.08104 70.441528 -52.474686 4294967295
192.11754 71.372711 -52.499199 4294967295
192.12213 70.902428 -52.845318 4294967295
192.12366 85.384804 -51.680252 4294967295
192.1449 58.312248 -53.293591 4294967295
192.15007 72.304764 -52.461151 4294967295
192.15312 57.845989 -53.696686 4294967295
192.15732 84.42614 -52.758438 4294967295
192.16795 84.894501 -52.650764 4294967295
192.17584 85.836884 -52.225391 4294967295
192.18764 73.705696 -52.227238 4294967295
192.18845 58.776482 -53.703026 4294967295
192.18924 86.777649 -51.886364 4294967295
192.19249 73.234535 -52.578114 4294967295
192.20227 59.70821 -53.371902 4294967295
192.21121 87.241776 -51.956863 4294967295
192.21149 74.640259 -52.052597 4294967295
192.21527 87.713539 -51.745758 4294967295
192.21721 61.107216 -52.782936 4294967295
192.22511 72.757248 -53.365112 4294967295
192.2287 59.240566 -54.060883 4294967295
192.23157 62.040279 -52.45937 4294967295
192.2437 76.043602 -51.733925 4294967295
192.24699 60.638294 -53.5257 4294967295
192.25122 62.505817 -52.493393 4294967295
192.26813 88.164207 -52.301987 4294967295
192.27301 61.569675 -53.385448 4294967295
192.27823 74.153305 -53.376457 4294967295
192.30183 63.435604 -52.739777 4294967295
192.31732 77.435562 -52.067005 4294967295
192.32626 63.900448 -52.849297 4294967295
192.33066 62.965286 -53.468018 4294967295
192.3338 76.9599 -52.601669 4294967295
192.3394 78.842827 -51.588326 4294967295
192.34819 65.301247 -52.369003 4294967295
192.34836 76.485191 -53.105484 4294967295
192.35568 77.895248 -52.395565 4294967295
192.3623 64.363808 -53.141403 4294967295
192.36877 65.766586 -52.418159 4294967295
192.37296 79.303825 -51.841515 4294967295
192.38054 64.829193 -53.153725 4294967295
192.39288 78.355003 -52.7062 4294967295
192.41614 80.233154 -51.970791 4294967295
192.42377 79.759018 -52.366913 4294967295
192.46103 68.094582 -52.494522 4294967295
192.46481 81.160362 -52.187031 4294967295
192.46863 68.56205 -52.338902 4294967295
192.47627 80.684731 -52.643272 4294967295
192.49417 69.964661 -51.913979 4294967295
192.49443 82.566284 -51.826401 4294967295
192.49734 69.025803 -52.516235 4294967295
192.50014 67.619614 -53.386688 4294967295
192.51022 69.492393 -52.443542 4294967295
192.51543 70.429871 -51.973747 4294967295
192.52615 55.967785 -53.337502 4294967295
192.52966 82.08149 -52.658524 4294967295
192.53368 57.365112 -52.629475 4294967295
192.53369 84.915375 -51.064781 4294967295
192.54356 83.493027 -52.049843 4294967295
192.54425 71.363068 -51.876545 4294967295
192.5463 56.433128 -53.379951 4294967295
192.54712 57.830891 -52.565804 4294967295
192.56816 83.011574 -52.714508 4294967295
192.57062 70.888008 -52.569054 4294967295
192.57855 71.82534 -52.142063 4294967295
192.58304 83.950569 -52.397419 4294967295
192.5999 72.290352 -52.203167 4294967295
192.61143 58.294746 -53.305435 4294967295
192.61494 56.897438 -54.187645 4294967295
192.61974 86.300507 -51.595192 4294967295
192.62318 72.754845 -52.294891 4294967295
192.6324 73.69278 -51.887772 4294967295
192.6413 59.692215 -52.949287 4294967295
192.64471 74.160049 -51.805809 4294967295
192.64607 74.630211 -51.550549 4294967295
192.64671 61.092403 -52.206009 4294967295
192.64876 85.342651 -52.607079 4294967295
192.64894 75.100166 -51.319054 4294967295
192.65184 73.218002 -52.471611 4294967295
192.65704 59.224976 -53.474007 4294967295
192.65994 60.157669 -52.967705 4294967295
192.66269 85.809814 -52.551216 4294967295
192.67076 60.623657 -52.862572 4294967295
192.68027 61.5569 -52.460442 4294967295
192.692 87.216866 -52.185356 4294967295
192.69307 87.689842 -51.925217 4294967295
192.6965 75.558258 -51.79509 4294967295
192.73032 76.01976 -52.053413 4294967295
192.73207 88.146393 -52.266098 4294967295
192.75511 76.954514 -51.892544 4294967295
192.75684 62.484383 -53.118717 4294967295
192.76045 88.607407 -52.438419 4294967295
192.77148 76.478981 -52.428574 4294967295
192.77388 62.015846 -53.664536 4294967295
192.77769 77.418983 -51.973164 4294967295
192.79398 63.882523 -52.876854 4294967295
192.7955 64.349998 -52.624252 4294967295
192.80081 77.883232 -52.062321 4294967295
192.82404 79.290306 -51.598747 4294967295
192.82585 78.818153 -51.905121 4294967295
192.83099 64.813377 -52.910034 4294967295
192.84079 79.756638 -51.587166 4294967295
192.86966 65.276115 -53.245823 4294967295
192.87154 66.680008 -52.444611 4294967295
192.87903 66.210655 -52.840393 4294967295
192.88492 80.685722 -51.732182 4294967295
192.89615 81.153931 -51.632912 4294967295
192.90614 67.611526 -52.438873 4294967295
192.9068 65.738792 -53.557335 4294967295
192.90779 67.142776 -52.742458 4294967295
192.90784 80.206238 -52.373466 4294967295
192.90837 68.079865 -52.197136 4294967295
192.9171 81.618797 -51.687672 4294967295
192.93138 69.01371 -52.007111 4294967295
192.93175 82.558311 -51.364716 4294967295
192.97034 68.537834 -52.903107 4294967295
192.9763 55.950539 -53.090157 4294967295
192.97873 83.486168 -51.554981 4294967295
192.97946 56.416195 -52.863041 4294967295
192.98199 83.012352 -51.884895 4294967295
192.99527 84.425575 -51.262024 4294967295
192.9982 83.951492 -51.587067 4294967295
192.99915 70.40834 -52.250443 4294967295
193.01103 57.813499 -52.531998 4294967295
193.0162 69.935776 -52.798943 4294967295
193.0193 70.873589 -52.292896 4294967295
193.03191 58.745487 -52.308178 4294967295
193.03511 57.346725 -53.191895 4294967295
193.04263 84.879959 -51.736961 4294967295
193.05161 59.211132 -52.343311 4294967295
193.05469 72.274834 -52.021759 4294967295
193.05484 85.348122 -51.653049 4294967295
193.05649 58.278084 -52.976604 4294967295
193.06668 71.332962 -52.768215 4294967295
193.08522 72.737694 -52.229237 4294967295
193.08649 73.20739 -51.971519 4294967295
193.08995 71.797295 -52.86042 4294967295
193.09666 86.750824 -51.483772 4294967295
193.09961 59.675121 -52.828903 4294967295
193.10451 61.075428 -52.072777 4294967295
193.1051 73.673042 -51.98896 4294967295
193.10632 86.27343 -51.915398 4294967295
193.10863 74.142479 -51.766731 4294967295
193.11298 75.082596 -51.279099 4294967295
193.11333 87.217316 -51.470238 4294967295
193.12874 60.606636 -52.736076 4294967295
193.1328 75.548164 -51.316063 4294967295
193.13412 61.540283 -52.265869 4294967295
193.16681 88.615295 -51.486229 4294967295
193.17044 76.008736 -51.637211 4294967295
193.19035 87.657608 -52.41814 4294967295
193.20033 62.468849 -52.763531 4294967295
193.20572 76.469742 -51.920795 4294967295
193.22256 88.116898 -52.652676 4294967295
193.22612 76.934837 -51.96714 4294967295
193.23701 77.873985 -51.582939 4294967295
193.24797 78.813713 -51.199966 4294967295
193.24858 77.399277 -52.046425 4294967295
193.2502 63.398407 -53.0009 4294967295
193.25163 62.930996 -53.302052 4294967295
193.25436 65.269127 -51.953262 4294967295
193.26074 64.800194 -52.333702 4294967295
193.26195 78.337753 -51.701866 4294967295
193.29256 66.200462 -52.004623 4294967295
193.30048 80.68457 -50.92078 4294967295
193.30214 63.859955 -53.550163 4294967295
193.30972 65.729744 -52.557037 4294967295
193.31631 64.325623 -53.498081 4294967295
193.31989 79.734039 -51.78933 4294967295
193.3307 79.258926 -52.240974 4294967295
193.34621 81.141106 -51.371464 4294967295
193.35941 80.192673 -52.140846 4294967295
193.36774 67.125862 -52.646454 4294967295
193.39897 81.59478 -51.935211 4294967295
193.40358 67.588478 -52.939445 4294967295
193.40475 83.01001 -51.188766 4294967295
193.42015 82.531715 -51.714687 4294967295
193.42307 57.331367 -51.948555 4294967295
193.42416 56.865101 -52.245453 4294967295
193.42754 56.399048 -52.578461 4294967295
193.42822 69.928368 -51.937187 4294967295
193.43166 68.520714 -52.829918 4294967295
193.43178 83.945541 -51.061432 4294967295
193.4481 69.455353 -52.534367 4294967295
193.45129 71.332443 -51.467216 4294967295
193.45589 83.463486 -51.726532 4294967295
193.46448 55.932999 -53.447823 4294967295
193.48677 70.855263 -52.314457 4294967295
193.49489 70.384308 -52.723686 4294967295
193.50557 84.862663 -51.681892 4294967295
193.51247 84.387054 -52.072319 4294967295
193.51871 85.33046 -51.612366 4294967295
193.51985 85.803253 -51.350754 4294967295
193.52142 58.726925 -52.682514 4294967295
193.52164 59.193409 -52.406601 4294967295
193.52591 58.260464 -53.033943 4294967295
193.53656 57.794086 -53.483444 4294967295
193.53694 71.783424 -52.557552 4294967295
193.56425 73.18647 -52.15554 4294967295
193.57458 60.590473 -52.414772 4294967295
193.57529 60.123611 -52.705582 4294967295
193.57565 73.653793 -52.058201 4294967295
193.57874 59.656807 -53.040661 4294967295
193.58022 86.724815 -51.757282 4294967295
193.61443 74.584549 -52.119186 4294967295
193.62219 87.180298 -52.149658 4294967295
193.63458 88.595871 -51.507126 4294967295
193.64784 88.11615 -52.000004 4294967295
193.64815 61.051861 -53.312813 4294967295
193.64862 61.518623 -53.040916 4294967295
193.65254 62.919949 -52.263538 4294967295
193.67035 62.450794 -52.829029 4294967295
193.6843 75.506721 -52.678574 4294967295
193.69495 75.974243 -52.569168 4294967295
193.70087 77.385101 -51.823051 4294967295
193.70248 63.849743 -52.503838 4294967295
193.71968 76.908554 -52.405231 4294967295
193.72845 77.847984 -51.985031 4294967295
193.73764 66.185722 -51.665726 4294967295
193.75194 64.311539 -53.016647 4294967295
193.75334 78.782982 -51.823174 4294967295
193.75885 66.651154 -51.725372 4294967295
193.77834 65.711571 -52.599361 4294967295
193.79025 79.242653 -52.135193 4294967295
193.81235 80.650574 -51.647423 4294967295
193.82536 67.109314 -52.512642 4294967295
193.83508 80.171013 -52.293518 4294967295
193.87131 56.381954 -52.222008 4294967295
193.87935 81.099327 -52.442947 4294967295
193.90073 69.909126 -52.038391 4294967295
193.90094 82.507828 -51.946877 4294967295
193.90199 71.317772 -51.214417 4294967295
193.90286 55.915833 -53.010166 4294967295
193.91484 82.030548 -52.451729 4294967295
193.91933 68.498909 -53.180244 4294967295
193.92006 82.973129 -51.973351 4294967295
193.9223 71.783318 -51.259796 4294967295
193.92842 70.842361 -51.921288 4294967295
193.94019 70.370499 -52.391891 4294967295
193.94821 83.907578 -51.863697 4294967295
193.94981 55.450325 -54.044857 4294967295
193.98065 85.313583 -51.540955 4294967295
193.99356 84.362556 -52.311962 4294967295
193.99724 72.706215 -51.903244 4294967295
193.99858 57.31102 -53.706596 4294967295
194.00748 72.233955 -52.349701 4294967295
194.00917 87.195808 -50.872677 4294967295
194.03467 85.764542 -52.129612 4294967295
194.04243 73.635483 -52.06805 4294967295
194.04646 88.127464 -50.90976 4294967295
194.0547 73.162445 -52.547188 4294967295
194.0583 86.701065 -51.947025 4294967295
194.05959 87.647682 -51.403625 4294967295
194.06781 60.104332 -53.134605 4294967295
194.06908 74.569351 -51.93375 4294967295
194.07343 74.097878 -52.28566 4294967295
194.08028 75.036926 -51.832146 4294967295
194.08095 59.637154 -53.627312 4294967295
194.08989 61.503056 -52.645813 4294967295
194.09666 60.56892 -53.318077 4294967295
194.1044 75.501038 -51.939369 4294967295
194.10757 62.435894 -52.367561 4294967295
194.13435 63.835945 -51.953671 4294967295
194.13577 61.032574 -53.666588 4294967295
194.15121 62.898914 -52.78952 4294967295
194.16939 77.366089 -51.8596 4294967295
194.17906 63.363304 -52.956894 4294967295
194.18056 65.234375 -51.852554 4294967295
194.18181 75.950119 -52.906185 4294967295
194.18484 64.297791 -52.486263 4294967295
194.18932 77.831268 -51.89888 4294967295
194.19554 65.700623 -51.812172 4294967295
194.20389 78.298103 -51.851677 4294967295
194.21097 66.16684 -51.779121 4294967295
194.22169 64.760956 -52.799168 4294967295
194.22382 80.178734 -51.042961 4294967295
194.2317 66.632278 -51.831573 4294967295
194.25977 81.110893 -51.058693 4294967295
194.26294 68.033684 -51.488556 4294967295
194.27736 80.632545 -51.626019 4294967295
194.30179 68.495903 -51.833778 4294967295
194.32071 82.506477 -51.19532 4294967295
194.33365 68.959145 -52.066406 4294967295
194.34579 82.024788 -51.884388 4294967295
194.35968 69.423325 -52.204742 4294967295
194.36215 81.546776 -52.431953 4294967295
194.36411 55.898499 -52.937355 4294967295
194.36659 83.434677 -51.371708 4294967295
194.37016 69.890472 -52.091667 4294967295
194.38655 56.363884 -53.017624 4294967295
194.38795 83.8993 -51.434296 4294967295
194.3916 58.228092 -51.968014 4294967295
194.39749 56.829433 -52.912102 4294967295
194.40636 71.291451 -51.828186 4294967295
194.40955 82.94577 -52.350479 4294967295
194.42262 57.294689 -53.036049 4294967295
194.42482 84.357719 -51.748142 4294967295
194.43419 70.346748 -52.845177 4294967295
194.4444 70.813789 -52.727707 4294967295
194.44511 85.295654 -51.51041 4294967295
194.46092 58.691574 -52.807564 4294967295
194.46329 84.815224 -52.088226 4294967295
194.46466 71.748207 -52.489594 4294967295
194.46527 86.707718 -50.986023 4294967295
194.47414 59.623844 -52.455505 4294967295
194.48352 86.226349 -51.565914 4294967295
194.4875 73.622589 -51.726212 4294967295
194.49359 61.023319 -51.921066 4294967295
194.49506 72.210892 -52.698799 4294967295
194.49852 59.156029 -53.133904 4294967295
194.49892 87.166962 -51.248039 4294967295
194.50479 73.148163 -52.290146 4294967295
194.50812 60.088425 -52.72303 4294967295
194.51256 88.108864 -50.901497 4294967295
194.5143 74.556641 -51.593628 4294967295
194.52824 61.955059 -51.916061 4294967295
194.53552 75.492447 -51.370399 4294967295
194.53732 75.021156 -51.683403 4294967295
194.5419 76.432907 -50.90551 4294967295
194.54637 60.552483 -53.059975 4294967295
194.54764 88.567184 -51.186935 4294967295
194.56779 89.032158 -51.229996 4294967295
194.57756 87.606125 -52.240219 4294967295
194.59088 62.416553 -52.648621 4294967295
194.60843 78.29911 -50.849525 4294967295
194.61951 77.823997 -51.313797 4294967295
194.62791 76.878967 -52.018631 4294967295
194.64017 64.749283 -52.0299 4294967295
194.65294 62.877525 -53.372032 4294967295
194.65889 66.151718 -51.481667 4294967295
194.65889 78.754837 -51.38504 4294967295
194.66681 64.278084 -52.74659 4294967295
194.67572 63.342228 -53.458656 4294967295
194.68146 80.163292 -50.898331 4294967295
194.68167 65.679985 -52.136398 4294967295
194.68636 79.217659 -51.547539 4294967295
194.69196 80.632004 -50.784519 4294967295
194.70511 79.683266 -51.567909 4294967295
194.7173 81.568115 -50.627525 4294967295
194.71786 66.611343 -52.156166 4294967295
194.73428 82.034714 -50.618626 4294967295
194.74405 68.013191 -51.729198 4294967295
194.74525 67.544128 -52.032833 4294967295
194.77682 67.070435 -52.831024 4294967295
194.78835 68.474297 -52.165199 4294967295
194.80968 69.877777 -51.658821 4294967295
194.80978 55.415703 -52.895405 4294967295
194.81134 57.279289 -51.782307 4294967295
194.81345 69.407715 -52.004898 4294967295
194.82477 68.936523 -52.473724 4294967295
194.83066 83.416977 -51.333954 4294967295
194.85034 55.880981 -53.270916 4294967295
194.86386 84.349922 -51.304565 4294967295
194.87253 82.92836 -52.30106 4294967295
194.87357 84.819206 -51.177574 4294967295
194.87383 71.273094 -51.849136 4294967295
194.88672 85.287163 -51.106712 4294967295
194.8894 71.739418 -51.818027 4294967295
194.89693 70.329369 -52.795418 4294967295
194.90933 56.345726 -53.947021 4294967295
194.91573 58.674576 -52.628853 4294967295
194.91943 56.810902 -53.82711 4294967295
194.92258 70.793144 -52.928394 4294967295
194.9269 57.741966 -53.37999 4294967295
194.92691 72.200668 -52.144478 4294967295
194.9286 59.140373 -52.553833 4294967295
194.92894 59.606953 -52.274212 4294967295
194.93462 72.66877 -51.985035 4294967295
194.94864 85.734787 -51.831669 4294967295
194.95158 73.604965 -51.691406 4294967295
194.96539 58.206398 -53.722801 4294967295
194.96796 73.130722 -52.243538 4294967295
194.96942 86.672745 -51.600029 4294967295
194.98914 88.085541 -51.065002 4294967295
194.99329 89.032295 -50.560593 4294967295
194.99962 87.133194 -51.807644 4294967295
195.00343 88.553223 -51.012794 4294967295
195.0172 60.534538 -53.144051 4294967295
195.01897 74.998764 -51.93491 4294967295
195.02249 61.467743 -52.660339 4294967295
195.03375 87.591713 -52.079681 4294967295
195.03398 74.524338 -52.465569 4294967295
195.03488 75.46505 -51.909534 4294967295
195.04465 61.932854 -52.736832 4294967295
195.05739 77.814484 -50.847492 4294967295
195.06146 64.269073 -51.583611 4294967295
195.06438 62.865452 -52.488457 4294967295
195.06979 62.397621 -52.861759 4294967295
195.07588 76.395035 -52.007988 4294967295
195.07976 63.798958 -52.168213 4294967295
195.08778 75.92086 -52.488274 4294967295
195.09377 77.331856 -51.728756 4294967295
195.09431 76.86058 -52.023361 4294967295
195.11417 79.684036 -50.63121 4294967295
195.11469 65.19854 -51.882019 4294967295
195.11957 65.666183 -51.67572 4294967295
195.12213 63.326641 -53.146263 4294967295
195.13734 78.732529 -51.583221 4294967295
195.15289 80.143143 -50.978649 4294967295
195.15686 64.724983 -52.857494 4294967295
195.19235 81.546562 -50.764923 4294967295
195.19431 66.123604 -52.612778 4294967295
195.20863 79.180817 -52.463753 4294967295
195.21481 82.011055 -50.846413 4294967295
195.21994 66.587898 -52.746124 4294967295
195.24231 69.396957 -51.394531 4294967295
195.25328 67.987755 -52.433693 4294967295
195.25931 55.398361 -52.629951 4294967295
195.26027 82.46685 -51.304619 4294967295
195.26744 55.863953 -52.476959 4294967295
195.30069 68.447975 -52.924492 4294967295
195.31473 69.85199 -52.295235 4294967295
195.32098 82.916473 -52.01363 4294967295
195.32118 56.329067 -53.071232 4294967295
195.33041 84.3312 -51.307678 4294967295
195.33492 83.383675 -51.955441 4294967295
195.35614 71.251488 -52.114441 4294967295
195.35922 72.660591 -51.304153 4294967295
195.36221 57.259621 -53.17128 4294967295
195.36418 56.793919 -53.48983 4294967295
195.37105 84.787872 -51.687439 4294967295
195.37172 59.590767 -51.894165 4294967295
195.37567 59.123825 -52.245903 4294967295
195.37851 85.731361 -51.235588 4294967295
195.38356 85.25589 -51.605824 4294967295
195.3938 57.72448 -53.402721 4294967295
195.39777 58.656342 -52.895069 4294967295
195.40164 58.190075 -53.245094 4294967295
195.40295 71.710594 -52.59597 4294967295
195.41716 72.176926 -52.542053 4294967295
195.41795 73.586746 -51.69418 4294967295
195.42575 60.521049 -52.207222 4294967295
195.45749 86.171227 -52.24543 4294967295
195.46144 87.590096 -51.448837 4294967295
195.46562 74.044853 -52.189972 4294967295
195.47316 75.925575 -51.164116 4294967295
195.47778 75.45327 -51.527901 4294967295
195.47978 88.529854 -51.17485 4294967295
195.49884 88.047112 -51.775772 4294967295
195.49916 62.850994 -51.977631 4294967295
195.51065 61.448235 -53.027824 4294967295
195.51698 88.986824 -51.498978 4294967295
195.52615 61.913788 -52.995621 4294967295
195.54237 63.781624 -52.11293 4294967295
