# .PCD v0.7 - Point Cloud Data file format
VERSION 0.7
FIELDS x y z rgb
SIZE 4 4 4 4
TYPE F F F U
COUNT 1 1 1 1
WIDTH 1146
HEIGHT 1
VIEWPOINT 0 0 0 1 0 0 0
POINTS 1146
DATA ascii
240.67212 103.47895 -50.234558 4294967295
240.68893 90.396812 -52.106232 4294967295
240.70535 90.861961 -52.061516 4294967295
240.74203 92.274879 -51.373371 4294967295
240.76535 93.219383 -50.862881 4294967295
240.80226 94.14502 -50.953415 4294967295
240.8138 94.617966 -50.691475 4294967295
240.83191 95.081314 -50.72187 4294967295
240.86169 96.017761 -50.496078 4294967295
240.88943 96.957817 -50.17767 4294967295
240.89003 96.465408 -50.980724 4294967295
240.9375 97.865921 -50.764618 4294967295
241.01846 99.704536 -51.26606 4294967295
241.02661 101.17319 -49.290451 4294967295
241.04124 100.65347 -50.72567 4294967295
241.14752 103.93298 -50.017315 4294967295
241.16838 90.354912 -52.887096 4294967295
241.435 98.282341 -51.558285 4294967295
241.44032 99.259933 -50.218201 4294967295
241.48071 100.67432 -49.674118 4294967295
241.50615 101.12503 -50.038231 4294967295
241.51836 101.59896 -49.798836 4294967295
241.52068 87.561493 -52.659538 4294967295
241.53419 88.029907 -52.483116 4294967295
241.53554 102.06414 -49.786583 4294967295
241.57207 103.98523 -48.264572 4294967295
241.57533 102.98459 -50.010296 4294967295
241.58304 103.46725 -49.564949 4294967295
241.58337 88.938629 -53.136395 4294967295
241.58728 89.419685 -52.521336 4294967295
241.59465 89.896645 -52.063843 4294967295
241.62602 104.38157 -49.934464 4294967295
241.6499 90.79631 -52.996227 4294967295
241.65388 91.766472 -51.586002 4294967295
241.69621 92.194946 -52.727051 4294967295
241.75443 94.066208 -52.202782 4294967295
241.7617 95.036049 -50.936153 4294967295
241.80739 96.439293 -50.631813 4294967295
241.83554 96.886375 -51.124962 4294967295
241.84192 97.368576 -50.615517 4294967295
241.86487 98.317268 -50.063805 4294967295
241.95618 100.63292 -50.253098 4294967295
241.95682 101.12745 -49.474365 4294967295
242.00537 87.513947 -53.721573 4294967295
242.0094 87.994141 -53.102207 4294967295
242.05495 103.92884 -49.167572 4294967295
242.10448 91.275375 -51.858429 4294967295
242.1355 92.208618 -51.679909 4294967295
242.18869 93.598984 -51.723286 4294967295
242.25934 95.944901 -50.951973 4294967295
242.32233 97.81308 -50.634876 4294967295
242.43286 101.58101 -49.266384 4294967295
242.44427 101.06359 -50.629982 4294967295
242.45068 102.04516 -49.284393 4294967295
242.4709 87.975494 -53.100109 4294967295
242.48395 103.47643 -48.378311 4294967295
242.48409 88.931107 -52.079174 4294967295
242.49358 102.95975 -49.6619 4294967295
242.51746 104.40966 -48.310806 4294967295
242.52966 89.356628 -53.409748 4294967295
242.54568 90.797531 -51.696007 4294967295
242.55429 90.297249 -52.929176 4294967295
242.55621 104.83279 -49.321648 4294967295
242.55962 91.266449 -51.530342 4294967295
242.59079 91.710358 -52.183445 4294967295
242.6149 92.653816 -51.67371 4294967295
242.61729 92.160645 -52.615364 4294967295
242.62296 93.131866 -51.229401 4294967295
242.6575 94.060509 -51.214706 4294967295
242.68517 95.00013 -50.871616 4294967295
242.71265 95.94059 -50.520317 4294967295
242.78174 97.305283 -51.322407 4294967295
242.78249 98.292458 -49.688328 4294967295
242.80231 98.753014 -49.801056 4294967295
242.83133 99.197151 -50.355999 4294967295
242.85373 100.14858 -49.757431 4294967295
242.94254 102.46886 -49.83316 4294967295
242.96114 102.93128 -49.887936 4294967295
243.00964 90.287308 -52.629318 4294967295
243.07713 92.634567 -51.683941 4294967295
243.09903 93.09156 -51.900219 4294967295
243.18188 95.910362 -50.846153 4294967295
243.23148 97.802292 -49.86475 4294967295
243.25459 97.267769 -51.842255 4294967295
243.2711 98.227745 -50.947372 4294967295
243.32115 99.624336 -50.837814 4294967295
243.37828 87.959175 -52.334824 4294967295
243.43996 103.87893 -48.960918 4294967295
243.45084 89.809357 -52.479675 4294967295
243.46062 104.33737 -49.118633 4294967295
243.47946 91.235168 -51.317352 4294967295
243.48155 90.742493 -52.277351 4294967295
243.51418 92.163406 -51.309998 4294967295
243.54283 92.60997 -51.864502 4294967295
243.5466 93.095192 -51.191132 4294967295
243.58374 94.019585 -51.304604 4294967295
243.58485 93.526123 -52.219383 4294967295
243.61058 94.960869 -50.90757 4294967295
243.61334 95.449593 -50.180275 4294967295
243.63708 95.903343 -50.493256 4294967295
243.67302 96.335945 -51.411346 4294967295
243.68927 97.296562 -50.486507 4294967295
243.68977 97.790985 -49.644524 4294967295
243.73584 98.700012 -50.200001 4294967295
243.7435 98.190414 -51.450066 4294967295
243.75475 99.16172 -50.274269 4294967295
243.759 99.650726 -49.615112 4294967295
243.76727 100.13264 -49.157417 4294967295
243.80171 100.56519 -50.005783 4294967295
243.8127 101.04214 -49.682266 4294967295
243.84006 101.98621 -49.306068 4294967295
243.84392 101.47995 -50.372917 4294967295
243.85739 88.404076 -52.334068 4294967295
243.86096 87.911644 -53.382591 4294967295
243.90172 103.36171 -49.773071 4294967295
243.95518 91.195679 -51.999634 4294967295
243.96936 91.664352 -51.837498 4294967295
244.11076 95.371033 -51.942764 4294967295
244.16428 97.254906 -51.124023 4294967295
244.31096 101.95081 -49.714607 4294967295
244.3457 88.835617 -52.803791 4294967295
244.37112 104.33102 -48.328098 4294967295
244.45218 92.595398 -51.124062 4294967295
244.4538 92.101059 -52.101067 4294967295
244.48146 93.040047 -51.733902 4294967295
244.52719 93.949371 -52.294823 4294967295
244.54089 94.912857 -51.205933 4294967295
244.55884 95.375969 -51.232529 4294967295
244.5795 96.329239 -50.500401 4294967295
244.64836 97.691452 -51.358025 4294967295
244.653 98.676521 -49.791424 4294967295
244.65588 98.17395 -50.844276 4294967295
244.72052 100.04047 -50.580788 4294967295
244.7475 100.98477 -50.169868 4294967295
244.76668 102.44649 -48.441624 4294967295
244.77722 87.88324 -53.056633 4294967295
244.78229 101.91376 -50.165577 4294967295
244.78458 88.361038 -52.534531 4294967295
244.80161 89.314484 -51.608963 4294967295
244.82053 103.83866 -48.517738 4294967295
244.84013 104.29906 -48.6306 4294967295
244.84377 90.230904 -51.990494 4294967295
244.85355 90.706429 -51.593025 4294967295
244.86063 104.75752 -48.788696 4294967295
244.87738 91.160149 -51.927864 4294967295
244.87743 91.651634 -51.019821 4294967295
244.97478 93.954483 -51.555405 4294967295
245.02705 95.841133 -50.639397 4294967295
245.05115 96.293221 -50.99028 4294967295
245.0704 97.250443 -50.166695 4294967295
245.14214 99.104118 -50.272461 4294967295
245.20428 101.47758 -48.940861 4294967295
245.23492 102.41634 -48.713264 4294967295
245.26733 89.289871 -51.812626 4294967295
245.27599 103.33303 -49.040993 4294967295
245.32494 90.181664 -53.025024 4294967295
245.35876 91.601395 -52.044884 4294967295
245.41002 93.487564 -51.061295 4294967295
245.4518 94.403381 -51.432182 4294967295
245.46622 95.368118 -50.335594 4294967295
245.51639 96.268311 -51.158989 4294967295
245.51944 96.759323 -50.384743 4294967295
245.5343 97.726387 -49.305695 4294967295
245.54088 97.215973 -50.600826 4294967295
245.57498 98.145897 -50.558792 4294967295
245.61046 99.572441 -49.649124 4294967295
245.6125 99.069046 -50.702431 4294967295
245.62904 100.03466 -49.711868 4294967295
245.64293 100.50655 -49.518585 4294967295
245.65781 100.97653 -49.379478 4294967295
245.66948 87.401588 -52.356308 4294967295
245.68369 101.92514 -48.888481 4294967295
245.69124 87.858612 -52.592018 4294967295
245.70253 88.821426 -51.315929 4294967295
245.74205 89.250984 -52.515774 4294967295
245.74492 103.30029 -49.370655 4294967295
245.7636 104.26605 -48.486603 4294967295
245.77567 90.179756 -52.450928 4294967295
245.79321 104.70356 -49.149185 4294967295
245.80869 91.109589 -52.353859 4294967295
245.81812 92.079491 -50.968323 4294967295
245.87425 92.970627 -52.131638 4294967295
245.92363 94.366486 -51.976097 4294967295
245.961 95.785263 -51.159412 4294967295
246.01703 97.1698 -51.36779 4294967295
246.04535 98.110527 -51.008411 4294967295
246.08205 99.534706 -50.145763 4294967295
246.12117 101.45801 -48.448181 4294967295
246.15752 102.38491 -48.527477 4294967295
246.21136 103.77667 -48.607033 4294967295
246.21265 89.217712 -53.023361 4294967295
246.23129 90.170486 -52.126472 4294967295
246.24081 90.64711 -51.687897 4294967295
246.25148 91.122162 -51.31258 4294967295
246.30269 92.021713 -52.224041 4294967295
246.34476 93.430527 -51.656273 4294967295
246.37628 94.860382 -50.496719 4294967295
246.46173 97.184799 -50.400009 4294967295
246.47861 98.149826 -49.386185 4294967295
246.49121 97.62484 -51.078827 4294967295
246.51767 98.570061 -50.604954 4294967295
246.53633 99.031631 -50.675194 4294967295
246.56705 99.968735 -50.440327 4294967295
246.59044 100.92217 -49.78933 4294967295
246.60277 87.348557 -52.936729 4294967295
246.60356 101.39609 -49.545906 4294967295
246.62253 102.36098 -48.642529 4294967295
246.64012 88.270966 -53.081985 4294967295
246.64627 88.752075 -52.445419 4294967295
246.66998 89.205254 -52.803719 4294967295
246.67654 103.75203 -48.734337 4294967295
246.67664 89.686226 -52.193153 4294967295
246.70366 90.133682 -52.739738 4294967295
246.7085 104.68883 -48.565552 4294967295
246.72084 91.090492 -51.737762 4294967295
246.7796 92.964966 -51.11702 4294967295
246.80743 93.905899 -50.714951 4294967295
246.84679 94.328735 -51.969437 4294967295
246.85207 95.312958 -50.27623 4294967295
246.89011 96.235222 -50.45826 4294967295
246.89236 95.732552 -51.587845 4294967295
246.98355 98.54303 -50.820244 4294967295
247.05002 101.41291 -48.613197 4294967295
247.09109 88.760391 -51.485954 4294967295
247.10576 102.79985 -48.809204 4294967295
247.10884 89.223633 -51.504215 4294967295
247.14203 104.23294 -47.871101 4294967295
247.14569 90.147728 -51.620918 4294967295
247.1741 104.66286 -48.72168 4294967295
247.22809 92.474846 -51.3489 4294967295
247.3614 96.197647 -50.995117 4294967295
247.47865 99.958611 -49.684914 4294967295
247.48557 100.95108 -48.028915 4294967295
247.52972 102.36584 -47.538582 4294967295
247.53334 101.85159 -48.789062 4294967295
247.54959 88.254601 -52.324692 4294967295
247.56433 102.79052 -48.557014 4294967295
247.58205 89.185432 -52.184692 4294967295
247.58986 89.665367 -51.616116 4294967295
247.5929 103.22884 -49.216896 4294967295
247.60068 103.71687 -48.642578 4294967295
247.61717 90.111809 -52.204556 4294967295
247.61742 104.69167 -47.557579 4294967295
247.65442 91.529411 -51.313316 4294967295
247.6553 91.032814 -52.401428 4294967295
247.66428 92.007187 -50.861691 4294967295
247.70181 92.93013 -51.021183 4294967295
247.76117 94.307961 -51.446198 4294967295
247.79805 95.231354 -51.569283 4294967295
247.81828 96.188972 -50.692757 4294967295
247.84006 96.64399 -50.952522 4294967295
247.84456 97.135323 -50.175297 4294967295
247.88232 98.057579 -50.349869 4294967295
247.88248 98.559715 -49.306862 4294967295
247.89149 99.043053 -48.797504 4294967295
247.90663 99.513062 -48.657745 4294967295
247.94382 99.933113 -49.851051 4294967295
247.99687 87.767014 -52.524536 4294967295
248.06982 104.19019 -47.963764 4294967295
248.21204 93.812141 -51.849522 4294967295
248.22012 94.793854 -50.208443 4294967295
248.25082 95.730995 -49.95369 4294967295
248.40373 100.42488 -48.620575 4294967295
248.46741 87.732544 -53.101898 4294967295
248.46848 102.29686 -48.303047 4294967295
248.47238 88.216995 -52.330978 4294967295
248.47446 102.79033 -47.588924 4294967295
248.49182 89.171028 -51.374809 4294967295
248.49759 103.24141 -47.940788 4294967295
248.49837 103.74885 -46.900311 4294967295
248.51614 104.2137 -46.916985 4294967295
248.52402 89.608154 -52.295425 4294967295
248.5392 90.0756 -52.157372 4294967295
248.54938 104.63838 -47.902416 4294967295
248.56055 91.027802 -51.316559 4294967295
248.58371 91.977867 -50.587326 4294967295
248.60921 92.426178 -51.091343 4294967295
248.6236 92.896019 -50.902542 4294967295
248.64685 93.348221 -51.268997 4294967295
248.69136 94.755852 -50.780182 4294967295
248.72993 95.675812 -51.015942 4294967295
248.74374 96.147537 -50.787907 4294967295
248.7493 96.637634 -50.037582 4294967295
248.76923 97.096298 -50.196968 4294967295
248.7767 98.08712 -48.462029 4294967295
248.83568 99.972557 -47.773132 4294967295
248.84468 99.444977 -49.453754 4294967295
248.8685 100.90809 -47.637405 4294967295
248.89801 101.34364 -48.404533 4294967295
248.94336 88.181229 -52.946861 4294967295
249.03105 90.991951 -51.882133 4294967295
249.08342 92.382278 -51.890953 4294967295
249.14136 94.762222 -50.01519 4294967295
249.18555 95.670341 -50.615967 4294967295
249.21947 97.104225 -49.427658 4294967295
249.29195 99.969856 -47.330585 4294967295
249.36139 101.83224 -47.302513 4294967295
249.45476 90.051628 -51.692577 4294967295
249.48517 90.48996 -52.544254 4294967295
249.48897 90.980011 -51.652481 4294967295
249.51434 91.427727 -52.174683 4294967295
249.52916 91.896362 -52.004993 4294967295
249.57687 93.296249 -51.708637 4294967295
249.58093 93.788399 -50.827057 4294967295
249.61513 94.717682 -50.784012 4294967295
249.62718 95.193535 -50.429546 4294967295
249.65714 95.629448 -51.25901 4294967295
249.66389 96.117493 -50.55228 4294967295
249.66696 97.119812 -48.439171 4294967295
249.72043 98.00515 -49.674988 4294967295
249.73529 98.982925 -48.339737 4294967295
249.75992 99.430046 -48.819275 4294967295
249.76823 100.42691 -47.039307 4294967295
249.76953 99.914482 -48.293636 4294967295
249.81531 101.32628 -47.852848 4294967295
249.81818 101.8297 -46.871582 4294967295
249.8291 87.220215 -52.852432 4294967295
249.84198 87.691589 -52.549812 4294967295
249.84695 88.177856 -51.718094 4294967295
249.85869 88.652092 -51.337723 4294967295
249.86656 102.72464 -47.775856 4294967295
249.86874 103.23118 -46.746155 4294967295
249.88779 89.093468 -52.122116 4294967295
249.88814 89.589943 -50.97625 4294967295
249.91534 104.13004 -47.531361 4294967295
249.93886 104.57842 -47.938438 4294967295
249.95697 105.04169 -47.981472 4294967295
249.98112 91.896935 -51.37402 4294967295
250.11136 96.132156 -49.570061 4294967295
250.1454 96.557251 -50.701332 4294967295
250.14738 97.058174 -49.649033 4294967295
250.17287 98.51796 -47.812088 4294967295
250.22778 100.41718 -46.786278 4294967295
250.28934 87.698647 -51.606636 4294967295
250.32611 103.22839 -46.332108 4294967295
250.3775 90.014267 -51.684868 4294967295
250.40128 105.07598 -46.693588 4294967295
250.50323 93.753159 -50.743855 4294967295
250.52214 94.213745 -50.845139 4294967295
250.53828 95.185265 -49.541161 4294967295
250.57368 95.607101 -50.795353 4294967295
250.57535 96.108803 -49.693829 4294967295
250.58441 96.593483 -49.107811 4294967295
250.62619 98.013817 -48.365448 4294967295
250.6595 99.458115 -47.023594 4294967295
250.66002 98.946304 -48.289673 4294967295
250.68056 99.914055 -47.275703 4294967295
250.73599 87.211365 -51.7939 4294967295
250.75208 87.677368 -51.701561 4294967295
250.77454 88.131042 -52.057793 4294967295
250.80641 103.16095 -47.526344 4294967295
250.80876 89.058975 -52.016956 4294967295
250.81155 103.66171 -46.649715 4294967295
250.8315 104.12006 -46.824821 4294967295
250.83669 90.000008 -51.529751 4294967295
250.86166 90.447723 -52.065887 4294967295
250.87347 90.923035 -51.66869 4294967295
250.87796 105.01672 -47.645176 4294967295
250.91136 91.843399 -51.886353 4294967295
250.92508 92.315018 -51.62479 4294967295
251.01498 95.131371 -50.580353 4294967295
251.02791 96.113358 -49.004822 4294967295
251.06929 97.535141 -48.214855 4294967295
251.28091 89.517151 -51.546814 4294967295
251.28177 104.1394 -45.876953 4294967295
251.40756 92.75103 -51.898159 4294967295
251.41316 93.747368 -49.749237 4294967295
251.44911 94.673264 -49.829319 4294967295
251.50507 96.05674 -50.099106 4294967295
251.52187 97.031914 -48.761665 4294967295
251.57036 98.436287 -48.474697 4294967295
251.70303 88.080902 -52.518627 4294967295
251.70763 88.570908 -51.560932 4294967295
251.72705 89.030136 -51.712505 4294967295
251.74036 89.502495 -51.40432 4294967295
251.75351 104.09468 -46.493187 4294967295
251.75864 104.59879 -45.56044 4294967295
251.76669 89.946533 -52.074425 4294967295
251.78426 105.03911 -46.173737 4294967295
251.80396 90.867699 -52.258259 4294967295
251.80963 91.357727 -51.376972 4294967295
251.84608 92.281143 -51.498878 4294967295
251.8745 93.223717 -51.015549 4294967295
251.92189 94.627174 -50.647137 4294967295
251.93503 95.101959 -50.321781 4294967295
251.93898 95.600754 -49.295898 4294967295
251.94681 96.090279 -48.563866 4294967295
251.97255 97.044151 -47.866653 4294967295
251.97929 97.538246 -47.04583 4294967295
252.16661 88.056564 -52.723011 4294967295
252.23878 90.405724 -51.578857 4294967295
252.24298 90.899879 -50.555748 4294967295
252.26747 91.347214 -51.102127 4294967295
252.33173 93.215424 -50.682072 4294967295
252.36995 94.643311 -49.584892 4294967295
252.38872 95.614662 -48.322628 4294967295
252.41806 96.047531 -49.25412 4294967295
252.61072 87.57341 -52.775585 4294967295
252.61667 88.061455 -51.868587 4294967295
252.67215 89.444031 -52.131546 4294967295
252.68434 89.919464 -51.714527 4294967295
252.71898 91.352425 -50.30896 4294967295
252.75453 92.278641 -50.365379 4294967295
252.7868 93.213203 -50.157852 4294967295
252.82751 94.636215 -49.224361 4294967295
252.82774 94.125313 -50.647102 4294967295
252.87643 96.038872 -48.949501 4294967295
252.87964 96.543427 -47.793774 4294967295
253.14374 89.904907 -51.569351 4294967295
253.18558 91.321304 -50.713089 4294967295
253.2648 93.151291 -51.50507 4294967295
253.3101 95.586685 -48.021408 4294967295
253.31049 95.072037 -49.509827 4294967295
253.37733 96.937721 -49.265381 4294967295
253.52116 87.561317 -51.846832 4294967295
253.54225 88.016075 -52.158524 4294967295
253.57225 88.954071 -51.750801 4294967295
253.59982 89.898689 -51.138348 4294967295
253.65689 91.277107 -51.549259 4294967295
253.69141 92.204788 -51.524979 4294967295
253.70256 92.685104 -50.989433 4294967295
253.73331 94.136452 -49.142773 4294967295
253.75276 95.109772 -47.811775 4294967295
253.76974 94.546898 -50.776123 4294967295
253.80902 95.976578 -49.654514 4294967295
253.81171 96.484909 -48.379208 4294967295
253.99304 88.021759 -51.273674 4294967295
254.03867 89.429008 -50.695663 4294967295
254.17181 93.156723 -50.146118 4294967295
254.1796 93.648384 -49.288311 4294967295
254.20314 94.610336 -48.279877 4294967295
254.20721 94.08313 -50.194691 4294967295
254.25841 95.478317 -50.098152 4294967295
254.26093 96.506454 -47.203606 4294967295
254.49153 88.923782 -51.49733 4294967295
254.50186 89.405685 -50.854164 4294967295
254.51878 89.870659 -50.809875 4294967295
254.55978 91.292892 -49.782494 4294967295
254.60172 92.201019 -50.430206 4294967295
254.62245 92.655319 -50.734192 4294967295
254.64066 93.116783 -50.805702 4294967295
254.65236 93.59742 -50.280426 4294967295
254.66161 94.603172 -47.92009 4294967295
254.66882 94.064209 -50.192711 4294967295
254.69875 95.525948 -48.124954 4294967295
254.7021 94.996964 -50.047592 4294967295
254.71164 96.005173 -47.701981 4294967295
254.92403 87.962166 -52.080097 4294967295
254.97459 89.356071 -51.929199 4294967295
255.03485 91.235863 -51.044456 4294967295
255.15994 94.990082 -49.683834 4294967295
255.17239 95.991852 -47.532211 4294967295
255.1792 96.492271 -46.506622 4294967295
255.37958 87.957542 -51.568703 4294967295
255.41777 88.874954 -51.89872 4294967295
255.49805 91.727165 -49.523956 4294967295
255.53186 92.141174 -51.140778 4294967295
255.55792 93.095856 -50.273178 4294967295
255.58012 93.544495 -50.746979 4294967295
255.58319 94.575966 -47.590721 4294967295
255.59012 94.032166 -50.011124 4294967295
255.6059 95.023514 -48.111382 4294967295
255.63013 95.465393 -48.788475 4294967295
255.63953 95.957275 -47.98576 4294967295
255.88075 89.363907 -50.347275 4294967295
255.92351 90.267799 -51.154442 4294967295
255.94875 91.224457 -50.174652 4294967295
255.96001 91.707634 -49.544777 4294967295
255.98082 92.161057 -49.890755 4294967295
256.05203 94.535309 -48.24649 4294967295
256.09546 95.96093 -47.319099 4294967295
256.31219 88.40316 -50.862724 4294967295
256.3309 88.862823 -51.00198 4294967295
256.43539 91.644173 -51.001732 4294967295
256.50778 94.013252 -49.425732 4294967295
256.51755 94.504555 -48.602345 4294967295
256.53958 95.480446 -47.211861 4294967295
256.5423 94.942848 -49.388069 4294967295
256.56339 95.922043 -47.898815 4294967295
256.77899 88.367279 -51.478706 4294967295
256.79904 88.822304 -51.773422 4294967295
256.80975 89.306694 -51.034542 4294967295
256.8414 90.244072 -50.683128 4294967295
256.87408 91.178589 -50.444599 4294967295
256.89526 91.629425 -50.867058 4294967295
256.90808 92.108849 -50.355896 4294967295
256.93906 93.050209 -49.921532 4294967295
256.96771 94.000786 -49.225224 4294967295
256.97028 94.520035 -47.554802 4294967295
256.99207 94.968666 -48.041916 4294967295
257.28973 89.746391 -51.20845 4294967295
257.30417 90.219872 -50.866974 4294967295
257.38684 93.082085 -48.320854 4294967295
257.43689 93.953575 -50.092949 4294967295
257.48593 95.892143 -47.65556 4294967295
257.68344 87.866158 -51.493198 4294967295
257.69064 88.363556 -50.26709 4294967295
257.74292 89.754807 -50.270527 4294967295
257.76941 90.186302 -51.369381 4294967295
257.79913 91.13166 -50.750923 4294967295
257.86203 93.012207 -49.925835 4294967295
257.87317 93.500877 -49.154968 4294967295
257.93735 95.380951 -48.466206 4294967295
257.95874 95.828789 -48.954838 4294967295
258.13333 87.362099 -52.310692 4294967295
258.14874 87.831848 -52.063042 4294967295
258.19107 89.256737 -50.813316 4294967295
258.22452 90.189003 -50.637455 4294967295
258.25665 91.126556 -50.295326 4294967295
258.29169 92.05323 -50.322083 4294967295
258.38931 94.865341 -49.430313 4294967295
258.42935 96.312645 -47.832447 4294967295
258.60678 87.822273 -51.730824 4294967295
258.62317 88.289116 -51.598412 4294967295
258.65448 89.228851 -51.133057 4294967295
258.68533 90.171234 -50.602409 4294967295
258.71924 91.102112 -50.480789 4294967295
258.73953 91.553986 -50.866867 4294967295
258.74899 92.050575 -49.796871 4294967295
258.77448 92.480484 -50.883682 4294967295
258.78067 92.992111 -49.365143 4294967295
258.81647 93.916069 -49.495224 4294967295
258.82458 94.421844 -48.225563 4294967295
258.85754 95.359871 -47.959755 4294967295
258.8923 96.28981 -47.940979 4294967295
258.8999 96.80162 -46.586639 4294967295
259.08725 88.257187 -52.075169 4294967295
259.09378 88.763214 -50.547234 4294967295
259.11469 89.212776 -51.039238 4294967295
259.15121 90.132416 -51.285057 4294967295
259.19217 91.571228 -49.683479 4294967295
259.20404 92.059387 -48.899887 4294967295
259.23578 93.002213 -48.448132 4294967295
259.34714 96.306984 -46.886574 4294967295
259.54138 88.264404 -51.141304 4294967295
259.57904 89.179199 -51.559441 4294967295
259.59027 89.668945 -50.641289 4294967295
259.60892 90.127029 -50.827477 4294967295
259.63757 91.081818 -49.903313 4294967295
259.67303 92.006721 -49.993149 4294967295
259.70883 92.929741 -50.138336 4294967295
259.7175 93.435928 -48.81432 4294967295
259.7338 93.905754 -48.643471 4294967295
259.77197 94.81781 -49.143356 4294967295
259.78192 95.320442 -47.998398 4294967295
259.7923 95.822006 -46.911007 4294967295
259.82123 96.226364 -48.674522 4294967295
259.82547 96.761269 -46.645302 4294967295
259.84256 97.228584 -46.583443 4294967295
260.06726 90.120087 -50.423367 4294967295
260.10812 91.018372 -51.385746 4294967295
260.13928 91.962982 -50.799065 4294967295
260.17661 93.430305 -48.397972 4294967295
260.27411 96.256813 -47.233574 4294967295
260.45703 88.254288 -50.156708 4294967295
260.47644 88.708649 -50.488842 4294967295
260.54681 90.559265 -50.612808 4294967295
260.56662 91.010582 -51.018711 4294967295
260.59668 91.962303 -50.208744 4294967295
260.60956 92.450188 -49.434124 4294967295
260.62695 92.914444 -49.4254 4294967295
260.64746 93.36132 -49.959946 4294967295
260.65598 93.874931 -48.422733 4294967295
260.68097 94.296616 -49.724648 4294967295
260.6969 94.768921 -49.470085 4294967295
260.70746 95.27301 -48.275684 4294967295
260.74203 96.203728 -48.221928 4294967295
260.77371 97.152534 -47.656586 4294967295
260.7832 97.666992 -46.255615 4294967295
260.79919 98.141579 -45.995277 4294967295
260.88922 87.279846 -51.210045 4294967295
260.92764 88.188232 -51.865391 4294967295
260.93677 88.693008 -50.378922 4294967295
260.97562 89.599304 -51.102272 4294967295
261.01971 104.24094 -44.775848 4294967295
261.17758 95.202011 -49.823242 4294967295
261.20804 96.157715 -49.005993 4294967295
261.21805 96.670296 -47.611221 4294967295
261.24011 97.104485 -48.479408 4294967295
261.26562 98.096832 -46.706825 4294967295
261.30115 99.022858 -46.816555 4294967295
261.4144 89.141861 -50.237816 4294967295
261.47 90.513519 -50.886925 4294967295
261.48337 91.000404 -50.104137 4294967295
261.50995 104.60904 -46.665337 4294967295
261.55396 92.84951 -50.28212 4294967295
261.56992 93.322289 -49.995743 4294967295
261.58044 93.830475 -48.622887 4294967295
261.6366 95.19735 -49.395119 4294967295
261.64926 95.69368 -48.441696 4294967295
261.66949 96.138817 -49.000839 4294967295
261.69513 97.132843 -47.127029 4294967295
261.72971 98.065094 -47.05558 4294967295
261.76566 98.98719 -47.26487 4294967295
261.77823 99.489227 -46.259911 4294967295
261.79291 99.975945 -45.685421 4294967295
261.80869 87.252174 -50.851181 4294967295
261.84283 88.182716 -50.713928 4294967295
261.84476 101.37725 -45.554325 4294967295
261.85867 88.655304 -50.387268 4294967295
261.86597 101.81211 -46.338715 4294967295
261.87573 89.121162 -50.306129 4294967295
261.88599 102.256 -46.878456 4294967295
261.89209 89.59082 -50.095726 4294967295
261.89944 102.75464 -46.032082 4294967295
261.90976 90.053009 -50.146179 4294967295
261.93033 90.497192 -50.803291 4294967295
261.94449 90.981117 -50.118916 4294967295
261.95767 91.471863 -49.228073 4294967295
261.96851 104.62338 -45.84771 4294967295
261.97437 91.940819 -49.067375 4294967295
262.02621 93.336029 -48.973709 4294967295
262.06012 94.271057 -48.765396 4294967295
262.12506 96.163849 -47.715328 4294967295
262.14191 96.633133 -47.580288 4294967295
262.16321 97.068001 -48.428787 4294967295
262.1897 98.063522 -46.56472 4294967295
262.28268 87.721954 -49.931274 4294967295
262.34238 102.28958 -45.533932 4294967295
262.35669 89.548195 -50.922714 4294967295
262.36829 90.050507 -49.588524 4294967295
262.39844 103.6523 -46.363403 4294967295
262.42728 104.64116 -44.946049 4294967295
262.44757 105.07951 -45.601082 4294967295
262.54318 94.683685 -49.747856 4294967295
262.55511 95.19133 -48.438843 4294967295
262.57471 95.638023 -48.958008 4294967295
262.58517 96.15947 -47.286098 4294967295
262.60678 96.58947 -48.28772 4294967295
262.62314 97.062958 -48.02697 4294967295
262.63678 97.560333 -47.099499 4294967295
262.65781 97.993881 -47.971359 4294967295
262.67117 98.494583 -46.972309 4294967295
262.68677 98.975952 -46.521904 4294967295
262.7066 99.419403 -47.104897 4294967295
262.72226 99.901093 -46.654366 4294967295
262.74631 87.685577 -50.58004 4294967295
262.76135 100.7914 -47.692924 4294967295
262.76691 88.127426 -51.360603 4294967295
262.77417 101.30054 -46.538727 4294967295
262.78012 88.619705 -50.320633 4294967295
262.79486 89.10199 -49.66124 4294967295
262.80511 102.27017 -45.534527 4294967295
262.81534 89.543861 -50.422401 4294967295
262.83188 90.013687 -50.205345 4294967295
262.83749 103.22748 -44.876148 4294967295
262.85806 103.6615 -45.657036 4294967295
262.87842 104.09673 -46.393494 4294967295
262.88138 91.42556 -49.509979 4294967295
262.88977 104.62646 -44.829624 4294967295
262.89865 91.890549 -49.473518 4294967295
262.91135 105.04854 -45.875679 4294967295
262.91928 92.328987 -50.289444 4294967295
262.95038 93.286713 -49.330498 4294967295
262.98563 94.21109 -49.43681 4294967295
263.0043 94.664337 -49.758339 4294967295
263.01334 95.201561 -47.565331 4294967295
263.05334 96.084763 -48.907925 4294967295
263.11453 98.02314 -46.62014 4294967295
263.17175 99.369514 -47.932892 4294967295
263.20291 100.33702 -46.912571 4294967295
263.23813 101.26381 -46.98967 4294967295
263.27002 102.22633 -46.155594 4294967295
263.27786 89.511093 -50.908424 4294967295
263.30341 103.17458 -45.709209 4294967295
263.46066 94.690186 -48.403214 4294967295
263.56467 97.482132 -48.224586 4294967295
263.58099 97.958611 -47.885605 4294967295
263.6106 98.946167 -46.284882 4294967295
263.63129 99.375175 -47.260315 4294967295
263.65024 99.822395 -47.727844 4294967295
263.66562 100.31117 -47.086464 4294967295
263.668 87.645821 -50.667885 4294967295
263.685 88.112877 -50.533684 4294967295
263.6987 101.2626 -46.519379 4294967295
263.71991 89.038742 -50.567932 4294967295
263.73572 102.16681 -47.175484 4294967295
263.73846 89.4916 -50.934181 4294967295
263.75269 89.984085 -49.931938 4294967295
263.7677 103.1332 -46.256035 4294967295
263.78699 90.916367 -49.76606 4294967295
263.78714 103.5732 -46.87603 4294967295
263.80328 104.05544 -46.451488 4294967295
263.83777 104.99117 -46.315708 4294967295
263.84128 92.286972 -50.425385 4294967295
263.85513 92.786743 -49.273354 4294967295
263.87585 93.216476 -50.344593 4294967295
263.88867 93.727959 -48.858479 4294967295
263.90924 94.158684 -49.878654 4294967295
263.92447 94.646317 -49.154129 4294967295
263.94196 95.10936 -49.181267 4294967295
263.9563 95.608009 -48.156303 4294967295
263.97586 96.048317 -48.858353 4294967295
263.99197 96.52771 -48.415985 4294967295
264.02463 97.482445 -47.675133 4294967295
264.05948 98.412254 -47.654747 4294967295
264.18085 101.67404 -47.397903 4294967295
264.21014 102.68304 -45.391449 4294967295
264.22742 103.15163 -45.312748 4294967295
264.26743 104.00779 -47.140923 4294967295
264.27994 104.54688 -45.339882 4294967295
264.45343 96.508316 -48.424824 4294967295
264.52411 98.351959 -48.7901 4294967295
264.57471 99.769844 -48.103859 4294967295
264.58746 87.626976 -49.986973 4294967295
264.59094 100.25211 -47.629299 4294967295
264.60428 88.097122 -49.748749 4294967295
264.62161 101.24778 -45.900749 4294967295
264.62543 88.518669 -51.255272 4294967295
264.64072 89.006073 -50.397823 4294967295
264.65558 89.499756 -49.345627 4294967295
264.65872 102.14295 -46.797195 4294967295
264.67331 102.65486 -45.611958 4294967295
264.67496 89.939857 -50.160221 4294967295
264.69028 90.42923 -49.284851 4294967295
264.69272 103.08845 -46.403671 4294967295
264.70978 90.866791 -50.163414 4294967295
264.7117 103.52747 -47.045589 4294967295
264.72556 91.350937 -49.482788 4294967295
264.72763 104.01836 -46.406376 4294967295
264.742 104.53786 -45.08596 4294967295
264.76154 104.96639 -45.974052 4294967295
264.76215 92.255791 -50.213753 4294967295
264.79388 93.225052 -48.887867 4294967295
264.81006 93.706482 -48.348213 4294967295
264.82864 94.154312 -48.850418 4294967295
264.84821 94.587662 -49.778957 4294967295
264.86429 95.071213 -49.184647 4294967295
264.89697 96.031639 -48.230949 4294967295
264.91602 96.471085 -48.948402 4294967295
264.93372 96.930901 -49.067871 4294967295
264.94839 97.439323 -47.811119 4294967295
264.96634 97.895546 -48.040741 4294967295
264.98199 98.3899 -47.211422 4294967295
265.01727 99.312416 -47.396465 4294967295
265.04947 100.29008 -46.112087 4294967295
265.07065 100.68747 -47.888237 4294967295
265.10223 88.975273 -50.823402 4294967295
265.10425 101.64053 -47.265324 4294967295
265.13794 102.59392 -46.658867 4294967295
265.22064 92.271584 -49.097763 4294967295
265.22531 104.91724 -46.686123 4294967295
265.32648 95.03186 -49.7929 4294967295
265.41064 97.407433 -48.171753 4294967295
265.49521 99.785965 -46.640751 4294967295
265.56656 101.60967 -47.561581 4294967295
265.57794 89.455933 -49.563709 4294967295
265.5835 102.08699 -47.235809 4294967295
265.59583 89.911194 -49.854004 4294967295
265.6167 103.05882 -46.173889 4294967295
265.63022 90.846077 -49.596992 4294967295
265.63504 103.50171 -46.72216 4294967295
265.64862 91.292015 -50.183731 4294967295
265.65335 103.94433 -47.26651 4294967295
265.66974 104.43705 -46.585121 4294967295
265.68314 92.224937 -49.991058 4294967295
265.71558 93.200508 -48.468811 4294967295
265.75156 94.105568 -49.180687 4294967295
265.82098 95.967026 -49.005089 4294967295
265.87335 97.356842 -49.060951 4294967295
265.88916 97.861961 -47.908104 4294967295
265.90805 98.288498 -48.954735 4294967295
265.9249 98.768173 -48.524567 4294967295
265.94086 99.271645 -47.458908 4294967295
265.97018 87.560852 -50.357849 4294967295
265.97504 100.22137 -46.911339 4294967295
265.98633 88.051193 -49.378471 4294967295
266.00864 101.19025 -45.888042 4294967295
266.03986 89.414192 -50.364227 4294967295
266.04398 102.10847 -46.19566 4294967295
266.06064 102.59863 -45.562138 4294967295
266.14313 92.224564 -49.395042 4294967295
266.15967 92.711327 -48.662991 4294967295
266.1785 93.137093 -49.865879 4294967295
266.19507 93.624313 -49.132111 4294967295
266.23077 94.526413 -49.908615 4294967295
266.24707 95.023895 -48.892647 4294967295
266.26382 95.509491 -48.251709 4294967295
266.29834 96.449799 -47.907738 4294967295
266.31583 96.912315 -47.960171 4294967295
266.40308 99.231636 -48.021824 4294967295
266.46524 88.478127 -50.027458 4294967295
266.57675 103.91069 -47.137993 4294967295
266.58615 91.758003 -48.870094 4294967295
266.59372 104.40182 -46.495224 4294967295
266.60391 92.209396 -49.274879 4294967295
266.6207 92.697983 -48.485199 4294967295
266.63818 93.160072 -48.548691 4294967295
266.67316 94.083611 -48.689438 4294967295
266.70767 95.02771 -48.20813 4294967295
266.74219 95.973618 -47.695885 4294967295
266.77728 96.891106 -48.019615 4294967295
266.82986 98.268417 -48.44957 4294967295
266.84665 98.772392 -47.357048 4294967295
266.86411 99.237244 -47.348827 4294967295
266.88196 99.676056 -48.038895 4294967295
266.89954 100.12761 -48.376625 4294967295
266.90826 88.003326 -49.758232 4294967295
266.92563 88.469894 -49.651131 4294967295
266.93439 101.05919 -48.291027 4294967295
266.94324 88.922104 -50.054337 4294967295
266.95145 101.55269 -47.535614 4294967295
266.96887 102.01924 -47.482685 4294967295
266.978 89.85321 -49.91003 4294967295
266.98645 102.4731 -47.75066 4294967295
266.99524 90.327896 -49.530891 4294967295
267.03018 91.24836 -49.758102 4294967295
267.03824 103.91653 -46.518379 4294967295
267.05551 104.4001 -46.064217 4294967295
267.06506 92.170715 -49.91272 4294967295
267.07346 104.81645 -47.235222 4294967295
267.09973 93.110008 -49.526955 4294967295
267.11719 93.565758 -49.773209 4294967295
267.15155 94.540024 -48.34362 4294967295
267.18668 95.442383 -49.111103 4294967295
267.22113 96.421768 -47.61335 4294967295
267.23886 96.842949 -48.851463 4294967295
267.35172 87.484795 -51.097214 4294967295
267.36044 100.18481 -46.346134 4294967295
267.36911 87.952919 -50.912239 4294967295
267.37811 100.60732 -47.460323 4294967295
267.40375 88.91423 -49.670135 4294967295
267.41284 101.58266 -46.26606 4294967295
267.50818 91.734573 -48.401993 4294967295
267.57791 93.558006 -49.425098 4294967295
267.59531 94.016701 -49.578499 4294967295
267.61282 94.522453 -48.300041 4294967295
267.63013 94.944427 -49.564629 4294967295
267.64764 95.440422 -48.605133 4294967295
267.66507 95.901207 -48.699341 4294967295
267.70001 96.849945 -48.103775 4294967295
267.71741 97.302589 -48.431213 4294967295
267.75232 98.248367 -47.942513 4294967295
267.78723 99.176155 -47.962654 4294967295
267.8049 99.681023 -46.872612 4294967295
267.81192 87.46991 -50.958073 4294967295
267.82211 100.10801 -47.874214 4294967295
267.84686 88.414276 -50.30365 4294967295
267.85709 101.05052 -47.511902 4294967295
267.86432 88.886459 -49.989697 4294967295
267.88193 89.370407 -49.273376 4294967295
267.89236 102.03506 -46.091839 4294967295
267.90964 102.47176 -46.806778 4294967295
267.91638 90.260483 -50.544266 4294967295
267.92728 102.9609 -46.195618 4294967295
267.94485 103.43519 -45.96434 4294967295
267.95132 91.199158 -50.139427 4294967295
267.96921 91.704117 -48.780457 4294967295
267.97971 104.35896 -46.117508 4294967295
267.98639 92.147346 -49.448025 4294967295
267.99744 104.85711 -45.319168 4294967295
268.00357 92.591942 -50.056145 4294967295
268.03848 93.527626 -49.780518 4294967295
268.29031 87.955017 -49.474525 4294967295
268.37769 90.284843 -49.076424 4294967295
268.46417 92.577782 -49.904678 4294967295
268.58707 95.863113 -48.698586 4294967295
268.60495 96.343933 -48.208603 4294967295
268.6394 97.25592 -48.669956 4294967295
268.67499 98.213127 -47.856064 4294967295
268.6929 98.694473 -47.387718 4294967295
268.71066 99.171158 -47.054962 4294967295
268.73349 87.470657 -49.550419 4294967295
268.74557 100.09952 -47.076084 4294967295
268.75049 87.922081 -49.993362 4294967295
268.76831 88.396698 -49.590462 4294967295
268.77948 100.993 -48.004696 4294967295
268.78558 88.856247 -49.732582 4294967295
268.79742 101.47514 -47.542107 4294967295
268.80319 89.326042 -49.512455 4294967295
268.81485 101.938 -47.580925 4294967295
268.83749 90.237831 -50.036476 4294967295
268.85583 90.727798 -49.143688 4294967295
268.86905 103.40137 -45.839417 4294967295
268.87378 91.20549 -48.681076 4294967295
268.88989 91.634209 -49.832687 4294967295
268.90295 104.2935 -46.762741 4294967295
268.90817 92.120323 -49.100945 4294967295
268.92465 92.558792 -49.907616 4294967295
268.94199 93.020569 -49.960075 4294967295
268.96048 93.512642 -49.067776 4294967295
268.97812 93.981956 -48.897152 4294967295
269.01334 94.920555 -48.56881 4294967295
269.065 96.295242 -49.06765 4294967295
269.10022 97.232895 -48.780823 4294967295
269.17108 99.120529 -47.908173 4294967295
269.22351 100.51534 -47.851669 4294967295
269.33011 103.35538 -46.497753 4294967295
269.33405 91.172852 -49.138119 4294967295
269.34717 103.80923 -46.766396 4294967295
269.36533 104.29225 -46.319763 4294967295
269.43967 93.978729 -48.412605 4294967295
269.47583 94.932426 -47.640411 4294967295
269.59845 98.194504 -47.308739 4294967295
269.6329 99.114006 -47.563385 4294967295
269.66953 100.07883 -46.601273 4294967295
269.67029 87.869843 -50.535378 4294967295
269.68579 100.51878 -47.253448 4294967295
269.68988 88.366585 -49.326904 4294967295
269.70355 100.99036 -47.067593 4294967295
269.72577 89.310135 -48.756268 4294967295
269.73837 101.91692 -47.131462 4294967295
269.7583 102.43496 -45.776875 4294967295
269.76013 90.230652 -49.000492 4294967295
269.79257 103.35074 -46.131531 4294967295
269.81125 103.84128 -45.501099 4294967295
269.81213 91.61776 -49.13636 4294967295
269.82681 104.26583 -46.489117 4294967295
269.8306 92.098457 -48.58662 4294967295
269.86612 93.036705 -48.257751 4294967295
269.93719 94.914978 -47.592773 4294967295
269.95236 95.341881 -48.704292 4294967295
269.97125 95.830093 -47.989204 4294967295
269.98764 96.276031 -48.518311 4294967295
270.02417 97.233101 -47.68895 4294967295
270.05865 98.154655 -47.882805 4294967295
270.11127 99.552185 -47.749519 4294967295
270.12854 100.01421 -47.808609 4294967295
270.14722 88.306595 -50.813053 4294967295
270.16333 100.94086 -47.854919 4294967295
270.19977 101.89619 -47.166599 4294967295
270.25226 103.29311 -47.079868 4294967295
270.25348 91.10965 -49.985374 4294967295
270.28674 104.21387 -47.280605 4294967295
270.3259 93.000923 -48.789146 4294967295
270.35965 93.914207 -49.230934 4294967295
270.46878 96.761887 -47.339836 4294967295
270.50323 97.68351 -47.540451 4294967295
270.60861 88.303268 -50.259125 4294967295
270.60886 100.4844 -47.143013 4294967295
270.625 100.92962 -47.644993 4294967295
270.64444 89.240814 -49.870148 4294967295
270.67664 102.31174 -47.915394 4294967295
270.6969 102.81859 -46.844856 4294967295
270.69785 90.644119 -49.425518 4294967295
270.71329 103.26688 -47.249039 4294967295
270.71567 91.112717 -49.25819 4294967295
270.73178 91.561333 -49.749504 4294967295
270.75137 104.24481 -46.053181 4294967295
270.75305 92.069061 -48.314743 4294967295
270.76556 104.65981 -47.257278 4294967295
270.78595 92.97377 -49.049202 4294967295
270.81915 93.88221 -49.632904 4294967295
270.8577 94.853813 -48.288204 4294967295
270.87555 95.322617 -48.145195 4294967295
270.90872 96.229881 -48.750515 4294967295
270.92819 96.718658 -48.032776 4294967295
270.94641 97.193024 -47.740864 4294967295
270.96054 97.616051 -48.898315 4294967295
270.98065 98.11306 -47.973671 4294967295
271.01544 99.040497 -47.995056 4294967295
271.03406 99.519073 -47.605595 4294967295
271.03616 87.378029 -49.522949 4294967295
271.08835 88.768066 -49.537445 4294967295
271.09036 100.96408 -46.241859 4294967295
271.10443 89.219193 -49.970421 4294967295
271.12415 89.704391 -49.21344 4294967295
271.14328 102.36516 -46.071941 4294967295
271.19556 103.7587 -46.097618 4294967295
271.21451 104.24319 -45.618591 4294967295
271.22849 92.484604 -49.259148 4294967295
271.24966 92.986572 -48.046471 4294967295
271.35165 95.743301 -48.859962 4294967295
271.37372 96.256958 -47.408558 4294967295
271.40872 97.186523 -47.381641 4294967295
271.44376 98.116768 -47.337418 4294967295
271.59921 90.12471 -50.049698 4294967295
271.62073 102.79018 -46.585114 4294967295
271.62143 90.629776 -48.641228 4294967295
271.6376 103.24795 -46.755402 4294967295
271.63873 91.0924 -48.68055 4294967295
271.65826 103.75056 -45.819294 4294967295
271.67252 92.010635 -48.984024 4294967295
271.67725 104.23269 -45.400204 4294967295
271.71085 92.969566 -47.985588 4294967295
271.77884 94.809509 -48.477432 4294967295
271.81094 95.711143 -49.245983 4294967295
271.83298 96.219109 -47.954128 4294967295
271.87054 97.173531 -47.207077 4294967295
271.90649 98.112671 -46.917599 4294967295
271.93936 99.021194 -47.474682 4294967295
271.95203 87.305099 -50.844234 4294967295
271.97281 99.93544 -47.855827 4294967295
271.98843 88.243202 -50.402496 4294967295
272.00897 100.87679 -47.513626 4294967295
272.02399 89.175064 -50.2038 4294967295
272.03122 101.39008 -46.245121 4294967295
272.0441 101.80762 -47.453796 4294967295
272.06342 90.137344 -48.976768 4294967295
272.07593 90.562798 -50.264374 4294967295
272.08167 102.76456 -46.741272 4294967295
272.13589 104.17831 -46.251637 4294967295
272.16592 92.90271 -49.500938 4294967295
272.23804 94.777336 -48.873909 4294967295
272.27484 95.721855 -48.369869 4294967295
272.29691 96.225502 -47.212875 4294967295
272.32736 97.115578 -48.311996 4294967295
272.34302 97.564133 -48.744518 4294967295
272.3624 98.044853 -48.271935 4294967295
272.39777 98.977455 -48.143158 4294967295
272.4566 100.42973 -46.550449 4294967295
272.48767 89.181229 -49.329414 4294967295
272.57645 91.51123 -48.918129 4294967295
272.59503 91.98333 -48.644726 4294967295
272.59549 104.13935 -46.727509 4294967295
272.60968 92.426598 -49.301392 4294967295
272.61783 104.65163 -45.573837 4294967295
272.63055 105.07029 -46.683037 4294967295
272.6326 92.93103 -48.006474 4294967295
272.664 93.833206 -48.804962 4294967295
272.68106 94.293739 -48.901665 4294967295
272.71393 95.206261 -49.343658 4294967295
272.73666 95.711159 -48.123699 4294967295
272.75409 96.174988 -48.127876 4294967295
272.79321 97.136887 -47.160805 4294967295
272.80603 97.563736 -48.216957 4294967295
272.82678 98.054985 -47.456451 4294967295
272.8421 98.501785 -47.93679 4294967295
272.85776 98.951202 -48.335541 4294967295
272.88968 87.7351 -50.682777 4294967295
272.89682 99.914139 -47.397346 4294967295
272.91339 88.236839 -49.281624 4294967295
272.94962 89.172348 -48.982754 4294967295
272.95319 101.34146 -46.502899 4294967295
272.96786 101.7823 -47.112137 4294967295
272.96902 89.64872 -48.540611 4294967295
272.98215 90.085098 -49.477745 4294967295
272.98514 102.24493 -47.156124 4294967295
273.02289 91.050415 -48.196529 4294967295
273.02448 103.21273 -46.183647 4294967295
273.03754 91.496223 -48.792038 4294967295
273.0928 105.0582 -46.506088 4294967295
273.14648 94.309029 -47.855637 4294967295
273.21707 96.171593 -47.67131 4294967295
273.32193 98.958046 -47.625343 4294967295
273.38058 100.39981 -46.32177 4294967295
273.41299 101.30933 -46.834694 4294967295
273.42389 89.596321 -49.7061 4294967295
273.47049 102.74403 -45.795933 4294967295
273.47504 90.980011 -49.914146 4294967295
273.51816 104.1002 -46.734295 4294967295
273.53363 92.409073 -48.651798 4294967295
273.53793 104.58365 -46.275806 4294967295
273.55865 105.07524 -45.630905 4294967295
273.62314 94.743645 -48.170303 4294967295
273.64038 95.206116 -48.21381 4294967295
273.65509 95.652237 -48.737816 4294967295
273.67236 96.114929 -48.767067 4294967295
273.69824 96.635269 -47.133835 4294967295
273.71442 97.091187 -47.373108 4294967295
273.78186 98.931648 -47.821896 4294967295
273.79538 87.252968 -50.008827 4294967295
273.83038 88.180298 -49.973549 4294967295
273.83868 100.35654 -46.956623 4294967295
273.86639 89.113075 -49.748283 4294967295
273.87036 101.26189 -47.563217 4294967295
273.88614 89.589218 -49.301434 4294967295
273.89374 101.7694 -46.451294 4294967295
273.90012 90.033676 -49.951668 4294967295
273.91318 102.24865 -46.078938 4294967295
273.92383 90.531799 -48.77198 4294967295
273.927 102.68635 -46.758518 4294967295
273.94843 103.18073 -46.01368 4294967295
273.95438 91.435127 -49.561222 4294967295
273.97897 104.07681 -46.830658 4294967295
273.98834 92.356964 -49.717422 4294967295
274.00616 104.61565 -45.030544 4294967295
274.03253 93.338501 -47.997108 4294967295
274.04498 93.772987 -48.908638 4294967295
274.10544 95.213669 -47.420105 4294967295
274.15402 96.583183 -48.084614 4294967295
274.19073 97.522545 -47.760284 4294967295
274.2081 97.986061 -47.775398 4294967295
274.23318 98.49971 -46.406452 4294967295
274.24368 98.918892 -47.646233 4294967295
274.27545 87.710548 -49.528694 4294967295
274.29285 88.173813 -49.531769 4294967295
274.30508 100.37197 -46.038246 4294967295
274.34509 89.564026 -49.524632 4294967295
274.40359 90.986465 -48.444077 4294967295
274.43436 91.892494 -49.142647 4294967295
274.48587 105.06351 -44.977158 4294967295
274.63345 97.035339 -47.875259 4294967295
274.66498 97.943451 -48.429672 4294967295
274.69324 98.472542 -46.626945 4294967295
274.70505 98.902641 -47.565674 4294967295
274.71783 87.227036 -49.585381 4294967295
274.75177 88.149567 -49.732254 4294967295
274.76474 100.34119 -46.34243 4294967295
274.77026 88.617935 -49.549492 4294967295
274.77838 100.78189 -46.968246 4294967295
274.78784 89.081879 -49.527 4294967295
274.79916 101.26709 -46.427597 4294967295
274.82114 90.001511 -49.76741 4294967295
274.83163 102.18091 -46.816219 4294967295
274.84009 90.472107 -49.518387 4294967295
274.8515 102.6608 -46.426613 4294967295
274.86487 90.971405 -48.317341 4294967295
274.87308 103.15223 -45.756798 4294967295
274.87585 91.403313 -49.36771 4294967295
274.89386 91.869919 -49.263111 4294967295
274.90326 104.05062 -46.520752 4294967295
274.918 92.366951 -48.183601 4294967295
274.92786 104.56259 -45.37175 4294967295
274.94238 105.00794 -45.842339 4294967295
274.94876 93.273888 -48.834404 4294967295
274.96967 93.755302 -48.282539 4294967295
274.97986 94.181572 -49.430748 4294967295
275.00778 94.700142 -47.761909 4294967295
275.02228 95.148666 -48.224533 4294967295
275.05856 96.084122 -47.997154 4294967295
275.07861 96.562561 -47.578159 4294967295
275.22498 88.576027 -50.377846 4294967295
275.23416 100.73123 -47.790543 4294967295
275.24615 89.055557 -49.794369 4294967295
275.34601 103.55998 -46.685966 4294967295
275.40564 104.99945 -45.578323 4294967295
275.56079 97.027634 -47.004219 4294967295
275.62759 98.869118 -47.432705 4294967295
275.64828 99.350693 -46.960587 4294967295
275.6778 100.24977 -47.742928 4294967295
275.69498 88.599251 -48.879295 4294967295
275.69641 100.72029 -47.571835 4294967295
275.70776 89.043823 -49.547478 4294967295
275.71826 101.20918 -46.927898 4294967295
275.72119 89.490402 -50.128273 4294967295
275.74371 101.7186 -45.769188 4294967295
275.74414 89.976784 -49.327568 4294967295
275.75491 102.14791 -46.671249 4294967295
275.78049 90.910172 -49.104717 4294967295
275.79025 103.07935 -46.60635 4294967295
275.8244 104.00377 -46.71574 4294967295
275.83157 92.295502 -49.265625 4294967295
275.85278 104.53304 -45.143936 4294967295
275.86371 104.959 -46.081642 4294967295
275.86597 93.220284 -49.327938 4294967295
275.88913 93.710182 -48.505371 4294967295
275.90884 94.18454 -48.178528 4294967295
275.94049 95.096962 -48.633202 4294967295
275.95877 95.564865 -48.506714 4294967295
275.97952 96.044418 -48.04306 4294967295
276.00119 96.529121 -47.440895 4294967295
276.03186 97.436386 -48.032246 4294967295
276.06738 98.367554 -47.937469 4294967295
276.11166 99.343666 -46.63036 4294967295
276.14908 100.28571 -46.280655 4294967295
