# .PCD v0.7 - Point Cloud Data file format
VERSION 0.7
FIELDS x y z rgb
SIZE 4 4 4 4
TYPE F F F U
COUNT 1 1 1 1
WIDTH 1147
HEIGHT 1
VIEWPOINT 0 0 0 1 0 0 0
POINTS 1147
DATA ascii
165.79156 82.634056 -78.130074 4294967295
165.79605 84.942276 -77.204483 4294967295
165.80585 87.715622 -76.142319 4294967295
165.80711 86.7892 -76.548309 4294967295
165.8098 87.251297 -76.383018 4294967295
165.81471 81.244316 -78.978661 4294967295
165.82152 83.087486 -78.275902 4294967295
165.83356 80.778748 -79.387939 4294967295
165.83621 79.396713 -80.002151 4294967295
165.83911 82.160095 -78.86615 4294967295
165.84253 91.412979 -74.99234 4294967295
165.84799 78.014107 -80.719627 4294967295
165.85555 92.337067 -74.748245 4294967295
165.85689 90.479828 -75.54866 4294967295
165.85938 84.000214 -78.316635 4294967295
165.86725 85.383614 -77.820518 4294967295
165.86792 88.158852 -76.654366 4294967295
165.8708 84.458694 -78.251564 4294967295
165.87254 86.306526 -77.489822 4294967295
165.87503 89.082886 -76.343971 4294967295
165.88089 89.544319 -76.214806 4294967295
165.89081 92.788681 -74.954758 4294967295
165.91339 91.851875 -75.605453 4294967295
165.91885 85.83033 -78.213013 4294967295
166.20239 79.861092 -78.759857 4294967295
166.21124 80.319778 -78.665344 4294967295
166.23853 83.080574 -77.801636 4294967295
166.24825 78.008911 -80.065948 4294967295
166.26025 79.386658 -79.616623 4294967295
166.26955 86.306992 -76.782471 4294967295
166.27763 86.76725 -76.678474 4294967295
166.28397 83.529747 -78.12529 4294967295
166.29549 84.912109 -77.668442 4294967295
166.30051 88.612175 -76.153999 4294967295
166.31096 90.463097 -75.486115 4294967295
166.31584 89.070473 -76.132828 4294967295
166.31813 81.214615 -79.495354 4294967295
166.32454 89.994637 -75.838844 4294967295
166.32556 87.215034 -77.031204 4294967295
166.33134 82.132904 -79.255013 4294967295
166.33278 90.919411 -75.539391 4294967295
166.33282 85.825356 -77.703468 4294967295
166.33728 92.310379 -74.999344 4294967295
166.33961 92.774002 -74.828812 4294967295
166.3407 87.673019 -77.007973 4294967295
166.34294 88.135201 -76.83696 4294967295
166.3434 85.360069 -78.020805 4294967295
166.34854 89.522934 -76.310783 4294967295
166.35345 91.376106 -75.579407 4294967295
166.36603 91.835686 -75.526382 4294967295
166.67819 81.22155 -78.371704 4294967295
166.68221 78.456398 -79.597092 4294967295
166.69 79.37529 -79.293724 4294967295
166.69266 80.756821 -78.734428 4294967295
166.69594 83.52446 -77.590912 4294967295
166.69978 80.294182 -79.012856 4294967295
166.70564 84.44574 -77.308228 4294967295
166.71017 89.537422 -75.187355 4294967295
166.71516 82.134415 -78.402603 4294967295
166.72539 83.978058 -77.732376 4294967295
166.7278 78.906052 -79.923683 4294967295
166.73885 89.991524 -75.319695 4294967295
166.74303 86.746826 -76.751617 4294967295
166.74785 77.981514 -80.546349 4294967295
166.74796 87.208115 -76.610756 4294967295
166.74806 90.916382 -75.029716 4294967295
166.75131 90.451157 -75.26532 4294967295
166.7538 82.585373 -78.649643 4294967295
166.75388 84.893845 -77.665466 4294967295
166.7561 86.280128 -77.099365 4294967295
166.76003 79.818871 -79.900818 4294967295
166.76126 83.044724 -78.538467 4294967295
166.76929 92.766457 -74.481735 4294967295
166.77759 81.656883 -79.316093 4294967295
166.78276 85.347427 -77.800362 4294967295
166.80386 92.289146 -75.078728 4294967295
166.81279 85.800529 -77.948753 4294967295
166.81505 88.112442 -76.987946 4294967295
166.81619 91.820389 -75.418823 4294967295
167.09723 79.369347 -78.708527 4294967295
167.10724 81.672325 -77.835861 4294967295
167.12498 80.745224 -78.435928 4294967295
167.13791 82.587257 -77.79425 4294967295
167.16815 86.738983 -76.360199 4294967295
167.17166 83.96328 -77.590012 4294967295
167.17365 90.445549 -74.834312 4294967295
167.17482 80.271858 -79.208351 4294967295
167.17952 88.588203 -75.697372 4294967295
167.19327 81.188812 -79.026009 4294967295
167.1994 87.655098 -76.324562 4294967295
167.20795 90.897652 -75.032471 4294967295
167.20872 83.491005 -78.215988 4294967295
167.21196 84.413643 -77.857384 4294967295
167.22459 91.820274 -74.827141 4294967295
167.23245 82.100487 -79.082932 4294967295
167.23665 85.792671 -77.548279 4294967295
167.24495 92.277283 -74.863998 4294967295
167.2459 88.103104 -76.663696 4294967295
167.27759 92.729675 -75.042923 4294967295
167.53171 78.435616 -78.830917 4294967295
167.53363 77.974739 -79.051346 4294967295
167.55777 83.041443 -77.146805 4294967295
167.57262 78.886581 -79.106323 4294967295
167.5777 79.806618 -78.768387 4294967295
167.59047 82.570648 -77.724876 4294967295
167.59875 81.184227 -78.416939 4294967295
167.60545 83.95208 -77.30191 4294967295
167.60658 79.338997 -79.301086 4294967295
167.62338 81.638977 -78.503792 4294967295
167.62636 84.40815 -77.345581 4294967295
167.62837 84.869774 -77.170044 4294967295
167.63791 87.180161 -76.284561 4294967295
167.63885 80.252243 -79.27845 4294967295
167.64044 87.642456 -76.114738 4294967295
167.64241 91.816872 -74.340019 4294967295
167.6528 83.476761 -78.050163 4294967295
167.65996 91.346016 -74.744011 4294967295
167.66011 89.953568 -75.345314 4294967295
167.66187 86.709679 -76.762268 4294967295
167.66605 90.415451 -75.214661 4294967295
167.66983 80.705109 -79.438896 4294967295
167.67102 89.486031 -75.671936 4294967295
167.67218 85.781326 -77.280243 4294967295
167.67235 92.270508 -74.488182 4294967295
167.67311 90.87706 -75.096916 4294967295
167.67314 85.318726 -77.490456 4294967295
167.69791 89.013359 -76.18396 4294967295
167.70596 88.547363 -76.477127 4294967295
167.74727 92.707184 -75.15992 4294967295
168.00092 82.103745 -77.364639 4294967295
168.01649 78.4114 -79.141273 4294967295
168.02592 83.944748 -76.85672 4294967295
168.03191 78.868225 -79.121315 4294967295
168.03503 79.328018 -78.95842 4294967295
168.04471 81.630531 -78.074356 4294967295
168.04509 79.786255 -78.876305 4294967295
168.04547 86.714981 -75.883743 4294967295
168.04828 77.943871 -79.709999 4294967295
168.05144 80.245476 -78.750992 4294967295
168.06831 87.170876 -75.950157 4294967295
168.0769 89.485794 -75.047852 4294967295
168.08183 82.543449 -78.107201 4294967295
168.08864 86.238548 -76.587502 4294967295
168.09146 81.15712 -78.818031 4294967295
168.0977 80.694626 -79.09005 4294967295
168.1012 83.461327 -77.933472 4294967295
168.10439 91.797401 -74.364891 4294967295
168.10963 84.382668 -77.632385 4294967295
168.11835 87.617905 -76.333481 4294967295
168.11972 88.080635 -76.149063 4294967295
168.12088 82.994194 -78.362549 4294967295
168.13828 92.249512 -74.56015 4294967295
168.14066 84.835571 -77.794182 4294967295
168.14392 90.390366 -75.42923 4294967295
168.15057 88.533669 -76.308914 4294967295
168.15318 90.851082 -75.336784 4294967295
168.17065 89.917221 -75.942001 4294967295
168.18375 92.697136 -74.890549 4294967295
168.44431 79.321732 -78.389091 4294967295
168.45329 79.780426 -78.294067 4294967295
168.45769 83.009819 -76.941711 4294967295
168.4791 80.234993 -78.395287 4294967295
168.47974 78.392136 -79.203346 4294967295
168.4843 81.155952 -78.055374 4294967295
168.49722 82.075371 -77.805481 4294967295
168.50743 78.846008 -79.32695 4294967295
168.50783 85.306946 -76.524292 4294967295
168.50826 77.925362 -79.736458 4294967295
168.52531 89.471046 -74.917297 4294967295
168.53313 89.932388 -74.807434 4294967295
168.53406 91.325119 -74.212891 4294967295
168.53691 81.603386 -78.470352 4294967295
168.53883 83.448936 -77.690628 4294967295
168.54669 84.370636 -77.381248 4294967295
168.55396 84.830681 -77.265312 4294967295
168.5621 83.904144 -77.762405 4294967295
168.56363 88.067146 -75.971222 4294967295
168.5639 87.603813 -76.175484 4294967295
168.56792 90.848473 -74.812424 4294967295
168.56987 90.383583 -75.03688 4294967295
168.57141 92.705544 -74.045853 4294967295
168.5728 88.991013 -75.675713 4294967295
168.57439 82.515839 -78.507812 4294967295
168.57697 86.210968 -76.932076 4294967295
168.61327 91.760666 -74.941132 4294967295
168.61836 87.123253 -77.015053 4294967295
168.88443 78.847206 -78.378143 4294967295
168.88702 79.768387 -78.006332 4294967295
168.91162 84.37986 -76.279678 4294967295
168.91789 82.529182 -77.160522 4294967295
168.92444 80.2201 -78.244675 4294967295
168.92574 80.680908 -78.058533 4294967295
168.94031 82.061317 -77.625397 4294967295
168.94655 83.445114 -77.093964 4294967295
168.9469 86.683472 -75.684486 4294967295
168.96091 79.28949 -79.075035 4294967295
168.96512 82.977928 -77.514076 4294967295
168.96567 89.923279 -74.488647 4294967295
168.9707 77.906273 -79.792732 4294967295
168.98204 90.381783 -74.478912 4294967295
168.98305 88.061821 -75.503326 4294967295
168.98595 81.587631 -78.363174 4294967295
168.99599 88.521057 -75.453438 4294967295
168.9962 85.742203 -76.668869 4294967295
169.00438 90.83815 -74.539864 4294967295
169.00455 84.814743 -77.170853 4294967295
169.00774 88.980751 -75.38945 4294967295
169.0239 87.121948 -76.388908 4294967295
169.02913 87.583313 -76.24839 4294967295
169.0312 85.269012 -77.282898 4294967295
169.03297 83.882263 -77.908745 4294967295
169.05338 89.428772 -75.724869 4294967295
169.07414 91.277184 -75.159615 4294967295
169.08162 92.667747 -74.639626 4294967295
169.08766 92.20089 -74.913734 4294967295
169.34924 82.056564 -77.040878 4294967295
169.3615 80.668571 -77.792801 4294967295
169.37727 83.43483 -76.764069 4294967295
169.39314 83.892509 -76.748741 4294967295
169.40358 85.739731 -76.060822 4294967295
169.40524 82.503014 -77.499687 4294967295
169.41197 86.200073 -75.957047 4294967295
169.41919 77.890373 -79.685493 4294967295
169.41954 79.731857 -78.881859 4294967295
169.42398 88.513107 -75.083084 4294967295
169.43268 88.973984 -74.98259 4294967295
169.44054 79.266113 -79.331665 4294967295
169.44958 81.10685 -78.630127 4294967295
169.45068 81.567688 -78.441048 4294967295
169.45323 91.287941 -74.207916 4294967295
169.46494 80.181175 -79.215599 4294967295
169.46661 82.947586 -78.022133 4294967295
169.47083 89.888672 -75.027115 4294967295
169.48224 84.79068 -77.396255 4294967295
169.48318 90.348366 -74.970169 4294967295
169.48969 89.418159 -75.45417 4294967295
169.48987 90.810173 -74.845825 4294967295
169.4993 87.098167 -76.583748 4294967295
169.50934 91.731819 -74.669289 4294967295
169.51399 86.63063 -76.9608 4294967295
169.52612 92.65477 -74.460739 4294967295
169.53183 92.18795 -74.732178 4294967295
169.78506 78.814827 -78.193344 4294967295
169.78751 79.275146 -78.019104 4294967295
169.80357 82.501472 -76.786285 4294967295
169.82469 80.64917 -77.850456 4294967295
169.83354 82.955124 -76.938255 4294967295
169.83429 86.193245 -75.520493 4294967295
169.83496 83.87915 -76.547798 4294967295
169.83852 77.881187 -79.232452 4294967295
169.84242 85.727608 -75.821152 4294967295
169.85422 83.411324 -76.98011 4294967295
169.85773 81.10183 -78.038925 4294967295
169.87103 86.644753 -75.753021 4294967295
169.87572 84.329506 -76.82814 4294967295
169.87611 87.569756 -75.405273 4294967295
169.87801 88.496399 -75.019203 4294967295
169.88107 87.104752 -75.668205 4294967295
169.88431 84.789337 -76.726418 4294967295
169.88812 82.016441 -77.993057 4294967295
169.90866 90.806305 -74.361427 4294967295
169.91116 81.548874 -78.469406 4294967295
169.91127 88.948853 -75.210342 4294967295
169.9115 89.412651 -75.008728 4294967295
169.91158 91.269798 -74.191322 4294967295
169.91507 89.875427 -74.846901 4294967295
169.92987 92.192459 -73.99968 4294967295
169.96075 88.005013 -76.207344 4294967295
169.97115 90.319534 -75.309875 4294967295
169.97736 92.639259 -74.360435 4294967295
170.22978 78.800011 -78.033463 4294967295
170.25993 79.714561 -77.984299 4294967295
170.27116 77.868996 -78.933784 4294967295
170.27223 79.250557 -78.334862 4294967295
170.27757 85.253654 -75.740753 4294967295
170.28183 80.17012 -78.041245 4294967295
170.28693 84.325317 -76.261909 4294967295
170.29912 80.626839 -78.042831 4294967295
170.30328 85.708656 -75.842598 4294967295
170.30489 83.857574 -76.680855 4294967295
170.30788 87.09684 -75.282265 4294967295
170.31021 86.169525 -75.720306 4294967295
170.31375 84.779854 -76.377266 4294967295
170.32016 82.005417 -77.680824 4294967295
170.32648 82.927139 -77.347183 4294967295
170.32672 88.481506 -74.891785 4294967295
170.32722 90.338051 -74.075806 4294967295
170.33435 87.551605 -75.393478 4294967295
170.33823 81.077782 -78.304565 4294967295
170.34998 82.458786 -77.831825 4294967295
170.35333 83.381378 -77.463135 4294967295
170.35733 88.934875 -75.052032 4294967295
170.36578 81.531616 -78.428909 4294967295
170.36665 88.004326 -75.574173 4294967295
170.37547 92.644142 -73.624245 4294967295
170.37552 91.249557 -74.242256 4294967295
170.40128 89.383438 -75.372055 4294967295
170.40356 89.846527 -75.194153 4294967295
170.40681 92.167252 -74.205017 4294967295
170.71904 79.696228 -77.995506 4294967295
170.75638 86.618477 -75.359543 4294967295
170.76772 77.84201 -79.396965 4294967295
170.78027 78.299286 -79.342445 4294967295
170.78175 89.856842 -74.220322 4294967295
170.78188 79.219765 -78.952202 4294967295
170.78398 87.999916 -75.072365 4294967295
170.78622 83.832611 -76.952408 4294967295
170.79062 84.756035 -76.593674 4294967295
170.79189 82.906906 -77.430878 4294967295
170.80132 87.067169 -75.692581 4294967295
170.80154 80.59716 -78.572777 4294967295
170.80167 90.778633 -74.046188 4294967295
170.80476 91.242172 -73.876801 4294967295
170.80785 81.056557 -78.443062 4294967295
170.80971 81.978622 -78.055122 4294967295
170.81174 89.382011 -74.786758 4294967295
170.81183 80.133614 -78.900719 4294967295
170.814 82.438957 -77.901184 4294967295
170.82188 92.6306 -73.462219 4294967295
170.83432 85.205132 -76.912125 4294967295
170.83783 85.666603 -76.748459 4294967295
170.84767 91.690895 -74.185875 4294967295
170.85014 92.15477 -74.008827 4294967295
170.85178 90.296005 -74.854782 4294967295
170.86353 87.509857 -76.233231 4294967295
170.86398 88.899902 -75.620667 4294967295
171.14525 79.686188 -77.611588 4294967295
171.17142 81.52523 -77.10157 4294967295
171.18095 85.684555 -75.356636 4294967295
171.19609 77.830826 -79.046204 4294967295
171.20135 80.594246 -77.874069 4294967295
171.20932 82.438393 -77.14476 4294967295
171.2097 83.362381 -76.736618 4294967295
171.20996 80.130844 -78.183655 4294967295
171.21532 78.747101 -78.86573 4294967295
171.22108 82.897003 -77.080032 4294967295
171.22983 83.818733 -76.772514 4294967295
171.2357 86.130325 -75.80957 4294967295
171.23825 81.045761 -78.111725 4294967295
171.26048 81.962456 -77.967026 4294967295
171.26607 88.437378 -75.140137 4294967295
171.26747 89.364731 -74.742821 4294967295
171.26942 84.73156 -76.836029 4294967295
171.27054 92.616226 -73.326218 4294967295
171.2924 87.038162 -76.079117 4294967295
171.2955 88.890968 -75.288116 4294967295
171.3029 90.74472 -74.547997 4294967295
171.30702 90.278885 -74.805252 4294967295
171.31712 87.493141 -76.170135 4294967295
171.31747 87.956291 -75.967636 4294967295
171.33165 92.127716 -74.272491 4294967295
171.34296 91.194298 -74.824234 4294967295
171.60487 80.590462 -77.214241 4294967295
171.60518 77.824196 -78.459442 4294967295
171.61165 78.283264 -78.330933 4294967295
171.61972 79.663971 -77.807625 4294967295
171.63226 84.279732 -75.885437 4294967295
171.63794 83.815407 -76.161934 4294967295
171.64427 81.964874 -77.068207 4294967295
171.66759 81.496765 -77.557533 4294967295
171.66911 82.419769 -77.161415 4294967295
171.67404 80.111176 -78.256813 4294967295
171.68044 84.727776 -76.260742 4294967295
171.68439 88.432953 -74.644485 4294967295
171.69081 79.185272 -78.873207 4294967295
171.69479 90.286346 -73.937187 4294967295
171.69635 85.18557 -76.245522 4294967295
171.69969 91.679001 -73.370453 4294967295
171.70413 86.572006 -75.716385 4294967295
171.70798 83.33252 -77.216782 4294967295
171.71013 89.352089 -74.540077 4294967295
171.71092 82.869743 -77.459564 4294967295
171.71526 81.022522 -78.340904 4294967295
171.71815 87.957596 -75.261971 4294967295
171.73064 87.026543 -75.829315 4294967295
171.73389 88.879692 -75.036224 4294967295
171.73506 90.736168 -74.216965 4294967295
171.76402 91.189964 -74.359711 4294967295
171.77211 92.581299 -73.831917 4294967295
172.04596 78.731773 -77.836487 4294967295
172.05495 77.80809 -78.361145 4294967295
172.06596 81.956886 -76.622261 4294967295
172.07739 79.646004 -77.802048 4294967295
172.08688 87.042145 -74.579865 4294967295
172.0932 85.186539 -75.492874 4294967295
172.09453 82.410889 -76.761002 4294967295
172.10838 83.331238 -76.512245 4294967295
172.11394 83.791962 -76.371307 4294967295
172.1174 82.866425 -76.830368 4294967295
172.12482 80.094917 -78.169708 4294967295
172.12608 81.478508 -77.560944 4294967295
172.12862 79.17218 -78.631813 4294967295
172.12898 78.250999 -79.051567 4294967295
172.13066 90.741219 -73.437698 4294967295
172.13095 87.954926 -74.697906 4294967295
172.13394 81.014923 -77.864471 4294967295
172.14188 92.597664 -72.734985 4294967295
172.14253 85.634018 -75.884018 4294967295
172.14566 84.244904 -76.548508 4294967295
172.14665 89.341667 -74.261368 4294967295
172.1617 87.480797 -75.281464 4294967295
172.16264 80.546082 -78.421013 4294967295
172.1665 92.122772 -73.245522 4294967295
172.16972 84.700043 -76.632233 4294967295
172.17218 90.261246 -74.153419 4294967295
172.18149 86.084518 -76.149323 4294967295
172.18411 88.400467 -75.136032 4294967295
172.18707 91.649834 -73.706161 4294967295
172.20804 89.783897 -74.799652 4294967295
172.23193 91.168152 -74.46241 4294967295
172.49876 81.945869 -76.307861 4294967295
172.5056 81.020088 -76.81015 4294967295
172.50737 82.867996 -75.993851 4294967295
172.53229 77.7855 -78.598404 4294967295
172.53468 79.167076 -78.001297 4294967295
172.5396 81.47261 -77.015465 4294967295
172.5497 84.705978 -75.67218 4294967295
172.54982 78.241844 -78.603394 4294967295
172.55728 84.24086 -75.974747 4294967295
172.562 91.19828 -72.878151 4294967295
172.5694 80.080284 -78.006653 4294967295
172.57353 83.311043 -76.592163 4294967295
172.57658 87.013565 -74.951065 4294967295
172.58432 85.621063 -75.675705 4294967295
172.5947 82.380814 -77.269714 4294967295
172.59616 86.080368 -75.610718 4294967295
172.60019 83.765419 -76.708641 4294967295
172.60672 88.858681 -74.478836 4294967295
172.60983 88.393555 -74.727249 4294967295
172.62056 87.926018 -75.068741 4294967295
172.62151 85.146408 -76.340103 4294967295
172.634 89.313133 -74.602486 4294967295
172.64304 87.454781 -75.553749 4294967295
172.6481 90.701111 -74.143654 4294967295
172.67664 92.549667 -73.650497 4294967295
172.92972 77.781784 -77.860031 4294967295
172.98161 86.085831 -74.708023 4294967295
172.98271 80.535278 -77.249146 4294967295
172.98392 78.229538 -78.313889 4294967295
173.00066 87.006851 -74.519608 4294967295
173.00076 79.146965 -78.100639 4294967295
173.00272 84.689445 -75.60006 4294967295
173.00751 91.185081 -72.700012 4294967295
173.01599 84.222549 -75.973953 4294967295
173.02116 87.463745 -74.560623 4294967295
173.02542 80.985298 -77.562546 4294967295
173.0267 78.679718 -78.628387 4294967295
173.04175 89.777596 -73.756592 4294967295
173.04448 86.528709 -75.2696 4294967295
173.04756 87.918587 -74.673935 4294967295
173.05417 85.136246 -76.021179 4294967295
173.05519 83.748184 -76.665771 4294967295
173.06161 92.560341 -72.73056 4294967295
173.06314 88.377113 -74.654221 4294967295
173.06812 85.594704 -75.981857 4294967295
173.0721 89.302177 -74.341545 4294967295
173.07365 90.695168 -73.726166 4294967295
173.08893 90.224854 -74.125626 4294967295
173.09563 88.829674 -74.84214 4294967295
173.37314 78.228165 -77.469833 4294967295
173.38721 77.763893 -77.853729 4294967295
173.41425 82.834564 -75.863258 4294967295
173.41991 80.061234 -77.201309 4294967295
173.44797 85.601669 -75.008316 4294967295
173.44861 83.286934 -76.075287 4294967295
173.45007 82.3619 -76.516518 4294967295
173.45297 79.130333 -78.030693 4294967295
173.45517 87.917946 -74.035904 4294967295
173.46051 80.973396 -77.279327 4294967295
173.46198 85.133995 -75.393051 4294967295
173.46223 80.511429 -77.511566 4294967295
173.46558 81.433662 -77.130219 4294967295
173.46567 84.207008 -75.862274 4294967295
173.4677 83.743752 -76.0989 4294967295
173.47571 84.66671 -75.774399 4294967295
173.48302 81.890549 -77.133865 4294967295
173.48843 78.66069 -78.677986 4294967295
173.49208 86.050682 -75.340721 4294967295
173.49658 87.439766 -74.760002 4294967295
173.50938 91.150475 -73.217964 4294967295
173.52216 91.610718 -73.163063 4294967295
173.53624 86.962761 -75.461823 4294967295
173.54105 88.816017 -74.672363 4294967295
173.56168 88.344803 -75.139755 4294967295
173.56711 89.73494 -74.569878 4294967295
173.56906 89.270058 -74.806252 4294967295
173.57507 92.055305 -73.605019 4294967295
173.59143 92.514008 -73.594666 4294967295
173.85815 78.203568 -77.802628 4294967295
173.87627 84.666565 -75.052406 4294967295
173.88594 84.200523 -75.385437 4294967295
173.89461 80.038773 -77.405441 4294967295
173.90916 87.437233 -74.181839 4294967295
173.90938 78.651772 -78.224396 4294967295
173.9101 82.343216 -76.535721 4294967295
173.91283 79.111763 -78.055077 4294967295
173.91473 88.363625 -73.823967 4294967295
173.92259 86.041595 -74.988007 4294967295
173.92717 87.895058 -74.192062 4294967295
173.93456 80.489487 -77.687836 4294967295
173.93532 81.874031 -77.060471 4294967295
173.94855 83.718719 -76.374435 4294967295
173.95946 85.103363 -75.871475 4294967295
173.96538 83.25135 -76.795593 4294967295
173.97379 85.561729 -75.836166 4294967295
173.97502 91.129562 -73.290939 4294967295
173.97714 92.52462 -72.675644 4294967295
173.97957 86.949554 -75.268692 4294967295
174.00354 90.189201 -74.073006 4294967295
174.00697 88.795067 -74.756119 4294967295
174.02281 91.576195 -73.671326 4294967295
174.02461 90.645905 -74.121216 4294967295
174.28513 77.732185 -77.630913 4294967295
174.29372 82.809212 -75.390488 4294967295
174.31548 84.191277 -75.019936 4294967295
174.31592 81.415771 -76.307831 4294967295
174.3261 78.64399 -77.71405 4294967295
174.32874 85.113548 -74.757004 4294967295
174.33434 78.181068 -78.029327 4294967295
174.34007 83.720795 -75.540329 4294967295
174.34071 79.562492 -77.469604 4294967295
174.3414 86.036407 -74.486641 4294967295
174.35268 82.329567 -76.338379 4294967295
174.35316 80.020531 -77.411415 4294967295
174.36453 79.095268 -77.978912 4294967295
174.36594 80.478531 -77.35701 4294967295
174.36873 81.862885 -76.751892 4294967295
174.3905 87.411186 -74.456085 4294967295
174.39546 89.26635 -73.659988 4294967295
174.4037 86.942886 -74.835022 4294967295
174.40572 91.587318 -72.713669 4294967295
174.40686 92.517952 -72.297607 4294967295
174.41174 88.331802 -74.29248 4294967295
174.41287 91.119293 -73.018105 4294967295
174.4333 87.860237 -74.775742 4294967295
174.452 90.639389 -73.721817 4294967295
174.7059 77.723137 -77.166641 4294967295
174.75717 78.171638 -77.592705 4294967295
174.7585 79.554886 -76.966995 4294967295
174.76555 82.787117 -75.553299 4294967295
174.76826 80.937302 -76.445847 4294967295
174.76877 78.629761 -77.523804 4294967295
174.78481 84.169724 -75.149376 4294967295
174.79758 83.702881 -75.524323 4294967295
174.8244 86.473732 -74.569435 4294967295
174.82568 89.723282 -73.076729 4294967295
174.82951 80.458893 -77.425934 4294967295
174.83321 82.304932 -76.614563 4294967295
174.83406 81.380844 -77.054031 4294967295
174.83426 83.229156 -76.198471 4294967295
174.83658 86.933357 -74.506981 4294967295
174.84505 79.993431 -77.834229 4294967295
174.85033 81.83802 -77.043198 4294967295
174.86682 91.568161 -72.728943 4294967295
174.86714 85.532784 -75.535507 4294967295
174.86803 85.069458 -75.761696 4294967295
174.86903 88.778221 -74.052063 4294967295
174.87007 84.605949 -76.002243 4294967295
174.87129 87.385254 -74.726715 4294967295
174.87158 92.031731 -72.572754 4294967295
174.88322 89.23745 -74.014328 4294967295
174.8916 92.489311 -72.608063 4294967295
174.90082 91.089752 -73.372055 4294967295
174.90442 90.623436 -73.633179 4294967295
174.90973 90.1567 -73.915596 4294967295
174.9182 88.296516 -74.884102 4294967295
175.16254 78.166588 -76.932922 4294967295
175.19272 79.543068 -76.665939 4294967295
175.20229 82.775383 -75.276527 4294967295
175.20941 77.694145 -77.73616 4294967295
175.2213 85.085007 -74.435432 4294967295
175.22209 81.382416 -76.172897 4294967295
175.22458 80.919708 -76.419907 4294967295
175.22749 84.156456 -74.945633 4294967295
175.23666 79.992981 -77.002548 4294967295
175.24435 80.452499 -76.883728 4294967295
175.27119 86.459442 -74.414482 4294967295
175.27408 85.994812 -74.667221 4294967295
175.27534 85.530922 -74.89949 4294967295
175.27562 81.829254 -76.630264 4294967295
175.27623 91.103691 -72.309975 4294967295
175.28189 83.676743 -75.846016 4294967295
175.28336 78.597466 -78.234436 4294967295
175.2858 88.310623 -73.732254 4294967295
175.28697 88.774666 -73.530289 4294967295
175.29233 92.028572 -72.078438 4294967295
175.29568 87.842865 -74.073372 4294967295
175.30011 83.208664 -76.291214 4294967295
175.30223 90.163307 -73.072189 4294967295
175.31073 91.55571 -72.52813 4294967295
175.33028 87.366791 -74.725769 4294967295
175.34172 92.474518 -72.484673 4294967295
175.34331 89.218605 -74.023811 4294967295
175.65385 82.2966 -75.402229 4294967295
175.6644 80.444763 -76.402481 4294967295
175.66499 79.982864 -76.626373 4294967295
175.67146 78.597 -77.357079 4294967295
175.67371 81.366158 -76.08667 4294967295
175.67496 81.828018 -75.885674 4294967295
175.68484 84.601822 -74.708511 4294967295
175.69319 77.669838 -78.06369 4294967295
175.69873 87.37989 -73.579224 4294967295
175.70694 78.127182 -78.020958 4294967295
175.70892 84.131088 -75.230072 4294967295
175.71356 79.508507 -77.456055 4294967295
175.714 90.628159 -72.246841 4294967295
175.7213 85.5168 -74.73494 4294967295
175.72395 83.200867 -75.854141 4294967295
175.72414 85.979401 -74.553421 4294967295
175.72594 80.889595 -76.96299 4294967295
175.73309 83.660721 -75.752716 4294967295
175.74323 87.828506 -73.925095 4294967295
175.75706 91.542358 -72.356293 4294967295
175.75862 91.076294 -72.594421 4294967295
175.77531 88.281303 -74.11367 4294967295
175.77699 90.138969 -73.263649 4294967295
175.77791 86.888512 -74.799332 4294967295
175.77853 89.208923 -73.719086 4294967295
175.78134 86.423744 -75.060234 4294967295
175.79582 89.667099 -73.720314 4294967295
175.80957 91.98703 -72.804054 4294967295
175.80998 92.452408 -72.590767 4294967295
176.10507 79.046463 -76.831154 4294967295
176.10805 78.584373 -77.086342 4294967295
176.11316 77.661034 -77.58577 4294967295
176.11833 80.427826 -76.34671 4294967295
176.11917 85.054871 -74.176758 4294967295
176.12592 81.812004 -75.789459 4294967295
176.14729 78.113472 -77.801262 4294967295
176.15845 83.652702 -75.330704 4294967295
176.16022 80.878082 -76.660576 4294967295
176.17426 85.500397 -74.658524 4294967295
176.17485 90.143829 -72.477608 4294967295
176.17702 81.335228 -76.656075 4294967295
176.17831 86.426346 -74.272934 4294967295
176.18265 82.720062 -76.074226 4294967295
176.19391 84.567482 -75.345055 4294967295
176.20418 89.202843 -73.289436 4294967295
176.21631 88.269348 -73.881744 4294967295
176.22264 92.452827 -71.98951 4294967295
176.22479 91.986176 -72.236664 4294967295
176.23744 91.050201 -72.836769 4294967295
176.23952 88.725273 -73.958572 4294967295
176.24393 86.867615 -74.889229 4294967295
176.25192 87.32856 -74.772705 4294967295
176.261 87.789238 -74.669342 4294967295
176.28036 91.498573 -73.164391 4294967295
176.28693 89.636597 -74.124382 4294967295
176.53297 80.421707 -75.790047 4294967295
176.55737 81.339256 -75.663414 4294967295
176.57024 78.565269 -77.139572 4294967295
176.57205 77.642769 -77.599457 4294967295
176.58208 85.035271 -74.224503 4294967295
176.58478 78.100517 -77.543076 4294967295
176.61357 83.635521 -75.284988 4294967295
176.61407 81.785187 -76.167831 4294967295
176.61443 86.415771 -73.97892 4294967295
176.61482 80.860931 -76.615044 4294967295
176.6216 89.199913 -72.751137 4294967295
176.62505 82.706627 -75.869781 4294967295
176.62589 85.484428 -74.564682 4294967295
176.64221 83.163963 -75.869904 4294967295
176.65877 90.5812 -72.565941 4294967295
176.6729 85.932243 -74.946014 4294967295
176.67564 86.858574 -74.542152 4294967295
176.69519 87.315598 -74.572472 4294967295
176.6989 91.496201 -72.639122 4294967295
176.69919 92.427338 -72.201645 4294967295
176.7088 90.096863 -73.42675 4294967295
176.71063 92.888504 -72.127625 4294967295
176.71127 89.631142 -73.678658 4294967295
176.72578 91.020287 -73.203812 4294967295
176.73566 91.94693 -72.889679 4294967295
176.9633 78.563828 -76.308594 4294967295
176.99878 82.251122 -75.003548 4294967295
177.0215 78.087791 -77.273422 4294967295
177.02663 77.625549 -77.558594 4294967295
177.02791 79.008575 -76.916542 4294967295
177.03603 79.929466 -76.581093 4294967295
177.04016 80.390099 -76.414284 4294967295
177.04323 85.943733 -73.809448 4294967295
177.04669 81.774475 -75.838104 4294967295
177.05038 82.69838 -75.445053 4294967295
177.05038 85.01387 -74.342873 4294967295
177.05266 83.623344 -75.033623 4294967295
177.06564 87.792824 -73.213547 4294967295
177.06743 89.651649 -72.351364 4294967295
177.0704 84.543968 -74.820663 4294967295
177.07497 89.183685 -72.670006 4294967295
177.07567 85.469093 -74.446976 4294967295
177.0762 91.044647 -71.799789 4294967295
177.097 86.853218 -74.058685 4294967295
177.09706 86.389275 -74.280411 4294967295
177.1004 81.296844 -76.746803 4294967295
177.12567 84.063263 -75.750427 4294967295
177.13838 87.302696 -74.369904 4294967295
177.13907 91.485321 -72.387634 4294967295
177.18898 92.396347 -72.58696 4294967295
177.20088 91.925964 -72.961861 4294967295
177.43532 79.003777 -76.265129 4294967295
177.45845 78.536285 -76.783852 4294967295
177.46262 78.07399 -77.057823 4294967295
177.47688 77.609406 -77.46209 4294967295
177.47871 80.839432 -75.940247 4294967295
177.49979 81.295563 -75.990662 4294967295
177.51535 80.367241 -76.633209 4294967295
177.51999 85.91935 -74.036179 4294967295
177.52568 79.441322 -77.207947 4294967295
177.5327 91.027351 -71.754539 4294967295
177.53302 84.987732 -74.647926 4294967295
177.5354 81.747406 -76.228462 4294967295
177.53673 90.094688 -72.251816 4294967295
177.53677 89.164314 -72.697609 4294967295
177.53912 79.899101 -77.160461 4294967295
177.54355 92.420898 -71.226067 4294967295
177.54424 82.207024 -76.121429 4294967295
177.54955 82.667809 -75.968491 4294967295
177.5497 83.593025 -75.527939 4294967295
177.55754 83.127892 -75.850372 4294967295
177.56654 84.513535 -75.302422 4294967295
177.57187 87.293282 -74.040192 4294967295
177.57411 89.615189 -72.957939 4294967295
177.57701 85.436539 -74.994232 4294967295
177.57854 86.363121 -74.570236 4294967295
177.59152 91.935272 -72.070015 4294967295
177.59355 87.749664 -74.098396 4294967295
177.60127 86.818977 -74.642204 4294967295
177.63409 91.452477 -72.843956 4294967295
177.64447 92.845139 -72.309776 4294967295
177.8718 77.606987 -76.649559 4294967295
177.88785 78.52562 -76.413445 4294967295
177.92038 80.363892 -75.946571 4294967295
177.92627 79.900345 -76.244911 4294967295
177.9297 84.062767 -74.28743 4294967295
177.93375 85.452385 -73.670891 4294967295
177.93428 79.43647 -76.570526 4294967295
177.93536 78.97467 -76.806519 4294967295
177.93886 78.051315 -77.295311 4294967295
177.94398 85.912895 -73.580788 4294967295
177.94751 81.280449 -75.853409 4294967295
177.95616 83.128136 -75.075645 4294967295
177.96536 87.762726 -72.965111 4294967295
177.96977 88.22583 -72.799011 4294967295
177.9707 82.660889 -75.48687 4294967295
177.97369 91.016235 -71.507263 4294967295
177.97517 80.81044 -76.433762 4294967295
177.97548 82.196899 -75.770966 4294967295
177.9816 83.583107 -75.183052 4294967295
177.98447 84.971809 -74.552025 4294967295
177.98894 91.476021 -71.481812 4294967295
177.992 81.729675 -76.207642 4294967295
177.99612 90.07621 -72.247017 4294967295
178.00198 84.502731 -75.001862 4294967295
178.0271 89.134148 -73.096863 4294967295
178.03801 86.808296 -74.354996 4294967295
178.04172 92.386444 -71.72036 4294967295
178.04993 90.520538 -72.722656 4294967295
178.05193 87.267334 -74.3125 4294967295
178.05748 92.84597 -71.701241 4294967295
178.06154 88.656578 -73.767693 4294967295
178.07954 89.579041 -73.554962 4294967295
178.0959 91.898376 -72.649345 4294967295
178.30157 78.057457 -76.059097 4294967295
178.35931 79.427292 -76.1408 4294967295
178.37317 82.659775 -74.757156 4294967295
178.37515 80.808868 -75.677307 4294967295
178.39449 86.361633 -73.242615 4294967295
178.39839 80.340225 -76.202896 4294967295
178.40167 78.954399 -76.915054 4294967295
178.40636 85.893394 -73.621834 4294967295
178.40669 83.112381 -74.970146 4294967295
178.41068 81.72316 -75.692764 4294967295
178.4166 84.035446 -74.651573 4294967295
178.41811 78.488853 -77.351624 4294967295
178.42505 83.569611 -74.985733 4294967295
178.42842 84.958389 -74.357849 4294967295
178.4474 84.488724 -74.829369 4294967295
178.45248 90.058907 -72.202637 4294967295
178.45351 92.387726 -71.09034 4294967295
178.46118 88.660278 -72.990784 4294967295
178.46146 86.802353 -73.892052 4294967295
178.46519 91.45076 -71.693611 4294967295
178.46747 89.122787 -72.848053 4294967295
178.47157 87.262924 -73.799866 4294967295
178.4731 92.845879 -71.121033 4294967295
178.48959 85.401398 -74.931778 4294967295
178.49802 89.576103 -73.022438 4294967295
178.52011 91.894196 -72.186684 4294967295
178.7887 79.879005 -75.539688 4294967295
178.80473 83.576401 -73.951279 4294967295
178.8172 80.33316 -75.688255 4294967295
178.82922 80.791939 -75.621033 4294967295
178.8317 82.178726 -74.979362 4294967295
178.83629 78.94252 -76.610886 4294967295
178.83665 83.103073 -74.594528 4294967295
178.84416 79.401962 -76.489586 4294967295
178.84749 87.274361 -72.708603 4294967295
178.84888 86.809296 -72.952408 4294967295
178.85123 81.710243 -75.460037 4294967295
178.85735 78.014511 -77.334389 4294967295
178.86151 89.594528 -71.76297 4294967295
178.86218 78.474373 -77.173515 4294967295
178.86493 90.058777 -71.581635 4294967295
178.86603 84.947113 -74.079018 4294967295
178.8672 85.874405 -73.643768 4294967295
178.89612 90.512146 -71.765404 4294967295
178.89763 84.009933 -74.943306 4294967295
178.90015 85.399307 -74.301147 4294967295
178.90877 89.111145 -72.609352 4294967295
178.91367 88.644325 -72.899673 4294967295
178.91687 86.321167 -74.069641 4294967295
178.9218 91.899414 -71.423683 4294967295
178.9297 92.828613 -71.074654 4294967295
178.93127 84.462112 -75.159462 4294967295
178.93224 92.361229 -71.334534 4294967295
178.94423 91.424294 -71.944908 4294967295
178.9462 90.957802 -72.197113 4294967295
178.96126 88.161934 -73.750198 4294967295
179.22586 78.019371 -76.162979 4294967295
179.24443 79.86161 -75.505203 4294967295
179.24905 80.322502 -75.340187 4294967295
179.25728 80.782494 -75.222778 4294967295
179.27257 82.62883 -74.52005 4294967295
179.27367 81.240189 -75.212418 4294967295
179.27507 81.702347 -75.005013 4294967295
179.27579 84.945229 -73.43103 4294967295
179.276 84.481308 -73.66011 4294967295
179.30991 88.64959 -72.066162 4294967295
179.31738 85.395081 -73.75267 4294967295
179.31941 79.379181 -76.716385 4294967295
179.3201 78.917549 -76.950699 4294967295
179.33472 83.998596 -74.659981 4294967295
179.33586 87.710045 -72.86264 4294967295
179.33891 83.071129 -75.167473 4294967295
179.34401 83.532463 -75.008293 4294967295
179.34912 90.496239 -71.674606 4294967295
179.35252 87.23941 -73.309357 4294967295
179.35344 89.563484 -72.186478 4294967295
179.35558 86.30983 -73.802963 4294967295
179.36143 89.095184 -72.519211 4294967295
179.3783 86.765892 -73.875916 4294967295
179.38173 90.948891 -71.877991 4294967295
179.39194 91.410545 -71.785309 4294967295
179.40659 92.802719 -71.296219 4294967295
179.6658 78.46769 -75.696655 4294967295
179.6723 79.389801 -75.328949 4294967295
179.6848 79.848488 -75.26757 4294967295
179.69012 78.923019 -75.791405 4294967295
179.70341 83.082512 -73.923584 4294967295
179.71355 81.690147 -74.739601 4294967295
179.7149 77.993355 -76.571732 4294967295
179.72168 81.225082 -75.074036 4294967295
179.726 84.929863 -73.312187 4294967295
179.73434 80.758949 -75.468651 4294967295
179.73767 83.998459 -73.921997 4294967295
179.74045 82.607735 -74.64106 4294967295
179.74751 85.386589 -73.369415 4294967295
179.75478 88.171455 -72.097778 4294967295
179.75909 88.635025 -71.926659 4294967295
179.76431 83.526436 -74.50222 4294967295
179.76837 80.287064 -76.145203 4294967295
179.77008 82.135788 -75.260254 4294967295
179.78183 84.447464 -74.279327 4294967295
179.78821 92.350739 -70.48391 4294967295
179.78999 87.693466 -72.793091 4294967295
179.80904 85.829369 -73.957062 4294967295
179.81668 90.474503 -71.777092 4294967295
179.8266 89.539619 -72.365723 4294967295
179.82945 89.073341 -72.631958 4294967295
179.8367 86.74765 -73.868164 4294967295
179.83853 90.000275 -72.295563 4294967295
179.84695 91.859818 -71.493195 4294967295
179.88625 92.775574 -71.557625 4294967295
180.12891 78.448341 -75.76133 4294967295
180.14061 78.907021 -75.688614 4294967295
180.16331 82.137512 -74.393654 4294967295
180.17545 83.987053 -73.64045 4294967295
180.17781 79.820679 -75.727333 4294967295
180.17987 81.206963 -75.070358 4294967295
180.18517 79.356735 -76.05278 4294967295
180.18611 86.76857 -72.408691 4294967295
180.18936 83.518982 -74.054436 4294967295
180.19864 80.739052 -75.54805 4294967295
180.19958 83.052422 -74.419098 4294967295
180.20662 85.368202 -73.369194 4294967295
180.22403 87.219543 -72.684685 4294967295
180.22818 82.580414 -75.027962 4294967295
180.2356 85.822243 -73.525826 4294967295
180.23975 81.651596 -75.638168 4294967295
180.25504 86.279533 -73.556023 4294967295
180.26035 92.793579 -70.412064 4294967295
180.26666 88.598244 -72.56472 4294967295
180.26886 89.527794 -72.135132 4294967295
180.2742 91.388573 -71.2873 4294967295
180.27432 90.922523 -71.518951 4294967295
180.27858 89.989395 -72.035255 4294967295
180.28809 91.84893 -71.242836 4294967295
180.3035 88.119484 -73.285393 4294967295
180.31012 87.652489 -73.602791 4294967295
180.31023 89.046539 -72.916458 4294967295
180.31979 90.438431 -72.35582 4294967295
180.33977 92.293343 -71.702988 4294967295
180.54915 78.440338 -75.255119 4294967295
180.55412 77.977203 -75.550491 4294967295
180.55858 79.361992 -74.9226 4294967295
180.60242 80.274307 -75.049393 4294967295
180.61877 81.194595 -74.809067 4294967295
180.62933 86.291245 -72.421104 4294967295
180.6299 83.043167 -74.039627 4294967295
180.65277 82.109825 -74.80468 4294967295
180.65971 80.720062 -75.585808 4294967295
180.65996 88.604973 -71.678337 4294967295
180.66652 84.885559 -73.609779 4294967295
180.67552 87.668793 -72.348373 4294967295
180.67618 91.860413 -70.278214 4294967295
180.67918 79.790428 -76.304085 4294967295
180.68242 85.808113 -73.362274 4294967295
180.69391 83.485878 -74.665939 4294967295
180.69724 85.338928 -73.790894 4294967295
180.69965 84.41069 -74.283104 4294967295
180.70308 82.557022 -75.247917 4294967295
180.70894 87.191704 -73.026703 4294967295
180.71249 89.515457 -71.921341 4294967295
180.72414 89.976395 -71.846542 4294967295
180.72751 90.440727 -71.660797 4294967295
180.73012 89.043243 -72.388458 4294967295
180.74113 92.765968 -70.687836 4294967295
180.74599 91.364952 -71.446541 4294967295
180.76117 92.290939 -71.18808 4294967295
180.99515 78.42556 -75.089577 4294967295
181.07286 77.943359 -76.362473 4294967295
181.08102 78.864326 -76.01178 4294967295
181.09381 85.342148 -72.952179 4294967295
181.10184 86.268135 -72.597099 4294967295
181.10475 87.661575 -71.941162 4294967295
181.10555 92.788651 -69.395615 4294967295
181.1086 83.48185 -74.076103 4294967295
181.1102 90.453346 -70.621605 4294967295
181.1134 83.943787 -73.909592 4294967295
181.11516 81.627655 -75.087616 4294967295
181.11777 81.164314 -75.353157 4294967295
181.11969 91.848755 -70.05191 4294967295
181.12732 86.723541 -72.708557 4294967295
181.1286 80.698776 -75.729431 4294967295
181.13226 84.401123 -73.931999 4294967295
181.13489 84.863976 -73.736382 4294967295
181.13864 80.233757 -76.094734 4294967295
181.14914 91.369873 -70.682152 4294967295
181.14978 90.903351 -70.923203 4294967295
181.15326 88.573509 -72.13105 4294967295
181.15463 87.178185 -72.844856 4294967295
181.17334 89.030998 -72.16967 4294967295
181.17856 85.776642 -73.861473 4294967295
181.20094 92.280807 -70.916138 4294967295
181.20544 88.088608 -73.066177 4294967295
181.22202 89.942467 -72.362 4294967295
181.48271 80.711235 -74.325043 4294967295
181.48361 78.861382 -75.264236 4294967295
181.51491 82.090401 -74.063751 4294967295
181.51802 85.800461 -72.245911 4294967295
181.52078 78.389496 -75.99707 4294967295
181.53452 81.621346 -74.560745 4294967295
181.55482 77.919014 -76.687515 4294967295
181.55643 79.30323 -76.015457 4294967295
181.55679 86.251259 -72.537781 4294967295
181.55865 82.539818 -74.422729 4294967295
181.56349 92.771011 -69.359772 4294967295
181.56578 79.762497 -75.91021 4294967295
181.57341 91.832825 -69.962265 4294967295
181.57622 85.315659 -73.26635 4294967295
181.58115 82.995789 -74.49472 4294967295
181.58243 86.706596 -72.652031 4294967295
181.58261 92.295715 -69.853485 4294967295
181.58308 90.895699 -70.561218 4294967295
181.59309 84.84584 -73.727051 4294967295
181.59367 89.49337 -71.405754 4294967295
181.60124 83.452484 -74.534065 4294967295
181.60258 88.558891 -71.993019 4294967295
181.60516 84.378021 -74.122818 4294967295
181.614 89.019806 -71.914452 4294967295
181.62585 91.344208 -70.907776 4294967295
181.64064 89.940262 -71.80896 4294967295
181.66245 90.39711 -71.871201 4294967295
181.95644 77.915779 -75.927177 4294967295
181.95697 80.225838 -74.7705 4294967295
181.98001 84.852257 -72.748886 4294967295
181.9812 83.459984 -73.466415 4294967295
181.98524 80.680077 -74.92131 4294967295
181.98972 78.368492 -76.146088 4294967295
181.9955 87.170059 -71.788948 4294967295
182.00281 84.380386 -73.292686 4294967295
182.00334 81.137253 -74.933853 4294967295
182.01123 82.986694 -74.108154 4294967295
182.01151 86.234467 -72.475281 4294967295
182.01706 83.911789 -73.71991 4294967295
182.01891 87.626419 -71.873253 4294967295
182.02232 89.487167 -70.981773 4294967295
182.02252 82.056892 -74.728104 4294967295
182.02313 79.282692 -76.134148 4294967295
182.02951 79.742752 -75.987961 4294967295
182.03372 85.297798 -73.245789 4294967295
182.03569 88.550598 -71.633148 4294967295
182.04346 82.513229 -74.779259 4294967295
182.0495 86.685287 -72.75827 4294967295
182.05319 88.078545 -72.105919 4294967295
182.05338 92.739418 -69.760056 4294967295
182.07109 89.933441 -71.411552 4294967295
182.09508 88.99276 -72.207642 4294967295
182.10622 92.249672 -70.716324 4294967295
182.11855 90.845726 -71.589157 4294967295
182.37917 79.755638 -74.510628 4294967295
182.3839 78.829681 -75.043617 4294967295
182.39331 80.214134 -74.46933 4294967295
182.39609 82.065269 -73.569283 4294967295
182.40616 82.989098 -73.237305 4294967295
182.43286 80.665092 -74.774986 4294967295
182.43356 77.89267 -76.189018 4294967295
182.43373 82.516716 -73.848747 4294967295
182.4371 81.589371 -74.364067 4294967295
182.45325 83.43734 -73.645897 4294967295
182.46126 83.898369 -73.520424 4294967295
182.46272 84.361717 -73.305397 4294967295
182.48247 81.112778 -75.217697 4294967295
182.48819 79.262596 -76.232132 4294967295
142.66718 67.905533 -86.400925 4278255360
142.66922 64.713707 -87.518372 4278255360
142.68895 65.167725 -87.543121 4278255360
142.70616 66.53344 -87.231003 4278255360
142.73744 68.810989 -86.734283 4278255360
142.75552 68.352783 -87.057816 4278255360
142.76422 69.26445 -86.823837 4278255360
142.76587 66.983818 -87.62381 4278255360
142.76715 66.072388 -87.949295 4278255360
143.07092 66.524284 -86.378593 4278255360
143.08333 68.348755 -85.862808 4278255360
143.12849 68.800591 -86.122635 4278255360
143.15494 66.060921 -87.312447 4278255360
143.18425 64.692001 -88.055168 4278255360
143.18683 67.88176 -86.977249 4278255360
143.18893 69.250519 -86.523842 4278255360
143.19957 67.424438 -87.252487 4278255360
143.23541 65.143326 -88.370453 4278255360
143.53244 65.138542 -86.892075 4278255360
143.53381 67.4189 -86.11412 4278255360
143.54832 66.048996 -86.723251 4278255360
143.56158 67.872574 -86.213631 4278255360
143.58359 68.326767 -86.259628 4278255360
143.60464 66.499977 -87.087463 4278255360
143.60472 65.588432 -87.404228 4278255360
143.60545 64.67733 -87.726822 4278255360
143.61224 66.955223 -87.000084 4278255360
144.00302 64.664452 -87.17646 4278255360
144.08337 69.217651 -86.337654 4278255360
144.47495 65.101555 -87.157677 4278255360
142.66718 67.905533 -86.400925 4278255360
142.70616 66.53344 -87.231003 4278255360
142.71605 70.183228 -86.065742 4278255360
142.73744 68.810989 -86.734283 4278255360
142.75552 68.352783 -87.057816 4278255360
142.75964 69.721443 -86.624573 4278255360
142.76422 69.26445 -86.823837 4278255360
142.76587 66.983818 -87.62381 4278255360
142.76715 66.072388 -87.949295 4278255360
143.07092 66.524284 -86.378593 4278255360
143.08333 68.348755 -85.862808 4278255360
143.1261 69.714333 -85.785011 4278255360
143.12849 68.800591 -86.122635 4278255360
143.15494 66.060921 -87.312447 4278255360
143.18683 67.88176 -86.977249 4278255360
143.18893 69.250519 -86.523842 4278255360
143.19957 67.424438 -87.252487 4278255360
143.20358 70.162048 -86.343987 4278255360
143.53381 67.4189 -86.11412 4278255360
143.54832 66.048996 -86.723251 4278255360
143.56158 67.872574 -86.213631 4278255360
143.58359 68.326767 -86.259628 4278255360
143.60464 66.499977 -87.087463 4278255360
143.60472 65.588432 -87.404228 4278255360
143.61224 66.955223 -87.000084 4278255360
144.08337 69.217651 -86.337654 4278255360
144.09517 70.129601 -86.129738 4278255360
144.02289 69.681274 -85.615135 4278255360
144.45915 69.666168 -85.416412 4278255360
142.66718 67.905533 -86.400925 4278255360
142.70616 66.53344 -87.231003 4278255360
142.71605 70.183228 -86.065742 4278255360
142.73744 68.810989 -86.734283 4278255360
142.75552 68.352783 -87.057816 4278255360
142.75964 69.721443 -86.624573 4278255360
142.76422 69.26445 -86.823837 4278255360
142.76587 66.983818 -87.62381 4278255360
142.80917 71.085426 -86.609764 4278255360
142.85704 70.622887 -87.208038 4278255360
143.07092 66.524284 -86.378593 4278255360
143.08333 68.348755 -85.862808 4278255360
143.1261 69.714333 -85.785011 4278255360
143.12849 68.800591 -86.122635 4278255360
143.18683 67.88176 -86.977249 4278255360
143.18893 69.250519 -86.523842 4278255360
143.19957 67.424438 -87.252487 4278255360
143.20358 70.162048 -86.343987 4278255360
143.20473 71.075577 -86.038887 4278255360
143.20602 70.618523 -86.208786 4278255360
143.53381 67.4189 -86.11412 4278255360
143.56158 67.872574 -86.213631 4278255360
143.58359 68.326767 -86.259628 4278255360
143.61224 66.955223 -87.000084 4278255360
143.65102 71.059341 -85.935577 4278255360
144.08337 69.217651 -86.337654 4278255360
144.09517 70.129601 -86.129738 4278255360
144.17244 71.490364 -86.373077 4278255360
144.58698 71.478302 -85.973747 4278255360
145.01794 71.464111 -85.72612 4278255360
144.02289 69.681274 -85.615135 4278255360
144.04846 71.049316 -85.376389 4278255360
144.41969 70.58522 -84.727966 4278255360
144.45915 69.666168 -85.416412 4278255360
144.4631 71.037125 -84.974243 4278255360
144.88744 70.566353 -84.821114 4278255360
144.90401 71.021622 -84.816383 4278255360
145.37091 71.460197 -84.741783 4278255360
143.53244 65.138542 -86.892075 4278255360
143.53381 67.4189 -86.11412 4278255360
143.54832 66.048996 -86.723251 4278255360
143.56363 62.859299 -87.970535 4278255360
143.57948 63.768566 -87.801834 4278255360
143.60464 66.499977 -87.087463 4278255360
143.60472 65.588432 -87.404228 4278255360
143.60545 64.67733 -87.726822 4278255360
143.61224 66.955223 -87.000084 4278255360
143.66885 64.217484 -88.472366 4278255360
144.00302 64.664452 -87.17646 4278255360
144.03488 63.296204 -87.948013 4278255360
144.0463 64.205826 -87.737427 4278255360
144.0518 63.750206 -87.947166 4278255360
144.10791 62.836739 -88.785461 4278255360
144.47256 63.280144 -87.771477 4278255360
144.47495 65.101555 -87.157677 4278255360
144.4753 63.735172 -87.638084 4278255360
144.5013 62.823322 -88.198723 4278255360
144.50601 64.188301 -87.76577 4278255360
144.86017 63.722767 -86.96521 4278255360
144.89915 63.264805 -87.490173 4278255360
144.93767 64.172783 -87.531929 4278255360
144.98322 62.804527 -88.437065 4278255360
145.27652 63.252655 -86.744072 4278255360
145.3364 62.793556 -87.467293 4278255360
