# .PCD v0.7 - Point Cloud Data file format
VERSION 0.7
FIELDS x y z rgb
SIZE 4 4 4 4
TYPE F F F U
COUNT 1 1 1 1
WIDTH 1121
HEIGHT 1
VIEWPOINT 0 0 0 1 0 0 0
POINTS 1121
DATA ascii
77.373703 -21.736727 -110.31886 4294967295
77.382431 -27.231703 -108.87505 4294967295
77.388321 -27.670355 -109.00964 4294967295
77.390602 -18.198008 -109.623 4294967295
77.41655 -28.540102 -109.37625 4294967295
77.433708 -15.529749 -109.28087 4294967295
77.434738 -19.947081 -110.28254 4294967295
77.439232 -18.620838 -110.01071 4294967295
77.444016 -16.410021 -109.54123 4294967295
77.504684 -17.712299 -110.19955 4294967295
77.507195 -15.060308 -109.61695 4294967295
77.507225 -25.412958 -109.21645 4294967295
77.550072 -17.253305 -110.36909 4294967295
77.579544 -14.591553 -109.9464 4294967295
77.581985 -14.148638 -109.86125 4294967295
77.627419 -24.920813 -109.82979 4294967295
77.678932 -24.016949 -109.93615 4294967295
77.69944 -23.126057 -109.85847 4294967295
77.743454 -29.050488 -108.7208 4294967295
77.746567 -22.665405 -110.03851 4294967295
77.750015 -21.340046 -109.75993 4294967295
77.753365 -24.426739 -110.47739 4294967295
77.772888 -23.536709 -110.39404 4294967295
77.802681 -21.760031 -110.17225 4294967295
77.808578 -27.256969 -108.70811 4294967295
77.819084 -28.575859 -109.0703 4294967295
77.835632 -28.127499 -109.06873 4294967295
77.83638 -20.863876 -110.17296 4294967295
77.842468 -19.095623 -109.8102 4294967295
77.853058 -22.180628 -110.57095 4294967295
77.85862 -27.676321 -109.1055 4294967295
77.873108 -26.346424 -108.89191 4294967295
77.878738 -26.785248 -109.02529 4294967295
77.882721 -17.754925 -109.75 4294967295
77.892014 -19.959 -110.30392 4294967295
77.897903 -20.397947 -110.43851 4294967295
77.907501 -25.890341 -108.99647 4294967295
77.9077 -16.419865 -109.59889 4294967295
77.936729 -17.292439 -109.97106 4294967295
77.94574 -18.172195 -110.22408 4294967295
77.981125 -15.950276 -109.93546 4294967295
78.00071 -15.059173 -109.85224 4294967295
78.040573 -13.718451 -109.78964 4294967295
78.047508 -15.483585 -110.23019 4294967295
78.047577 -24.948225 -109.62949 4294967295
78.074814 -23.171778 -109.39189 4294967295
78.07856 -24.493988 -109.71391 4294967295
78.210358 -22.233311 -109.99838 4294967295
78.221947 -23.992716 -110.46683 4294967295
78.232018 -23.5476 -110.4269 4294967295
78.277115 -19.999626 -109.89597 4294967295
78.289261 -20.436188 -110.0682 4294967295
78.29216 -21.758717 -110.38516 4294967295
78.292236 -21.317524 -110.28577 4294967295
78.320297 -19.541039 -110.05299 4294967295
78.323967 -16.447659 -109.3747 4294967295
78.333328 -26.356888 -108.92796 4294967295
78.337868 -19.092648 -110.05769 4294967295
78.341286 -27.235754 -109.17569 4294967295
78.353767 -26.789225 -109.14988 4294967295
78.357849 -28.110441 -109.47456 4294967295
78.375923 -27.661587 -109.48215 4294967295
78.38102 -18.19276 -110.1146 4294967295
78.417877 -17.736948 -110.23412 4294967295
78.427483 -15.082808 -109.69115 4294967295
78.42981 -15.965725 -109.90511 4294967295
78.434593 -13.753944 -109.43317 4294967295
78.442932 -24.986216 -109.28072 4294967295
78.444038 -17.285332 -110.28996 4294967295
78.458023 -25.862034 -109.57091 4294967295
78.497269 -15.49859 -110.20696 4294967295
78.547485 -14.154572 -110.20611 4294967295
78.553261 -25.380264 -110.03851 4294967295
78.555222 -24.497498 -109.84998 4294967295
78.572495 -22.725544 -109.5523 4294967295
78.655655 -20.043013 -109.44711 4294967295
78.659416 -28.631971 -108.66528 4294967295
78.679321 -28.182007 -108.68372 4294967295
78.680374 -23.121998 -110.29585 4294967295
78.685059 -24.001842 -110.52393 4294967295
78.695023 -20.468765 -109.78229 4294967295
78.718987 -21.782888 -110.22576 4294967295
78.728096 -17.805965 -109.3781 4294967295
78.749763 -18.680954 -109.70797 4294967295
78.752327 -22.210299 -110.52477 4294967295
78.756767 -21.326378 -110.35096 4294967295
78.760979 -27.263817 -108.97066 4294967295
78.769096 -19.556349 -110.02384 4294967295
78.771904 -19.113791 -109.94038 4294967295
78.773537 -26.375992 -108.84485 4294967295
78.788017 -14.68903 -109.0335 4294967295
78.795326 -16.012625 -109.3782 4294967295
78.803772 -25.480396 -108.82457 4294967295
78.807953 -27.684223 -109.35155 4294967295
78.816261 -13.794057 -109.00141 4294967295
78.832886 -26.791351 -109.29981 4294967295
78.855301 -18.198153 -110.23767 4294967295
78.858093 -16.430672 -109.8534 4294967295
78.868576 -14.217046 -109.41438 4294967295
78.907944 -17.294827 -110.35152 4294967295
78.908928 -25.876398 -109.55332 4294967295
78.958061 -15.509439 -110.24982 4294967295
78.985779 -24.961491 -109.81179 4294967295
79.010414 -23.186663 -109.55753 4294967295
79.025429 -22.297838 -109.44643 4294967295
79.057266 -24.049246 -110.03829 4294967295
79.084023 -23.597019 -110.09786 4294967295
79.111145 -22.70365 -110.05927 4294967295
79.119675 -28.201139 -108.60097 4294967295
79.142899 -21.808315 -110.04827 4294967295
79.182053 -18.261147 -109.47884 4294967295
79.18486 -21.350014 -110.19879 4294967295
79.1894 -20.024408 -109.92476 4294967295
79.197495 -26.402159 -108.66428 4294967295
79.197693 -20.462391 -110.07481 4294967295
79.203171 -28.605015 -109.20142 4294967295
79.245735 -15.143417 -109.15604 4294967295
79.255989 -17.79068 -109.82076 4294967295
79.26825 -14.250714 -109.08958 4294967295
79.278038 -27.24921 -109.34783 4294967295
79.296059 -14.68254 -109.35674 4294967295
79.305679 -16.888212 -109.91713 4294967295
79.310944 -27.675579 -109.6454 4294967295
79.31514 -26.79204 -109.46941 4294967295
79.319016 -15.999695 -109.79591 4294967295
79.34008 -16.433407 -110.02254 4294967295
79.340897 -13.781769 -109.42403 4294967295
79.387589 -24.996782 -109.50088 4294967295
79.40403 -24.548695 -109.4987 4294967295
79.487076 -24.07247 -109.89565 4294967295
79.524323 -23.174768 -109.91759 4294967295
79.528366 -28.234365 -108.32812 4294967295
79.534714 -22.729347 -109.87923 4294967295
79.555122 -21.838581 -109.80022 4294967295
79.578102 -20.946638 -109.73664 4294967295
79.584084 -21.385485 -109.87318 4294967295
79.587273 -27.767067 -108.5807 4294967295
79.593254 -23.58683 -110.43118 4294967295
79.595184 -19.173906 -109.43617 4294967295
79.606339 -19.611015 -109.60382 4294967295
79.61232 -17.842052 -109.23665 4294967295
79.634384 -17.391661 -109.26825 4294967295
79.636177 -26.421963 -108.57151 4294967295
79.647781 -26.858122 -108.74208 4294967295
79.65934 -18.706957 -109.72021 4294967295
79.690781 -27.280329 -109.10106 4294967295
79.692535 -15.601735 -109.21383 4294967295
79.70639 -16.038445 -109.39778 4294967295
79.712051 -20.451193 -110.439 4294967295
79.713852 -15.151679 -109.24097 4294967295
79.716766 -14.708508 -109.15762 4294967295
79.72374 -16.473667 -109.60271 4294967295
79.727638 -18.238621 -110.02911 4294967295
79.73288 -25.497629 -108.95026 4294967295
79.803017 -16.884892 -110.17915 4294967295
79.854889 -24.121988 -109.38016 4294967295
79.88456 -13.762316 -109.96321 4294967295
79.895401 -24.986795 -109.82513 4294967295
79.939827 -24.526932 -109.9911 4294967295
79.968803 -20.98559 -109.35804 4294967295
79.973221 -22.748884 -109.7882 4294967295
79.993492 -23.622417 -110.11172 4294967295
80.013405 -20.52606 -109.52511 4294967295
80.038712 -17.866243 -109.07129 4294967295
80.040497 -18.307339 -109.183 4294967295
80.042007 -28.22089 -108.6854 4294967295
80.048943 -19.187325 -109.43583 4294967295
80.062233 -23.152672 -110.42377 4294967295
80.066269 -27.76906 -108.73027 4294967295
80.067757 -26.886135 -108.53701 4294967295
80.070915 -18.737026 -109.46695 4294967295
80.087791 -17.405323 -109.26537 4294967295
80.087906 -21.378225 -110.17467 4294967295
80.106384 -25.986795 -108.56704 4294967295
80.129196 -15.621817 -109.11012 4294967295
80.146278 -26.410627 -108.9083 4294967295
80.147781 -25.527611 -108.71505 4294967295
80.158188 -15.168843 -109.18345 4294967295
80.167183 -16.491125 -109.54075 4294967295
80.172569 -16.930779 -109.67416 4294967295
80.213715 -16.031582 -109.71963 4294967295
80.221924 -27.259304 -109.56561 4294967295
80.227303 -14.258945 -109.39719 4294967295
80.244171 -14.694623 -109.59971 4294967295
80.244514 -13.81053 -109.39959 4294967295
80.274704 -25.03182 -109.37777 4294967295
80.304497 -23.695763 -109.25375 4294967295
80.384918 -24.102781 -109.83905 4294967295
80.423477 -22.763519 -109.76787 4294967295
80.456848 -23.190556 -110.06992 4294967295
80.464523 -22.305355 -109.91394 4294967295
80.474586 -20.094973 -109.46868 4294967295
80.490952 -21.853333 -109.97196 4294967295
80.495621 -17.878529 -109.08929 4294967295
80.508286 -28.228418 -108.75911 4294967295
80.510208 -19.639193 -109.58219 4294967295
80.528648 -20.514431 -109.89558 4294967295
80.545059 -19.18383 -109.69099 4294967295
80.547821 -16.974606 -109.20134 4294967295
80.548172 -27.769682 -108.89832 4294967295
80.563858 -17.410145 -109.39929 4294967295
80.586761 -18.284374 -109.73984 4294967295
80.592979 -25.985758 -108.76307 4294967295
80.594345 -26.426285 -108.87273 4294967295
80.603928 -16.511166 -109.43837 4294967295
80.605453 -18.718418 -109.95371 4294967295
80.624123 -27.295109 -109.25503 4294967295
80.647263 -14.285155 -109.19312 4294967295
80.65773 -13.839176 -109.15486 4294967295
80.663261 -26.837004 -109.38977 4294967295
80.683899 -15.597089 -109.71798 4294967295
80.68399 -16.038757 -109.81979 4294967295
80.692902 -15.151913 -109.67105 4294967295
80.724258 -14.698311 -109.75886 4294967295
80.782585 -23.698683 -109.40024 4294967295
80.787796 -25.019421 -109.73573 4294967295
80.795212 -24.575348 -109.67915 4294967295
80.837936 -24.116194 -109.8356 4294967295
80.848152 -23.229929 -109.69457 4294967295
80.930504 -27.373493 -108.36389 4294967295
80.957375 -20.096556 -109.64423 4294967295
80.961365 -19.65358 -109.56691 4294967295
80.961975 -17.445314 -109.06313 4294967295
80.974014 -22.736164 -110.353 4294967295
80.975235 -17.881878 -109.2448 4294967295
80.975494 -22.294689 -110.26058 4294967295
80.986885 -21.408062 -110.12667 4294967295
80.995514 -28.667328 -109.06168 4294967295
81.009811 -20.516521 -110.06237 4294967295
81.01384 -19.191158 -109.78248 4294967295
81.021172 -18.305387 -109.62383 4294967295
81.032043 -13.882338 -108.67392 4294967295
81.038773 -26.884544 -108.91679 4294967295
81.056839 -25.553402 -108.72121 4294967295
81.065765 -25.99065 -108.87684 4294967295
81.06723 -26.43104 -108.98735 4294967295
81.071411 -15.635803 -109.31836 4294967295
81.099167 -14.29949 -109.18143 4294967295
81.102051 -16.949142 -109.80814 4294967295
81.104668 -28.177608 -109.61988 4294967295
81.105186 -16.064684 -109.62406 4294967295
81.118263 -16.501307 -109.80465 4294967295
81.125 -15.173618 -109.54081 4294967295
81.159332 -25.067955 -109.23947 4294967295
81.195854 -14.705127 -109.8676 4294967295
81.248024 -23.706896 -109.47108 4294967295
81.308228 -24.562994 -110.03846 4294967295
81.324577 -23.2335 -109.83264 4294967295
81.336037 -19.698782 -109.08875 4294967295
81.363487 -28.278103 -108.43967 4294967295
81.395874 -20.557323 -109.65443 4294967295
81.401512 -19.230949 -109.38346 4294967295
81.407051 -20.993954 -109.82369 4294967295
81.415703 -20.107992 -109.67276 4294967295
81.432579 -22.747185 -110.38455 4294967295
81.443954 -28.682726 -109.02902 4294967295
81.45488 -21.856245 -110.31639 4294967295
81.458748 -18.325163 -109.52664 4294967295
81.458893 -16.558456 -109.12044 4294967295
81.45932 -27.794216 -108.9185 4294967295
81.459373 -17.00005 -109.22517 4294967295
81.459724 -18.766233 -109.63427 4294967295
81.475327 -21.406885 -110.33858 4294967295
81.485977 -15.664307 -109.08098 4294967295
81.494514 -26.896776 -108.92814 4294967295
81.504997 -15.215134 -109.09437 4294967295
81.524246 -13.881748 -108.90556 4294967295
81.529716 -17.414234 -109.75307 4294967295
81.530266 -26.440071 -109.04299 4294967295
81.53157 -17.854958 -109.866 4294967295
81.570702 -27.303808 -109.49168 4294967295
81.588531 -14.299768 -109.39705 4294967295
81.593742 -14.739685 -109.53048 4294967295
81.637917 -25.070333 -109.39007 4294967295
81.71888 -24.153685 -109.67732 4294967295
81.725685 -23.70986 -109.61674 4294967295
81.729416 -23.267292 -109.53748 4294967295
81.765915 -24.574299 -110.06435 4294967295
81.786278 -22.802309 -109.78057 4294967295
81.82074 -20.14106 -109.37833 4294967295
81.833122 -21.018536 -109.65726 4294967295
81.833527 -21.900555 -109.86345 4294967295
81.841171 -20.574032 -109.60417 4294967295
81.846176 -17.923208 -109.02277 4294967295
81.853081 -21.45141 -109.88022 4294967295
81.853966 -28.715519 -108.76314 4294967295
81.868652 -22.326838 -110.17834 4294967295
81.868988 -19.680162 -109.56918 4294967295
81.869667 -26.503574 -108.34796 4294967295
81.8936 -17.021147 -109.10672 4294967295
81.901184 -27.812597 -108.84577 4294967295
81.907501 -27.368893 -108.78207 4294967295
81.908203 -19.223034 -109.70526 4294967295
81.909416 -15.247482 -108.79448 4294967295
81.922073 -14.800623 -108.76926 4294967295
81.927429 -17.449577 -109.41413 4294967295
81.930481 -26.917746 -108.81958 4294967295
81.954208 -28.229528 -109.26986 4294967295
81.978699 -18.753521 -110.03123 4294967295
81.980156 -16.545807 -109.5303 4294967295
81.993546 -25.567051 -108.89643 4294967295
82.04361 -16.079702 -109.81381 4294967295
82.151199 -24.616802 -109.65048 4294967295
82.165634 -24.169754 -109.63612 4294967295
82.181114 -23.722248 -109.62815 4294967295
82.232269 -22.818687 -109.73504 4294967295
82.281479 -22.357056 -109.93217 4294967295
82.298378 -19.261925 -109.31985 4294967295
82.305252 -17.934555 -109.055 4294967295
82.317383 -20.578066 -109.74201 4294967295
82.323814 -17.043835 -108.96342 4294967295
82.324165 -21.016365 -109.88547 4294967295
82.33847 -26.510122 -108.43797 4294967295
82.34594 -21.889214 -110.22209 4294967295
82.350151 -16.14996 -108.91914 4294967295
82.363708 -20.117996 -109.92178 4294967295
82.364265 -17.46965 -109.31199 4294967295
82.385101 -28.252787 -109.13128 4294967295
82.409462 -26.919617 -108.97272 4294967295
82.431648 -26.028017 -108.90321 4294967295
82.43338 -14.792452 -109.11903 4294967295
82.435333 -18.324385 -109.94891 4294967295
82.443054 -15.230634 -109.28024 4294967295
82.446381 -28.665588 -109.60667 4294967295
82.457397 -16.550112 -109.67442 4294967295
82.47715 -27.330173 -109.48732 4294967295
82.504982 -29.079241 -110.06564 4294967295
82.515274 -23.786484 -108.90078 4294967295
82.545349 -13.86656 -109.59644 4294967295
82.554794 -24.651529 -109.34637 4294967295
82.605331 -25.070412 -109.75661 4294967295
82.620659 -23.300455 -109.4407 4294967295
82.637939 -24.174829 -109.75068 4294967295
82.666695 -22.398968 -109.51659 4294967295
82.716949 -19.289469 -109.10609 4294967295
82.719826 -20.171091 -109.32847 4294967295
82.73056 -19.725374 -109.29154 4294967295
82.749557 -17.95174 -108.99748 4294967295
82.749763 -22.804825 -110.12531 4294967295
82.753136 -21.921738 -109.94118 4294967295
82.755913 -26.980467 -108.3177 4294967295
82.781517 -18.380583 -109.29504 4294967295
82.795128 -28.726219 -108.96747 4294967295
82.816368 -26.071539 -108.48154 4294967295
82.839928 -21.003874 -110.26573 4294967295
82.843864 -26.500391 -108.75207 4294967295
82.844353 -29.144308 -109.37037 4294967295
82.846878 -16.588547 -109.28379 4294967295
82.854637 -13.934294 -108.71571 4294967295
82.858658 -15.70056 -109.15057 4294967295
82.864525 -25.609306 -108.67303 4294967295
82.874863 -27.808863 -109.24908 4294967295
82.880753 -18.782183 -110.00279 4294967295
82.887825 -16.131001 -109.43123 4294967295
82.908249 -14.797991 -109.2483 4294967295
82.91877 -17.443331 -109.92749 4294967295
82.920952 -15.234913 -109.42844 4294967295
82.926361 -16.998999 -109.87138 4294967295
82.946152 -27.336267 -109.58174 4294967295
83.030373 -24.214294 -109.37815 4294967295
83.058365 -22.879395 -109.24131 4294967295
83.094749 -23.745754 -109.66882 4294967295
83.157776 -23.278013 -109.9514 4294967295
83.160141 -22.395361 -109.76063 4294967295
83.180069 -21.946075 -109.7798 4294967295
83.185196 -28.327433 -108.4753 4294967295
83.202248 -17.082228 -108.78564 4294967295
83.223595 -18.398611 -109.22462 4294967295
83.240417 -16.625505 -108.91643 4294967295
83.247505 -21.47698 -110.08942 4294967295
83.252243 -26.53364 -108.47421 4294967295
83.263634 -19.706366 -109.77749 4294967295
83.265518 -20.146679 -109.89164 4294967295
83.270874 -19.262255 -109.71909 4294967295
83.281242 -26.079773 -108.54877 4294967295
83.310654 -17.481087 -109.55159 4294967295
83.310768 -26.948444 -108.93528 4294967295
83.331268 -14.381323 -108.95828 4294967295
83.359718 -16.137394 -109.54361 4294967295
83.374222 -27.360687 -109.42639 4294967295
83.412239 -29.104794 -110.06993 4294967295
83.415565 -24.256996 -108.95975 4294967295
83.431412 -25.572706 -109.36532 4294967295
83.517067 -25.094484 -109.78692 4294967295
83.525063 -24.65036 -109.73309 4294967295
83.528214 -23.326645 -109.44386 4294967295
83.54911 -23.758518 -109.67468 4294967295
83.591515 -22.4179 -109.62593 4294967295
83.644379 -22.836298 -110.0526 4294967295
83.661858 -21.947374 -109.95401 4294967295
83.662308 -20.624344 -109.64811 4294967295
83.668938 -21.062616 -109.7917 4294967295
83.676514 -17.970825 -109.11751 4294967295
83.67749 -21.499971 -109.94688 4294967295
83.701538 -28.311981 -108.85858 4294967295
83.70945 -27.426958 -108.70099 4294967295
83.709663 -18.840315 -109.5267 4294967295
83.725731 -29.18199 -109.21301 4294967295
83.736343 -15.739082 -108.96931 4294967295
83.738663 -20.151865 -110.01324 4294967295
83.769348 -28.721567 -109.3776 4294967295
83.782951 -27.834431 -109.25499 4294967295
83.783424 -16.162491 -109.36111 4294967295
83.783897 -26.952782 -109.05467 4294967295
83.792641 -14.833855 -109.10855 4294967295
83.799446 -16.597771 -109.56239 4294967295
83.808983 -17.035427 -109.72385 4294967295
83.853951 -15.252056 -109.58772 4294967295
83.866753 -25.153038 -109.15083 4294967295
83.878716 -14.35933 -109.53365 4294967295
83.924789 -23.364231 -109.09457 4294967295
83.971481 -24.225822 -109.58752 4294967295
83.98912 -24.658823 -109.79882 4294967295
83.998795 -23.773283 -109.65208 4294967295
84.054626 -22.427021 -109.68561 4294967295
84.067314 -21.09881 -109.45415 4294967295
84.076859 -18.888613 -108.99678 4294967295
84.11322 -21.96143 -109.9424 4294967295
84.114426 -28.784246 -108.71117 4294967295
84.127533 -21.514591 -109.92719 4294967295
84.129967 -20.63175 -109.73592 4294967295
84.131355 -18.425205 -109.22846 4294967295
84.140167 -16.655514 -108.86958 4294967295
84.145103 -20.184473 -109.72578 4294967295
84.156982 -19.738527 -109.69559 4294967295
84.16806 -19.292887 -109.66048 4294967295
84.175255 -14.874626 -108.67201 4294967295
84.180389 -17.522758 -109.32343 4294967295
84.185608 -15.754318 -108.94245 4294967295
84.203835 -27.421623 -108.95106 4294967295
84.206223 -29.622782 -109.48206 4294967295
84.213142 -17.951057 -109.628 4294967295
84.229141 -17.062019 -109.51987 4294967295
84.242874 -28.284958 -109.3977 4294967295
84.260071 -13.9585 -108.98708 4294967295
84.261703 -16.166336 -109.51359 4294967295
84.26329 -14.399136 -109.11017 4294967295
84.270996 -25.18782 -108.8475 4294967295
84.281044 -27.827192 -109.52923 4294967295
84.295197 -29.141466 -109.92591 4294967295
84.32357 -24.7239 -109.0676 4294967295
84.329948 -15.256893 -109.72681 4294967295
84.344696 -25.596107 -109.4043 4294967295
84.378456 -23.818304 -109.19865 4294967295
84.394936 -23.370293 -109.19672 4294967295
84.400116 -24.249737 -109.4353 4294967295
84.425514 -22.916264 -109.28155 4294967295
84.452484 -22.463835 -109.34418 4294967295
84.467735 -21.575361 -109.23122 4294967295
84.484787 -20.24474 -109.02592 4294967295
84.504486 -19.353975 -108.94036 4294967295
84.521133 -21.993822 -109.66348 4294967295
84.521935 -28.818443 -108.42664 4294967295
84.566193 -19.769995 -109.42391 4294967295
84.574631 -21.089579 -109.78608 4294967295
84.579048 -17.558056 -108.98572 4294967295
84.582359 -28.350056 -108.69552 4294967295
84.593979 -17.993565 -109.18121 4294967295
84.630844 -27.446686 -108.78723 4294967295
84.634491 -18.4186 -109.53432 4294967295
84.636017 -27.00363 -108.71554 4294967295
84.657501 -27.875177 -109.05515 4294967295
84.681381 -29.625576 -109.61634 4294967295
84.683395 -29.184443 -109.52534 4294967295
84.684067 -16.633476 -109.42594 4294967295
84.696754 -13.978536 -108.88274 4294967295
84.69735 -15.74526 -109.30078 4294967295
84.708122 -17.065351 -109.67767 4294967295
84.709572 -14.415502 -109.06546 4294967295
84.730911 -14.849052 -109.30066 4294967295
84.785393 -26.055422 -109.42948 4294967295
84.843727 -23.826374 -109.2715 4294967295
84.854095 -22.499144 -109.02444 4294967295
84.861534 -22.936953 -109.17397 4294967295
84.864891 -24.698574 -109.60917 4294967295
84.887001 -25.569813 -109.95264 4294967295
84.911308 -21.59281 -109.17022 4294967295
84.91156 -22.033722 -109.27546 4294967295
84.993156 -21.117418 -109.57184 4294967295
85.020348 -29.691751 -108.91016 4294967295
85.022858 -27.487663 -108.40651 4294967295
85.030708 -19.778763 -109.49266 4294967295
85.056152 -20.20928 -109.75346 4294967295
85.058075 -18.444042 -109.3506 4294967295
85.061813 -19.3249 -109.58111 4294967295
85.063034 -30.552265 -109.38134 4294967295
85.072624 -17.996883 -109.33672 4294967295
85.093964 -30.097618 -109.4687 4294967295
85.097969 -28.334623 -109.07838 4294967295
85.106331 -14.450819 -108.71458 4294967295
85.126328 -28.76194 -109.35742 4294967295
85.127197 -17.533718 -109.57011 4294967295
85.129265 -29.200829 -109.47932 4294967295
85.13887 -16.646412 -109.4347 4294967295
85.159172 -26.544708 -109.04144 4294967295
85.1698 -15.751373 -109.4184 4294967295
85.172714 -15.308711 -109.33259 4294967295
85.203461 -25.643623 -109.10757 4294967295
85.205788 -16.178703 -109.74448 4294967295
85.209641 -13.969609 -109.24942 4294967295
85.222664 -25.19442 -109.12241 4294967295
85.223007 -27.837067 -109.74736 4294967295
85.279915 -26.050114 -109.6841 4294967295
85.287575 -24.284473 -109.3161 4294967295
85.303047 -22.073288 -108.89235 4294967295
85.307915 -24.716213 -109.54578 4294967295
85.330925 -21.179239 -108.85698 4294967295
85.338959 -22.498989 -109.21845 4294967295
85.346275 -23.377499 -109.47154 4294967295
85.364082 -23.810455 -109.68552 4294967295
85.411537 -20.263233 -109.14794 4294967295
85.415291 -22.907059 -109.79462 4294967295
85.421318 -21.582186 -109.52028 4294967295
85.422134 -19.817671 -109.10956 4294967295
85.446045 -28.836689 -108.52968 4294967295
85.461838 -18.918898 -109.14745 4294967295
85.462234 -16.711348 -108.62967 4294967295
85.47171 -20.679213 -109.6243 4294967295
85.479843 -19.352732 -109.36288 4294967295
85.491226 -29.696571 -109.01765 4294967295
85.491447 -31.017014 -109.33098 4294967295
85.506706 -28.368168 -108.80135 4294967295
85.507889 -15.368196 -108.60022 4294967295
85.508469 -14.484179 -108.39552 4294967295
85.515816 -16.248547 -108.85752 4294967295
85.524277 -30.121309 -109.32639 4294967295
85.534279 -18.448208 -109.492 4294967295
85.54393 -14.028646 -108.51113 4294967295
85.548897 -27.908306 -108.95872 4294967295
85.587837 -15.778717 -109.19967 4294967295
85.598442 -17.098742 -109.57744 4294967295
85.637772 -29.188099 -109.82133 4294967295
85.638069 -25.665108 -108.99081 4294967295
85.674187 -26.970434 -109.52694 4294967295
85.68911 -26.082886 -109.41131 4294967295
85.69458 -14.854249 -109.65296 4294967295
85.748383 -24.294357 -109.36241 4294967295
85.749001 -24.734703 -109.47031 4294967295
85.783974 -25.159742 -109.79124 4294967295
85.811722 -22.063046 -109.23445 4294967295
85.812553 -20.739586 -108.92703 4294967295
85.834114 -22.935062 -109.5817 4294967295
85.844086 -23.811951 -109.85169 4294967295
85.846169 -22.489161 -109.55225 4294967295
85.847145 -23.370075 -109.7666 4294967295
85.879936 -18.946739 -108.92822 4294967295
85.882401 -21.151283 -109.4646 4294967295
85.892464 -21.587885 -109.63116 4294967295
85.892845 -30.17411 -108.80022 4294967295
85.901009 -19.820496 -109.26749 4294967295
85.929108 -30.59721 -109.12962 4294967295
85.93924 -28.390829 -108.67106 4294967295
85.94426 -29.709679 -109.01517 4294967295
85.944344 -20.243525 -109.64056 4294967295
85.947037 -15.829174 -108.61462 4294967295
85.956848 -19.356373 -109.50984 4294967295
85.961227 -28.821117 -108.91197 4294967295
85.967979 -18.028341 -109.26627 4294967295
85.979233 -17.141142 -109.12759 4294967295
85.987968 -16.254723 -108.97321 4294967295
86.005119 -17.572107 -109.39263 4294967295
86.013947 -15.361336 -108.92589 4294967295
86.071159 -26.56852 -109.07308 4294967295
86.078812 -27.445921 -109.32933 4294967295
86.081978 -29.205185 -109.76604 4294967295
86.098518 -25.234411 -108.93004 4294967295
86.110878 -13.998955 -109.21506 4294967295
86.139542 -14.871014 -109.60176 4294967295
86.141365 -26.977148 -109.61357 4294967295
86.154816 -25.649937 -109.38423 4294967295
86.16761 -26.084642 -109.56806 4294967295
86.181206 -23.875792 -109.13075 4294967295
86.207253 -24.745628 -109.50142 4294967295
86.213074 -24.302504 -109.43322 4294967295
86.283745 -21.186497 -109.14183 4294967295
86.286964 -31.535904 -108.74442 4294967295
86.298218 -22.502886 -109.54509 4294967295
86.311943 -20.292576 -109.10826 4294967295
86.31356 -20.732941 -109.2228 4294967295
86.3181 -30.640638 -108.72907 4294967295
86.324387 -22.050964 -109.60339 4294967295
86.349358 -21.599585 -109.6543 4294967295
86.354927 -30.182955 -108.85376 4294967295
86.362511 -17.624184 -108.79575 4294967295
86.370682 -19.827059 -109.3692 4294967295
86.394508 -29.724079 -108.99558 4294967295
86.397476 -16.285612 -108.69965 4294967295
86.419594 -18.483662 -109.36014 4294967295
86.421333 -28.830978 -108.95344 4294967295
86.426384 -18.039721 -109.29785 4294967295
86.431847 -19.360758 -109.64536 4294967295
86.462494 -15.818392 -108.99995 4294967295
86.487183 -27.039021 -108.9451 4294967295
86.493706 -14.923027 -108.9851 4294967295
86.497742 -14.479794 -108.90567 4294967295
86.508514 -15.358831 -109.18195 4294967295
86.509399 -27.909641 -109.29261 4294967295
86.513527 -25.705364 -108.79529 4294967295
86.546104 -26.571812 -109.2075 4294967295
86.546867 -14.019222 -109.10699 4294967295
86.647484 -25.204979 -109.52518 4294967295
86.689217 -22.542915 -109.15749 4294967295
86.692314 -31.571875 -108.44427 4294967295
86.711159 -23.855402 -109.60821 4294967295
86.722351 -22.087852 -109.25936 4294967295
86.722359 -24.731337 -109.88717 4294967295
86.767174 -20.746124 -109.2247 4294967295
86.777618 -21.182621 -109.39453 4294967295
86.786278 -29.325623 -108.5063 4294967295
86.798256 -19.851099 -109.20913 4294967295
86.816933 -30.631941 -109.01208 4294967295
86.818909 -17.636467 -108.81404 4294967295
86.820328 -30.190189 -108.92844 4294967295
86.83017 -16.307384 -108.56984 4294967295
86.830513 -31.065502 -109.2016 4294967295
86.852325 -15.415277 -108.49837 4294967295
86.853302 -20.269072 -109.65718 4294967295
86.864273 -18.50058 -109.30663 4294967295
86.925987 -28.379827 -109.16862 4294967295
86.939682 -14.056103 -108.72903 4294967295
86.944641 -15.820588 -109.17951 4294967295
86.980293 -27.914492 -109.40279 4294967295
86.999565 -27.025145 -109.31346 4294967295
87.020088 -27.455992 -109.54642 4294967295
87.030182 -14.462828 -109.39906 4294967295
87.093452 -23.458982 -109.0609 4294967295
87.102646 -26.097803 -109.74752 4294967295
87.124649 -23.00465 -109.15082 4294967295
87.13372 -25.643581 -109.83672 4294967295
87.147858 -24.316273 -109.6105 4294967295
87.156868 -25.192974 -109.87655 4294967295
87.163589 -20.342327 -108.7644 4294967295
87.180054 -20.776489 -108.97227 4294967295
87.189011 -21.213665 -109.13329 4294967295
87.19091 -23.856876 -109.77466 4294967295
87.223633 -21.639759 -109.45463 4294967295
87.227501 -18.992163 -108.84889 4294967295
87.243301 -29.777246 -108.63335 4294967295
87.248001 -18.101164 -108.76704 4294967295
87.251373 -30.653814 -108.89399 4294967295
87.262062 -22.063971 -109.79974 4294967295
87.275276 -16.765827 -108.62229 4294967295
87.287392 -31.076616 -109.22427 4294967295
87.29261 -16.317358 -108.62566 4294967295
87.296753 -30.192129 -109.07276 4294967295
87.313126 -17.6334 -109.06928 4294967295
87.316467 -29.302542 -108.98596 4294967295
87.317917 -14.540594 -108.36335 4294967295
87.321281 -18.512438 -109.33038 4294967295
87.328491 -17.185894 -109.06035 4294967295
87.349304 -14.970137 -108.66501 4294967295
87.387718 -14.071799 -108.69518 4294967295
87.388161 -15.396519 -109.01337 4294967295
87.440041 -28.80455 -109.65411 4294967295
87.462151 -26.153202 -109.16205 4294967295
87.463455 -15.808218 -109.58964 4294967295
87.463715 -27.473366 -109.48715 4294967295
87.502426 -28.335527 -109.93948 4294967295
87.503464 -25.253716 -109.21045 4294967295
87.526993 -25.683558 -109.46287 4294967295
87.528625 -27.003452 -109.78833 4294967295
87.548302 -23.471493 -109.07064 4294967295
87.561317 -24.787426 -109.46756 4294967295
87.564842 -26.546844 -109.91 4294967295
87.60334 -21.684469 -108.99458 4294967295
87.62146 -22.998886 -109.42373 4294967295
87.628433 -21.232851 -109.0466 4294967295
87.6409 -19.904512 -108.8089 4294967295
87.6567 -30.689663 -108.59299 4294967295
87.664848 -24.301115 -110.01089 4294967295
87.666779 -22.538612 -109.6025 4294967295
87.716118 -18.549828 -108.9646 4294967295
87.716743 -20.313684 -109.38953 4294967295
87.730865 -18.984882 -109.16233 4294967295
87.740646 -17.215967 -108.80247 4294967295
87.744537 -30.207628 -109.03845 4294967295
87.747147 -31.086309 -109.26541 4294967295
87.767471 -17.646416 -109.07602 4294967295
87.769341 -19.40992 -109.50879 4294967295
87.789474 -14.105393 -108.37088 4294967295
87.791069 -14.988281 -108.5918 4294967295
87.795212 -16.752657 -109.03931 4294967295
87.801041 -29.740778 -109.28748 4294967295
87.803162 -18.073034 -109.40508 4294967295
87.803741 -14.541642 -108.56584 4294967295
87.825775 -15.416241 -108.91496 4294967295
87.856255 -27.073996 -109.00184 4294967295
87.859276 -26.191732 -108.81001 4294967295
87.872955 -15.839008 -109.31634 4294967295
87.88665 -29.260412 -109.71918 4294967295
87.888824 -27.939426 -109.41688 4294967295
87.8927 -16.272396 -109.54558 4294967295
87.899925 -26.613661 -109.17048 4294967295
87.917038 -28.36635 -109.69926 4294967295
87.92202 -25.282372 -108.99301 4294967295
87.943756 -28.793741 -109.97208 4294967295
87.948265 -25.711008 -109.26318 4294967295
87.998878 -24.807484 -109.37013 4294967295
88.034462 -23.470234 -109.27728 4294967295
88.097542 -20.798496 -109.04064 4294967295
88.1203 -22.551632 -109.60551 4294967295
88.12204 -21.22892 -109.30007 4294967295
88.132912 -23.86729 -110.00088 4294967295
88.14254 -21.660843 -109.5344 4294967295
88.142761 -18.574224 -108.79712 4294967295
88.169914 -22.089632 -109.81169 4294967295
88.188148 -31.105019 -109.1891 4294967295
88.195061 -31.541492 -109.33808 4294967295
88.21524 -19.867113 -109.56926 4294967295
88.221428 -18.100731 -109.18608 4294967295
88.222595 -19.423204 -109.50999 4294967295
88.231522 -16.772961 -108.9328 4294967295
88.248093 -14.558784 -108.50869 4294967295
88.257011 -15.879995 -108.88184 4294967295
88.260948 -30.630184 -109.54124 4294967295
88.27002 -17.639788 -109.38599 4294967295
88.295197 -30.174023 -109.65098 4294967295
88.295326 -27.97407 -109.12399 4294967295
88.302094 -29.291056 -109.48329 4294967295
88.304886 -16.30225 -109.28855 4294967295
88.319534 -17.178631 -109.59181 4294967295
88.323784 -15.412139 -109.1962 4294967295
88.363243 -28.822367 -109.76227 4294967295
88.37645 -28.376293 -109.73981 4294967295
88.38501 -26.17186 -109.26571 4294967295
88.388428 -26.610535 -109.39283 4294967295
88.435623 -27.468962 -109.90086 4294967295
88.455788 -24.818901 -109.39414 4294967295
88.458412 -25.698296 -109.62196 4294967295
88.465591 -27.015198 -109.9839 4294967295
88.482086 -23.926353 -109.34837 4294967295
88.483322 -21.722431 -108.82755 4294967295
88.49044 -23.482164 -109.29526 4294967295
88.508553 -22.593042 -109.19794 4294967295
88.514923 -25.232616 -109.87198 4294967295
88.541412 -22.138124 -109.2991 4294967295
88.556244 -21.250298 -109.18102 4294967295
88.562225 -19.04285 -108.68965 4294967295
88.575729 -20.360317 -109.09216 4294967295
88.583267 -17.710335 -108.50468 4294967295
88.615738 -20.784151 -109.45 4294967295
88.628883 -18.132933 -108.89813 4294967295
88.655716 -31.110889 -109.28011 4294967295
88.674393 -14.582983 -108.33769 4294967295
88.695869 -28.451817 -108.89822 4294967295
88.700211 -28.009565 -108.81961 4294967295
88.703766 -16.778784 -109.05252 4294967295
88.707153 -16.33614 -108.96802 4294967295
88.718933 -13.68214 -108.40661 4294967295
88.721375 -29.759874 -109.37656 4294967295
88.736725 -17.206621 -109.36617 4294967295
88.7444 -30.628389 -109.73321 4294967295
88.755539 -14.109668 -108.74356 4294967295
88.761169 -15.873252 -109.2027 4294967295
88.761871 -29.300777 -109.52602 4294967295
88.786667 -14.980501 -109.15175 4294967295
88.804382 -26.200312 -109.05296 4294967295
88.841263 -27.503841 -109.60327 4294967295
88.850517 -24.417696 -108.92026 4294967295
88.875832 -23.525238 -108.8681 4294967295
88.880508 -24.844749 -109.21545 4294967295
88.880974 -26.605463 -109.64202 4294967295
88.929749 -23.941914 -109.31432 4294967295
88.936928 -21.735561 -108.82969 4294967295
88.944283 -23.05448 -109.19419 4294967295
88.962936 -22.16507 -109.09988 4294967295
88.97728 -25.241417 -109.93199 4294967295
89.001022 -31.615936 -108.70553 4294967295
89.039513 -20.369137 -109.15939 4294967295
89.05069 -22.567402 -109.75993 4294967295
89.050774 -20.805126 -109.3365 4294967295
89.055252 -19.4807 -109.04662 4294967295
89.06028 -19.919502 -109.1845 4294967295
89.066246 -21.239172 -109.54018 4294967295
89.10331 -16.813967 -108.71362 4294967295
89.122551 -13.715055 -108.0917 4294967295
89.125092 -18.128658 -109.16963 4294967295
89.150635 -14.145959 -108.37553 4294967295
89.153412 -17.67598 -109.24255 4294967295
89.163612 -14.582553 -108.56389 4294967295
89.188049 -15.014485 -108.82467 4294967295
89.195976 -27.122267 -108.8762 4294967295
89.209541 -30.635344 -109.81074 4294967295
89.222717 -29.309959 -109.5759 4294967295
89.233444 -30.184248 -109.85577 4294967295
89.241592 -15.87586 -109.37545 4294967295
89.243858 -26.219629 -108.96661 4294967295
89.258736 -25.77248 -108.95454 4294967295
89.267395 -26.64909 -109.22162 4294967295
89.269897 -28.847828 -109.76797 4294967295
89.281128 -29.721842 -110.05099 4294967295
89.308952 -27.949862 -109.80273 4294967295
89.309097 -27.509918 -109.69757 4294967295
89.331978 -28.378834 -110.05435 4294967295
89.342911 -24.413292 -109.16836 4294967295
89.348007 -23.530025 -108.98809 4294967295
89.378899 -24.837473 -109.50219 4294967295
89.387833 -23.07188 -109.13393 4294967295
89.418869 -25.259586 -109.86115 4294967295
89.429771 -23.934162 -109.61169 4294967295
89.48069 -20.828316 -109.19029 4294967295
89.498322 -20.38003 -109.1956 4294967295
89.515732 -31.158958 -108.98851 4294967295
89.524277 -22.131203 -109.78493 4294967295
89.536659 -19.922993 -109.33203 4294967295
89.5382 -18.599657 -109.0228 4294967295
89.566322 -31.574032 -109.41522 4294967295
89.571159 -19.026854 -109.33793 4294967295
89.572128 -17.262386 -108.91859 4294967295
89.573822 -14.613103 -108.29062 4294967295
89.576324 -17.701805 -109.05153 4294967295
89.596405 -16.811306 -108.96604 4294967295
89.601845 -19.454775 -109.63857 4294967295
89.60788 -15.924121 -108.82597 4294967295
89.622986 -16.359344 -109.02809 4294967295
89.633377 -29.342979 -109.30833 4294967295
89.63475 -30.221895 -109.52966 4294967295
89.658913 -15.462416 -109.04293 4294967295
89.66227 -30.648243 -109.81027 4294967295
89.673119 -15.015451 -109.02651 4294967295
89.687691 -28.877361 -109.54607 4294967295
89.689209 -27.556829 -109.2366 4294967295
89.690186 -14.125914 -108.92182 4294967295
89.695366 -13.682382 -108.84817 4294967295
89.733978 -28.415684 -109.73309 4294967295
89.737556 -26.654242 -109.33028 4294967295
89.740898 -25.772333 -109.13853 4294967295
89.774475 -27.077177 -109.67065 4294967295
89.794662 -24.427025 -109.16014 4294967295
89.802612 -26.184244 -109.63623 4294967295
89.822861 -25.294823 -109.55183 4294967295
89.832306 -24.850374 -109.50534 4294967295
89.848755 -22.641079 -109.07728 4294967295
89.875488 -19.543684 -108.50072 4294967295
89.886612 -19.097876 -108.46474 4294967295
89.893707 -21.299562 -109.04286 4294967295
89.908623 -23.935722 -109.77651 4294967295
89.927055 -23.047058 -109.68052 4294967295
89.931137 -18.196949 -108.53415 4294967295
89.933739 -17.754633 -108.44395 4294967295
89.949646 -17.306791 -108.43828 4294967295
89.954887 -22.154121 -109.64416 4294967295
89.958832 -20.390162 -109.24304 4294967295
89.961655 -16.4191 -108.3011 4294967295
89.963379 -20.828901 -109.37852 4294967295
89.987465 -21.699547 -109.74438 4294967295
90.001114 -15.07865 -108.23154 4294967295
90.038208 -30.698339 -109.32249 4294967295
90.054611 -14.615886 -108.46481 4294967295
90.067291 -31.56332 -109.72023 4294967295
90.072952 -18.579035 -109.54137 4294967295
90.08416 -28.917078 -109.18783 4294967295
90.085892 -14.162016 -108.5568 4294967295
90.101021 -28.469152 -109.18831 4294967295
90.114632 -31.100756 -109.91427 4294967295
90.157059 -25.802279 -108.90428 4294967295
90.169258 -29.316326 -109.83504 4294967295
90.172455 -29.754368 -109.96194 4294967295
90.187958 -13.680655 -109.0988 4294967295
90.192764 -27.106258 -109.45128 4294967295
90.212463 -24.456017 -108.93626 4294967295
90.237305 -25.325409 -109.30769 4294967295
90.245071 -27.96146 -109.99695 4294967295
90.245422 -23.560308 -108.93227 4294967295
90.282249 -24.864822 -109.48676 4294967295
90.292206 -26.180382 -109.87003 4294967295
90.320541 -22.205517 -109.08971 4294967295
90.334328 -19.995712 -108.64305 4294967295
90.350151 -21.311367 -109.06447 4294967295
90.353577 -19.546566 -108.65874 4294967295
90.362244 -22.627693 -109.46173 4294967295
90.365746 -21.74522 -109.27047 4294967295
90.42775 -18.192379 -108.81027 4294967295
90.435013 -17.748278 -108.74952 4294967295
90.436089 -16.865406 -108.54243 4294967295
90.438995 -18.628704 -108.98873 4294967295
90.447258 -15.978146 -108.39958 4294967295
90.457489 -16.415392 -108.57177 4294967295
90.461006 -20.822968 -109.663 4294967295
90.478539 -17.289244 -108.91977 4294967295
90.480759 -19.052071 -109.36147 4294967295
90.501366 -15.07358 -108.53023 4294967295
90.509979 -30.262396 -109.33565 4294967295
90.52552 -31.134012 -109.64828 4294967295
90.540871 -30.687027 -109.63923 4294967295
90.544945 -14.614824 -108.70094 4294967295
90.551109 -14.170919 -108.6332 4294967295
90.557137 -27.16054 -108.8875 4294967295
90.558884 -29.35944 -109.43333 4294967295
90.591812 -28.024343 -109.32234 4294967295
90.611244 -15.471012 -109.33729 4294967295
90.623344 -27.569613 -109.41628 4294967295
90.623802 -26.689426 -109.20532 4294967295
90.637169 -28.882376 -109.82504 4294967295
90.648163 -28.43751 -109.78821 4294967295
90.678421 -24.903654 -109.12548 4294967295
90.702034 -25.773207 -109.48992 4294967295
90.738602 -24.43618 -109.40211 4294967295
90.747261 -25.312477 -109.67128 4294967295
90.750633 -23.990538 -109.37181 4294967295
90.77475 -20.455408 -108.66899 4294967295
90.787437 -21.77211 -109.07123 4294967295
90.817757 -21.318331 -109.15756 4294967295
90.835449 -20.87005 -109.16335 4294967295
90.845337 -22.187252 -109.5476 4294967295
90.847328 -19.542732 -108.91772 4294967295
90.870712 -19.973577 -109.1741 4294967295
90.89537 -19.081579 -109.11721 4294967295
90.904495 -16.431421 -108.53226 4294967295
90.914543 -18.632687 -109.13242 4294967295
90.944214 -15.974026 -108.6786 4294967295
90.944656 -18.179235 -109.21754 4294967295
90.950256 -16.853966 -108.93172 4294967295
90.964706 -31.592934 -109.66884 4294967295
90.979813 -15.518402 -108.79875 4294967295
90.979813 -15.07707 -108.69152 4294967295
90.992126 -14.189322 -108.55553 4294967295
90.997223 -30.258604 -109.55508 4294967295
91.043854 -27.157818 -109.10268 4294967295
91.052017 -31.11072 -110.11903 4294967295
91.058456 -29.789454 -109.83885 4294967295
91.066803 -28.026875 -109.46364 4294967295
91.067009 -30.664106 -110.10767 4294967295
91.07222 -29.343319 -109.81965 4294967295
91.076927 -27.582264 -109.42113 4294967295
91.078865 -28.460913 -109.6478 4294967295
91.086746 -24.496696 -108.73302 4294967295
91.123604 -23.158636 -108.64655 4294967295
91.142654 -26.671797 -109.62652 4294967295
91.18103 -24.0138 -109.22836 4294967295
91.187378 -24.8913 -109.48341 4294967295
91.191002 -25.769646 -109.72107 4294967295
91.195351 -22.686251 -108.99794 4294967295
91.200508 -23.564758 -109.2455 4294967295
91.201843 -21.361561 -108.71729 4294967295
91.233154 -25.310396 -109.88325 4294967295
91.245232 -21.78326 -109.10214 4294967295
91.248932 -22.222132 -109.23317 4294967295
91.279037 -19.565153 -108.78139 4294967295
91.318565 -20.429729 -109.24909 4294967295
91.335068 -20.863155 -109.46199 4294967295
91.347633 -16.007687 -108.36051 4294967295
91.362785 -13.7938 -107.91949 4294967295
91.367638 -18.646021 -109.13351 4294967295
91.383141 -15.551966 -108.48031 4294967295
91.38443 -14.668546 -108.27332 4294967295
91.397324 -31.17622 -109.43302 4294967295
91.410149 -16.86463 -108.97578 4294967295
91.432129 -18.178226 -109.43877 4294967295
91.436958 -16.412609 -109.03989 4294967295
91.43808 -14.205774 -108.50938 4294967295
91.440536 -29.836491 -109.38736 4294967295
91.451752 -31.588776 -109.88867 4294967295
91.455711 -29.389502 -109.37709 4294967295
91.478775 -15.072292 -108.98518 4294967295
91.487877 -26.294819 -108.8306 4294967295
91.495705 -30.68861 -109.95519 4294967295
91.5224 -30.236259 -110.01872 4294967295
91.52803 -26.716234 -109.19531 4294967295
91.529655 -28.47477 -109.63564 4294967295
91.547264 -28.905951 -109.85579 4294967295
91.579727 -28.011349 -109.84879 4294967295
91.581085 -27.571051 -109.75011 4294967295
91.581886 -24.050423 -108.89507 4294967295
91.59211 -25.806511 -109.39082 4294967295
91.602882 -23.600599 -108.92199 4294967295
91.612274 -23.155966 -108.87465 4294967295
91.613617 -27.116062 -109.85094 4294967295
91.654381 -24.457855 -109.46712 4294967295
91.661407 -22.253189 -108.97427 4294967295
91.671051 -21.367805 -108.82077 4294967295
91.693909 -24.879877 -109.82796 4294967295
91.724876 -19.581585 -108.73524 4294967295
91.737534 -20.457661 -109.03185 4294967295
91.745453 -20.013569 -108.97497 4294967295
91.764542 -17.359861 -108.45095 4294967295
91.765144 -17.800745 -108.56266 4294967295
91.770523 -20.883959 -109.35103 4294967295
91.7743 -21.763103 -109.59052 4294967295
91.781006 -15.587841 -108.12536 4294967295
91.815247 -18.661648 -109.09958 4294967295
91.833282 -16.008036 -108.5688 4294967295
91.842712 -13.796984 -108.08995 4294967295
91.84964 -18.206402 -109.2126 4294967295
91.854073 -30.308064 -109.24331 4294967295
91.862213 -19.082495 -109.50861 4294967295
91.862221 -30.743622 -109.40334 4294967295
91.908508 -31.599529 -109.91552 4294967295
91.912971 -31.158073 -109.83654 4294967295
91.918495 -26.75844 -108.79486 4294967295
91.919891 -28.957279 -109.34269 4294967295
91.927628 -29.393194 -109.49994 4294967295
91.938866 -28.068727 -109.24896 4294967295
91.943192 -29.825176 -109.70754 4294967295
91.978111 -28.489748 -109.60862 4294967295
91.985527 -24.526318 -108.68615 4294967295
91.989113 -27.605122 -109.46381 4294967295
91.991386 -14.179701 -109.15266 4294967295
92.018501 -25.831789 -109.2214 4294967295
92.02224 -27.149738 -109.56875 4294967295
92.029839 -24.946369 -109.07865 4294967295
92.046074 -23.177746 -108.75147 4294967295
92.084702 -21.398294 -108.568 4294967295
92.128059 -24.021408 -109.49397 4294967295
92.131668 -22.258762 -109.08574 4294967295
92.181343 -17.829584 -108.32534 4294967295
92.183365 -21.795553 -109.31012 4294967295
92.189148 -20.030884 -108.91568 4294967295
92.227737 -19.132919 -108.94791 4294967295
92.254738 -20.883587 -109.55322 4294967295
92.256844 -20.442265 -109.45889 4294967295
92.266327 -17.35314 -108.76408 4294967295
92.280899 -18.669647 -109.18183 4294967295
92.288818 -14.696541 -108.26033 4294967295
92.29731 -16.017097 -108.63932 4294967295
92.298302 -18.221577 -109.18582 4294967295
92.307816 -16.453943 -108.81492 4294967295
92.314896 -15.568752 -108.64439 4294967295
92.339203 -16.88203 -109.12493 4294967295
92.347511 -31.619049 -109.82862 4294967295
92.352173 -30.738178 -109.64286 4294967295
92.357147 -28.098133 -109.02689 4294967295
92.375923 -15.102923 -108.92915 4294967295
92.386658 -14.216172 -108.78204 4294967295
92.396072 -13.771104 -108.73459 4294967295
92.396591 -29.83769 -109.71265 4294967295
92.408829 -25.433645 -108.71116 4294967295
92.4142 -26.311436 -108.96188 4294967295
92.439209 -27.619356 -109.44705 4294967295
92.456093 -24.971689 -108.90741 4294967295
92.456482 -29.369242 -109.99007 4294967295
92.460457 -28.927937 -109.9077 4294967295
92.471268 -24.524519 -108.89702 4294967295
92.473442 -27.163431 -109.55949 4294967295
92.473999 -28.481983 -109.88692 4294967295
92.498474 -23.631594 -108.85594 4294967295
92.517761 -24.063141 -109.08832 4294967295
92.529831 -26.697229 -109.81444 4294967295
92.530968 -23.176622 -108.95714 4294967295
92.56115 -25.803181 -109.80006 4294967295
92.571945 -22.27758 -109.00484 4294967295
92.591537 -21.387978 -108.91473 4294967295
92.592918 -20.946808 -108.81533 4294967295
92.605339 -20.500771 -108.78719 4294967295
92.612656 -19.616123 -108.61786 4294967295
92.614113 -22.699133 -109.38467 4294967295
92.630707 -18.285675 -108.40939 4294967295
92.643936 -17.839075 -108.38644 4294967295
92.64666 -20.042236 -108.9454 4294967295
92.666298 -21.795488 -109.50471 4294967295
92.689087 -16.496895 -108.3526 4294967295
92.710793 -30.797344 -109.03683 4294967295
92.713821 -16.045528 -108.40381 4294967295
92.721596 -18.688175 -109.10383 4294967295
92.737801 -29.904902 -108.99444 4294967295
92.761032 -16.908331 -108.92508 4294967295
92.782669 -31.640497 -109.71671 4294967295
92.795425 -28.118067 -108.93305 4294967295
92.802292 -28.554586 -109.08561 4294967295
92.813797 -13.798676 -108.50704 4294967295
92.81842 -14.679482 -108.75367 4294967295
92.823097 -14.236351 -108.67553 4294967295
92.843292 -29.414003 -109.56668 4294967295
92.846626 -31.16958 -110.02095 4294967295
92.861504 -28.965698 -109.57597 4294967295
92.861961 -27.646563 -109.25408 4294967295
92.903084 -26.307653 -109.19453 4294967295
92.90696 -25.42585 -109.00284 4294967295
92.915344 -27.181511 -109.49032 4294967295
92.947968 -25.846813 -109.37593 4294967295
92.967361 -24.957943 -109.28448 4294967295
92.986908 -24.068867 -109.1939 4294967295
93.001236 -20.979607 -108.52729 4294967295
93.005783 -21.858803 -108.77369 4294967295
93.023438 -24.492233 -109.53824 4294967295
93.028923 -20.08609 -108.48911 4294967295
93.034058 -19.202158 -108.30516 4294967295
93.034973 -19.642664 -108.41965 4294967295
93.039574 -20.522211 -108.66653 4294967295
93.070366 -21.389845 -109.0825 4294967295
93.098618 -18.292843 -108.50539 4294967295
93.161156 -18.707191 -109.01834 4294967295
93.177902 -16.054541 -108.47505 4294967295
93.187607 -15.609368 -108.42927 4294967295
93.188599 -16.491264 -108.65296 4294967295
93.188919 -29.918617 -108.98358 4294967295
93.198029 -13.839602 -108.06184 4294967295
93.20723 -16.924564 -108.8821 4294967295
93.225616 -30.779554 -109.43798 4294967295
93.229279 -29.459316 -109.13601 4294967295
93.229393 -17.796951 -109.24249 4294967295
93.248924 -15.143286 -108.71732 4294967295
93.260704 -26.805384 -108.68774 4294967295
93.277756 -30.314514 -109.66663 4294967295
93.277847 -28.116875 -109.12452 4294967295
93.312935 -26.340813 -108.91711 4294967295
93.32708 -14.670654 -109.11444 4294967295
93.331947 -27.211592 -109.25737 4294967295
93.354774 -25.881268 -109.07932 4294967295
93.356415 -28.958132 -109.84984 4294967295
93.358047 -23.678911 -108.55702 4294967295
93.389679 -27.623802 -109.73955 4294967295
93.440666 -24.961546 -109.41798 4294967295
93.448921 -22.316837 -108.81935 4294967295
93.452148 -20.112347 -108.29621 4294967295
93.474808 -20.543238 -108.55192 4294967295
93.487259 -19.215477 -108.30611 4294967295
93.489807 -21.417816 -108.86669 4294967295
93.495636 -24.496365 -109.66523 4294967295
93.524727 -22.723181 -109.41905 4294967295
93.543877 -20.95359 -109.10825 4294967295
93.546715 -18.308331 -108.47375 4294967295
93.552856 -21.830269 -109.38389 4294967295
93.561615 -17.861095 -108.46143 4294967295
93.613647 -29.945271 -108.80181 4294967295
93.614975 -19.601301 -109.24267 4294967295
93.617088 -16.514866 -108.4945 4294967295
93.65593 -17.380623 -108.96412 4294967295
93.669067 -29.038914 -108.9435 4294967295
93.685005 -16.927671 -109.04384 4294967295
93.688087 -28.590008 -108.95798 4294967295
