# .PCD v0.7 - Point Cloud Data file format
VERSION 0.7
FIELDS x y z rgb
SIZE 4 4 4 4
TYPE F F F U
COUNT 1 1 1 1
WIDTH 1146
HEIGHT 1
VIEWPOINT 0 0 0 1 0 0 0
POINTS 1146
DATA ascii
310.63016 117.28479 -39.678089 4294967295
310.64532 105.61449 -39.905319 4294967295
310.68637 107.44173 -40.707119 4294967295
310.74863 108.4057 -39.951065 4294967295
310.758 107.97285 -39.207355 4294967295
310.83502 111.61745 -40.947941 4294967295
310.8494 120.69034 -36.997601 4294967295
310.85443 111.19988 -39.928749 4294967295
310.87646 112.114 -40.285866 4294967295
310.87839 121.17441 -36.680698 4294967295
310.89023 113.0165 -40.872719 4294967295
310.91464 122.10983 -36.648888 4294967295
310.95044 113.539 -39.692841 4294967295
310.95868 122.6178 -35.914711 4294967295
310.96799 114.00464 -39.692467 4294967295
310.99994 114.48997 -39.293552 4294967295
311.01276 115.39088 -39.904812 4294967295
311.04559 115.87781 -39.481724 4294967295
311.0726 105.11119 -40.344055 4294967295
311.08405 116.81405 -39.387386 4294967295
311.10178 116.39767 -38.418503 4294967295
311.1077 106.48683 -40.821548 4294967295
311.11102 106.04597 -40.247623 4294967295
311.13248 118.20534 -39.500832 4294967295
311.15134 117.79169 -38.501743 4294967295
311.16376 106.99768 -39.762104 4294967295
311.19785 107.48306 -39.307301 4294967295
311.21371 109.2792 -40.79047 4294967295
311.21439 108.83627 -40.292622 4294967295
311.22137 119.21558 -38.020691 4294967295
311.23709 109.75171 -40.629414 4294967295
311.24911 120.1373 -38.221073 4294967295
311.25162 110.21326 -40.709698 4294967295
311.25433 119.7046 -37.596615 4294967295
311.28854 110.70306 -40.177811 4294967295
311.30936 111.17273 -40.086678 4294967295
311.32593 122.01238 -38.036358 4294967295
311.49759 116.28689 -40.200733 4294967295
311.53613 105.54052 -40.737568 4294967295
311.55313 117.24665 -39.640621 4294967295
311.64078 118.25294 -38.210732 4294967295
311.65466 108.79208 -40.841404 4294967295
311.79263 120.67871 -36.467728 4294967295
311.81567 122.47467 -37.74482 4294967295
311.84879 113.4688 -40.319359 4294967295
311.90417 114.42662 -39.769451 4294967295
311.94693 115.36825 -39.559551 4294967295
311.99149 115.87075 -38.829716 4294967295
312.00232 116.76916 -39.481731 4294967295
312.02335 117.23973 -39.386768 4294967295
312.03159 106.89645 -41.201424 4294967295
312.04678 107.35874 -41.263325 4294967295
312.05927 106.48331 -39.988216 4294967295
312.06326 106.04233 -39.41016 4294967295
312.09781 117.78526 -37.853714 4294967295
312.10275 118.23381 -38.19212 4294967295
312.12311 108.33779 -40.153103 4294967295
312.12463 119.14732 -38.546066 4294967295
312.13208 109.23716 -40.849808 4294967295
312.16074 110.15964 -41.018887 4294967295
312.17612 120.10324 -38.103943 4294967295
312.21759 110.67339 -39.965145 4294967295
312.2283 111.13039 -40.146561 4294967295
312.24301 112.03548 -40.688477 4294967295
312.24847 121.53114 -37.573521 4294967295
312.25903 120.66493 -36.349144 4294967295
312.32681 113.02871 -39.383141 4294967295
312.32889 122.09124 -35.887302 4294967295
312.39285 114.44359 -39.02166 4294967295
312.48492 116.33685 -38.433243 4294967295
312.55035 108.27907 -41.036049 4294967295
312.56158 107.84752 -40.272972 4294967295
312.66516 111.08147 -40.77235 4294967295
312.67947 121.02559 -37.918343 4294967295
312.70023 120.61467 -36.900993 4294967295
312.73822 121.5522 -36.824528 4294967295
312.74612 112.06943 -39.553909 4294967295
312.75571 112.96825 -40.226589 4294967295
312.75745 113.41335 -40.643219 4294967295
312.88742 114.91068 -38.595097 4294967295
312.92731 115.84911 -38.466217 4294967295
312.94147 117.19489 -39.478428 4294967295
312.95383 106.41438 -40.686039 4294967295
312.95721 105.52645 -39.675625 4294967295
312.95956 116.33487 -38.078312 4294967295
312.96988 107.323 -41.184212 4294967295
312.992 106.90297 -40.141609 4294967295
313.00583 117.7248 -38.243221 4294967295
313.01447 107.81921 -40.47094 4294967295
313.02063 118.18716 -38.314384 4294967295
313.05029 108.75067 -40.44799 4294967295
313.06821 109.21638 -40.437496 4294967295
313.06927 119.5799 -38.417614 4294967295
313.07117 118.69923 -37.44437 4294967295
313.08661 110.12692 -40.872406 4294967295
313.1398 120.56278 -37.483219 4294967295
313.14417 111.0847 -40.278637 4294967295
313.17337 121.05223 -37.062279 4294967295
313.17529 112.4539 -40.837864 4294967295
313.1796 121.94326 -37.820541 4294967295
313.18677 112.02477 -40.078571 4294967295
313.22797 113.40653 -40.374226 4294967295
313.25583 122.93672 -36.739258 4294967295
313.25992 122.50179 -36.170929 4294967295
313.32947 115.30891 -39.548576 4294967295
313.33151 114.86873 -39.037441 4294967295
313.37134 116.24921 -39.36911 4294967295
313.47781 108.24815 -40.847267 4294967295
313.48773 109.14896 -41.498409 4294967295
313.57092 120.49958 -38.27396 4294967295
313.58905 110.15759 -39.772167 4294967295
313.62289 111.97511 -40.709362 4294967295
313.66464 111.58213 -39.172462 4294967295
313.77173 113.93546 -38.665501 4294967295
313.81931 105.86929 -41.653652 4294967295
313.86017 105.46767 -40.1469 4294967295
313.86862 107.25997 -41.733459 4294967295
313.87326 116.72618 -38.757019 4294967295
313.87817 106.82533 -41.03553 4294967295
313.89764 117.20126 -38.578537 4294967295
313.9118 117.6627 -38.665005 4294967295
313.91718 107.75983 -40.930683 4294967295
313.94284 109.12377 -41.621075 4294967295
313.94443 118.14905 -38.275097 4294967295
313.94446 118.59129 -38.726059 4294967295
313.95837 108.69699 -40.770325 4294967295
313.96021 108.25394 -40.272228 4294967295
313.97537 119.07559 -38.379822 4294967295
314.02188 110.10522 -40.485123 4294967295
314.05005 119.62061 -36.904964 4294967295
314.05243 120.06612 -37.295361 4294967295
314.07861 121.42792 -37.975864 4294967295
314.08963 111.07478 -39.642509 4294967295
314.1217 121.0472 -36.414909 4294967295
314.12241 112.44716 -40.148376 4294967295
314.13901 121.95536 -36.872284 4294967295
314.14282 122.40225 -37.22493 4294967295
314.17065 112.95041 -39.359413 4294967295
314.17285 113.39703 -39.751053 4294967295
314.22495 114.34959 -39.311794 4294967295
314.22974 115.24207 -40.086693 4294967295
314.26984 114.85007 -38.609795 4294967295
314.33301 116.26167 -38.336575 4294967295
314.43594 118.6124 -37.944683 4294967295
314.46005 109.61508 -40.601349 4294967295
314.65186 122.89135 -36.46125 4294967295
314.6897 113.89088 -38.762821 4294967295
314.72235 115.26306 -39.268337 4294967295
314.78336 115.78433 -38.164532 4294967295
314.81824 106.80803 -40.527729 4294967295
314.86765 118.11031 -38.247181 4294967295
314.86795 118.55335 -38.682632 4294967295
314.91953 119.06497 -37.821476 4294967295
314.92468 109.15527 -40.045868 4294967295
314.96289 109.64433 -39.521828 4294967295
314.96698 110.53934 -40.302586 4294967295
314.99399 111.01574 -40.061905 4294967295
314.99719 120.49809 -37.18557 4294967295
315.02887 112.39049 -40.505386 4294967295
315.03464 111.95309 -39.918804 4294967295
315.04697 121.89339 -37.258347 4294967295
315.07428 121.4894 -36.124691 4294967295
315.11118 113.37851 -39.313339 4294967295
315.11142 112.93442 -38.86602 4294967295
315.13919 114.30103 -39.488876 4294967295
315.1597 115.21387 -39.852921 4294967295
315.18134 105.34645 -41.645107 4294967295
315.19693 115.70422 -39.357498 4294967295
315.20761 105.82046 -41.42366 4294967295
315.23676 106.29764 -41.131649 4294967295
315.24304 116.64973 -39.076965 4294967295
315.28375 107.24049 -40.828785 4294967295
315.28708 117.14972 -38.411549 4294967295
315.32092 108.17283 -40.77486 4294967295
315.37732 109.5724 -40.67395 4294967295
315.38708 110.02859 -40.867634 4294967295
315.42056 119.09795 -36.8214 4294967295
315.46649 120.04572 -36.549393 4294967295
315.5809 114.25804 -39.958031 4294967295
315.72656 117.1022 -38.944313 4294967295
315.73792 116.67326 -38.226063 4294967295
315.78476 109.04865 -41.543274 4294967295
315.86685 119.05768 -37.200127 4294967295
315.88046 119.96182 -37.73172 4294967295
315.88943 110.50229 -40.250069 4294967295
315.89856 110.06721 -39.591507 4294967295
315.9325 111.88685 -40.482506 4294967295
315.93387 120.4763 -36.842125 4294967295
315.93823 111.00347 -39.475407 4294967295
315.95502 112.35786 -40.358383 4294967295
315.957 121.39306 -37.137833 4294967295
316.01028 113.31242 -39.857113 4294967295
316.02615 122.81538 -36.728123 4294967295
316.04239 122.3955 -35.891327 4294967295
316.07657 114.28116 -39.083328 4294967295
316.10211 105.75557 -42.037003 4294967295
316.12402 106.22467 -41.927692 4294967295
316.12698 115.2314 -38.703938 4294967295
316.13135 105.33911 -40.887848 4294967295
316.16492 115.72253 -38.200825 4294967295
316.17484 116.17906 -38.387001 4294967295
316.21295 107.65752 -41.028748 4294967295
316.21582 117.11845 -38.240055 4294967295
316.21863 108.1096 -41.318558 4294967295
316.2579 118.50278 -38.497662 4294967295
316.27817 109.51176 -41.143356 4294967295
316.44415 121.40764 -36.505421 4294967295
316.52649 114.24843 -39.344109 4294967295
316.60007 106.22235 -41.52359 4294967295
316.61823 116.13744 -38.813087 4294967295
316.6676 117.53065 -38.889462 4294967295
316.70218 107.6692 -40.313301 4294967295
316.73898 118.06501 -37.576588 4294967295
316.74225 108.60497 -40.189056 4294967295
316.75717 109.06735 -40.250988 4294967295
316.81003 110.90866 -40.66605 4294967295
316.87399 120.45859 -36.422997 4294967295
316.87515 111.87318 -39.93388 4294967295
316.89444 112.7855 -40.313534 4294967295
316.90256 121.82614 -37.008053 4294967295
316.90781 112.35599 -39.565712 4294967295
316.93335 122.75321 -37.111073 4294967295
316.93423 113.27674 -39.773724 4294967295
316.93869 122.31782 -36.55563 4294967295
316.97116 113.76507 -39.302155 4294967295
317.00656 114.25191 -38.868214 4294967295
317.04364 115.18576 -38.818493 4294967295
317.04486 105.74092 -41.459019 4294967295
317.05362 106.19666 -41.668777 4294967295
317.05447 114.75407 -38.132225 4294967295
317.07242 115.66521 -38.545441 4294967295
317.07986 116.56274 -39.212078 4294967295
317.10098 106.69222 -40.946457 4294967295
317.14215 117.52803 -38.553452 4294967295
317.15387 107.64081 -40.514458 4294967295
317.17255 108.9994 -41.327229 4294967295
317.17511 117.12505 -37.332939 4294967295
317.17548 108.11023 -40.414524 4294967295
317.20193 118.04726 -37.531338 4294967295
317.23035 110.39948 -41.197414 4294967295
317.25272 109.97852 -40.23819 4294967295
317.25305 119.44398 -37.566257 4294967295
317.30017 120.8354 -37.697533 4294967295
317.30826 120.40269 -37.081104 4294967295
317.3215 119.97626 -36.338955 4294967295
317.40115 121.85561 -36.110325 4294967295
317.5134 106.62406 -42.079418 4294967295
317.59058 108.04335 -41.486618 4294967295
317.61063 116.62877 -37.527802 4294967295
317.65829 118.90908 -38.48259 4294967295
317.81906 111.41418 -38.954784 4294967295
317.8848 122.30801 -36.003323 4294967295
317.918 114.64568 -39.515244 4294967295
317.92947 113.76877 -38.41024 4294967295
317.93027 105.22128 -41.842983 4294967295
317.94778 115.12566 -39.222923 4294967295
317.9733 106.15835 -41.65134 4294967295
318.00302 116.08105 -38.741932 4294967295
318.00882 107.08807 -41.63591 4294967295
318.04712 116.57895 -38.111378 4294967295
318.07065 107.59846 -40.586388 4294967295
318.08722 117.51712 -37.990082 4294967295
318.10413 108.08011 -40.207298 4294967295
318.14343 109.0149 -40.10487 4294967295
318.1467 118.47954 -37.411228 4294967295
318.16498 119.39073 -37.808685 4294967295
318.18027 109.50072 -39.647541 4294967295
318.19983 118.99053 -36.566723 4294967295
318.20786 119.88911 -37.208 4294967295
318.22791 110.44514 -39.347927 4294967295
318.2345 111.79038 -40.430527 4294967295
318.25189 111.36388 -39.607067 4294967295
318.25592 120.39459 -36.484783 4294967295
318.26501 120.85023 -36.684555 4294967295
318.28384 112.73669 -40.090916 4294967295
318.29056 121.32718 -36.494415 4294967295
318.30997 112.32047 -39.06213 4294967295
318.32779 122.70644 -36.859035 4294967295
318.34006 113.24597 -39.177513 4294967295
318.34619 114.1436 -39.857201 4294967295
318.36389 122.31068 -35.59116 4294967295
318.49249 106.64595 -40.65741 4294967295
318.57489 117.52975 -37.358833 4294967295
318.61581 110.34749 -41.042057 4294967295
318.6814 110.86443 -39.91684 4294967295
318.68295 120.77451 -37.702122 4294967295
318.72952 121.27801 -37.02095 4294967295
318.88083 105.21333 -41.099297 4294967295
318.88571 115.10587 -38.820004 4294967295
318.90454 106.13167 -41.359932 4294967295
318.93558 107.50381 -41.857155 4294967295
318.95056 116.5174 -38.532585 4294967295
318.95413 107.07564 -41.018951 4294967295
318.97421 116.10027 -37.572987 4294967295
319.00394 117.02612 -37.696636 4294967295
319.02045 108.48421 -40.696346 4294967295
319.03391 108.05106 -39.975994 4294967295
319.04218 108.95354 -40.596508 4294967295
319.07727 118.44975 -37.212643 4294967295
319.09677 110.79671 -40.951675 4294967295
319.11505 119.38564 -37.149082 4294967295
319.12927 110.38523 -39.792229 4294967295
319.16086 111.31196 -39.871822 4294967295
319.17078 120.78841 -37.076641 4294967295
319.21976 121.73895 -36.752327 4294967295
319.21994 112.26895 -39.311794 4294967295
319.22968 121.30753 -36.115192 4294967295
319.24036 122.2093 -36.681744 4294967295
319.27328 113.66617 -39.291546 4294967295
319.28326 122.70879 -36.093227 4294967295
319.31403 114.60355 -39.158749 4294967295
319.32269 105.62447 -41.909126 4294967295
319.32632 114.17194 -38.468887 4294967295
319.32791 105.18188 -41.386208 4294967295
319.34607 106.09464 -41.772381 4294967295
319.35916 115.10091 -38.519485 4294967295
319.37125 116.00552 -39.04879 4294967295
319.51978 118.40708 -37.641781 4294967295
319.60086 111.71683 -40.731831 4294967295
319.62637 110.85159 -39.341682 4294967295
319.63269 119.88007 -36.249706 4294967295
319.70349 122.63525 -37.041878 4294967295
319.73004 112.75017 -38.567722 4294967295
319.78116 113.6995 -38.198215 4294967295
319.90744 117.40971 -38.514034 4294967295
319.91031 117.85799 -38.848358 4294967295
319.92105 108.42598 -41.123299 4294967295
319.93314 116.99482 -37.525337 4294967295
319.93567 107.99355 -40.390785 4294967295
319.95813 118.36002 -38.154526 4294967295
319.96539 109.36502 -40.908165 4294967295
320.01169 119.31425 -37.731445 4294967295
320.02725 109.87588 -39.896107 4294967295
320.03323 118.89553 -36.838776 4294967295
320.03458 110.33035 -40.128143 4294967295
320.05417 120.25547 -37.561497 4294967295
320.0665 120.71511 -37.679489 4294967295
320.08951 119.85428 -36.353748 4294967295
320.10287 111.29597 -39.367737 4294967295
320.1185 121.22433 -36.892456 4294967295
320.121 112.20841 -39.752068 4294967295
320.15167 113.13409 -39.849815 4294967295
320.15228 112.68864 -39.438084 4294967295
320.1557 122.15967 -36.844574 4294967295
320.16721 121.72995 -36.182072 4294967295
320.22122 113.65689 -38.664963 4294967295
320.22678 114.10918 -38.936615 4294967295
320.25043 105.14648 -41.300774 4294967295
320.26987 115.49502 -39.149883 4294967295
320.2771 115.05753 -38.588936 4294967295
320.30585 106.09538 -40.835075 4294967295
320.34677 116.02869 -37.801498 4294967295
320.35388 107.48531 -40.934563 4294967295
320.44583 117.92683 -37.143421 4294967295
320.49396 119.32007 -37.244488 4294967295
320.53876 110.80378 -39.520687 4294967295
320.58316 120.76378 -36.415234 4294967295
320.77902 107.43213 -41.705616 4294967295
320.78464 116.42832 -38.709633 4294967295
320.89682 109.33822 -40.630386 4294967295
320.91055 118.35665 -37.453026 4294967295
320.91916 118.81212 -37.653709 4294967295
320.95355 110.2903 -40.141224 4294967295
320.96088 119.30709 -37.109894 4294967295
320.97876 120.21867 -37.494991 4294967295
320.99173 111.22366 -40.06963 4294967295
321.01904 119.82231 -36.197033 4294967295
321.02951 121.17015 -37.142109 4294967295
321.0455 112.17368 -39.649216 4294967295
321.07785 113.10126 -39.707348 4294967295
321.11038 113.58279 -39.370995 4294967295
321.13486 122.635 -35.959435 4294967295
321.14417 122.20184 -35.357357 4294967295
321.14502 105.08523 -41.836731 4294967295
321.1662 114.09009 -38.514252 4294967295
321.18216 105.56796 -41.398277 4294967295
321.18793 115.00661 -38.810608 4294967295
321.21844 106.05026 -40.978588 4294967295
321.22266 115.93735 -38.816536 4294967295
321.24643 106.9729 -41.133129 4294967295
321.25858 116.86944 -38.796284 4294967295
321.26901 106.54645 -40.241283 4294967295
321.31274 107.9328 -40.434338 4294967295
321.31873 108.38632 -40.690224 4294967295
321.34024 117.40898 -37.365574 4294967295
321.34341 117.85839 -37.685402 4294967295
321.38474 108.89938 -39.610634 4294967295
321.4628 110.76849 -39.430042 4294967295
321.47345 111.22664 -39.582481 4294967295
321.48077 120.24808 -36.578075 4294967295
321.54056 111.74368 -38.480675 4294967295
321.54471 121.66117 -36.325905 4294967295
321.60986 113.15849 -38.108749 4294967295
321.62732 114.51749 -38.884808 4294967295
321.68079 105.58508 -40.526402 4294967295
321.71664 115.50877 -37.682274 4294967295
321.86383 110.24161 -40.343567 4294967295
321.93527 120.66534 -37.109024 4294967295
321.93814 111.2118 -39.476746 4294967295
321.94214 120.2282 -36.571945 4294967295
321.98535 121.17084 -36.391602 4294967295
321.99213 112.16209 -39.05827 4294967295
322.01178 122.09312 -36.582432 4294967295
322.06168 113.12947 -38.298836 4294967295
322.07315 114.92822 -39.584259 4294967295
322.08276 105.51265 -41.787281 4294967295
322.11154 114.52365 -38.356861 4294967295
322.13025 115.437 -38.715088 4294967295
322.16061 116.36286 -38.816925 4294967295
322.1745 106.49443 -40.543526 4294967295
322.211 116.86533 -38.095772 4294967295
322.21161 107.42607 -40.495869 4294967295
322.22302 117.77063 -38.599293 4294967295
322.25537 118.25329 -38.273155 4294967295
322.31165 110.21014 -40.599808 4294967295
322.33179 109.33487 -39.395943 4294967295
322.3475 119.25127 -37.02293 4294967295
322.34998 111.1431 -40.52623 4294967295
322.35532 118.81441 -36.468292 4294967295
322.39026 110.73658 -39.265942 4294967295
322.47964 113.06507 -39.22298 4294967295
322.62756 115.90414 -38.287479 4294967295
322.66006 106.94775 -40.355854 4294967295
322.71967 108.34916 -40.200054 4294967295
322.73999 117.8148 -37.365936 4294967295
322.77448 118.30012 -36.997684 4294967295
322.80212 111.11597 -40.684479 4294967295
322.89667 121.11742 -36.627579 4294967295
322.92026 112.13067 -38.885132 4294967295
322.92792 121.60015 -36.330193 4294967295
322.94769 122.06926 -36.281685 4294967295
322.95911 113.95945 -39.556839 4294967295
322.97128 112.63075 -38.159592 4294967295
322.98877 114.43753 -39.294373 4294967295
323.0426 115.38845 -38.887222 4294967295
323.06097 105.97694 -40.865837 4294967295
323.06412 116.30445 -39.17857 4294967295
323.07306 115.868 -38.607098 4294967295
323.14545 116.84034 -37.801811 4294967295
323.14844 106.95496 -39.734821 4294967295
323.17593 117.76697 -37.898849 4294967295
323.17667 108.32709 -40.255325 4294967295
323.19971 117.34718 -37.008621 4294967295
323.20197 118.24237 -37.715763 4294967295
323.23401 109.27849 -39.773949 4294967295
323.24033 119.17794 -37.643791 4294967295
323.25159 118.74478 -37.023926 4294967295
323.26215 119.6488 -37.550697 4294967295
323.27887 110.66611 -39.936424 4294967295
323.29224 110.23148 -39.274189 4294967295
323.2923 111.12703 -40.023582 4294967295
323.32971 111.61211 -39.594936 4294967295
323.33298 121.06812 -37.158245 4294967295
323.35745 120.65121 -36.254189 4294967295
323.45877 122.10868 -35.207062 4294967295
323.52966 114.50319 -37.559692 4294967295
323.5513 106.88311 -40.947937 4294967295
323.57037 106.45185 -40.16777 4294967295
323.57993 107.80637 -41.081654 4294967295
323.61218 108.28483 -40.766689 4294967295
323.755 120.11157 -37.235855 4294967295
323.77551 112.02572 -40.264553 4294967295
323.91425 113.06161 -38.057861 4294967295
323.96466 115.35064 -38.845436 4294967295
323.96899 114.01353 -37.637947 4294967295
323.99146 114.48459 -37.532635 4294967295
323.99335 115.82806 -38.607025 4294967295
324.00543 105.96124 -40.314552 4294967295
324.02563 116.3095 -38.293053 4294967295
324.03665 107.3361 -40.763733 4294967295
324.08453 108.27747 -40.489498 4294967295
324.08496 117.26733 -37.777958 4294967295
324.10718 109.19521 -40.749653 4294967295
324.13763 109.67231 -40.475052 4294967295
324.15109 118.23349 -37.118282 4294967295
324.15625 117.79243 -36.637764 4294967295
324.16443 110.59386 -40.646435 4294967295
324.16592 119.14286 -37.546211 4294967295
324.17358 119.59756 -37.754864 4294967295
324.1763 110.15755 -40.026974 4294967295
324.25238 112.02338 -39.896099 4294967295
324.25851 120.14039 -36.327984 4294967295
324.26587 111.14105 -38.874012 4294967295
324.26999 121.49157 -37.197048 4294967295
324.29861 112.51731 -39.289112 4294967295
324.32205 112.98851 -39.164528 4294967295
324.33026 122.0078 -36.293163 4294967295
324.37521 105.41344 -41.830952 4294967295
324.43256 105.91303 -40.992916 4294967295
324.44498 106.37302 -41.099472 4294967295
324.52069 107.33919 -40.242168 4294967295
324.55402 118.14978 -38.332081 4294967295
324.61389 108.77175 -39.386734 4294967295
324.63159 109.23709 -39.382408 4294967295
324.68213 111.52651 -40.154861 4294967295
324.70654 110.65429 -38.910484 4294967295
324.89996 105.45152 -40.456406 4294967295
324.92578 106.8218 -41.009724 4294967295
324.92599 115.80128 -38.345814 4294967295
324.93051 106.37704 -40.546917 4294967295
324.93689 105.93338 -40.050144 4294967295
324.97885 107.3185 -40.267593 4294967295
324.98468 117.2046 -38.216286 4294967295
325.04266 108.7234 -40.030262 4294967295
325.0488 109.17764 -40.266483 4294967295
325.05466 118.17398 -37.486794 4294967295
325.06741 117.74093 -36.855591 4294967295
325.09793 118.66818 -36.950161 4294967295
325.1073 110.12962 -39.776138 4294967295
325.11951 111.03753 -40.249317 4294967295
325.12119 119.58719 -37.196003 4294967295
325.13409 119.15488 -36.562332 4294967295
325.19482 112.00676 -39.410629 4294967295
325.19656 120.1182 -35.990273 4294967295
325.23822 121.50499 -36.218575 4294967295
325.26587 121.09013 -35.277081 4294967295
325.26962 112.52863 -38.220757 4294967295
325.29584 113.89868 -38.766052 4294967295
325.30527 122.47495 -35.55267 4294967295
325.30548 114.35605 -38.928429 4294967295
325.3175 113.47274 -37.953182 4294967295
325.40686 116.2503 -38.277435 4294967295
325.48651 109.13789 -40.71312 4294967295
325.62207 110.61075 -38.998013 4294967295
325.65891 111.54307 -38.959114 4294967295
325.66068 120.99477 -36.650326 4294967295
325.66281 121.44348 -36.967915 4294967295
325.69434 120.58603 -35.592949 4294967295
325.82196 105.41557 -40.383675 4294967295
325.82953 114.40115 -37.608162 4294967295
325.88269 115.35139 -37.234871 4294967295
325.96179 116.77715 -36.688934 4294967295
325.96307 117.67339 -37.382679 4294967295
325.97092 108.24362 -39.479465 4294967295
325.97415 118.57924 -37.873657 4294967295
325.9881 109.15736 -39.842896 4294967295
326.02591 118.188 -36.451603 4294967295
326.03235 119.5361 -37.397625 4294967295
326.04529 110.10797 -39.387703 4294967295
326.07697 120.47847 -37.201641 4294967295
326.07797 111.03596 -39.434132 4294967295
326.07837 111.4846 -39.784222 4294967295
326.1297 112.8783 -39.806332 4294967295
326.13702 112.43758 -39.299026 4294967295
326.18396 122.38451 -36.44492 4294967295
326.19205 121.50066 -35.561626 4294967295
326.20255 113.84594 -39.03191 4294967295
326.21109 113.40648 -38.500156 4294967295
326.24023 114.33147 -38.619202 4294967295
326.25897 105.82665 -41.191479 4294967295
326.28571 105.39992 -40.292046 4294967295
326.31259 106.77172 -40.81073 4294967295
326.31531 115.30304 -37.802673 4294967295
326.31772 114.85754 -37.395401 4294967295
326.32568 107.23239 -40.898911 4294967295
326.33218 116.21564 -38.172527 4294967295
326.36569 107.7169 -40.440971 4294967295
326.38507 117.61272 -38.164253 4294967295
326.39478 108.19195 -40.205341 4294967295
326.45694 118.13622 -37.057022 4294967295
326.49924 109.63409 -39.147579 4294967295
326.58163 119.61265 -35.589943 4294967295
326.60474 120.08539 -35.47485 4294967295
326.63803 121.46352 -35.868916 4294967295
326.65662 112.92421 -38.437958 4294967295
326.68481 114.2963 -38.929596 4294967295
326.7482 122.48157 -34.342808 4294967295
326.7854 106.76414 -40.532135 4294967295
326.81772 108.14005 -40.936729 4294967295
326.8678 107.73528 -39.573143 4294967295
326.93729 109.59467 -39.583134 4294967295
326.95364 110.05862 -39.605122 4294967295
326.95792 119.05393 -36.945866 4294967295
327.01703 120.01208 -36.460636 4294967295
327.02338 120.46607 -36.685898 4294967295
327.02597 111.02351 -38.852249 4294967295
327.11554 113.35181 -38.808891 4294967295
327.11795 121.01709 -35.131569 4294967295
327.12091 121.46762 -35.425983 4294967295
327.12909 112.46777 -37.833225 4294967295
327.18787 122.43666 -34.783676 4294967295
327.19016 106.24862 -41.27 4294967295
327.19287 114.32414 -37.958694 4294967295
327.20129 105.80851 -40.696804 4294967295
327.20416 105.36102 -40.289963 4294967295
327.26205 116.6333 -38.325981 4294967295
327.27829 106.77374 -39.853851 4294967295
327.2897 115.76575 -37.068245 4294967295
327.29111 107.68401 -40.297237 4294967295
327.31668 108.60498 -40.484478 4294967295
327.31833 116.243 -36.84507 4294967295
327.32959 117.15052 -37.321911 4294967295
327.3382 109.0732 -40.403824 4294967295
327.35132 108.18639 -39.442192 4294967295
327.37665 110.00563 -40.333546 4294967295
327.38043 118.54622 -37.355751 4294967295
327.40793 117.67964 -36.102329 4294967295
327.49533 112.35872 -39.706863 4294967295
327.58783 122.34797 -36.009205 4294967295
327.60123 114.25353 -38.989651 4294967295
327.6236 113.82718 -38.194134 4294967295
327.69781 114.79689 -37.412083 4294967295
327.71185 107.63106 -41.060204 4294967295
327.76993 107.23178 -39.558525 4294967295
327.86414 118.10294 -36.540859 4294967295
327.94046 119.97404 -36.417587 4294967295
327.94489 120.42613 -36.67733 4294967295
327.99991 121.38007 -36.280987 4294967295
328.00986 112.83963 -38.959965 4294967295
328.01862 111.95021 -38.093651 4294967295
328.02295 120.95786 -35.475101 4294967295
328.03546 112.41508 -38.106495 4294967295
328.05695 105.2681 -41.581635 4294967295
328.06497 113.78935 -38.56213 4294967295
328.09174 114.26373 -38.377728 4294967295
328.13116 106.22933 -40.805931 4294967295
328.13147 115.19916 -38.284218 4294967295
328.16647 114.78522 -37.245235 4294967295
328.17227 116.13586 -38.168728 4294967295
328.18805 106.72717 -40.027401 4294967295
328.22162 107.20563 -39.710442 4294967295
328.23053 117.09048 -37.708889 4294967295
328.23349 108.11526 -40.165119 4294967295
328.25104 116.6632 -36.958061 4294967295
328.2681 109.04436 -40.170792 4294967295
328.28693 117.59594 -36.941132 4294967295
328.30048 118.05779 -37.019932 4294967295
328.3476 110.01369 -39.294292 4294967295
328.36993 119.47338 -36.685959 4294967295
328.40845 120.4092 -36.617153 4294967295
328.41885 111.42606 -38.924114 4294967295
328.46835 113.26727 -39.325298 4294967295
328.47174 120.92455 -35.714283 4294967295
328.68546 108.53893 -40.646011 4294967295
328.69159 107.19512 -39.500942 4294967295
328.94235 121.36241 -35.865902 4294967295
328.95938 112.82837 -38.367603 4294967295
328.97382 113.73959 -38.7672 4294967295
328.99127 121.86268 -35.252758 4294967295
329.00482 122.32497 -35.330204 4294967295
329.02866 105.72374 -40.857796 4294967295
329.05249 105.29286 -40.055351 4294967295
329.06909 114.27925 -37.251434 4294967295
329.10132 115.65672 -37.646706 4294967295
329.12845 107.15671 -39.936142 4294967295
329.16696 108.98826 -40.545509 4294967295
329.17651 116.62792 -36.864677 4294967295
329.18176 116.18447 -36.420856 4294967295
329.18658 117.08637 -37.009815 4294967295
329.21878 108.13349 -38.861546 4294967295
329.23642 118.92911 -37.402 4294967295
329.24326 109.50435 -39.404087 4294967295
329.25079 110.4098 -39.935017 4294967295
329.27692 109.98364 -39.089336 4294967295
329.32401 111.37389 -39.193836 4294967295
329.32416 119.91562 -36.378361 4294967295
329.37061 112.31464 -38.968395 4294967295
329.37616 120.41805 -35.708244 4294967295
329.47598 114.20871 -38.282181 4294967295
329.56934 106.6718 -39.951351 4294967295
329.63129 117.49913 -37.647728 4294967295
329.63498 108.07712 -39.696003 4294967295
329.71777 118.03429 -36.316208 4294967295
329.75797 110.88209 -39.34602 4294967295
329.77643 109.99915 -38.317101 4294967295
329.8158 111.38331 -38.569851 4294967295
329.8815 120.89271 -35.185802 4294967295
329.95148 114.65253 -38.315113 4294967295
329.96313 105.24798 -40.197105 4294967295
329.96851 122.32928 -34.523804 4294967295
330.01907 115.1658 -37.353645 4294967295
330.02664 106.20036 -39.649937 4294967295
330.04056 116.53252 -37.948944 4294967295
330.05234 107.1223 -39.826725 4294967295
330.0603 106.67846 -39.339478 4294967295
330.06073 116.1037 -37.225536 4294967295
330.09805 117.03746 -37.182049 4294967295
330.11548 108.52558 -39.621517 4294967295
330.12762 108.98579 -39.723927 4294967295
330.13544 118.41951 -37.471977 4294967295
330.15726 117.54465 -36.382046 4294967295
330.17114 109.92281 -39.55962 4294967295
330.19678 110.39481 -39.403336 4294967295
330.20554 118.93858 -36.463943 4294967295
330.22379 119.85339 -36.7855 4294967295
330.23953 119.42143 -36.14917 4294967295
330.25848 111.34846 -38.892498 4294967295
330.267 112.25462 -39.398014 4294967295
330.27493 110.91342 -38.2444 4294967295
330.2919 120.81973 -36.153 4294967295
330.32233 111.85529 -38.006844 4294967295
330.32556 120.40659 -35.173122 4294967295
330.35431 121.33307 -35.293941 4294967295
330.37918 113.25557 -37.924061 4294967295
330.39563 105.20753 -40.700096 4294967295
330.44678 114.21699 -37.302525 4294967295
330.46393 115.13145 -37.642513 4294967295
330.53943 107.5762 -39.625977 4294967295
330.62265 117.97821 -36.620949 4294967295
330.64221 110.36309 -39.664639 4294967295
330.76291 119.91374 -35.28709 4294967295
330.80579 121.75111 -35.803864 4294967295
330.81686 112.76611 -38.010979 4294967295
330.88287 113.27584 -37.092785 4294967295
330.90903 106.58297 -40.656296 4294967295
330.97244 107.98523 -40.447243 4294967295
331.00131 107.10831 -39.244717 4294967295
331.01501 116.09637 -36.580193 4294967295
331.02429 116.55437 -36.736237 4294967295
331.03259 117.01135 -36.910057 4294967295
331.03918 108.49089 -39.518627 4294967295
331.07559 108.97165 -39.16206 4294967295
331.0831 118.40691 -36.947491 4294967295
331.11285 119.33318 -37.047802 4294967295
331.11481 110.80466 -39.739532 4294967295
331.13904 111.27531 -39.612156 4294967295
331.14417 109.48006 -38.199352 4294967295
331.16931 119.83846 -36.312714 4294967295
331.181 110.41231 -38.164009 4294967295
331.21121 120.77764 -36.183487 4294967295
331.23532 121.25055 -36.059811 4294967295
331.25211 111.82481 -37.813122 4294967295
331.25595 120.37506 -35.009068 4294967295
331.25842 113.17926 -38.682297 4294967295
331.29691 113.66361 -38.28693 4294967295
331.31232 105.16806 -40.713078 4294967295
331.31741 114.13169 -38.22998 4294967295
331.32614 122.24142 -35.007961 4294967295
331.38049 106.12314 -40.089611 4294967295
331.41135 115.11742 -37.123333 4294967295
331.42633 107.06111 -39.884499 4294967295
331.45374 115.60662 -36.655819 4294967295
331.53848 117.48454 -36.380421 4294967295
331.60303 118.89449 -36.156052 4294967295
331.69366 112.23879 -38.480026 4294967295
331.73856 121.27432 -35.257965 4294967295
331.82669 115.50503 -38.282074 4294967295
331.87689 116.00114 -37.672085 4294967295
331.90302 106.60501 -39.228439 4294967295
331.95212 107.99689 -39.290829 4294967295
331.97397 117.44058 -36.842152 4294967295
331.99115 108.47949 -38.89024 4294967295
332.01215 118.37535 -36.782478 4294967295
332.02536 109.40889 -38.903706 4294967295
332.05576 118.86685 -36.29776 4294967295
332.07639 110.35258 -38.605545 4294967295
332.12567 111.74518 -38.664112 4294967295
332.13403 111.30245 -38.184692 4294967295
332.1377 120.29451 -35.751152 4294967295
332.18863 121.69154 -35.782158 4294967295
332.19016 112.70152 -38.117222 4294967295
332.19708 113.15739 -38.313072 4294967295
332.21854 105.12075 -40.914524 4294967295
332.23676 114.09212 -38.225708 4294967295
332.26923 105.61073 -40.300396 4294967295
332.27191 106.06357 -40.574093 4294967295
332.29764 122.25225 -34.083641 4294967295
332.3139 115.51082 -37.769024 4294967295
332.31674 114.61449 -37.069546 4294967295
332.32904 107.00996 -40.163109 4294967295
332.33615 115.08202 -37.03297 4294967295
332.35172 115.99525 -37.393387 4294967295
332.35504 106.57982 -39.360287 4294967295
332.52725 109.42467 -38.117687 4294967295
332.54648 110.79217 -38.730701 4294967295
332.60233 119.82957 -35.350918 4294967295
332.6423 120.31836 -34.936501 4294967295
332.69577 121.71882 -34.921299 4294967295
332.82516 115.98793 -37.142857 4294967295
332.89996 107.53049 -38.426601 4294967295
332.94489 108.46883 -38.24445 4294967295
332.97186 110.29361 -39.031235 4294967295
332.98911 109.40691 -38.074909 4294967295
333.02383 118.8727 -35.425774 4294967295
333.05182 119.79845 -35.554646 4294967295
333.06161 111.2702 -38.028561 4294967295
333.07339 110.82966 -37.493252 4294967295
333.09421 121.18707 -35.741352 4294967295
333.10428 112.65753 -38.207733 4294967295
333.13953 113.13844 -37.882378 4294967295
333.16962 114.06474 -37.972702 4294967295
333.18304 122.17421 -34.757153 4294967295
333.19012 105.12328 -39.917442 4294967295
333.19266 121.73511 -34.259182 4294967295
333.24368 105.61546 -39.259144 4294967295
333.2453 106.06801 -39.548553 4294967295
333.25455 115.49041 -37.380169 4294967295
333.28015 116.41276 -37.551807 4294967295
333.31592 106.57408 -38.580193 4294967295
333.31863 107.02756 -38.848618 4294967295
333.35135 117.37785 -36.892056 4294967295
333.35593 108.86084 -39.44289 4294967295
333.35693 107.509 -38.469719 4294967295
333.36679 107.968 -38.609108 4294967295
333.38812 116.96291 -35.901752 4294967295
333.39755 109.3454 -39.002823 4294967295
333.43304 117.90453 -35.721706 4294967295
333.45837 110.29671 -38.5336 4294967295
333.50461 119.77075 -35.694881 4294967295
333.5448 120.25924 -35.28265 4294967295
333.56598 121.17817 -35.534615 4294967295
333.58078 112.20224 -37.580315 4294967295
333.66156 122.17186 -34.434326 4294967295
333.66504 114.07671 -37.321785 4294967295
333.71811 106.96141 -39.928864 4294967295
333.73395 115.48828 -37.024086 4294967295
333.8797 118.77016 -36.604282 4294967295
333.97141 111.67336 -38.508881 4294967295
334.00018 120.68311 -35.692284 4294967295
334.02652 112.17055 -37.831017 4294967295
334.06158 113.55131 -38.145042 4294967295
334.09012 114.47602 -38.260956 4294967295
334.15134 106.47124 -40.072166 4294967295
284.00858 123.11791 -39.695454 4294967295
285.86084 123.03629 -39.699509 4294967295
287.26596 123.43762 -39.775391 4294967295
287.74066 123.45711 -39.07415 4294967295
289.11826 123.35989 -39.710175 4294967295
289.12512 122.96967 -38.356304 4294967295
290.05774 123.36179 -38.959549 4294967295
290.50513 123.29559 -39.767727 4294967295
290.98587 123.32801 -38.837494 4294967295
291.90826 123.278 -39.001125 4294967295
292.81903 123.19807 -39.693398 4294967295
293.29282 123.20775 -39.163445 4294967295
293.77036 123.22607 -38.480541 4294967295
294.22226 123.17816 -38.967674 4294967295
295.15186 123.14863 -38.770054 4294967295
296.08798 123.13431 -38.303741 4294967295
296.53076 123.06763 -39.12336 4294967295
296.9949 123.05152 -39.048637 4294967295
297.96078 123.1031 -37.415615 4294967295
298.87827 123.04487 -37.725933 4294967295
307.20749 123.12952 -38.006836 4294967295
298.52393 104.16628 -42.168846 4278255360
298.83075 100.84464 -43.376831 4278255360
298.83426 101.28876 -43.910816 4278255360
298.86203 101.76867 -43.514801 4278255360
298.88583 102.24272 -43.274956 4278255360
298.92221 103.17443 -43.21891 4278255360
298.97589 104.13303 -42.506672 4278255360
299.01141 105.06399 -42.484875 4278255360
299.33926 101.33434 -42.224789 4278255360
299.38785 102.28464 -41.714062 4278255360
299.74393 100.79533 -43.657959 4278255360
299.82422 101.78975 -41.976505 4278255360
299.84561 102.70023 -42.479137 4278255360
299.86914 103.61316 -42.901554 4278255360
299.89618 103.21415 -41.257191 4278255360
299.90427 104.10461 -42.2495 4278255360
299.9588 105.06487 -41.52636 4278255360
300.23029 100.81247 -42.700859 4278255360
300.27814 101.31999 -41.592571 4278255360
300.33377 103.16042 -42.114193 4278255360
300.39352 104.12746 -41.212383 4278255360
300.82767 103.18864 -40.923145 4278255360
300.8443 104.09297 -41.580551 4278255360
300.86951 105.00903 -41.931065 4278255360
301.29926 104.06488 -41.79216 4278255360
301.34045 105.00448 -41.571129 4278255360
301.80832 104.55482 -40.717571 4278255360
298.56305 105.10342 -42.006256 4278255360
302.29346 105.45065 -41.09576 4278255360
302.72418 105.38805 -42.124241 4278255360
299.61288 98.41391 -45.283115 4278255360
299.66016 99.358765 -44.821507 4278255360
300.51837 97.916611 -45.146053 4278255360
299.74393 100.79533 -43.657959 4278255360
299.82422 101.78975 -41.976505 4278255360
300.09326 97.539162 -43.240093 4278255360
300.1062 98.439346 -44.047901 4278255360
300.10986 98.002655 -43.273476 4278255360
300.15451 98.944977 -42.918179 4278255360
300.18515 99.427574 -42.435612 4278255360
300.23029 100.81247 -42.700859 4278255360
300.27814 101.31999 -41.592571 4278255360
301.0578 97.999107 -42.298801 4278255360
301.06183 98.446823 -42.778206 4278255360
299.66016 99.358765 -44.821507 4278255360
299.74393 100.79533 -43.657959 4278255360
299.82422 101.78975 -41.976505 4278255360
299.84561 102.70023 -42.479137 4278255360
299.89618 103.21415 -41.257191 4278255360
300.15451 98.944977 -42.918179 4278255360
300.18515 99.427574 -42.435612 4278255360
300.23029 100.81247 -42.700859 4278255360
300.27814 101.31999 -41.592571 4278255360
300.33377 103.16042 -42.114193 4278255360
300.82767 103.18864 -40.923145 4278255360
299.74393 100.79533 -43.657959 4278255360
299.82422 101.78975 -41.976505 4278255360
299.84561 102.70023 -42.479137 4278255360
299.86914 103.61316 -42.901554 4278255360
299.89618 103.21415 -41.257191 4278255360
299.90427 104.10461 -42.2495 4278255360
300.23029 100.81247 -42.700859 4278255360
300.27814 101.31999 -41.592571 4278255360
300.33377 103.16042 -42.114193 4278255360
300.39352 104.12746 -41.212383 4278255360
300.82767 103.18864 -40.923145 4278255360
300.8443 104.09297 -41.580551 4278255360
301.29926 104.06488 -41.79216 4278255360
299.82422 101.78975 -41.976505 4278255360
299.84561 102.70023 -42.479137 4278255360
299.86914 103.61316 -42.901554 4278255360
299.89618 103.21415 -41.257191 4278255360
299.90427 104.10461 -42.2495 4278255360
299.9588 105.06487 -41.52636 4278255360
300.33377 103.16042 -42.114193 4278255360
300.39352 104.12746 -41.212383 4278255360
300.82767 103.18864 -40.923145 4278255360
300.8443 104.09297 -41.580551 4278255360
300.86951 105.00903 -41.931065 4278255360
301.29926 104.06488 -41.79216 4278255360
301.34045 105.00448 -41.571129 4278255360
301.80832 104.55482 -40.717571 4278255360
299.51068 106.41735 -43.004181 4278255360
299.98019 106.41206 -42.670689 4278255360
300.47498 106.00709 -40.793762 4278255360
300.90121 105.93439 -42.048962 4278255360
301.38583 105.51112 -40.58522 4278255360
301.39273 106.40006 -41.578148 4278255360
301.86636 105.95982 -40.523998 4278255360
301.87518 106.41257 -40.826984 4278255360
302.29346 105.45065 -41.09576 4278255360
302.31284 105.91879 -41.032173 4278255360
302.72418 105.38805 -42.124241 4278255360
302.79498 106.37002 -40.906788 4278255360
303.26889 105.92797 -39.889095 4278255360
303.70496 105.87303 -40.726963 4278255360
304.19821 106.33952 -40.245018 4278255360
300.51837 97.916611 -45.146053 4278255360
300.92404 96.503845 -45.201832 4278255360
300.51465 97.028107 -44.019848 4278255360
300.96591 96.998123 -44.331116 4278255360
301.0578 97.999107 -42.298801 4278255360
301.06183 98.446823 -42.778206 4278255360
301.43411 96.546204 -43.421619 4278255360
301.89398 96.526848 -43.429043 4278255360
301.9277 97.011055 -42.864574 4278255360
302.35028 96.9468 -44.15868 4278255360
300.82767 103.18864 -40.923145 4278255360
300.8443 104.09297 -41.580551 4278255360
300.86951 105.00903 -41.931065 4278255360
301.29926 104.06488 -41.79216 4278255360
301.34045 105.00448 -41.571129 4278255360
301.80832 104.55482 -40.717571 4278255360
300.90121 105.93439 -42.048962 4278255360
301.38583 105.51112 -40.58522 4278255360
301.39273 106.40006 -41.578148 4278255360
301.86636 105.95982 -40.523998 4278255360
301.87518 106.41257 -40.826984 4278255360
302.29346 105.45065 -41.09576 4278255360
302.31284 105.91879 -41.032173 4278255360
302.72418 105.38805 -42.124241 4278255360
302.79498 106.37002 -40.906788 4278255360
303.26889 105.92797 -39.889095 4278255360
303.70496 105.87303 -40.726963 4278255360
304.19821 106.33952 -40.245018 4278255360
301.85516 96.036926 -44.173038 4278255360
301.89398 96.526848 -43.429043 4278255360
301.9277 97.011055 -42.864574 4278255360
302.35028 96.9468 -44.15868 4278255360
302.76334 95.541512 -43.967873 4278255360
302.79504 96.022224 -43.485172 4278255360
303.2244 95.523849 -43.926651 4278255360
303.25119 96.443054 -44.197525 4278255360
303.28351 96.035561 -42.533611 4278255360
303.71515 95.539215 -42.904072 4278255360
304.18591 95.531776 -42.55827 4278255360
304.21857 96.013367 -42.063435 4278255360
304.64029 96.397118 -43.86845 4278255360
305.10056 95.933266 -43.29649 4278255360
305.8905 106.06023 -44.969925 4278255360
301.80832 104.55482 -40.717571 4278255360
301.86636 105.95982 -40.523998 4278255360
301.87518 106.41257 -40.826984 4278255360
301.92822 107.37106 -40.197495 4278255360
302.29346 105.45065 -41.09576 4278255360
302.31284 105.91879 -41.032173 4278255360
302.34802 107.28938 -41.625717 4278255360
302.72418 105.38805 -42.124241 4278255360
302.79498 106.37002 -40.906788 4278255360
302.82303 107.29072 -41.143742 4278255360
303.26889 105.92797 -39.889095 4278255360
303.28848 106.83743 -40.407021 4278255360
303.29987 107.29427 -40.610218 4278255360
303.70496 105.87303 -40.726963 4278255360
304.19821 106.33952 -40.245018 4278255360
304.25516 107.30198 -39.528511 4278255360
305.15067 107.22508 -40.397064 4278255360
305.17743 106.82001 -38.988312 4278255360
306.04053 106.70085 -40.850285 4278255360
306.11938 107.24875 -38.945522 4278255360
302.76334 95.541512 -43.967873 4278255360
302.79504 96.022224 -43.485172 4278255360
303.2244 95.523849 -43.926651 4278255360
303.25119 96.443054 -44.197525 4278255360
303.28351 96.035561 -42.533611 4278255360
303.71515 95.539215 -42.904072 4278255360
304.18591 95.531776 -42.55827 4278255360
304.21857 96.013367 -42.063435 4278255360
304.64029 96.397118 -43.86845 4278255360
305.10056 95.933266 -43.29649 4278255360
306.53616 95.934525 -41.573944 4278255360
306.99173 96.357201 -42.251225 4278255360
307.00558 95.924667 -41.30162 4278255360
305.8905 106.06023 -44.969925 4278255360
307.21509 105.49335 -46.031631 4278255360
302.72418 105.38805 -42.124241 4278255360
302.79498 106.37002 -40.906788 4278255360
302.82303 107.29072 -41.143742 4278255360
303.26889 105.92797 -39.889095 4278255360
303.28848 106.83743 -40.407021 4278255360
303.29987 107.29427 -40.610218 4278255360
303.70496 105.87303 -40.726963 4278255360
304.19821 106.33952 -40.245018 4278255360
304.25516 107.30198 -39.528511 4278255360
305.15067 107.22508 -40.397064 4278255360
305.17743 106.82001 -38.988312 4278255360
306.04053 106.70085 -40.850285 4278255360
306.11938 107.24875 -38.945522 4278255360
306.59094 106.79936 -38.098671 4278255360
307.01117 106.28236 -38.827545 4278255360
307.02173 107.18243 -39.570625 4278255360
307.11496 105.97138 -35.143932 4278255360
304.09314 94.985435 -45.011978 4278255360
303.71515 95.539215 -42.904072 4278255360
304.18591 95.531776 -42.55827 4278255360
304.21857 96.013367 -42.063435 4278255360
304.57227 94.987625 -44.373775 4278255360
304.64029 96.397118 -43.86845 4278255360
305.03674 94.528 -43.660721 4278255360
305.04495 94.982567 -43.953571 4278255360
305.08148 95.467087 -43.348259 4278255360
305.10056 95.933266 -43.29649 4278255360
305.55444 95.461868 -42.936501 4278255360
305.96106 94.941299 -44.05064 4278255360
306.44095 94.943047 -43.424385 4278255360
306.5015 95.451714 -42.103027 4278255360
306.53616 95.934525 -41.573944 4278255360
306.9184 94.941887 -42.885376 4278255360
306.95053 95.421333 -42.440594 4278255360
306.99173 96.357201 -42.251225 4278255360
307.00558 95.924667 -41.30162 4278255360
307.82904 94.894913 -43.154381 4278255360
308.35205 95.385277 -41.809822 4278255360
308.40222 96.777596 -41.876263 4278255360
305.8905 106.06023 -44.969925 4278255360
307.21509 105.49335 -46.031631 4278255360
303.70496 105.87303 -40.726963 4278255360
304.19821 106.33952 -40.245018 4278255360
304.25516 107.30198 -39.528511 4278255360
305.15067 107.22508 -40.397064 4278255360
305.17743 106.82001 -38.988312 4278255360
306.04053 106.70085 -40.850285 4278255360
306.11938 107.24875 -38.945522 4278255360
306.59094 106.79936 -38.098671 4278255360
307.01117 106.28236 -38.827545 4278255360
307.02173 107.18243 -39.570625 4278255360
307.11496 105.97138 -35.143932 4278255360
307.89099 105.74519 -39.585621 4278255360
307.92661 106.67756 -39.567123 4278255360
307.95535 106.27004 -38.195229 4278255360
304.64029 96.397118 -43.86845 4278255360
305.10056 95.933266 -43.29649 4278255360
306.53616 95.934525 -41.573944 4278255360
306.99173 96.357201 -42.251225 4278255360
307.00558 95.924667 -41.30162 4278255360
308.40222 96.777596 -41.876263 4278255360
308.82233 96.271317 -42.528061 4278255360
308.8829 96.779076 -41.28162 4278255360
309.28363 95.805954 -41.987675 4278255360
309.37128 97.235558 -40.979412 4278255360
305.8905 106.06023 -44.969925 4278255360
307.21509 105.49335 -46.031631 4278255360
307.01117 106.28236 -38.827545 4278255360
307.11496 105.97138 -35.143932 4278255360
307.89099 105.74519 -39.585621 4278255360
307.95535 106.27004 -38.195229 4278255360
308.71103 105.13811 -42.039742 4278255360
308.83731 105.73566 -38.882568 4278255360
309.2265 106.07302 -41.453484 4278255360
309.2453 105.65185 -40.411243 4278255360
305.55444 95.461868 -42.936501 4278255360
305.96106 94.941299 -44.05064 4278255360
306.44095 94.943047 -43.424385 4278255360
306.5015 95.451714 -42.103027 4278255360
306.53616 95.934525 -41.573944 4278255360
306.9184 94.941887 -42.885376 4278255360
306.95053 95.421333 -42.440594 4278255360
306.99173 96.357201 -42.251225 4278255360
307.00558 95.924667 -41.30162 4278255360
307.82904 94.894913 -43.154381 4278255360
308.35205 95.385277 -41.809822 4278255360
308.40222 96.777596 -41.876263 4278255360
308.82233 96.271317 -42.528061 4278255360
308.8829 96.779076 -41.28162 4278255360
309.2016 95.279358 -43.83577 4278255360
309.28363 95.805954 -41.987675 4278255360
309.37128 97.235558 -40.979412 4278255360
309.68268 94.833054 -42.723633 4278255360
309.71188 95.756493 -42.886036 4278255360
309.79385 97.17897 -42.048878 4278255360
309.85321 97.685623 -40.864487 4278255360
310.13403 95.701927 -43.935654 4278255360
310.20938 96.221367 -42.313683 4278255360
310.26636 97.172119 -41.697723 4278255360
310.31772 98.11824 -41.237881 4278255360
309.96002 104.4834 -45.229755 4278255360
309.97644 104.94569 -45.258484 4278255360
305.8905 106.06023 -44.969925 4278255360
307.21509 105.49335 -46.031631 4278255360
307.01117 106.28236 -38.827545 4278255360
307.11496 105.97138 -35.143932 4278255360
307.89099 105.74519 -39.585621 4278255360
307.95535 106.27004 -38.195229 4278255360
308.71103 105.13811 -42.039742 4278255360
308.83731 105.73566 -38.882568 4278255360
309.2265 106.07302 -41.453484 4278255360
309.2453 105.65185 -40.411243 4278255360
309.66251 105.13626 -41.147949 4278255360
310.14377 105.58592 -41.050545 4278255360
310.19589 106.09224 -40.078495 4278255360
306.53616 95.934525 -41.573944 4278255360
306.99173 96.357201 -42.251225 4278255360
307.00558 95.924667 -41.30162 4278255360
308.40222 96.777596 -41.876263 4278255360
308.82233 96.271317 -42.528061 4278255360
308.8829 96.779076 -41.28162 4278255360
309.28363 95.805954 -41.987675 4278255360
309.37128 97.235558 -40.979412 4278255360
309.71188 95.756493 -42.886036 4278255360
309.79385 97.17897 -42.048878 4278255360
309.85321 97.685623 -40.864487 4278255360
310.13403 95.701927 -43.935654 4278255360
310.20938 96.221367 -42.313683 4278255360
310.26636 97.172119 -41.697723 4278255360
310.31772 98.11824 -41.237881 4278255360
310.6116 95.700111 -43.42598 4278255360
310.81241 99.028564 -41.251335 4278255360
311.12701 95.733002 -41.888466 4278255360
311.15613 96.208641 -41.568928 4278255360
311.16357 96.663986 -41.843819 4278255360
311.17081 97.118935 -42.124142 4278255360
311.21805 97.612373 -41.309074 4278255360
