# .PCD v0.7 - Point Cloud Data file format
VERSION 0.7
FIELDS x y z rgb
SIZE 4 4 4 4
TYPE F F F U
COUNT 1 1 1 1
WIDTH 1121
HEIGHT 1
VIEWPOINT 0 0 0 1 0 0 0
POINTS 1121
DATA ascii
297.03296 -19.225147 -78.303131 4294967295
297.03796 -28.960136 -81.01004 4294967295
297.07208 -28.061462 -80.996956 4294967295
297.07657 -17.854509 -78.587639 4294967295
297.10156 -27.149784 -81.165649 4294967295
297.13464 -17.012127 -77.64035 4294967295
297.13983 -26.759178 -80.333176 4294967295
297.15643 -26.308317 -80.344376 4294967295
297.16287 -16.588346 -77.199425 4294967295
297.18036 -25.877529 -80.069916 4294967295
297.18423 -25.391792 -80.57901 4294967295
297.21936 -24.991125 -79.869278 4294967295
297.23315 -24.532452 -79.991028 4294967295
297.25714 -24.101179 -79.715576 4294967295
297.27603 -23.161049 -80.297241 4294967295
297.31897 -22.779335 -79.284607 4294967295
297.33636 -22.330069 -79.266479 4294967295
297.35742 -31.599556 -81.970963 4294967295
297.36041 -21.898003 -78.990555 4294967295
297.37485 -31.151718 -81.950005 4294967295
297.37524 -21.441982 -79.072235 4294967295
297.3916 -30.701836 -81.956161 4294967295
297.39417 -20.996454 -78.995949 4294967295
297.40268 -30.235722 -82.181427 4294967295
297.40948 -20.541832 -79.057442 4294967295
297.444 -20.135727 -78.37532 4294967295
297.4483 -29.868408 -81.069534 4294967295
297.44852 -19.65361 -78.858017 4294967295
297.46542 -19.202917 -78.858757 4294967295
297.46945 -29.430607 -80.906479 4294967295
297.47324 -28.943851 -81.412376 4294967295
297.48816 -28.488659 -81.489021 4294967295
297.50165 -18.799957 -78.113907 4294967295
297.5181 -18.347988 -78.130043 4294967295
297.52798 -28.102879 -80.605247 4294967295
297.53879 -27.63607 -80.840149 4294967295
297.55316 -17.941284 -77.430801 4294967295
297.55737 -27.190878 -80.774811 4294967295
297.56479 -17.477001 -77.638931 4294967295
297.56921 -16.9958 -78.120407 4294967295
297.58273 -26.764133 -80.449074 4294967295
297.59311 -16.56151 -77.852234 4294967295
297.61392 -26.352882 -79.900635 4294967295
297.62216 -25.879219 -80.23436 4294967295
297.6293 -25.40287 -80.610123 4294967295
297.63086 -16.159845 -77.051804 4294967295
297.66177 -24.994429 -80.012886 4294967295
297.68149 -24.551729 -79.904541 4294967295
297.72052 -23.66493 -79.70488 4294967295
297.72565 -23.183918 -80.157043 4294967295
297.7522 -22.758732 -79.787926 4294967295
297.77768 -22.330379 -79.461571 4294967295
297.80063 -21.895435 -79.230118 4294967295
297.80505 -31.619263 -81.881485 4294967295
297.81714 -31.156054 -82.065369 4294967295
297.82855 -21.472881 -78.809372 4294967295
297.83643 -20.999371 -79.155907 4294967295
297.85648 -30.770456 -81.210266 4294967295
297.8623 -30.289478 -81.632133 4294967295
297.89911 -20.170067 -78.055969 4294967295
297.90704 -19.696833 -78.399925 4294967295
297.92145 -19.239765 -78.497147 4294967295
297.92917 -28.489471 -81.658356 4294967295
297.94974 -18.816719 -78.064194 4294967295
297.97119 -28.108908 -80.703552 4294967295
297.97162 -18.377806 -77.875259 4294967295
297.99219 -17.443863 -78.382996 4294967295
297.99878 -27.192261 -80.939911 4294967295
297.99899 -17.951933 -77.477791 4294967295
298.01837 -26.749668 -80.83847 4294967295
298.03513 -17.054838 -77.39386 4294967295
298.04376 -16.584028 -77.709839 4294967295
298.05637 -25.861246 -80.67836 4294967295
298.05719 -26.358564 -80.007278 4294967295
298.07492 -16.166252 -77.170158 4294967295
298.1142 -25.024588 -79.76989 4294967295
298.14026 -24.59824 -79.42392 4294967295
298.15625 -24.145325 -79.460892 4294967295
298.16394 -23.67112 -79.809662 4294967295
298.22076 -22.829258 -78.941872 4294967295
298.23184 -22.363903 -79.16198 4294967295
298.2594 -31.657795 -81.542175 4294967295
298.25989 -21.448395 -79.380722 4294967295
298.26413 -21.952097 -78.582588 4294967295
298.28751 -30.742851 -81.754898 4294967295
298.29636 -21.046574 -78.644684 4294967295
298.30963 -20.586838 -78.782471 4294967295
298.31546 -30.324165 -81.340027 4294967295
298.33701 -20.161819 -78.389664 4294967295
298.34952 -29.42572 -81.329285 4294967295
298.36389 -19.243299 -78.652542 4294967295
298.39673 -18.830841 -78.055649 4294967295
298.40179 -28.081085 -81.270584 4294967295
298.40695 -28.590715 -80.44455 4294967295
298.43906 -27.686157 -80.508987 4294967295
298.46677 -17.523336 -77.335739 4294967295
298.46732 -17.033728 -77.950485 4294967295
298.4679 -27.268185 -80.061569 4294967295
298.49557 -16.609163 -77.525284 4294967295
298.50146 -25.872688 -80.703819 4294967295
298.51291 -16.15876 -77.513687 4294967295
298.57278 -24.576172 -79.935806 4294967295
298.5835 -24.110149 -80.166412 4294967295
298.65063 -22.801128 -79.556412 4294967295
298.67868 -22.37851 -79.14399 4294967295
298.70532 -21.952162 -78.782852 4294967295
298.70944 -31.683908 -81.367645 4294967295
298.72144 -31.220634 -81.550179 4294967295
298.73138 -30.751873 -81.808151 4294967295
298.74817 -21.073015 -78.448212 4294967295
298.77637 -29.883612 -81.393982 4294967295
298.77841 -20.654564 -77.955811 4294967295
298.79468 -19.710335 -78.609032 4294967295
298.8017 -29.456905 -81.082504 4294967295
298.81964 -29.010071 -81.043297 4294967295
298.82748 -19.29756 -78.020744 4294967295
298.85577 -18.873594 -77.600067 4294967295
298.86078 -28.130249 -80.771744 4294967295
298.88202 -18.444378 -77.256805 4294967295
298.88666 -27.704189 -80.441147 4294967295
298.89627 -17.986877 -77.35601 4294967295
298.9104 -17.52911 -77.460892 4294967295
298.92764 -26.823114 -80.176125 4294967295
298.93475 -17.095043 -77.187881 4294967295
298.95029 -26.387936 -79.965729 4294967295
298.95255 -16.645647 -77.158173 4294967295
298.96582 -25.934248 -80.016251 4294967295
298.97327 -16.203115 -77.016922 4294967295
299.00137 -25.532074 -79.330429 4294967295
299.02347 -25.094805 -79.141838 4294967295
299.02576 -24.60722 -79.678986 4294967295
299.04343 -24.158915 -79.650635 4294967295
299.06223 -23.713326 -79.582336 4294967295
299.10062 -23.316578 -78.794586 4294967295
299.13586 -22.418787 -78.744034 4294967295
299.15472 -31.696415 -81.373672 4294967295
299.16122 -21.988792 -78.435387 4294967295
299.1676 -31.235889 -81.519852 4294967295
299.1745 -21.529154 -78.569489 4294967295
299.19028 -21.075714 -78.611267 4294967295
299.19214 -30.807062 -81.24263 4294967295
299.2045 -30.345152 -81.408279 4294967295
299.21426 -20.641945 -78.353775 4294967295
299.23447 -20.198969 -78.234451 4294967295
299.23471 -29.931545 -80.921265 4294967295
299.24426 -29.462051 -81.190216 4294967295
299.26294 -29.01726 -81.124008 4294967295
299.2822 -18.839235 -78.348305 4294967295
299.28412 -19.334494 -77.658081 4294967295
299.28415 -28.578964 -80.967331 4294967295
299.31839 -18.433252 -77.645004 4294967295
299.33099 -17.972149 -77.803986 4294967295
299.3443 -27.254303 -80.624512 4294967295
299.3468 -17.518595 -77.84491 4294967295
299.37497 -26.84004 -80.12368 4294967295
299.38315 -17.11179 -77.138504 4294967295
299.39465 -26.39707 -80.02346 4294967295
299.40506 -25.9305 -80.257767 4294967295
299.40536 -16.672569 -76.944992 4294967295
299.41138 -16.196598 -77.344452 4294967295
299.46548 -25.097479 -79.294456 4294967295
299.5148 -24.235184 -78.73494 4294967295
299.52875 -23.28507 -79.454788 4294967295
299.5816 -22.430674 -78.766594 4294967295
299.59393 -31.692608 -81.596161 4294967295
299.60345 -21.991844 -78.590805 4294967295
299.6153 -21.529016 -78.774094 4294967295
299.62622 -31.284731 -81.041695 4294967295
299.63275 -30.807175 -81.415436 4294967295
299.64407 -21.10673 -78.345505 4294967295
299.65076 -20.631721 -78.715034 4294967295
299.65662 -30.376263 -81.164581 4294967295
299.68323 -20.217541 -78.156891 4294967295
299.69241 -29.976818 -80.484863 4294967295
299.69653 -19.758167 -78.288651 4294967295
299.7016 -29.506548 -80.762329 4294967295
299.72607 -29.076641 -80.490021 4294967295
299.72644 -19.337566 -77.82074 4294967295
299.72955 -28.591797 -80.97113 4294967295
299.75824 -18.920872 -77.286133 4294967295
299.76306 -18.441956 -77.721863 4294967295
299.7713 -17.971161 -78.034698 4294967295
299.77969 -27.734459 -80.385956 4294967295
299.78589 -27.257072 -80.769928 4294967295
299.82089 -26.853437 -80.120796 4294967295
299.82211 -17.107399 -77.427246 4294967295
299.83224 -26.389286 -80.320473 4294967295
299.84027 -16.659012 -77.383362 4294967295
299.85135 -25.944855 -80.241821 4294967295
299.86444 -16.223837 -77.125107 4294967295
299.88272 -25.531033 -79.724701 4294967295
299.90805 -25.101833 -79.422806 4294967295
299.94434 -24.699348 -78.731262 4294967295
299.94934 -23.7278 -79.760788 4294967295
299.96082 -24.247692 -78.74691 4294967295
299.97601 -23.301201 -79.414017 4294967295
300.00571 -22.881733 -78.95768 4294967295
300.01935 -22.423382 -79.074646 4294967295
300.05118 -31.243114 -81.769745 4294967295
300.05429 -31.746071 -81.058945 4294967295
300.06409 -21.548225 -78.687195 4294967295
300.10507 -21.15416 -77.831207 4294967295
300.10938 -30.40876 -80.902237 4294967295
300.1272 -20.225006 -78.249451 4294967295
300.1319 -29.973667 -80.704254 4294967295
300.14963 -29.52599 -80.675522 4294967295
300.16312 -19.817913 -77.576263 4294967295
300.16742 -29.078503 -80.643829 4294967295
300.17191 -19.348263 -77.865082 4294967295
300.2038 -18.93132 -77.334885 4294967295
300.22253 -28.233501 -79.888016 4294967295
300.22324 -18.485844 -77.246246 4294967295
300.22495 -18.000444 -77.787018 4294967295
300.23318 -27.274628 -80.708511 4294967295
300.24161 -27.78878 -79.813187 4294967295
300.25348 -17.575333 -77.376534 4294967295
300.27173 -26.879204 -79.944077 4294967295
300.27417 -17.132582 -77.242905 4294967295
300.29816 -16.69681 -76.995369 4294967295
300.30322 -26.465538 -79.429039 4294967295
300.32901 -25.545134 -79.712662 4294967295
300.36703 -24.655056 -79.564117 4294967295
300.40802 -24.263069 -78.717087 4294967295
300.4115 -23.780191 -79.18959 4294967295
300.45172 -23.38549 -78.370789 4294967295
300.46899 -22.444851 -78.954597 4294967295
300.47586 -22.951975 -78.116714 4294967295
300.47931 -31.705086 -81.77446 4294967295
300.49203 -22.00877 -78.739227 4294967295
300.51157 -31.296185 -81.235222 4294967295
300.52118 -21.586674 -78.310974 4294967295
300.52985 -30.850288 -81.186142 4294967295
300.53516 -21.129082 -78.415001 4294967295
300.56384 -20.705593 -78.000801 4294967295
300.56686 -30.45294 -80.48246 4294967295
300.57056 -20.231289 -78.36013 4294967295
300.57724 -29.986132 -80.712112 4294967295
300.58871 -29.522493 -80.90097 4294967295
300.59052 -19.787411 -78.254974 4294967295
300.63177 -28.64665 -80.577103 4294967295
300.63327 -19.39502 -77.350128 4294967295
300.63522 -18.910278 -77.875023 4294967295
300.66702 -28.243145 -79.936409 4294967295
300.67001 -18.499168 -77.250641 4294967295
300.67621 -18.024237 -77.626358 4294967295
300.68384 -27.79283 -79.939728 4294967295
300.68454 -27.302299 -80.505569 4294967295
300.71255 -26.880028 -80.117844 4294967295
300.71939 -17.142488 -77.302879 4294967295
300.74335 -26.4643 -79.633347 4294967295
300.7681 -16.272215 -76.785484 4294967295
300.77368 -25.555279 -79.757111 4294967295
300.77914 -26.060356 -78.976013 4294967295
300.80359 -25.136662 -79.303925 4294967295
300.84015 -24.733681 -78.619598 4294967295
300.85275 -23.781824 -79.360855 4294967295
300.87009 -23.332596 -79.345184 4294967295
300.9151 -22.94817 -78.371017 4294967295
300.93234 -22.498253 -78.359558 4294967295
300.9404 -22.026995 -78.667374 4294967295
300.9527 -31.791935 -80.794609 4294967295
300.9559 -31.306625 -81.269127 4294967295
300.97281 -30.85709 -81.269241 4294967295
300.99951 -30.432711 -80.930435 4294967295
301.00537 -20.707514 -78.176941 4294967295
301.02216 -29.997831 -80.730339 4294967295
301.02722 -20.267855 -78.006927 4294967295
301.05246 -29.582012 -80.268631 4294967295
301.07208 -29.138912 -80.175293 4294967295
301.08209 -19.412933 -77.282646 4294967295
301.08939 -28.689991 -80.161118 4294967295
301.09238 -18.947132 -77.511826 4294967295
301.11295 -28.256561 -79.932404 4294967295
301.12241 -27.788113 -80.188339 4294967295
301.12289 -18.037725 -77.628311 4294967295
301.15411 -27.374563 -79.679291 4294967295
301.16788 -26.916725 -79.787399 4294967295
301.18677 -16.712795 -77.178307 4294967295
301.194 -17.216042 -76.345573 4294967295
301.20499 -26.515688 -79.093918 4294967295
301.21027 -16.275444 -76.955048 4294967295
301.21701 -25.562504 -79.843231 4294967295
301.21732 -26.054247 -79.251099 4294967295
301.24265 -25.133286 -79.543381 4294967295
301.28116 -24.734325 -78.802681 4294967295
301.28671 -24.257015 -79.192505 4294967295
301.31064 -23.823088 -78.952583 4294967295
301.34821 -23.42075 -78.245407 4294967295
301.36978 -22.491018 -78.666656 4294967295
301.37186 -31.737171 -81.69265 4294967295
301.39377 -31.300697 -81.521133 4294967295
301.41559 -21.617104 -78.257706 4294967295
301.42728 -21.154566 -78.436829 4294967295
301.43912 -30.431168 -81.126717 4294967295
301.46362 -20.747433 -77.774536 4294967295
301.46729 -30.009985 -80.742416 4294967295
301.48642 -20.309612 -77.57431 4294967295
301.50052 -29.601227 -80.184883 4294967295
301.51831 -29.153343 -80.157013 4294967295
301.5213 -19.409824 -77.540894 4294967295
301.522 -28.670715 -80.606644 4294967295
301.53558 -18.953041 -77.631371 4294967295
301.56339 -28.28124 -79.772697 4294967295
301.57614 -18.553406 -76.826317 4294967295
301.58893 -27.852184 -79.48024 4294967295
301.61002 -17.650759 -76.828278 4294967295
301.63098 -17.20801 -76.692154 4294967295
301.63287 -26.976212 -79.136742 4294967295
301.64087 -16.741671 -76.933914 4294967295
301.65601 -26.540771 -78.926155 4294967295
301.6604 -26.060392 -79.35199 4294967295
301.67953 -25.615543 -79.274559 4294967295
301.71478 -25.208355 -78.655258 4294967295
301.71811 -24.725967 -79.115738 4294967295
301.75266 -24.31665 -78.519379 4294967295
301.77679 -23.882664 -78.276733 4294967295
301.80472 -22.9678 -78.476562 4294967295
301.81665 -22.50589 -78.644608 4294967295
301.87137 -31.395769 -80.42717 4294967295
301.88132 -21.673855 -77.606247 4294967295
301.8829 -30.932491 -80.607414 4294967295
301.89456 -21.214668 -77.731003 4294967295
301.91843 -30.037235 -80.550064 4294967295
301.93738 -20.332592 -77.429413 4294967295
301.95486 -19.882732 -77.411652 4294967295
301.95807 -29.152063 -80.353508 4294967295
301.9729 -28.697128 -80.423538 4294967295
301.98087 -18.963608 -77.678314 4294967295
302.01428 -28.306728 -79.601883 4294967295
302.0318 -18.098175 -77.103897 4294967295
302.03903 -27.384624 -79.907021 4294967295
302.04868 -17.646832 -77.107216 4294967295
302.0806 -26.993404 -79.080688 4294967295
302.08173 -17.229607 -76.565353 4294967295
302.08228 -26.506899 -79.591728 4294967295
302.11578 -16.327148 -76.56163 4294967295
302.12775 -26.124157 -78.63385 4294967295
302.13123 -25.642067 -79.084976 4294967295
302.19012 -24.309807 -78.812347 4294967295
302.23318 -23.919041 -77.940269 4294967295
302.24472 -23.455976 -78.120651 4294967295
302.27264 -23.030079 -77.75383 4294967295
302.27469 -31.795063 -81.268677 4294967295
302.30652 -22.128342 -77.754059 4294967295
302.33514 -30.962345 -80.38176 4294967295
302.33685 -21.707165 -77.307602 4294967295
302.33813 -21.221573 -77.83049 4294967295
302.35333 -30.515739 -80.338593 4294967295
302.36618 -30.055885 -80.47422 4294967295
302.37207 -20.807919 -77.264671 4294967295
302.37802 -20.332924 -77.631226 4294967295
302.4101 -19.914745 -77.12706 4294967295
302.41138 -29.184017 -80.095413 4294967295
302.43469 -18.992706 -77.436142 4294967295
302.44153 -19.494736 -76.645218 4294967295
302.48239 -27.392256 -79.984413 4294967295
302.4873 -27.894342 -79.26004 4294967295
302.49951 -18.155771 -76.409943 4294967295
302.50726 -17.685104 -76.715958 4294967295
302.51743 -26.985062 -79.383308 4294967295
302.53421 -16.768234 -76.946503 4294967295
302.54184 -26.552406 -79.135345 4294967295
302.54382 -17.274551 -76.065689 4294967295
302.58356 -16.383362 -75.873947 4294967295
302.58377 -25.670481 -78.868507 4294967295
302.59976 -25.217836 -78.900681 4294967295
302.62265 -24.781067 -78.703873 4294967295
302.64819 -24.350212 -78.418808 4294967295
302.70197 -23.005178 -78.319763 4294967295
302.73111 -31.836 -80.897926 4294967295
302.75574 -31.405504 -80.643532 4294967295
302.78406 -30.983702 -80.270035 4294967295
302.79242 -21.251984 -77.574135 4294967295
302.80832 -30.551891 -80.027359 4294967295
302.81247 -20.807796 -77.471786 4294967295
302.82419 -20.345669 -77.642792 4294967295
302.84991 -29.180277 -80.325607 4294967295
302.85358 -29.679577 -79.652481 4294967295
302.86667 -19.9492 -76.804832 4294967295
302.89059 -19.512774 -76.575859 4294967295
302.91373 -28.351635 -79.344193 4294967295
302.91986 -18.600384 -76.72934 4294967295
302.93713 -27.916685 -79.132339 4294967295
302.94946 -18.175402 -76.315186 4294967295
302.96774 -27.008505 -79.239227 4294967295
302.97766 -26.542109 -79.467575 4294967295
302.98917 -17.284441 -76.1259 4294967295
303.00812 -26.123161 -79.024292 4294967295
303.01529 -16.851639 -75.825768 4294967295
303.03253 -16.400631 -75.816277 4294967295
303.06833 -24.793495 -78.716492 4294967295
303.09338 -24.361237 -78.452232 4294967295
303.11993 -23.932076 -78.139771 4294967295
303.12399 -23.452911 -78.55838 4294967295
303.16818 -23.062429 -77.67144 4294967295
303.17035 -22.579201 -78.152695 4294967295
303.17151 -31.837036 -81.055893 4294967295
303.20172 -22.159935 -77.683258 4294967295
303.20779 -31.43483 -80.425766 4294967295
303.21478 -21.700743 -77.808777 4294967295
303.2403 -31.022793 -79.92067 4294967295
303.24237 -21.272751 -77.46376 4294967295
303.27386 -20.852886 -76.991104 4294967295
303.27875 -29.643745 -80.317711 4294967295
303.28403 -30.146675 -79.59893 4294967295
303.29001 -20.400116 -77.016388 4294967295
303.31268 -29.234245 -79.766495 4294967295
303.33685 -28.801352 -79.531204 4294967295
303.33746 -19.526203 -76.578018 4294967295
303.35184 -18.583296 -77.210442 4294967295
303.35419 -28.352139 -79.518867 4294967295
303.35486 -19.075861 -76.563217 4294967295
303.35828 -27.872215 -79.93306 4294967295
303.39056 -27.457766 -79.437088 4294967295
303.39508 -18.186142 -76.360611 4294967295
303.4115 -17.733665 -76.378235 4294967295
303.41391 -27.022434 -79.22905 4294967295
303.44049 -16.821072 -76.536911 4294967295
303.45306 -17.332203 -75.581421 4294967295
303.46359 -26.157949 -78.718155 4294967295
303.47729 -25.700165 -78.823334 4294967295
303.48798 -16.430784 -75.550461 4294967295
303.52399 -24.828098 -78.408752 4294967295
303.57764 -23.482742 -78.316483 4294967295
303.60715 -23.059471 -77.913002 4294967295
303.64111 -31.909203 -80.27137 4294967295
303.67712 -31.014874 -80.200943 4294967295
303.68988 -21.775463 -76.887642 4294967295
303.69235 -21.293497 -77.353745 4294967295
303.702 -30.094059 -80.487274 4294967295
303.70905 -30.600803 -79.719879 4294967295
303.716 -20.856663 -77.138931 4294967295
303.73624 -29.685188 -79.931717 4294967295
303.74805 -29.223326 -80.094849 4294967295
303.75421 -20.450232 -76.456284 4294967295
303.76733 -28.778986 -80.018875 4294967295
303.7735 -19.517281 -76.926071 4294967295
303.7999 -28.365265 -79.518936 4294967295
303.81055 -19.107445 -76.282867 4294967295
303.82254 -18.645983 -76.440948 4294967295
303.82666 -27.448908 -79.744843 4294967295
303.82718 -18.169565 -76.836761 4294967295
303.83401 -27.954639 -78.970543 4294967295
303.85431 -17.738987 -76.510109 4294967295
303.86377 -27.044678 -79.10186 4294967295
303.87714 -17.29941 -76.323288 4294967295
303.88647 -26.607571 -78.91626 4294967295
303.90335 -16.866489 -76.026962 4294967295
303.91617 -16.406818 -76.159515 4294967295
303.91632 -26.186249 -78.504364 4294967295
303.93268 -25.734451 -78.52298 4294967295
303.9682 -24.837036 -78.471786 4294967295
303.99338 -24.404663 -78.208633 4294967295
304.00372 -23.939745 -78.417519 4294967295
304.04742 -23.547054 -77.568222 4294967295
304.05222 -23.070194 -77.952347 4294967295
304.08527 -31.429218 -80.846283 4294967295
304.08878 -22.661282 -77.331436 4294967295
304.112 -22.223667 -77.132271 4294967295
304.11435 -31.008417 -80.461502 4294967295
304.12805 -21.770832 -77.159515 4294967295
304.15329 -21.337154 -76.897331 4294967295
304.18802 -29.223721 -80.268349 4294967295
304.21448 -20.005051 -76.570404 4294967295
304.23215 -28.836422 -79.409653 4294967295
304.2399 -28.365387 -79.698578 4294967295
304.24261 -19.576601 -76.217453 4294967295
304.24847 -19.102692 -76.568405 4294967295
304.27011 -27.945572 -79.279404 4294967295
304.27643 -18.673618 -76.220901 4294967295
304.29028 -27.502731 -79.17691 4294967295
304.30267 -27.042353 -79.319839 4294967295
304.30887 -18.253239 -75.732185 4294967295
304.3237 -26.60141 -79.189728 4294967295
304.33017 -17.325134 -76.130478 4294967295
304.33868 -26.146904 -79.250877 4294967295
304.36447 -25.716293 -78.971542 4294967295
304.40097 -25.308779 -78.357513 4294967295
304.40536 -24.831039 -78.750412 4294967295
304.44772 -24.435627 -77.952385 4294967295
304.47092 -23.998442 -77.755302 4294967295
304.5145 -23.117443 -77.452164 4294967295
304.52432 -22.651569 -77.674866 4294967295
304.53964 -22.197369 -77.7258 4294967295
304.5433 -31.472546 -80.442284 4294967295
304.57263 -21.780001 -77.223747 4294967295
304.58307 -21.315619 -77.426605 4294967295
304.59097 -30.605328 -80.009384 4294967295
304.60992 -30.160229 -79.945122 4294967295
304.6312 -29.720291 -79.8097 4294967295
304.63608 -29.242966 -80.184113 4294967295
304.64182 -20.464596 -76.650146 4294967295
304.67218 -20.040653 -76.230721 4294967295
304.67993 -28.85429 -79.344246 4294967295
304.69183 -19.594751 -76.146362 4294967295
304.69742 -19.120502 -76.502388 4294967295
304.71478 -18.670132 -76.488571 4294967295
304.74585 -18.246702 -76.049904 4294967295
304.74783 -27.054321 -79.336929 4294967295
304.7547 -27.557457 -78.596725 4294967295
304.78116 -17.831402 -75.476936 4294967295
304.80396 -16.906473 -75.824196 4294967295
304.81479 -25.739174 -78.834099 4294967295
304.81549 -26.228161 -78.285172 4294967295
304.82739 -16.46744 -75.622559 4294967295
304.85715 -25.343887 -78.044174 4294967295
304.85956 -24.862049 -78.49456 4294967295
304.88846 -24.437187 -78.123085 4294967295
304.89804 -23.970963 -78.351364 4294967295
304.94308 -23.093395 -78.005035 4294967295
304.97931 -22.682909 -77.408615 4294967295
305.00748 -22.255329 -77.060577 4294967295
305.03647 -31.107275 -79.486572 4294967295
305.03928 -21.834923 -76.600563 4294967295
305.05063 -30.651009 -79.57019 4294967295
305.05621 -21.383642 -76.602036 4294967295
305.06152 -20.908775 -76.962013 4294967295
305.0741 -30.215931 -79.368286 4294967295
305.07877 -29.7381 -79.7453 4294967295
305.10138 -29.300987 -79.569908 4294967295
305.1134 -28.839981 -79.720993 4294967295
305.1185 -20.053078 -76.24794 4294967295
305.13919 -19.609098 -76.134338 4294967295
305.16858 -27.499926 -79.583939 4294967295
305.17093 -27.992561 -78.992065 4294967295
305.19043 -27.060749 -79.431854 4294967295
305.211 -18.295914 -75.488937 4294967295
305.22665 -17.841675 -75.530502 4294967295
305.24811 -17.398781 -75.391373 4294967295
305.25119 -26.218868 -78.605133 4294967295
305.27747 -25.78862 -78.317513 4294967295
305.29199 -25.332897 -78.392494 4294967295
305.33563 -24.452633 -78.092285 4294967295
305.35428 -24.005646 -78.039612 4294967295
305.38293 -23.579529 -77.680084 4294967295
305.40332 -23.135941 -77.574387 4294967295
305.44373 -31.032885 -80.655792 4294967295
305.46252 -22.286194 -76.800209 4294967295
305.4881 -21.852619 -76.537003 4294967295
305.4986 -21.388329 -76.734818 4294967295
305.51965 -30.228813 -79.37059 4294967295
305.51968 -20.460495 -77.126144 4294967295
305.52231 -29.746731 -79.805588 4294967295
305.55707 -20.050133 -76.501579 4294967295
305.57892 -28.409998 -79.62648 4294967295
305.58008 -19.610815 -76.317558 4294967295
305.58185 -28.903955 -79.022255 4294967295
305.58505 -19.136066 -76.682739 4294967295
305.62769 -27.542606 -79.171959 4294967295
305.64026 -18.759377 -75.516617 4294967295
305.64984 -18.293484 -75.741943 4294967295
305.6499 -17.809439 -76.25795 4294967295
305.65475 -27.11441 -78.863846 4294967295
305.66879 -26.657932 -78.951408 4294967295
305.70114 -26.240753 -78.482346 4294967295
305.70584 -16.948669 -75.586151 4294967295
305.73779 -25.832214 -77.884644 4294967295
305.7381 -16.525845 -75.121674 4294967295
305.75009 -25.371778 -78.025108 4294967295
305.78207 -24.46664 -78.082321 4294967295
305.82104 -24.06184 -77.414322 4294967295
305.82812 -23.590618 -77.713531 4294967295
305.86157 -23.173759 -77.213631 4294967295
305.89258 -31.542301 -80.032082 4294967295
305.89661 -22.759714 -76.666245 4294967295
305.91269 -22.306795 -76.69313 4294967295
305.92264 -31.122112 -79.636139 4294967295
305.92297 -21.842247 -76.894897 4294967295
305.92572 -21.362869 -77.322998 4294967295
305.95425 -30.705128 -79.192825 4294967295
305.96954 -20.965328 -76.512527 4294967295
305.97324 -30.259617 -79.130524 4294967295
305.97934 -29.785488 -79.45639 4294967295
306.0094 -28.877262 -79.568993 4294967295
306.01511 -20.085823 -76.160767 4294967295
306.04755 -19.180368 -76.204407 4294967295
306.05084 -28.480648 -78.832123 4294967295
306.08646 -18.28726 -76.054657 4294967295
306.103 -27.619587 -78.28125 4294967295
306.10336 -27.133587 -78.7798 4294967295
306.11877 -26.680191 -78.8237 4294967295
306.13123 -17.888681 -75.217926 4294967295
306.13315 -17.408537 -75.671677 4294967295
306.15991 -26.281174 -78.096466 4294967295
306.16736 -16.989376 -75.152405 4294967295
306.18506 -25.847738 -77.852478 4294967295
306.20129 -25.395731 -77.871964 4294967295
306.20615 -16.57823 -74.496994 4294967295
306.24533 -24.515446 -77.567535 4294967295
306.246 -24.031301 -78.054596 4294967295
306.2901 -23.636101 -77.242126 4294967295
306.3024 -23.175762 -77.381752 4294967295
306.32068 -22.727741 -77.340057 4294967295
306.33755 -31.554581 -80.041458 4294967295
306.35568 -31.107513 -80.005188 4294967295
306.35602 -22.31369 -76.790665 4294967295
306.35886 -21.834557 -77.212372 4294967295
306.38223 -21.396339 -77.020813 4294967295
306.39059 -30.697609 -79.469101 4294967295
306.39716 -30.224861 -79.776604 4294967295
306.43848 -20.538074 -76.353256 4294967295
306.43991 -29.344528 -79.511497 4294967295
306.47208 -28.927528 -79.05867 4294967295
306.48914 -19.18396 -76.359772 4294967295
306.49741 -19.683777 -75.608246 4294967295
306.51453 -18.748705 -76.109741 4294967295
306.51773 -28.052555 -78.706993 4294967295
306.53421 -27.601299 -78.720428 4294967295
306.55524 -18.3423 -75.402122 4294967295
306.56726 -27.185186 -78.240959 4294967295
306.56757 -26.699772 -78.733856 4294967295
306.57913 -17.903702 -75.196121 4294967295
306.58624 -17.43363 -75.489433 4294967295
306.63147 -17.03434 -74.650436 4294967295
306.64044 -25.880306 -77.577072 4294967295
306.64169 -16.570072 -74.850243 4294967295
306.65048 -25.415258 -77.78244 4294967295
306.67303 -24.976246 -77.614433 4294967295
306.67639 -24.497803 -78.016663 4294967295
306.72586 -24.113174 -77.054779 4294967295
306.73532 -23.162323 -77.777588 4294967295
306.79309 -22.793056 -76.569611 4294967295
306.80652 -31.620024 -79.343521 4294967295
306.81586 -22.353401 -76.398407 4294967295
306.82297 -30.681934 -79.854935 4294967295
306.82919 -21.410816 -77.005508 4294967295
306.83643 -21.909321 -76.29158 4294967295
306.85471 -30.264406 -79.418617 4294967295
306.85571 -29.779943 -79.886742 4294967295
306.86801 -21.002281 -76.361115 4294967295
306.88101 -20.543509 -76.4767 4294967295
306.88611 -29.359173 -79.490143 4294967295
306.91138 -28.927101 -79.244415 4294967295
306.92172 -20.137894 -75.77655 4294967295
306.931 -28.48278 -79.165085 4294967295
306.94534 -19.699112 -75.580803 4294967295
306.95618 -19.235962 -75.761871 4294967295
306.96048 -28.059353 -78.795013 4294967295
306.96716 -27.587582 -79.095619 4294967295
306.99506 -18.342367 -75.615685 4294967295
307.00128 -27.173424 -78.590965 4294967295
307.02036 -17.906349 -75.370209 4294967295
307.02802 -26.258123 -78.799057 4294967295
307.03775 -26.763733 -78.017853 4294967295
307.06091 -17.01528 -75.175797 4294967295
307.07938 -25.878674 -77.789391 4294967295
307.10138 -16.606388 -74.485283 4294967295
307.11185 -25.459625 -77.33654 4294967295
307.12973 -24.525904 -77.802185 4294967295
307.1319 -25.015255 -77.243652 4294967295
307.16956 -24.121071 -77.134216 4294967295
307.1781 -23.653481 -77.379311 4294967295
307.22092 -31.564909 -80.249466 4294967295
307.22476 -23.261578 -76.510521 4294967295
307.22766 -22.782772 -76.921158 4294967295
307.26312 -22.368038 -76.380486 4294967295
307.29099 -30.257671 -79.685684 4294967295
307.29239 -21.456688 -76.516159 4294967295
307.30606 -20.9993 -76.611267 4294967295
307.32397 -29.842293 -79.21727 4294967295
307.33984 -29.389986 -79.248108 4294967295
307.34274 -28.910257 -79.655548 4294967295
307.34311 -20.586554 -76.025444 4294967295
307.37167 -20.157236 -75.687325 4294967295
307.4006 -28.060856 -78.956711 4294967295
307.40921 -27.593361 -79.198593 4294967295
307.40991 -19.262415 -75.5616 4294967295
307.43405 -18.34129 -75.84716 4294967295
307.46445 -17.914532 -75.456856 4294967295
307.46472 -27.223103 -78.079346 4294967295
307.48355 -26.291393 -78.514908 4294967295
307.49484 -17.005037 -75.559723 4294967295
307.49954 -25.839211 -78.541306 4294967295
307.54575 -16.614666 -74.572876 4294967295
307.54648 -25.449469 -77.672714 4294967295
307.5683 -24.524166 -78.020462 4294967295
307.57373 -25.019548 -77.37355 4294967295
307.62619 -23.670469 -77.326157 4294967295
307.65286 -22.754873 -77.534134 4294967295
307.66092 -23.254505 -76.812363 4294967295
307.67694 -31.601475 -79.935646 4294967295
307.69037 -22.34391 -76.94101 4294967295
307.70886 -21.896086 -76.894135 4294967295
307.72934 -21.451754 -76.794067 4294967295
307.7319 -30.747353 -79.325714 4294967295
307.75568 -30.311958 -79.128555 4294967295
307.7572 -21.021568 -76.478012 4294967295
307.77655 -29.384548 -79.500862 4294967295
307.784 -29.886072 -78.800156 4294967295
307.81638 -28.98259 -78.842575 4294967295
307.87418 -28.131845 -78.154297 4294967295
307.87704 -27.652512 -78.557205 4294967295
307.90692 -27.228668 -78.186241 4294967295
307.91266 -18.413021 -74.93203 4294967295
307.92676 -26.29948 -78.587776 4294967295
307.92694 -17.474077 -75.497864 4294967295
307.96405 -17.058681 -74.918686 4294967295
307.98083 -25.923901 -77.522751 4294967295
307.98895 -25.45557 -77.775635 4294967295
307.99573 -16.633085 -74.49691 4294967295
308.02081 -16.195517 -74.264252 4294967295
308.03101 -25.054897 -77.055801 4294967295
308.04889 -24.121719 -77.513962 4294967295
308.06223 -23.663967 -77.617462 4294967295
308.08881 -23.232044 -77.34111 4294967295
308.10968 -22.78882 -77.229202 4294967295
308.13974 -31.652309 -79.43219 4294967295
308.15149 -22.385685 -76.517876 4294967295
308.15918 -21.916988 -76.782242 4294967295
308.16992 -31.230591 -79.055161 4294967295
308.17691 -21.467487 -76.759903 4294967295
308.18591 -30.778639 -79.080315 4294967295
308.19513 -21.018845 -76.724243 4294967295
308.19879 -30.319984 -79.196518 4294967295
308.21033 -29.858685 -79.349495 4294967295
308.23865 -20.617474 -75.966034 4294967295
308.24997 -20.155663 -76.127518 4294967295
308.25079 -29.457863 -78.678711 4294967295
308.26544 -29.002913 -78.743607 4294967295
308.28781 -19.260374 -76.015724 4294967295
308.30231 -19.769585 -75.120346 4294967295
308.30695 -28.603367 -78.044815 4294967295
308.31012 -28.124718 -78.435646 4294967295
308.33786 -27.696438 -78.128204 4294967295
308.34567 -18.883545 -74.850906 4294967295
308.34897 -27.23423 -78.293259 4294967295
308.37961 -26.811392 -77.905121 4294967295
308.39111 -18.000727 -74.523605 4294967295
308.39133 -17.518929 -75.000641 4294967295
308.40588 -25.895304 -78.119415 4294967295
308.40921 -26.386263 -77.544998 4294967295
308.42838 -25.455845 -77.961983 4294967295
308.43451 -16.631821 -74.73848 4294967295
308.43839 -17.120602 -74.145226 4294967295
308.46313 -25.040337 -77.457504 4294967295
308.4729 -16.217482 -74.130524 4294967295
308.49054 -24.126373 -77.640701 4294967295
308.49283 -24.614586 -77.095772 4294967295
308.53427 -23.727448 -76.882568 4294967295
308.54874 -23.271751 -76.952881 4294967295
308.56934 -22.827858 -76.848999 4294967295
308.57535 -31.644541 -79.708176 4294967295
308.59137 -31.192833 -79.733704 4294967295
308.6153 -30.757824 -79.534943 4294967295
308.61639 -22.433947 -75.998352 4294967295
308.62494 -30.292812 -79.739494 4294967295
308.62808 -21.972759 -76.147255 4294967295
308.65976 -21.549099 -75.731483 4294967295
308.66629 -29.893793 -79.050171 4294967295
308.68292 -21.109287 -75.555801 4294967295
308.68494 -20.630169 -75.978577 4294967295
308.71228 -19.715618 -76.163986 4294967295
308.73004 -20.230564 -75.184685 4294967295
308.746 -19.294773 -75.691833 4294967295
308.77167 -28.169945 -77.990707 4294967295
308.78061 -18.875189 -75.194275 4294967295
308.79584 -27.249586 -78.262856 4294967295
308.79965 -27.741821 -77.679176 4294967295
308.80951 -17.963108 -75.335526 4294967295
308.81165 -18.44879 -74.798004 4294967295
308.82733 -26.828213 -77.854233 4294967295
308.85141 -17.555546 -74.634903 4294967295
308.8577 -26.40432 -77.476814 4294967295
308.86102 -25.926807 -77.859268 4294967295
308.88513 -17.133133 -74.163864 4294967295
308.88687 -25.493767 -77.608688 4294967295
308.89062 -16.661152 -74.486351 4294967295
308.9263 -25.086891 -76.978104 4294967295
308.9397 -24.145742 -77.552765 4294967295
309.01154 -23.316437 -76.491348 4294967295
309.0242 -22.857323 -76.610893 4294967295
309.03375 -31.200115 -79.809975 4294967295
309.05069 -31.720783 -78.867218 4294967295
309.05426 -30.757763 -79.71077 4294967295
309.05624 -21.951874 -76.662323 4294967295
309.05872 -22.439274 -76.119354 4294967295
309.06921 -21.493561 -76.772736 4294967295
309.07233 -30.310408 -79.677948 4294967295
309.09976 -29.882202 -79.384888 4294967295
309.10861 -21.083874 -76.146484 4294967295
309.14371 -29.487486 -78.631653 4294967295
309.14426 -29.004131 -79.086548 4294967295
309.14532 -20.186607 -76.067993 4294967295
309.17142 -19.751804 -75.814194 4294967295
309.19019 -28.612579 -78.279984 4294967295
309.20468 -19.329762 -75.358932 4294967295
309.21844 -18.872561 -75.448128 4294967295
309.22595 -28.199966 -77.756836 4294967295
309.23474 -27.733257 -77.982246 4294967295
309.24118 -18.431299 -75.287598 4294967295
309.2832 -26.861034 -77.577911 4294967295
309.28632 -18.029335 -74.50293 4294967295
309.29764 -17.567518 -74.661949 4294967295
309.3009 -25.928324 -78.026505 4294967295
309.32446 -16.651741 -74.859344 4294967295
309.32846 -25.498495 -77.731125 4294967295
309.33099 -17.144228 -74.205338 4294967295
309.3631 -24.598799 -77.710739 4294967295
309.39066 -24.168495 -77.415497 4294967295
309.4205 -23.742176 -77.058426 4294967295
309.43478 -23.286423 -77.131203 4294967295
309.45663 -22.844753 -76.995972 4294967295
309.4725 -31.684645 -79.520172 4294967295
309.49573 -22.434931 -76.384354 4294967295
309.50439 -21.968613 -76.612976 4294967295
309.52353 -30.820358 -79.044861 4294967295
309.52988 -21.533329 -76.375839 4294967295
309.54984 -30.389473 -78.786606 4294967295
309.56335 -21.112251 -75.920547 4294967295
309.59985 -20.696392 -75.380013 4294967295
309.60159 -29.041153 -78.758453 4294967295
309.60715 -29.53657 -78.140656 4294967295
309.6272 -20.263546 -75.094131 4294967295
309.65399 -19.347734 -75.290649 4294967295
309.66296 -18.882046 -75.512482 4294967295
309.67172 -27.728973 -78.225525 4294967295
309.67294 -28.215343 -77.726051 4294967295
309.67834 -18.427914 -75.555168 4294967295
309.69916 -27.299204 -77.937271 4294967295
309.70444 -26.826038 -78.257324 4294967295
309.72656 -17.54973 -75.163048 4294967295
309.73062 -18.037971 -74.582184 4294967295
309.75189 -17.112591 -74.931824 4294967295
309.76562 -25.978092 -77.506256 4294967295
309.76654 -26.463263 -77.016663 4294967295
309.78839 -25.538631 -77.346207 4294967295
309.80206 -16.717627 -74.017685 4294967295
309.82169 -25.119047 -76.898193 4294967295
309.8252 -24.64278 -77.266373 4294967295
309.83725 -24.182888 -77.399986 4294967295
309.87396 -23.769144 -76.858932 4294967295
309.87579 -23.29019 -77.272881 4294967295
309.91705 -22.884418 -76.606705 4294967295
309.93445 -31.732067 -79.062393 4294967295
309.93698 -22.438946 -76.524651 4294967295
309.96521 -22.008526 -76.216049 4294967295
309.99094 -30.878178 -78.443329 4294967295
309.99686 -21.584038 -75.814056 4294967295
310.01126 -21.128155 -75.884003 4294967295
310.01678 -30.44593 -78.200485 4294967295
310.02744 -20.675436 -75.906326 4294967295
310.07074 -28.617466 -78.574692 4294967295
310.0824 -29.124424 -77.796097 4294967295
310.10214 -19.363565 -75.255684 4294967295
310.11264 -28.216328 -77.894791 4294967295
310.11554 -18.905865 -75.352539 4294967295
310.1265 -27.759844 -77.978943 4294967295
310.12827 -27.280022 -78.39093 4294967295
310.15771 -18.498098 -74.665268 4294967295
310.16693 -18.033028 -74.876488 4294967295
310.17416 -26.885704 -77.602692 4294967295
310.17987 -17.574423 -74.987167 4294967295
310.19843 -26.449173 -77.4039 4294967295
310.20477 -25.978371 -77.691147 4294967295
310.20996 -17.145159 -74.629211 4294967295
310.22647 -25.53681 -77.562576 4294967295
310.25305 -16.737469 -73.918747 4294967295
310.26593 -16.278582 -74.030281 4294967295
310.27881 -24.670307 -77.060471 4294967295
310.28189 -25.158777 -76.517426 4294967295
310.29959 -24.22665 -76.956688 4294967295
310.30359 -23.751875 -77.307846 4294967295
310.36121 -23.375994 -76.205582 4294967295
310.37106 -31.727276 -79.298584 4294967295
310.37152 -22.430952 -76.843872 4294967295
310.3815 -31.264359 -79.472565 4294967295
310.38754 -22.942047 -75.951141 4294967295
310.42056 -22.038046 -75.974945 4294967295
310.44742 -30.428902 -78.606422 4294967295
310.4621 -29.974255 -78.66748 4294967295
310.46964 -29.505644 -78.919464 4294967295
310.4725 -21.167717 -75.488388 4294967295
310.5015 -29.085014 -78.516312 4294967295
310.51852 -28.634987 -78.514206 4294967295
310.52237 -20.293037 -75.056992 4294967295
310.53989 -19.361418 -75.499954 4294967295
310.54718 -19.85519 -74.845245 4294967295
310.57675 -28.265099 -77.401031 4294967295
310.59048 -27.808277 -77.487518 4294967295
310.59186 -18.970434 -74.555756 4294967295
310.59583 -18.496344 -74.907158 4294967295
310.60831 -18.037155 -75.026848 4294967295
310.6315 -26.920746 -77.295242 4294967295
310.66745 -17.176319 -74.349159 4294967295
310.68286 -16.72192 -74.390488 4294967295
310.69278 -16.258366 -74.580994 4294967295
310.70593 -25.130573 -77.115417 4294967295
310.72278 -24.679686 -77.117638 4294967295
310.78256 -23.343756 -76.877731 4294967295
310.79993 -23.857437 -75.957062 4294967295
310.83835 -22.481529 -76.290085 4294967295
310.84195 -22.969769 -75.739136 4294967295
310.86777 -31.359749 -78.372208 4294967295
310.88083 -22.076042 -75.606964 4294967295
310.89127 -21.613144 -75.781555 4294967295
310.89987 -21.147137 -76.005264 4294967295
310.91696 -30.00592 -78.415115 4294967295
310.91769 -30.49107 -77.943489 4294967295
310.93918 -20.254208 -75.860878 4294967295
310.94144 -29.57049 -78.2136 4294967295
310.95074 -29.105362 -78.417068 4294967295
310.98111 -19.846237 -75.193039 4294967295
310.98434 -28.687515 -77.97097 4294967295
311.004 -19.404882 -75.035576 4294967295
311.0043 -28.242931 -77.890625 4294967295
311.03915 -27.343979 -77.864326 4294967295
311.04034 -18.505928 -74.970535 4294967295
311.04184 -27.831865 -77.342461 4294967295
311.04312 -18.99128 -74.44252 4294967295
311.08722 -18.104801 -74.172394 4294967295
311.09937 -26.492691 -77.162384 4294967295
311.10522 -17.174442 -74.598465 4294967295
311.13474 -26.076431 -76.671982 4294967295
311.14288 -16.277122 -74.499237 4294967295
311.14447 -16.759583 -74.004303 4294967295
311.15082 -25.623922 -76.695175 4294967295
311.1731 -24.700832 -77.00415 4294967295
311.22153 -24.307507 -76.167717 4294967295
311.23395 -23.84827 -76.287163 4294967295
311.26709 -22.463646 -76.756561 4294967295
311.26877 -31.767931 -79.103264 4294967295
311.28046 -31.307701 -79.240982 4294967295
311.29306 -22.991339 -75.618179 4294967295
311.32013 -30.902603 -78.640083 4294967295
311.32184 -22.079563 -75.755753 4294967295
311.34457 -29.98415 -78.887512 4294967295
311.34744 -21.643513 -75.526718 4294967295
311.34778 -30.473545 -78.356003 4294967295
311.37875 -21.217344 -75.145149 4294967295
311.39471 -29.11558 -78.456665 4294967295
311.40448 -20.300154 -75.363419 4294967295
311.40482 -29.618073 -77.743134 4294967295
311.40997 -28.662182 -78.501091 4294967295
311.43439 -19.870953 -75.020737 4294967295
311.4437 -19.406399 -75.222855 4294967295
311.47235 -27.815931 -77.74791 4294967295
311.47379 -18.977133 -74.876205 4294967295
311.49564 -27.377499 -77.579575 4294967295
311.50781 -18.074085 -74.8741 4294967295
311.51178 -26.925495 -77.60067 4294967295
311.51859 -18.572346 -74.140358 4294967295
311.52692 -17.626047 -74.817566 4294967295
311.5448 -17.175934 -74.793625 4294967295
311.56137 -25.57169 -77.633224 4294967295
311.56445 -26.541489 -76.658936 4294967295
311.57083 -26.0711 -76.936714 4294967295
311.57877 -16.752134 -74.345306 4294967295
311.60641 -16.31769 -74.063812 4294967295
311.61102 -25.181032 -76.771706 4294967295
311.61261 -24.702305 -77.175613 4294967295
311.65903 -24.304907 -76.399979 4294967295
311.68988 -23.878899 -76.034317 4294967295
311.70685 -22.946625 -76.479309 4294967295
311.70819 -23.430191 -75.998764 4294967295
311.71674 -31.303207 -79.474503 4294967295
311.7262 -31.805073 -78.78241 4294967295
311.73343 -22.512636 -76.226685 4294967295
311.77432 -30.932903 -78.408188 4294967295
311.7753 -21.624426 -76.017487 4294967295
311.77625 -30.453588 -78.801392 4294967295
311.77878 -22.111319 -75.481415 4294967295
311.80521 -30.026886 -78.485062 4294967295
311.80692 -21.198635 -75.633438 4294967295
311.81815 -29.569065 -78.589828 4294967295
311.83365 -20.764153 -75.377228 4294967295
311.83649 -20.288649 -75.747444 4294967295
311.8493 -29.14609 -78.218094 4294967295
311.88232 -19.886433 -74.990944 4294967295
311.88251 -28.726755 -77.792068 4294967295
311.90088 -19.437611 -74.94899 4294967295
311.91473 -18.980875 -75.030174 4294967295
311.92136 -28.317673 -77.219543 4294967295
311.9223 -27.837044 -77.637291 4294967295
311.94739 -18.555452 -74.620209 4294967295
311.9505 -26.925642 -77.784508 4294967295
311.96527 -27.435146 -76.957031 4294967295
311.98044 -26.499132 -77.446098 4294967295
311.98486 -18.137709 -74.083626 4294967295
311.99106 -17.668079 -74.366089 4294967295
311.99976 -26.052977 -77.383644 4294967295
312.01181 -25.593578 -77.50988 4294967295
312.02097 -16.757956 -74.472321 4294967295
312.03278 -25.150318 -77.40535 4294967295
312.03391 -17.258541 -73.689934 4294967295
312.0509 -16.327124 -74.133446 4294967295
312.09921 -24.788868 -76.115173 4294967295
312.11597 -23.856197 -76.562408 4294967295
312.15228 -22.958633 -76.499939 4294967295
312.16968 -31.814447 -78.830299 4294967295
312.19376 -22.550577 -75.861389 4294967295
312.19379 -31.378483 -78.643066 4294967295
312.2099 -22.098011 -75.88237 4294967295
312.24289 -30.507647 -78.248093 4294967295
312.25745 -30.05294 -78.308937 4294967295
312.26419 -29.583467 -78.571808 4294967295
312.28531 -29.141323 -78.462822 4294967295
312.30081 -20.812691 -74.843079 4294967295
312.32147 -20.367317 -74.748276 4294967295
312.34244 -28.76667 -77.423134 4294967295
312.34363 -19.444504 -75.052719 4294967295
312.35397 -19.94186 -74.344833 4294967295
312.3631 -28.323067 -77.326973 4294967295
312.38904 -18.560425 -74.756027 4294967295
312.39178 -27.89436 -77.022499 4294967295
312.40039 -19.059036 -74.021606 4294967295
312.40851 -27.443268 -77.02816 4294967295
312.41898 -18.13006 -74.420212 4294967295
312.4306 -26.520309 -77.333603 4294967295
312.43942 -17.683994 -74.330231 4294967295
312.47009 -26.110737 -76.750076 4294967295
312.48499 -17.278435 -73.590607 4294967295
312.48825 -25.662086 -76.719208 4294967295
312.50519 -16.352329 -73.947266 4294967295
312.52756 -24.770184 -76.578629 4294967295
312.55704 -24.341496 -76.255745 4294967295
312.56998 -23.402824 -76.795937 4294967295
312.60043 -31.79949 -79.201202 4294967295
312.61096 -22.993881 -76.176361 4294967295
312.62885 -22.544514 -76.15168 4294967295
312.65918 -31.430187 -78.126526 4294967295
312.66879 -30.483551 -78.74894 4294967295
312.66992 -22.134863 -75.531738 4294967295
312.6712 -21.65686 -75.93457 4294967295
312.68777 -31.002289 -77.826729 4294967295
312.7182 -29.612864 -78.349396 4294967295
312.73001 -20.79649 -75.296227 4294967295
312.7319 -30.120907 -77.564674 4294967295
312.76083 -20.368454 -74.938309 4294967295
312.76831 -28.742809 -77.932579 4294967295
312.77896 -29.24477 -77.225006 4294967295
312.78445 -19.927975 -74.768219 4294967295
312.81326 -19.495975 -74.464478 4294967295
312.82248 -28.361458 -76.977509 4294967295
312.84579 -19.069767 -74.066574 4294967295
312.84586 -18.590313 -74.500381 4294967295
312.86676 -26.997454 -77.145462 4294967295
312.87048 -26.52298 -77.483025 4294967295
312.8869 -18.17774 -73.882164 4294967295
312.89169 -26.080109 -77.374527 4294967295
312.91647 -17.746101 -73.559547 4294967295
312.94525 -17.312962 -73.256912 4294967295
312.9519 -25.225843 -76.700974 4294967295
312.9545 -16.848488 -73.455368 4294967295
312.96725 -16.389647 -73.564949 4294967295
312.99463 -24.339764 -76.475098 4294967295
312.99475 -24.820766 -76.039169 4294967295
313.03967 -23.457218 -76.191956 4294967295
313.05704 -23.006973 -76.180954 4294967295
313.0975 -22.596272 -75.580856 4294967295
313.09814 -31.430813 -78.291794 4294967295
313.10562 -30.962753 -78.531853 4294967295
313.11649 -30.501207 -78.686623 4294967295
313.12857 -22.169029 -75.221313 4294967295
313.1521 -21.248734 -75.487396 4294967295
313.16718 -20.794308 -75.5354 4294967295
313.16992 -30.119747 -77.757431 4294967295
313.18256 -29.661386 -77.866539 4294967295
313.19598 -29.204544 -77.955772 4294967295
313.21939 -28.76613 -77.792213 4294967295
313.22916 -20.417881 -74.387924 4294967295
313.23502 -19.947765 -74.672157 4294967295
313.27109 -28.379492 -76.909935 4294967295
313.27594 -27.906803 -77.216156 4294967295
313.27652 -27.426579 -77.631233 4294967295
313.29559 -18.608572 -74.427383 4294967295
313.31625 -27.017206 -77.053452 4294967295
313.33914 -18.199614 -73.752121 4294967295
313.34753 -26.111282 -77.119476 4294967295
313.35065 -26.597893 -76.610077 4294967295
313.37488 -17.777676 -73.274712 4294967295
313.39545 -25.715553 -76.334198 4294967295
313.41861 -16.88872 -73.028229 4294967295
313.42325 -24.803017 -76.488846 4294967295
313.42648 -16.422188 -73.26001 4294967295
313.43039 -24.335175 -76.735939 4294967295
313.49457 -23.485552 -75.971893 4294967295
313.5007 -23.016029 -76.245163 4294967295
313.51138 -31.865047 -78.675446 4294967295
313.52225 -31.403639 -78.827744 4294967295
313.55426 -22.147316 -75.747971 4294967295
313.56195 -30.996502 -78.253769 4294967295
313.5802 -30.548882 -78.219818 4294967295
313.59265 -30.090412 -78.332245 4294967295
313.60178 -21.267567 -75.406296 4294967295
313.61432 -21.768288 -74.661659 4294967295
313.62686 -20.829777 -75.200653 4294967295
313.63702 -29.209518 -78.067093 4294967295
313.65143 -28.754665 -78.130905 4294967295
313.6658 -20.414547 -74.646576 4294967295
313.68765 -19.970898 -74.524368 4294967295
313.70389 -28.368927 -77.238327 4294967295
313.72522 -27.926311 -77.127968 4294967295
313.73758 -19.093399 -74.122223 4294967295
313.74463 -18.625755 -74.371422 4294967295
313.76743 -27.52104 -76.493637 4294967295
313.77832 -18.200624 -73.95163 4294967295
313.78052 -27.063335 -76.590263 4294967295
313.78519 -26.590815 -76.897614 4294967295
313.7948 -26.127254 -77.08078 4294967295
313.80084 -17.757534 -73.812515 4294967295
313.81519 -17.301472 -73.878906 4294967295
313.83487 -25.236759 -76.926476 4294967295
313.83594 -25.718925 -76.475815 4294967295
313.84689 -16.872547 -73.509354 4294967295
313.85562 -24.792641 -76.831657 4294967295
313.86066 -16.415592 -73.589218 4294967295
313.87842 -24.352114 -76.683533 4294967295
313.92227 -23.947273 -76.011543 4294967295
313.95419 -31.873619 -78.733963 4294967295
313.96768 -23.06472 -75.722939 4294967295
313.97037 -23.549248 -75.231552 4294967295
313.99484 -22.151169 -75.891647 4294967295
314.02029 -31.033783 -77.928497 4294967295
314.04712 -21.758713 -75.00885 4294967295
314.07077 -30.163803 -77.514709 4294967295
314.07141 -21.319321 -74.826645 4294967295
314.0795 -29.217194 -78.14151 4294967295
314.08585 -20.863695 -74.889587 4294967295
314.09692 -20.402683 -75.03598 4294967295
314.11652 -19.955467 -74.971405 4294967295
314.12042 -28.810448 -77.543442 4294967295
