# .PCD v0.7 - Point Cloud Data file format
VERSION 0.7
FIELDS x y z rgb
SIZE 4 4 4 4
TYPE F F F U
COUNT 1 1 1 1
WIDTH 1121
HEIGHT 1
VIEWPOINT 0 0 0 1 0 0 0
POINTS 1121
DATA ascii
83.401207 -65.710579 -86.849449 4294967295
83.417145 -63.471409 -86.41423 4294967295
83.421486 -64.806046 -86.762283 4294967295
83.45192 -66.12265 -87.272964 4294967295
83.453308 -63.893894 -86.74707 4294967295
83.454216 -58.98476 -85.57505 4294967295
83.466095 -55.848721 -84.89875 4294967295
83.490952 -56.727901 -85.268654 4294967295
83.50383 -62.077881 -86.634796 4294967295
83.520966 -57.603336 -85.670914 4294967295
83.525719 -56.259754 -85.378998 4294967295
83.535416 -58.041168 -85.868423 4294967295
83.541847 -60.715576 -86.551254 4294967295
83.549286 -57.139217 -85.740814 4294967295
83.550705 -54.903358 -85.213478 4294967295
83.567459 -53.103985 -84.888969 4294967295
83.568916 -59.359882 -86.399261 4294967295
83.577042 -51.755531 -84.626877 4294967295
83.577995 -58.461441 -86.241829 4294967295
83.592804 -52.641567 -84.940269 4294967295
83.593544 -51.298187 -84.622765 4294967295
83.607101 -50.394684 -84.492744 4294967295
83.614304 -55.312248 -85.718727 4294967295
83.619125 -53.520863 -85.319725 4294967295
83.632362 -54.407372 -85.617188 4294967295
83.659531 -52.154984 -85.250664 4294967295
83.668633 -53.938679 -85.736954 4294967295
83.669701 -49.910904 -84.777428 4294967295
83.801254 -66.208801 -86.567863 4294967295
83.803413 -65.761742 -86.474174 4294967295
83.857193 -60.373878 -85.523277 4294967295
83.88092 -65.265129 -86.852188 4294967295
83.88546 -64.37088 -86.666138 4294967295
83.885574 -60.802414 -85.808578 4294967295
83.886505 -62.586681 -86.24369 4294967295
83.888756 -63.477146 -86.472359 4294967295
83.917908 -61.228233 -86.118492 4294967295
83.934204 -56.751881 -85.146362 4294967295
83.940033 -55.854149 -84.967796 4294967295
83.942978 -63.887772 -86.919075 4294967295
83.944099 -62.99556 -86.711655 4294967295
83.955093 -59.865837 -86.029396 4294967295
83.967796 -58.518444 -85.786842 4294967295
83.970009 -62.08717 -86.659492 4294967295
84.005577 -55.367401 -85.271324 4294967295
84.006615 -57.601189 -85.815346 4294967295
84.012589 -57.15081 -85.745316 4294967295
84.013412 -58.043613 -85.965408 4294967295
84.0355 -52.218147 -84.705811 4294967295
84.039261 -56.240932 -85.697624 4294967295
84.052795 -53.997597 -85.244881 4294967295
84.056755 -50.862633 -84.516266 4294967295
84.086693 -51.740604 -84.91951 4294967295
84.089127 -53.081486 -85.257675 4294967295
84.089691 -54.42271 -85.583893 4294967295
84.098717 -52.628502 -85.210236 4294967295
84.1064 -50.386166 -84.720184 4294967295
84.130112 -53.504429 -85.622406 4294967295
84.134575 -49.92218 -84.789368 4294967295
84.146576 -51.25819 -85.187775 4294967295
84.297806 -65.752167 -86.675758 4294967295
84.302673 -63.074284 -86.061317 4294967295
84.310509 -63.515194 -86.218033 4294967295
84.314674 -62.174355 -85.921501 4294967295
84.324814 -66.625084 -87.060059 4294967295
84.338234 -63.943008 -86.499596 4294967295
84.350357 -65.271973 -86.898148 4294967295
84.362694 -61.697472 -86.115402 4294967295
84.369774 -57.227612 -85.082977 4294967295
84.371147 -67.039383 -87.458138 4294967295
84.37439 -64.36512 -86.834045 4294967295
84.377541 -64.808609 -86.961296 4294967295
84.383316 -57.666161 -85.275917 4294967295
84.40007 -60.335083 -86.02739 4294967295
84.402771 -59.440636 -85.82901 4294967295
84.403099 -66.127808 -87.443886 4294967295
84.408051 -62.560352 -86.615379 4294967295
84.427292 -58.532314 -85.767799 4294967295
84.432274 -59.868481 -86.122047 4294967295
84.435051 -56.293732 -85.277847 4294967295
84.440262 -61.201916 -86.49501 4294967295
84.445618 -55.393253 -85.128616 4294967295
84.459023 -58.959019 -86.074844 4294967295
84.510132 -50.880577 -84.455399 4294967295
84.511383 -54.90649 -85.434448 4294967295
84.519554 -51.770462 -84.730675 4294967295
84.526222 -55.791363 -85.743294 4294967295
84.527946 -51.31794 -84.675491 4294967295
84.530281 -53.55378 -85.229797 4294967295
84.533661 -49.971287 -84.387543 4294967295
84.543663 -54.440048 -85.529594 4294967295
84.606972 -50.376774 -84.957054 4294967295
84.729637 -65.78389 -86.485062 4294967295
84.7733 -64.863861 -86.544342 4294967295
84.787971 -63.071201 -86.205536 4294967295
84.79306 -67.077713 -87.2071 4294967295
84.804955 -64.397461 -86.63575 4294967295
84.815079 -62.607746 -86.268318 4294967295
84.826569 -62.154373 -86.232826 4294967295
84.828072 -60.368767 -85.810699 4294967295
84.842728 -65.263618 -87.088898 4294967295
84.848434 -61.248253 -86.154831 4294967295
84.865341 -57.219444 -85.289703 4294967295
84.869904 -59.003216 -85.750458 4294967295
84.871536 -59.894966 -85.976608 4294967295
84.873505 -61.678257 -86.420456 4294967295
84.888802 -57.651718 -85.545555 4294967295
84.894791 -59.434013 -86.015121 4294967295
84.897964 -56.752552 -85.387268 4294967295
84.899628 -55.857716 -85.181633 4294967295
84.901466 -58.090488 -85.733315 4294967295
84.907387 -56.299915 -85.3386 4294967295
84.912247 -58.530289 -85.909233 4294967295
84.913239 -60.760895 -86.454987 4294967295
84.925415 -54.947987 -85.128029 4294967295
84.945953 -54.488487 -85.149399 4294967295
84.950325 -50.458355 -84.20314 4294967295
84.955154 -55.37701 -85.423607 4294967295
84.985825 -50.885536 -84.535431 4294967295
84.999016 -52.667885 -85.051483 4294967295
84.999931 -49.981812 -84.407921 4294967295
85.006844 -51.320915 -84.776306 4294967295
85.01001 -53.555824 -85.337158 4294967295
85.015739 -52.210644 -85.048828 4294967295
85.028389 -51.755806 -85.020447 4294967295
85.050789 -53.978497 -85.7024 4294967295
85.054604 -53.08215 -85.5103 4294967295
85.175667 -67.142548 -86.707191 4294967295
85.195587 -63.564465 -85.968567 4294967295
85.201942 -66.234253 -86.65696 4294967295
85.218239 -63.103779 -86.003471 4294967295
85.234283 -65.767326 -86.75296 4294967295
85.245193 -62.194321 -85.957336 4294967295
85.250099 -61.745071 -85.880188 4294967295
85.253227 -63.972603 -86.440331 4294967295
85.253998 -65.308807 -86.769379 4294967295
85.286964 -67.512772 -87.516808 4294967295
85.287277 -58.150219 -85.249153 4294967295
85.291977 -67.954277 -87.656281 4294967295
85.309608 -64.826653 -87.012085 4294967295
85.311951 -62.597126 -86.486694 4294967295
85.327553 -59.464596 -85.828262 4294967295
85.331924 -55.441311 -84.881111 4294967295
85.346275 -55.879608 -85.080231 4294967295
85.351753 -54.982155 -84.89814 4294967295
85.354523 -56.321503 -85.240707 4294967295
85.363083 -56.763069 -85.403107 4294967295
85.365181 -58.994572 -85.957703 4294967295
85.388435 -59.872379 -86.320915 4294967295
85.400986 -54.058128 -84.992561 4294967295
85.401794 -51.373013 -84.346809 4294967295
85.417961 -57.62241 -85.9664 4294967295
85.425255 -51.80685 -84.60376 4294967295
85.428024 -57.169666 -85.921722 4294967295
85.437469 -53.589081 -85.114761 4294967295
85.47377 -50.883278 -84.693596 4294967295
85.484619 -54.45483 -85.629631 4294967295
85.495995 -53.106972 -85.376427 4294967295
85.50753 -52.20575 -85.23262 4294967295
85.551537 -49.942909 -84.968658 4294967295
85.561111 -50.38488 -85.137711 4294967295
85.6231 -67.163979 -86.614777 4294967295
85.656143 -62.685459 -85.740524 4294967295
85.678314 -68.016914 -87.180161 4294967295
85.709961 -66.660355 -87.055649 4294967295
85.72023 -63.981148 -86.471085 4294967295
85.73896 -61.2938 -85.939285 4294967295
85.741257 -65.749031 -87.037064 4294967295
85.743492 -64.856873 -86.834801 4294967295
85.750519 -59.501427 -85.578598 4294967295
85.751732 -66.187218 -87.211548 4294967295
85.761185 -61.72554 -86.1884 4294967295
85.766701 -60.829926 -86.006432 4294967295
85.770676 -59.042294 -85.597794 4294967295
85.77475 -65.281487 -87.140671 4294967295
85.791077 -63.489147 -86.81089 4294967295
85.793564 -57.688366 -85.41703 4294967295
85.799286 -58.577881 -85.670372 4294967295
85.811653 -62.138821 -86.616112 4294967295
85.824326 -56.775936 -85.394806 4294967295
85.824356 -55.435352 -85.069138 4294967295
85.845375 -56.316235 -85.419563 4294967295
85.85025 -54.972603 -85.124565 4294967295
85.87281 -59.870232 -86.461304 4294967295
85.877525 -50.930176 -84.318901 4294967295
85.905502 -53.598061 -85.148834 4294967295
85.912796 -55.828159 -85.738113 4294967295
85.926369 -52.691235 -85.063705 4294967295
85.99012 -53.994175 -85.793777 4294967295
86.000275 -49.96339 -84.879921 4294967295
86.098351 -68.501869 -87.023895 4294967295
86.122665 -68.040321 -87.069542 4294967295
86.132484 -64.471344 -86.263588 4294967295
86.137146 -64.022598 -86.184616 4294967295
86.159576 -67.570297 -87.194885 4294967295
86.162102 -66.67849 -86.994057 4294967295
86.16655 -65.785103 -86.805191 4294967295
86.173668 -62.215462 -85.981613 4294967295
86.181442 -67.110512 -87.225082 4294967295
86.181717 -60.425861 -85.597847 4294967295
86.185783 -63.544987 -86.384346 4294967295
86.196396 -63.092335 -86.343048 4294967295
86.198212 -60.861515 -85.811226 4294967295
86.205406 -61.748981 -86.074234 4294967295
86.213318 -62.635582 -86.341721 4294967295
86.21582 -58.172134 -85.270348 4294967295
86.242973 -66.179092 -87.398125 4294967295
86.260147 -59.037197 -85.769318 4294967295
86.270981 -59.476616 -85.946838 4294967295
86.275642 -54.560326 -84.779099 4294967295
86.278908 -56.792912 -85.344368 4294967295
86.279778 -59.917194 -86.111427 4294967295
86.281296 -57.684658 -85.577194 4294967295
86.281456 -55.003872 -84.924973 4294967295
86.319626 -58.553436 -86.038132 4294967295
86.322647 -61.227558 -86.709435 4294967295
86.349503 -51.832302 -84.594467 4294967295
86.372101 -50.476337 -84.410904 4294967295
86.379913 -52.708923 -85.00576 4294967295
86.380669 -55.390217 -85.664146 4294967295
86.380768 -50.91888 -84.575134 4294967295
86.391533 -54.043156 -85.406448 4294967295
86.39222 -57.169182 -86.172783 4294967295
86.397636 -50.01379 -84.464279 4294967295
86.399193 -52.25021 -85.019409 4294967295
86.420898 -53.578526 -85.484207 4294967295
86.422791 -55.81102 -86.04055 4294967295
86.548248 -68.076591 -86.839241 4294967295
86.57032 -64.94474 -86.217896 4294967295
86.57872 -67.165749 -86.815323 4294967295
86.596802 -64.035995 -86.16851 4294967295
86.60601 -65.811775 -86.662437 4294967295
86.645645 -61.329041 -85.825539 4294967295
86.646011 -60.882717 -85.718895 4294967295
86.646591 -63.111904 -86.267288 4294967295
86.660713 -60.427147 -85.703323 4294967295
86.665962 -67.551544 -87.478317 4294967295
86.679413 -68.431778 -87.781075 4294967295
86.718857 -64.400764 -87.053345 4294967295
86.73175 -62.164978 -86.591057 4294967295
86.738464 -62.60622 -86.742622 4294967295
86.740219 -59.484127 -85.991219 4294967295
86.741829 -56.358013 -85.2379 4294967295
86.744858 -54.568542 -84.820412 4294967295
86.750389 -57.692482 -85.619751 4294967295
86.751678 -59.030682 -85.955116 4294967295
86.766418 -61.696835 -86.702644 4294967295
86.769447 -58.573238 -85.959229 4294967295
86.805321 -54.084816 -85.096359 4294967295
86.806465 -58.103706 -86.085785 4294967295
86.828354 -57.197426 -86.00705 4294967295
86.834335 -54.960934 -85.499588 4294967295
86.83754 -56.745331 -85.956444 4294967295
86.843651 -50.035984 -84.356926 4294967295
86.856636 -52.712719 -85.095642 4294967295
86.869843 -55.832439 -85.944008 4294967295
86.885025 -50.459377 -84.73008 4294967295
86.891083 -53.586052 -85.533531 4294967295
86.892723 -51.796886 -85.107109 4294967295
86.895782 -52.242237 -85.235847 4294967295
86.911041 -51.33881 -85.114601 4294967295
86.966225 -50.859051 -85.357094 4294967295
87.025749 -68.96711 -87.156731 4294967295
87.059227 -67.609642 -87.042961 4294967295
87.061813 -65.382233 -86.514229 4294967295
87.067673 -67.158951 -86.987778 4294967295
87.071854 -69.379959 -87.559265 4294967295
87.079803 -62.251026 -85.864731 4294967295
87.082962 -64.477333 -86.430779 4294967295
87.083092 -64.031738 -86.322449 4294967295
87.08947 -65.808975 -86.799492 4294967295
87.09021 -66.698677 -87.022308 4294967295
87.092583 -64.916336 -86.601189 4294967295
87.109238 -66.240791 -87.034508 4294967295
87.121422 -61.778076 -86.020889 4294967295
87.124298 -62.667778 -86.257591 4294967295
87.128418 -68.007225 -87.592598 4294967295
87.139999 -58.643135 -85.374283 4294967295
87.151077 -57.743172 -85.226227 4294967295
87.15168 -63.095432 -86.541405 4294967295
87.154541 -59.080284 -85.576447 4294967295
87.1586 -61.308105 -86.148659 4294967295
87.175613 -59.513126 -85.820175 4294967295
87.200806 -60.835003 -86.308678 4294967295
87.241013 -58.13308 -85.909538 4294967295
87.250504 -59.911366 -86.407227 4294967295
87.266373 -55.438427 -85.415108 4294967295
87.275589 -50.066425 -84.159348 4294967295
87.289551 -56.317284 -85.782005 4294967295
87.295815 -56.759827 -85.931267 4294967295
87.302094 -57.202244 -86.080788 4294967295
87.312721 -53.175911 -85.16378 4294967295
87.317505 -54.066864 -85.413422 4294967295
87.324402 -51.380249 -84.800262 4294967295
87.33107 -52.270748 -85.061974 4294967295
87.346931 -54.495716 -85.710754 4294967295
87.351486 -55.832558 -86.067986 4294967295
87.352867 -52.704777 -85.31076 4294967295
87.354744 -51.809486 -85.10376 4294967295
87.355202 -53.597202 -85.544693 4294967295
87.370575 -50.905647 -84.985764 4294967295
87.4198 -50.429382 -85.190834 4294967295
87.444717 -68.563278 -86.774597 4294967295
87.458138 -67.664131 -86.641754 4294967295
87.467789 -67.212494 -86.594048 4294967295
87.510147 -65.848312 -86.536552 4294967295
87.510422 -65.40284 -86.428947 4294967295
87.528236 -66.726357 -86.870743 4294967295
87.532654 -68.058037 -87.226791 4294967295
87.538132 -64.493584 -86.387154 4294967295
87.562363 -68.92688 -87.634895 4294967295
87.565582 -69.813484 -87.873787 4294967295
87.57888 -66.247063 -87.084885 4294967295
87.582954 -63.572929 -86.454788 4294967295
87.586296 -63.125187 -86.366745 4294967295
87.597672 -69.346878 -87.969444 4294967295
87.620796 -62.656967 -86.477737 4294967295
87.625809 -62.20808 -86.400314 4294967295
87.630798 -63.986633 -86.869888 4294967295
87.634178 -58.188641 -85.467934 4294967295
87.634567 -60.865131 -86.127853 4294967295
87.673721 -61.731209 -86.597183 4294967295
87.686386 -58.601891 -85.911545 4294967295
87.687714 -57.708561 -85.70079 4294967295
87.689545 -59.492035 -86.150909 4294967295
87.69381 -60.3811 -86.397179 4294967295
87.719971 -55.455952 -85.358879 4294967295
87.726601 -55.005154 -85.291603 4294967295
87.730728 -51.873367 -84.549316 4294967295
87.747513 -54.545589 -85.315758 4294967295
87.749268 -56.777328 -85.875427 4294967295
87.753181 -59.005531 -86.44838 4294967295
87.753448 -50.070015 -84.255356 4294967295
87.779633 -53.63237 -85.301994 4294967295
87.792114 -51.389526 -84.832901 4294967295
87.813324 -56.291145 -86.175797 4294967295
87.841049 -52.701527 -85.475784 4294967295
87.847412 -52.250771 -85.40683 4294967295
87.901772 -50.877365 -85.425659 4294967295
87.912704 -50.423798 -85.385933 4294967295
87.950935 -67.654518 -86.839706 4294967295
87.963455 -69.424736 -87.357971 4294967295
87.974266 -68.972672 -87.317635 4294967295
87.978821 -63.628445 -86.031433 4294967295
87.983582 -66.297287 -86.720001 4294967295
87.987144 -67.184845 -86.961929 4294967295
87.990227 -66.737808 -86.87207 4294967295
88.008789 -65.835152 -86.77182 4294967295
88.020844 -68.495918 -87.506294 4294967295
88.031265 -64.929733 -86.696449 4294967295
88.0336 -68.042549 -87.478394 4294967295
88.057892 -61.793758 -86.099075 4294967295
88.061668 -69.800735 -88.095825 4294967295
88.073265 -61.337975 -86.087837 4294967295
88.095642 -63.996311 -86.88958 4294967295
88.111938 -60.867085 -86.226013 4294967295
88.11512 -63.092819 -86.795006 4294967295
88.126785 -58.627678 -85.771996 4294967295
88.166138 -55.478077 -85.254936 4294967295
88.167778 -59.493603 -86.254639 4294967295
88.169495 -59.938354 -86.37542 4294967295
88.175224 -57.258377 -85.753029 4294967295
88.181519 -57.700668 -85.90329 4294967295
88.195831 -50.541988 -84.234352 4294967295
88.19828 -59.028214 -86.340393 4294967295
88.202423 -54.115532 -85.1577 4294967295
88.205879 -60.360649 -86.718437 4294967295
88.224373 -52.761395 -84.968445 4294967295
88.257027 -50.058411 -84.517334 4294967295
88.258179 -52.294014 -85.075455 4294967295
88.259369 -58.097553 -86.512619 4294967295
88.2798 -53.174835 -85.434418 4294967295
88.284576 -55.851223 -86.124916 4294967295
88.294464 -51.378143 -85.088379 4294967295
88.321396 -54.489388 -86.031555 4294967295
88.334885 -53.588116 -85.898209 4294967295
88.350433 -51.791763 -85.557983 4294967295
88.365471 -67.698494 -86.536652 4294967295
88.370071 -50.88615 -85.463882 4294967295
88.383362 -68.575897 -86.871109 4294967295
88.434448 -68.985123 -87.308846 4294967295
88.449104 -68.08577 -87.18322 4294967295
88.454529 -62.294193 -85.788872 4294967295
88.46196 -66.297646 -86.826416 4294967295
88.465195 -66.740379 -86.956993 4294967295
88.472191 -65.845695 -86.782211 4294967295
88.478096 -64.506218 -86.490395 4294967295
88.482933 -70.284348 -87.949005 4294967295
88.494049 -69.388107 -87.800926 4294967295
88.500214 -61.818489 -85.972343 4294967295
88.514091 -63.59156 -86.501617 4294967295
88.522919 -62.694832 -86.338318 4294967295
88.52343 -69.811813 -88.099152 4294967295
88.538063 -61.348022 -86.10556 4294967295
88.549934 -65.348183 -87.171509 4294967295
88.556564 -57.767708 -85.343407 4294967295
88.566559 -58.653915 -85.627975 4294967295
88.575752 -64.885849 -87.227432 4294967295
88.580635 -63.9925 -87.039001 4294967295
88.591621 -63.094818 -86.889709 4294967295
88.596199 -60.864487 -86.369125 4294967295
88.619034 -56.389183 -85.414421 4294967295
88.645218 -57.265476 -85.80336 4294967295
88.645859 -58.157372 -86.027771 4294967295
88.650177 -55.030155 -85.284096 4294967295
88.654221 -59.935555 -86.522034 4294967295
88.658737 -55.917973 -85.559608 4294967295
88.670288 -56.803478 -85.854454 4294967295
88.682655 -60.362831 -86.814827 4294967295
88.686729 -55.454117 -85.629547 4294967295
88.714752 -54.543777 -85.589325 4294967295
88.732887 -54.086048 -85.595848 4294967295
88.738518 -52.29549 -85.190735 4294967295
88.739227 -51.84808 -85.084923 4294967295
88.753914 -53.179867 -85.510574 4294967295
88.754181 -50.944954 -84.960396 4294967295
88.775101 -51.379578 -85.205589 4294967295
88.789322 -50.029728 -84.965958 4294967295
88.79438 -53.601902 -85.881393 4294967295
88.802925 -52.703461 -85.71579 4294967295
88.856995 -70.357124 -87.388237 4294967295
88.865166 -67.239098 -86.67012 4294967295
88.908691 -63.648098 -86.068581 4294967295
88.92733 -69.419167 -87.620514 4294967295
88.944351 -62.733372 -86.077629 4294967295
88.949814 -64.511284 -86.553917 4294967295
88.956131 -61.834339 -85.932808 4294967295
88.957779 -68.509201 -87.596359 4294967295
88.958115 -64.060486 -86.497147 4294967295
88.965637 -62.273739 -86.104446 4294967295
88.976242 -67.607491 -87.495003 4294967295
88.998436 -65.368668 -87.087334 4294967295
89.002045 -66.255867 -87.330856 4294967295
89.003937 -65.809799 -87.232895 4294967295
89.041565 -58.211567 -85.600143 4294967295
89.065704 -59.088268 -85.976776 4294967295
89.081856 -63.087631 -87.073563 4294967295
89.102257 -56.388126 -85.54966 4294967295
89.111542 -60.841534 -86.713608 4294967295
89.113594 -53.701416 -84.959358 4294967295
89.12709 -60.385906 -86.703461 4294967295
89.143524 -57.700706 -86.147217 4294967295
89.14402 -59.929398 -86.702248 4294967295
89.146866 -50.551521 -84.399246 4294967295
89.152512 -55.463989 -85.652817 4294967295
89.16407 -59.470844 -86.721214 4294967295
89.170265 -52.773163 -85.103821 4294967295
89.170647 -57.237534 -86.211708 4294967295
89.191383 -55.88612 -86.014099 4294967295
89.197968 -54.989399 -85.835571 4294967295
89.199791 -53.202042 -85.405067 4294967295
89.258751 -54.059132 -86.006729 4294967295
89.266846 -69.960495 -86.945183 4294967295
89.268135 -54.499729 -86.177773 4294967295
89.321045 -69.477997 -87.184242 4294967295
89.32457 -68.141823 -86.875969 4294967295
89.335381 -70.35659 -87.497353 4294967295
89.356712 -69.008614 -87.303955 4294967295
89.356789 -68.564079 -87.194145 4294967295
89.367531 -64.10733 -86.15892 4294967295
89.382057 -66.323128 -86.805176 4294967295
89.388763 -64.983528 -86.517075 4294967295
89.390228 -65.872612 -86.747429 4294967295
89.40728 -67.639984 -87.299118 4294967295
89.412888 -67.191513 -87.224945 4294967295
89.416855 -62.292629 -86.035103 4294967295
89.452782 -63.604969 -86.598854 4294967295
89.462646 -63.153137 -86.551987 4294967295
89.466782 -65.375717 -87.131088 4294967295
89.47168 -61.810932 -86.278625 4294967295
89.484566 -58.235764 -85.47641 4294967295
89.4888 -59.12524 -85.72525 4294967295
89.489532 -60.016582 -85.951385 4294967295
89.491592 -62.688614 -86.628334 4294967295
89.507004 -64.458771 -87.169868 4294967295
89.517357 -60.889896 -86.352432 4294967295
89.537781 -57.75573 -85.709671 4294967295
89.544617 -59.535156 -86.196724 4294967295
89.564301 -55.060917 -85.216339 4294967295
89.565132 -60.413181 -86.550537 4294967295
89.594017 -52.808861 -84.854065 4294967295
89.607536 -52.353699 -84.830635 4294967295
89.613441 -56.815586 -85.977348 4294967295
89.618141 -56.366474 -85.897034 4294967295
89.622841 -57.255711 -86.14888 4294967295
89.625572 -50.554295 -84.503395 4294967295
89.62883 -54.574413 -85.522911 4294967295
89.658829 -50.08725 -84.607643 4294967295
89.679405 -55.43576 -86.071693 4294967295
89.691528 -50.962109 -85.04142 4294967295
89.696167 -54.086426 -85.84774 4294967295
89.706871 -53.186878 -85.695297 4294967295
89.721817 -53.624245 -85.902939 4294967295
89.747108 -69.069817 -86.844574 4294967295
89.756157 -66.839691 -86.349533 4294967295
89.756699 -69.507599 -87.017204 4294967295
89.778275 -51.357033 -85.714012 4294967295
89.794098 -70.369896 -87.480255 4294967295
89.794495 -69.925385 -87.372238 4294967295
89.802696 -66.362808 -86.539917 4294967295
89.811951 -68.135468 -87.042572 4294967295
89.814262 -68.578384 -87.168205 4294967295
89.851013 -65.88485 -86.741776 4294967295
89.857834 -67.214493 -87.11808 4294967295
89.867752 -67.652199 -87.292877 4294967295
89.876488 -64.9776 -86.68512 4294967295
89.887367 -65.415176 -86.866318 4294967295
89.89064 -64.077888 -86.55513 4294967295
89.895943 -62.738514 -86.256996 4294967295
89.916222 -62.279655 -86.277405 4294967295
89.920357 -61.831444 -86.193329 4294967295
89.928452 -63.607368 -86.689102 4294967295
89.945267 -59.140793 -85.68898 4294967295
89.951302 -58.24482 -85.506081 4294967295
89.957359 -63.142883 -86.76545 4294967295
89.975967 -64.465416 -87.218216 4294967295
89.978256 -56.889042 -85.347588 4294967295
89.982109 -55.547321 -85.039185 4294967295
89.983276 -59.562092 -86.04631 4294967295
89.997681 -55.091026 -85.029045 4294967295
89.999214 -60.4431 -86.371399 4294967295
90.020309 -56.416203 -85.509102 4294967295
90.027199 -53.285835 -84.775719 4294967295
90.038391 -55.958534 -85.515274 4294967295
90.042618 -59.969276 -86.541718 4294967295
90.084084 -57.71405 -86.255661 4294967295
90.11232 -53.680359 -85.439163 4294967295
90.147591 -50.531132 -84.889511 4294967295
90.148026 -52.765263 -85.448456 4294967295
90.150528 -54.549667 -85.909203 4294967295
90.165787 -52.307777 -85.452568 4294967295
90.173874 -54.088909 -85.949547 4294967295
90.178627 -51.406475 -85.3134 4294967295
90.206863 -68.638023 -86.721741 4294967295
90.222672 -69.071503 -86.935204 4294967295
90.235687 -50.925377 -85.572639 4294967295
90.252792 -51.80843 -85.906059 4294967295
90.255081 -65.045677 -86.14621 4294967295
90.260605 -69.933495 -87.402863 4294967295
90.282494 -69.473816 -87.433907 4294967295
90.291336 -67.245399 -86.936661 4294967295
90.315331 -66.784157 -86.981232 4294967295
90.315987 -65.894188 -86.763535 4294967295
90.32534 -66.332581 -86.935204 4294967295
90.3451 -64.539566 -86.619293 4294967295
90.379234 -63.626381 -86.618683 4294967295
90.388306 -67.622681 -87.676483 4294967295
90.396301 -64.059959 -86.840485 4294967295
90.408676 -62.271084 -86.476494 4294967295
90.412155 -56.919006 -85.163795 4294967295
90.412682 -56.472309 -85.055794 4294967295
90.421127 -65.377632 -87.334587 4294967295
90.422523 -59.142891 -85.787895 4294967295
90.45105 -57.786659 -85.63929 4294967295
90.451408 -60.906727 -86.420441 4294967295
90.452133 -58.67791 -85.86895 4294967295
90.475052 -63.117115 -87.129463 4294967295
90.4841 -62.666077 -87.077148 4294967295
90.484177 -55.534515 -85.297775 4294967295
90.491951 -61.770649 -86.905968 4294967295
90.493675 -53.742321 -84.913727 4294967295
90.498825 -57.310146 -85.838516 4294967295
90.518127 -51.93988 -84.626694 4294967295
90.529175 -58.18256 -86.258316 4294967295
90.530548 -54.166191 -85.265038 4294967295
90.530586 -59.518593 -86.601166 4294967295
90.545975 -53.263447 -85.142426 4294967295
90.553841 -59.948914 -86.863441 4294967295
90.558319 -52.362381 -84.999748 4294967295
90.565865 -52.804558 -85.160416 4294967295
90.569435 -55.034874 -85.740768 4294967295
90.587204 -54.577507 -85.74501 4294967295
90.587265 -51.004112 -84.853447 4294967295
90.628433 -50.53241 -85.009895 4294967295
90.631683 -55.888111 -86.368248 4294967295
90.686371 -69.525818 -87.060646 4294967295
90.740303 -70.375969 -87.63343 4294967295
90.744034 -50.016457 -85.650772 4294967295
90.746262 -68.594986 -87.227486 4294967295
90.753517 -65.032425 -86.384445 4294967295
90.770332 -66.355537 -86.827835 4294967295
90.774529 -68.130844 -87.300095 4294967295
90.783936 -67.679871 -87.250076 4294967295
90.791527 -63.671352 -86.297585 4294967295
90.80159 -65.44455 -86.80851 4294967295
90.822021 -67.208977 -87.386475 4294967295
90.824303 -63.204128 -86.399429 4294967295
90.829742 -61.864536 -86.100533 4294967295
90.836517 -68.975792 -87.92543 4294967295
90.837395 -62.750141 -86.373207 4294967295
90.850647 -57.838642 -85.232613 4294967295
90.857437 -58.726429 -85.500099 4294967295
90.871696 -58.271233 -85.481369 4294967295
90.880394 -60.048981 -85.984306 4294967295
90.885918 -60.936489 -86.24334 4294967295
90.89006 -56.4748 -85.154449 4294967295
90.890404 -59.596756 -85.938042 4294967295
90.900681 -64.487503 -87.230499 4294967295
90.903893 -64.040535 -87.140137 4294967295
90.909187 -65.815521 -87.619637 4294967295
90.920586 -56.901672 -85.465057 4294967295
90.923767 -62.247311 -86.824081 4294967295
90.946075 -60.451515 -86.523613 4294967295
90.954544 -59.109417 -86.244301 4294967295
90.958199 -57.323795 -85.821815 4294967295
91.007286 -55.954514 -85.806847 4294967295
91.027969 -53.71003 -85.38327 4294967295
91.064407 -55.472458 -86.067551 4294967295
91.070244 -54.576523 -85.882339 4294967295
91.07074 -55.022392 -85.997238 4294967295
91.074333 -51.448364 -85.126778 4294967295
91.081238 -52.337624 -85.39547 4294967295
91.085823 -51.888165 -85.31356 4294967295
91.120346 -50.973778 -85.315247 4294967295
91.132698 -54.091503 -86.177971 4294967295
91.135109 -50.518066 -85.299789 4294967295
91.163376 -69.970444 -87.273689 4294967295
91.163933 -53.17981 -86.158279 4294967295
91.241623 -65.915695 -86.780022 4294967295
91.252625 -68.574844 -87.520874 4294967295
91.265274 -69.454086 -87.826195 4294967295
91.26683 -69.008972 -87.724945 4294967295
91.271667 -66.339668 -87.087502 4294967295
91.278282 -61.885166 -86.014023 4294967295
91.278717 -65.000725 -86.798752 4294967295
91.294083 -65.434959 -87.010544 4294967295
91.314171 -60.970448 -86.02478 4294967295
91.319962 -67.639275 -87.7369 4294967295
91.333145 -66.741592 -87.599892 4294967295
91.351616 -63.616661 -86.939377 4294967295
91.377632 -60.483166 -86.327309 4294967295
91.384048 -64.484207 -87.374207 4294967295
91.387497 -56.464478 -85.384918 4294967295
91.389122 -58.693287 -85.95507 4294967295
91.404564 -64.025612 -87.396553 4294967295
91.416206 -61.348297 -86.802612 4294967295
91.431915 -52.418037 -84.666901 4294967295
91.435745 -54.648876 -85.252388 4294967295
91.437614 -55.094074 -85.376587 4294967295
91.455475 -57.758984 -86.164803 4294967295
91.455521 -52.850357 -84.933426 4294967295
91.463791 -56.861996 -85.995415 4294967295
91.470871 -59.531281 -86.712585 4294967295
91.472107 -58.193977 -86.3853 4294967295
91.482231 -54.1735 -85.444244 4294967295
91.490799 -59.963558 -86.954475 4294967295
91.517288 -55.936176 -86.121185 4294967295
91.517342 -57.273594 -86.457191 4294967295
91.520485 -59.053616 -86.924873 4294967295
91.550491 -53.684765 -85.778549 4294967295
91.560181 -50.552696 -85.05751 4294967295
91.586143 -70.009338 -87.02195 4294967295
91.621941 -51.855324 -85.79776 4294967295
91.637634 -69.528542 -87.246552 4294967295
91.661781 -68.178703 -87.069061 4294967295
91.666794 -50.935104 -85.867104 4294967295
91.677902 -67.278564 -86.950775 4294967295
91.687897 -69.048775 -87.463318 4294967295
91.689362 -66.826088 -86.913811 4294967295
91.708443 -66.368279 -86.926727 4294967295
91.714058 -65.475075 -86.7397 4294967295
91.733269 -68.572617 -87.648056 4294967295
91.74102 -62.786919 -86.244316 4294967295
91.758698 -61.884556 -86.135933 4294967295
91.764191 -60.544556 -85.835693 4294967295
91.769226 -63.213043 -86.540817 4294967295
91.784126 -61.422298 -86.190308 4294967295
91.805664 -64.078186 -87.00309 4294967295
91.832581 -58.271374 -85.722717 4294967295
91.858505 -56.470829 -85.443741 4294967295
91.864693 -57.804802 -85.820946 4294967295
91.88559 -63.57925 -87.414017 4294967295
91.907417 -62.23027 -87.221176 4294967295
91.91774 -56.879044 -85.944061 4294967295
91.942581 -52.847267 -85.096375 4294967295
91.944885 -59.089661 -86.682541 4294967295
91.956718 -53.731529 -85.413773 4294967295
91.976044 -57.287476 -86.43824 4294967295
91.984177 -54.16074 -85.706039 4294967295
91.994278 -55.046684 -85.996742 4294967295
92.016426 -50.568596 -85.018799 4294967295
92.018127 -50.120682 -84.917435 4294967295
92.028641 -53.240582 -85.77298 4294967295
92.05484 -52.331741 -85.720177 4294967295
92.068848 -67.339401 -86.489136 4294967295
92.079254 -69.553978 -87.117935 4294967295
92.092155 -66.433807 -86.41761 4294967295
92.121353 -69.079926 -87.281654 4294967295
92.136986 -65.068443 -86.374832 4294967295
92.15152 -65.947968 -86.694542 4294967295
92.158424 -69.941528 -87.748543 4294967295
92.166733 -64.60318 -86.457588 4294967295
92.172485 -68.599594 -87.504585 4294967295
92.205589 -67.688011 -87.497459 4294967295
92.222946 -68.119904 -87.723282 4294967295
92.23008 -65.44912 -87.097389 4294967295
92.249359 -64.101929 -86.88726 4294967295
92.268097 -58.746239 -85.6623 4294967295
92.269478 -57.853649 -85.446381 4294967295
92.271301 -61.862328 -86.470039 4294967295
92.274597 -60.524311 -86.154556 4294967295
92.281021 -60.965405 -86.30909 4294967295
92.286774 -57.396538 -85.447464 4294967295
92.288345 -62.29599 -86.694054 4294967295
92.29776 -63.624249 -87.092552 4294967295
92.317459 -56.0387 -85.311401 4294967295
92.32666 -60.044582 -86.384003 4294967295
92.329842 -63.15778 -87.190788 4294967295
92.331291 -59.150673 -86.18959 4294967295
92.338737 -58.254627 -86.013657 4294967295
92.343666 -54.683342 -85.145866 4294967295
92.356277 -61.360519 -86.915291 4294967295
92.360031 -56.457642 -85.703613 4294967295
92.397812 -55.541603 -85.726822 4294967295
92.404846 -52.412807 -84.984802 4294967295
92.416397 -51.065475 -84.722603 4294967295
92.457916 -55.05761 -86.009193 4294967295
92.464188 -51.483131 -85.14962 4294967295
92.473129 -52.817207 -85.546417 4294967295
92.490555 -51.913586 -85.435738 4294967295
92.506905 -50.117004 -85.092461 4294967295
92.516884 -50.557732 -85.270813 4294967295
92.530098 -53.228195 -86.033478 4294967295
92.53981 -53.668247 -86.209892 4294967295
92.568703 -67.324074 -86.741104 4294967295
92.605164 -65.964996 -86.643341 4294967295
92.607834 -69.517387 -87.560005 4294967295
92.633514 -66.389847 -86.942169 4294967295
92.646935 -66.824921 -87.142761 4294967295
92.652023 -69.041977 -87.737991 4294967295
92.66732 -69.918663 -88.06292 4294967295
92.673721 -68.582649 -87.768204 4294967295
92.704712 -67.672798 -87.747177 4294967295
92.705521 -61.001942 -86.065025 4294967295
92.708084 -61.890724 -86.307175 4294967295
92.722641 -57.425381 -85.275856 4294967295
92.750633 -61.417099 -86.474533 4294967295
92.753113 -60.525005 -86.265617 4294967295
92.760071 -59.184132 -85.973312 4294967295
92.764282 -60.072269 -86.226463 4294967295
92.769821 -63.183933 -87.051041 4294967295
92.771835 -64.51638 -87.401703 4294967295
92.773499 -55.608406 -85.15937 4294967295
92.77562 -64.958206 -87.538979 4294967295
92.784286 -59.613708 -86.24543 4294967295
92.785332 -58.276417 -85.91423 4294967295
92.795906 -64.055412 -87.447495 4294967295
92.806183 -58.708443 -86.164238 4294967295
92.820442 -54.686214 -85.242989 4294967295
92.825592 -52.897228 -84.82515 4294967295
92.880363 -55.986443 -85.976212 4294967295
92.887856 -54.197609 -85.574326 4294967295
92.904556 -55.079258 -85.909996 4294967295
92.905121 -51.508343 -85.010506 4294967295
92.94516 -51.037224 -85.161552 4294967295
92.946381 -52.376045 -85.508461 4294967295
92.977837 -51.910282 -85.602829 4294967295
92.989639 -50.116863 -85.228851 4294967295
93.032402 -50.537586 -85.623863 4294967295
93.062935 -67.312553 -86.957443 4294967295
93.096771 -63.287018 -86.165344 4294967295
93.10318 -63.727627 -86.320503 4294967295
93.112068 -66.38942 -87.055809 4294967295
93.118774 -65.495834 -86.874557 4294967295
93.120216 -69.048309 -87.785454 4294967295
93.123215 -69.933655 -88.030273 4294967295
93.148796 -62.36166 -86.282684 4294967295
93.151733 -60.578728 -85.850304 4294967295
93.154221 -64.582199 -86.88266 4294967295
93.165955 -67.684143 -87.748833 4294967295
93.188019 -60.999878 -86.202682 4294967295
93.206398 -66.76767 -87.790161 4294967295
93.214294 -64.985306 -87.391388 4294967295
93.226578 -62.754002 -86.908508 4294967295
93.245842 -58.289177 -85.90638 4294967295
93.25145 -55.164185 -85.151619 4294967295
93.263626 -64.062561 -87.491203 4294967295
93.2845 -56.481216 -85.70929 4294967295
93.295746 -57.811111 -86.122803 4294967295
93.295822 -61.372845 -87.02681 4294967295
93.306587 -54.68309 -85.402718 4294967295
93.331924 -57.342098 -86.248596 4294967295
93.334457 -56.003361 -85.926193 4294967295
93.33596 -58.675762 -86.614258 4294967295
93.346657 -52.872849 -85.214691 4294967295
93.347908 -59.558285 -86.919014 4294967295
93.362305 -56.876904 -86.336212 4294967295
93.368454 -51.073174 -84.905708 4294967295
93.424545 -52.378201 -85.616241 4294967295
93.448273 -51.917233 -85.659859 4294967295
93.464081 -50.121655 -85.311356 4294967295
93.469261 -50.565086 -85.458908 4294967295
93.475151 -69.57959 -87.198486 4294967295
93.48027 -51.451229 -85.758232 4294967295
93.501343 -67.7845 -86.919563 4294967295
93.502167 -67.33963 -86.812019 4294967295
93.513977 -65.553391 -86.437874 4294967295
93.546471 -66.864128 -86.991714 4294967295
93.558037 -68.188454 -87.407059 4294967295
93.559624 -68.631279 -87.530449 4294967295
93.572662 -65.068069 -86.712555 4294967295
93.583977 -69.945129 -88.0299 4294967295
93.602486 -65.936287 -87.13575 4294967295
93.621017 -64.590088 -86.919075 4294967295
93.62542 -61.918198 -86.269409 4294967295
93.627892 -62.361561 -86.398956 4294967295
93.648041 -60.122196 -85.966087 4294967295
93.65699 -63.676167 -86.930801 4294967295
93.67244 -62.776218 -86.806694 4294967295
93.71476 -64.081062 -87.425789 4294967295
93.732101 -60.511475 -86.635452 4294967295
93.736115 -63.177525 -87.34082 4294967295
93.744553 -54.264149 -85.130936 4294967295
93.745888 -53.817001 -85.026283 4294967295
93.747704 -56.938099 -85.832436 4294967295
93.752792 -57.380474 -85.9795 4294967295
93.754631 -58.270332 -86.218292 4294967295
93.796501 -54.677464 -85.58857 4294967295
93.813255 -59.567497 -86.946022 4294967295
93.818092 -52.879154 -85.277641 4294967295
93.823822 -59.115448 -86.902756 4294967295
93.838829 -55.542343 -86.095749 4294967295
93.839043 -56.433544 -86.323914 4294967295
93.857407 -55.084732 -86.105415 4294967295
93.873352 -53.290867 -85.757385 4294967295
93.897789 -52.38332 -85.692375 4294967295
93.904022 -51.04044 -85.393044 4294967295
93.923203 -51.921349 -85.747231 4294967295
93.932762 -50.129856 -85.356415 4294967295
93.944321 -51.462063 -85.773697 4294967295
93.977455 -65.118958 -86.338097 4294967295
93.979073 -65.562469 -86.462204 4294967295
94.006989 -65.987503 -86.76059 4294967295
94.036255 -69.519089 -87.860451 4294967295
94.041412 -68.627907 -87.668182 4294967295
94.041519 -69.958893 -88.008377 4294967295
94.076172 -66.383331 -87.332214 4294967295
94.086563 -64.154243 -86.834427 4294967295
94.109901 -63.693592 -86.875755 4294967295
94.121559 -62.796257 -86.726143 4294967295
94.135185 -60.117073 -86.135544 4294967295
94.145691 -59.21946 -85.978073 4294967295
94.145966 -61.44516 -86.547638 4294967295
94.146912 -62.33424 -86.780884 4294967295
94.176094 -60.979942 -86.633926 4294967295
94.19075 -61.859783 -86.958054 4294967295
94.192223 -57.852489 -85.946045 4294967295
94.211876 -63.179199 -87.438309 4294967295
94.212387 -60.510674 -86.761185 4294967295
94.234055 -55.15097 -85.541687 4294967295
94.247749 -57.370777 -86.201042 4294967295
94.251167 -56.923027 -86.110039 4294967295
94.262047 -55.578972 -85.841263 4294967295
94.271057 -59.58165 -86.923485 4294967295
94.281807 -52.890224 -85.289948 4294967295
94.284355 -56.456009 -86.216743 4294967295
94.289566 -56.007042 -86.137718 4294967295
94.294769 -53.774445 -85.603676 4294967295
94.299026 -58.227959 -86.768433 4294967295
94.299911 -53.325096 -85.524033 4294967295
94.31781 -54.651775 -85.98423 4294967295
94.339554 -51.961689 -85.446083 4294967295
94.339645 -54.192085 -86.015533 4294967295
94.381042 -51.043407 -85.494057 4294967295
94.383202 -70.056564 -87.218094 4294967295
94.384727 -67.835358 -86.660461 4294967295
94.384979 -51.487309 -85.634125 4294967295
94.387527 -50.593006 -85.423363 4294967295
94.415909 -67.368958 -86.753876 4294967295
94.421288 -68.253441 -87.016739 4294967295
94.42878 -50.121368 -85.583733 4294967295
94.440125 -68.683952 -87.255432 4294967295
94.445656 -66.903656 -86.837875 4294967295
94.463127 -63.77964 -86.158051 4294967295
94.482285 -69.541199 -87.762306 4294967295
94.495155 -65.091446 -86.712067 4294967295
94.517952 -65.964249 -87.09082 4294967295
94.531326 -61.508301 -86.042519 4294967295
94.540192 -65.504425 -87.124901 4294967295
94.54425 -62.38953 -86.356018 4294967295
94.565254 -63.264713 -86.723175 4294967295
94.571793 -60.145588 -85.970001 4294967295
94.576942 -62.812027 -86.687164 4294967295
94.582253 -64.142113 -87.063507 4294967295
94.586578 -66.360168 -87.660294 4294967295
94.603584 -61.904354 -86.636765 4294967295
94.638008 -60.991364 -86.638092 4294967295
94.641663 -64.545311 -87.571945 4294967295
94.651794 -60.53717 -86.615974 4294967295
94.665894 -58.301968 -86.140526 4294967295
94.675919 -58.740685 -86.321083 4294967295
94.677391 -54.728848 -85.305168 4294967295
94.686134 -59.179123 -86.502975 4294967295
94.716255 -55.149998 -85.678009 4294967295
94.724472 -59.598713 -86.871826 4294967295
94.731239 -56.031883 -86.005768 4294967295
94.734276 -53.354515 -85.341782 4294967295
94.776123 -51.989609 -85.278221 4294967295
94.794235 -57.327316 -86.76693 4294967295
94.796349 -52.869411 -85.641144 4294967295
94.797462 -56.434616 -86.560616 4294967295
94.798714 -53.759926 -85.885155 4294967295
94.83461 -50.614346 -85.32547 4294967295
94.858398 -50.15332 -85.369949 4294967295
94.865578 -70.052498 -87.360191 4294967295
94.874359 -68.714699 -87.077133 4294967295
94.887093 -69.149406 -87.275703 4294967295
94.889175 -67.816071 -86.948044 4294967295
94.908173 -51.015411 -85.929985 4294967295
94.909706 -69.57682 -87.540031 4294967295
94.917336 -67.351929 -87.021652 4294967295
94.925049 -66.902328 -86.959175 4294967295
94.928307 -68.232079 -87.322479 4294967295
94.950943 -65.551315 -86.789841 4294967295
94.963181 -65.987007 -86.985268 4294967295
94.967285 -66.428314 -87.126564 4294967295
94.98645 -61.079327 -85.885918 4294967295
95.019897 -64.614456 -87.021286 4294967295
95.022583 -62.389721 -86.469185 4294967295
95.032265 -64.161484 -86.989738 4294967295
95.049782 -65.037918 -87.33432 4294967295
95.064308 -60.581806 -86.290916 4294967295
95.069572 -61.46814 -86.554276 4294967295
95.088654 -63.678108 -87.251526 4294967295
95.092125 -58.78252 -86.019829 4294967295
95.09465 -61.895882 -86.83551 4294967295
95.108902 -63.21978 -87.272552 4294967295
95.115181 -62.771034 -87.200401 4294967295
95.124924 -58.315517 -86.124489 4294967295
95.137772 -56.525177 -85.753204 4294967295
95.145187 -60.082546 -86.716225 4294967295
95.15004 -56.962795 -85.949364 4294967295
95.153519 -57.851387 -86.200989 4294967295
95.155327 -59.185799 -86.555603 4294967295
95.165718 -54.278046 -85.368141 4294967295
95.169823 -59.621143 -86.76651 4294967295
95.183167 -55.604473 -85.82766 4294967295
95.213699 -53.801594 -85.574203 4294967295
95.232513 -55.127083 -86.042786 4294967295
95.285065 -53.310547 -85.936424 4294967295
95.286011 -54.647217 -86.285713 4294967295
95.305954 -51.959465 -85.732895 4294967295
95.311378 -51.509956 -85.654694 4294967295
95.314499 -68.741249 -86.937607 4294967295
95.323799 -68.290604 -86.885521 4294967295
95.324814 -52.839638 -86.087616 4294967295
95.339005 -69.167419 -87.21537 4294967295
95.34877 -51.040634 -85.790184 4294967295
95.35347 -67.825325 -86.969398 4294967295
95.357246 -50.589207 -85.732407 4294967295
95.373024 -69.586479 -87.55645 4294967295
95.406479 -70.005676 -87.893791 4294967295
95.40873 -65.565308 -86.767303 4294967295
95.411224 -63.785622 -86.326736 4294967295
95.426918 -63.33009 -86.317314 4294967295
95.447411 -66.870392 -87.368256 4294967295
95.449158 -64.20388 -86.694542 4294967295
95.478233 -65.072304 -87.11734 4294967295
95.485031 -62.845402 -86.591324 4294967295
95.50116 -61.055191 -86.241531 4294967295
95.502861 -61.498947 -86.367355 4294967295
95.522598 -65.929291 -87.642143 4294967295
95.551987 -60.130947 -86.352615 4294967295
95.555412 -62.352547 -86.947395 4294967295
95.584785 -60.553802 -86.68631 4294967295
95.591949 -58.769009 -86.276459 4294967295
95.617462 -59.642097 -86.676041 4294967295
95.619652 -58.305458 -86.347412 4294967295
95.656059 -56.945717 -86.247444 4294967295
95.659164 -59.169331 -86.840538 4294967295
95.665955 -52.035179 -85.052567 4294967295
95.686432 -54.698345 -85.877838 4294967295
95.695129 -57.810524 -86.737801 4294967295
95.696747 -53.800163 -85.71769 4294967295
95.698769 -52.460861 -85.387115 4294967295
95.698898 -54.244633 -85.846649 4294967295
95.702538 -56.024689 -86.329399 4294967295
95.704208 -55.132599 -86.111473 4294967295
95.717155 -55.569786 -86.312714 4294967295
95.71772 -53.340977 -85.743431 4294967295
95.718124 -56.459919 -86.548286 4294967295
95.732697 -51.547298 -85.384819 4294967295
95.75779 -50.639168 -85.323547 4294967295
95.773216 -68.310501 -86.80751 4294967295
95.775558 -52.858582 -86.016106 4294967295
95.796249 -50.169155 -85.466522 4294967295
95.797127 -66.516891 -86.509438 4294967295
95.830742 -51.040257 -85.927147 4294967295
95.832474 -66.047585 -86.631638 4294967295
95.833824 -68.71064 -87.327621 4294967295
95.839417 -69.150276 -87.479446 4294967295
95.880836 -69.563721 -87.870949 4294967295
95.909164 -67.768944 -87.603088 4294967295
95.95153 -64.631134 -87.085266 4294967295
95.952576 -61.518639 -86.289932 4294967295
95.962006 -59.732224 -85.894073 4294967295
95.965248 -63.732971 -86.948082 4294967295
95.976074 -65.058083 -87.364243 4294967295
96.012772 -60.143169 -86.349274 4294967295
96.01284 -60.588036 -86.464462 4294967295
96.021103 -63.249928 -87.20771 4294967295
96.027863 -64.133675 -87.482094 4294967295
96.041573 -61.902592 -87.001137 4294967295
96.042824 -58.342701 -86.091698 4294967295
96.048302 -58.784245 -86.243263 4294967295
96.059258 -55.213272 -85.397766 4294967295
96.077354 -57.429333 -86.09375 4294967295
96.082367 -57.871311 -86.24218 4294967295
96.095894 -59.19754 -86.6772 4294967295
96.137512 -56.94455 -86.382507 4294967295
96.153725 -56.04332 -86.261635 4294967295
96.155983 -52.475891 -85.357285 4294967295
96.156662 -53.81337 -85.706833 4294967295
96.170013 -51.574757 -85.22142 4294967295
96.183678 -54.6875 -86.118042 4294967295
96.186996 -53.348251 -85.795547 4294967295
96.193726 -54.235447 -86.070663 4294967295
96.19603 -69.681305 -86.895111 4294967295
96.237701 -51.978546 -85.791206 4294967295
96.257339 -69.192924 -87.191742 4294967295
96.258125 -50.181328 -85.468231 4294967295
96.260941 -67.858864 -86.871536 4294967295
96.269333 -51.066761 -85.773552 4294967295
96.292389 -68.723801 -87.312134 4294967295
96.296738 -66.945221 -86.882286 4294967295
96.297363 -67.388763 -87.001236 4294967295
96.331253 -68.252014 -87.458282 4294967295
96.334793 -70.023392 -87.940712 4294967295
96.347176 -65.132904 -86.761536 4294967295
96.366936 -64.674744 -86.779419 4294967295
96.373108 -66.002838 -87.16539 4294967295
96.400757 -63.318008 -86.661804 4294967295
96.411392 -61.532139 -86.273422 4294967295
96.414474 -62.419434 -86.524124 4294967295
96.430939 -64.185692 -87.094421 4294967295
96.438469 -60.624004 -86.225311 4294967295
96.447182 -65.506462 -87.547958 4294967295
96.450966 -63.727486 -87.114128 4294967295
96.464668 -62.829334 -86.976326 4294967295
96.472824 -58.375504 -85.880928 4294967295
96.472839 -59.710903 -86.22628 4294967295
96.497093 -59.249592 -86.274391 4294967295
96.498802 -57.912991 -85.940521 4294967295
96.503929 -58.799953 -86.205246 4294967295
96.535202 -54.770344 -85.378929 4294967295
96.537216 -57.442326 -86.083763 4294967295
96.554184 -56.095028 -85.852402 4294967295
96.628006 -53.373447 -85.657913 4294967295
96.63118 -52.925537 -85.563988 4294967295
96.638313 -53.812664 -85.842606 4294967295
96.64019 -55.593636 -86.316086 4294967295
96.653114 -70.13929 -86.983803 4294967295
96.665894 -51.119499 -85.33638 4294967295
96.672935 -51.561234 -85.499199 4294967295
96.687927 -54.226528 -86.291794 4294967295
96.697433 -51.991882 -85.77951 4294967295
96.699493 -50.206158 -85.332024 4294967295
96.708801 -67.435913 -86.668045 4294967295
96.715851 -49.749775 -85.326828 4294967295
96.721031 -68.758675 -87.095619 4294967295
96.738998 -67.858109 -86.986336 4294967295
96.758942 -69.174683 -87.465767 4294967295
96.77916 -66.497498 -86.911385 4294967295
96.790474 -64.712791 -86.526863 4294967295
96.805435 -66.922646 -87.203438 4294967295
96.825378 -65.576553 -86.992256 4294967295
96.832115 -65.127693 -86.922501 4294967295
96.847992 -63.339367 -86.568565 4294967295
96.851486 -61.558437 -86.130966 4294967295
96.852562 -62.447132 -86.368866 4294967295
96.863876 -60.215233 -85.868401 4294967295
96.866394 -61.10342 -86.116096 4294967295
96.877586 -61.985256 -86.422173 4294967295
96.889114 -65.975266 -87.536469 4294967295
96.926369 -58.837887 -85.943474 4294967295
96.929001 -60.615967 -86.422775 4294967295
96.938049 -64.165009 -87.405678 4294967295
96.945503 -62.827312 -87.110359 4294967295
96.958733 -57.92593 -85.930779 4294967295
96.973312 -63.696312 -87.528008 4294967295
96.975876 -55.241764 -85.353439 4294967295
96.978851 -54.794064 -85.257942 4294967295
96.983315 -56.573673 -85.750298 4294967295
97.018875 -59.220829 -86.682671 4294967295
97.024666 -59.661694 -86.837044 4294967295
97.031601 -52.976562 -85.151566 4294967295
97.040825 -55.645164 -85.907326 4294967295
97.047997 -56.976456 -86.302132 4294967295
97.052811 -56.08276 -86.103638 4294967295
97.086716 -54.27882 -85.870453 4294967295
97.104187 -53.821964 -85.872871 4294967295
97.12188 -51.581409 -85.414246 4294967295
97.121918 -51.135273 -85.298805 4294967295
97.122009 -68.369926 -86.576141 4294967295
97.140839 -70.130966 -87.164627 4294967295
97.147667 -67.463448 -86.518356 4294967295
97.151443 -50.670689 -85.382576 4294967295
97.168739 -69.666969 -87.237526 4294967295
97.177399 -52.43824 -86.020462 4294967295
97.191826 -51.983356 -86.002213 4294967295
97.205704 -49.744701 -85.517715 4294967295
97.221207 -69.185028 -87.476166 4294967295
97.221756 -67.853828 -87.133797 4294967295
97.259109 -64.719139 -86.577827 4294967295
97.265106 -66.935036 -87.195572 4294967295
97.29702 -66.468353 -87.295547 4294967295
97.299896 -61.579075 -86.04422 4294967295
97.319908 -62.010025 -86.295067 4294967295
97.341782 -65.548759 -87.366989 4294967295
97.368622 -62.420906 -86.739822 4294967295
97.39547 -64.179024 -87.383179 4294967295
97.398026 -58.842896 -86.01339 4294967295
97.414749 -62.833237 -87.167038 4294967295
97.426086 -63.713562 -87.474579 4294967295
97.429382 -60.601055 -86.688072 4294967295
97.430359 -54.812733 -85.189659 4294967295
97.435265 -57.927795 -86.033707 4294967295
97.445778 -56.585026 -85.757469 4294967295
97.445908 -59.255653 -86.45282 4294967295
97.450043 -54.354202 -85.206947 4294967295
97.453102 -60.140289 -86.732803 4294967295
