# .PCD v0.7 - Point Cloud Data file format
VERSION 0.7
FIELDS x y z rgb
SIZE 4 4 4 4
TYPE F F F U
COUNT 1 1 1 1
WIDTH 1148
HEIGHT 1
VIEWPOINT 0 0 0 1 0 0 0
POINTS 1148
DATA ascii
233.33307 78.747314 -56.078762 4294967295
233.33794 79.420204 -56.108871 4294967295
233.3726 80.434387 -56.109589 4294967295
233.37361 76.341591 -56.500526 4294967295
233.37703 80.771225 -56.121468 4294967295
233.39008 77.351761 -56.53075 4294967295
233.42159 76.685371 -56.441822 4294967295
233.42389 82.459915 -56.140438 4294967295
233.44528 83.472046 -56.162731 4294967295
233.45073 81.792625 -56.058975 4294967295
233.4603 81.458237 -56.024475 4294967295
233.48068 83.814697 -56.12439 4294967295
233.4875 82.807632 -56.056355 4294967295
233.49236 77.033051 -56.346146 4294967295
233.49345 84.825386 -56.16066 4294967295
233.50456 78.042816 -56.383347 4294967295
233.52713 79.39032 -56.422722 4294967295
233.53217 78.383438 -56.357651 4294967295
233.53258 78.719421 -56.375931 4294967295
233.53374 79.05555 -56.393044 4294967295
233.57228 85.176414 -56.051937 4294967295
233.59026 80.073196 -56.358459 4294967295
233.59093 84.171387 -55.964748 4294967295
233.5916 80.745338 -56.394222 4294967295
233.59886 84.509071 -55.970909 4294967295
233.60635 79.740051 -56.313435 4294967295
233.61729 80.413918 -56.333687 4294967295
233.62483 76.323112 -56.713436 4294967295
233.63681 81.08934 -56.340042 4294967295
233.63934 85.52536 -55.962318 4294967295
233.71625 76.674042 -56.584496 4294967295
233.71893 82.448181 -56.28302 4294967295
233.72322 77.011024 -56.592186 4294967295
233.72621 77.683167 -56.625259 4294967295
233.74088 82.788223 -56.266495 4294967295
233.74768 77.350945 -56.571571 4294967295
233.75168 83.126266 -56.26799 4294967295
233.77458 81.450012 -56.136002 4294967295
233.77979 81.787048 -56.146538 4294967295
233.79182 84.814079 -56.29789 4294967295
233.79417 84.142357 -56.25618 4294967295
233.81117 82.128838 -56.114716 4294967295
233.82182 78.707008 -56.5275 4294967295
233.82967 83.812866 -56.179703 4294967295
233.83537 78.037506 -56.467674 4294967295
233.84457 85.160133 -56.231541 4294967295
233.85359 84.489586 -56.17897 4294967295
233.86414 83.483101 -56.10495 4294967295
233.87737 79.72435 -56.494579 4294967295
233.88994 79.390587 -56.455341 4294967295
233.90277 80.06472 -56.472496 4294967295
233.9043 79.057129 -56.413094 4294967295
233.90918 85.508545 -56.146008 4294967295
233.92924 78.38945 -56.334812 4294967295
233.93588 80.406502 -56.437885 4294967295
233.94118 81.079376 -56.467289 4294967295
233.98564 76.322739 -56.748997 4294967295
234.0011 81.762093 -56.408363 4294967295
234.03209 83.783821 -56.472103 4294967295
234.04343 81.43364 -56.320938 4294967295
234.05127 78.012711 -56.737686 4294967295
234.05269 77.005478 -56.678524 4294967295
234.0667 76.671967 -56.636929 4294967295
234.07765 82.448021 -56.32254 4294967295
234.08408 77.346565 -56.646805 4294967295
234.08485 83.45755 -56.367844 4294967295
234.0887 82.113945 -56.285702 4294967295
234.09221 84.131035 -56.393887 4294967295
234.09485 77.684242 -56.648338 4294967295
234.09787 82.787788 -56.308804 4294967295
234.10123 83.124489 -56.322334 4294967295
234.15611 85.151306 -56.347496 4294967295
234.16696 78.368256 -56.569702 4294967295
234.18851 84.821297 -56.27618 4294967295
234.18927 79.379845 -56.590599 4294967295
234.19508 79.716782 -56.600166 4294967295
234.19701 84.48674 -56.243454 4294967295
234.20276 85.496269 -56.291119 4294967295
234.20654 78.710953 -56.524727 4294967295
234.24521 79.053566 -56.481255 4294967295
234.27592 82.418709 -56.621323 4294967295
234.28331 80.068146 -56.476589 4294967295
234.29674 77.321457 -56.921745 4294967295
234.31371 76.65274 -56.856487 4294967295
234.32614 81.419792 -56.483276 4294967295
234.33096 81.756676 -56.49445 4294967295
234.33429 80.749168 -56.432213 4294967295
234.35025 82.096176 -56.482262 4294967295
234.35428 76.323639 -56.772007 4294967295
234.37941 83.781685 -56.530022 4294967295
234.38698 83.447044 -56.498913 4294967295
234.39325 82.776077 -56.450783 4294967295
234.40144 78.010689 -56.790672 4294967295
234.41597 84.124527 -56.489998 4294967295
234.42386 83.117767 -56.420319 4294967295
234.42819 77.007607 -56.690598 4294967295
234.44562 84.466141 -56.461086 4294967295
234.48465 77.688873 -56.637375 4294967295
234.50635 84.813652 -56.381989 4294967295
234.50673 79.036331 -56.677567 4294967295
234.52245 78.367142 -56.61433 4294967295
234.53862 76.294189 -57.092426 4294967295
234.55322 79.380295 -56.621536 4294967295
234.56453 80.39016 -56.660194 4294967295
234.5892 85.165451 -56.267193 4294967295
234.59105 82.074692 -56.712151 4294967295
234.59721 80.059914 -56.58844 4294967295
234.59976 81.404312 -56.660191 4294967295
234.6022 80.732773 -56.618332 4294967295
234.60869 79.725914 -56.550964 4294967295
234.61388 81.070839 -56.618496 4294967295
234.65829 82.75885 -56.641609 4294967295
234.67162 77.323532 -56.934776 4294967295
234.67978 81.754662 -56.550026 4294967295
234.6862 76.99015 -56.892342 4294967295
234.68637 79.005035 -57.005737 4294967295
234.6918 83.437042 -56.625481 4294967295
234.69566 83.101715 -56.600304 4294967295
234.70245 84.447113 -56.665215 4294967295
234.70964 76.658195 -56.835564 4294967295
234.7159 78.674286 -56.93919 4294967295
234.71967 77.667419 -56.876289 4294967295
234.7336 78.005615 -56.872753 4294967295
234.73463 82.436684 -56.499474 4294967295
234.73586 83.781235 -56.57338 4294967295
234.75491 85.129074 -56.61853 4294967295
234.7601 79.353569 -56.905819 4294967295
234.77765 80.028351 -56.915436 4294967295
234.78432 85.470711 -56.59005 4294967295
234.79214 84.799995 -56.539474 4294967295
234.79659 84.128593 -56.494392 4294967295
234.79684 79.695816 -56.865574 4294967295
234.84007 78.359589 -56.720009 4294967295
234.87123 81.052536 -56.821472 4294967295
234.89029 76.292297 -57.142815 4294967295
234.90259 82.737869 -56.865688 4294967295
234.90892 80.723267 -56.741726 4294967295
234.94641 81.737885 -56.738213 4294967295
234.94868 81.402298 -56.715542 4294967295
234.94951 82.410431 -56.771149 4294967295
234.99382 78.65995 -57.108662 4294967295
235.00493 77.654442 -57.03389 4294967295
235.00571 76.982941 -56.99472 4294967295
235.00821 82.08503 -56.657516 4294967295
235.00972 78.326881 -57.064079 4294967295
235.02458 76.650238 -56.945381 4294967295
235.02872 83.096909 -56.681385 4294967295
235.03136 83.433449 -56.696091 4294967295
235.07266 78.001709 -56.94371 4294967295
235.07295 79.3452 -57.01907 4294967295
235.08313 77.331711 -56.888985 4294967295
235.09802 80.021263 -57.016613 4294967295
235.09967 83.78212 -56.604931 4294967295
235.1044 85.127403 -56.673233 4294967295
235.10666 81.030365 -57.059525 4294967295
235.12503 84.12294 -56.583099 4294967295
235.13759 84.797546 -56.600754 4294967295
235.14244 79.021286 -56.888176 4294967295
235.14731 79.693954 -56.918335 4294967295
235.15999 80.368004 -56.935757 4294967295
235.16315 84.466179 -56.54063 4294967295
235.1684 85.475624 -56.589096 4294967295
235.19962 81.718735 -56.947739 4294967295
235.2039 81.38356 -56.921936 4294967295
235.20639 82.055878 -56.955818 4294967295
235.23329 76.288986 -57.207222 4294967295
235.23727 76.625389 -57.219769 4294967295
235.24556 77.298248 -57.244286 4294967295
235.24983 80.719765 -56.810005 4294967295
235.25432 76.963959 -57.211266 4294967295
235.25912 83.073303 -56.927792 4294967295
235.26572 77.637375 -57.230816 4294967295
235.26674 83.410667 -56.934479 4294967295
235.29054 82.407066 -56.839233 4294967295
235.31454 82.747421 -56.819584 4294967295
235.34175 77.985977 -57.127399 4294967295
235.34229 84.096642 -56.850777 4294967295
235.36307 83.764442 -56.798351 4294967295
235.37033 78.326645 -57.1003 4294967295
235.37531 78.999176 -57.130226 4294967295
235.41055 80.348663 -57.149315 4294967295
235.41641 80.01384 -57.120937 4294967295
235.41988 78.670944 -57.0396 4294967295
235.45384 79.348564 -57.02282 4294967295
235.47096 84.45668 -56.662575 4294967295
235.51158 80.702324 -57.005745 4294967295
235.53473 82.050209 -57.0443 4294967295
235.56581 77.291176 -57.345356 4294967295
235.57054 82.392616 -57.005692 4294967295
235.5732 81.385178 -56.944534 4294967295
235.57935 83.066162 -57.029377 4294967295
235.6127 84.080231 -57.032619 4294967295
235.61482 82.736641 -56.953396 4294967295
235.61929 77.635895 -57.278358 4294967295
235.62003 78.643356 -57.333977 4294967295
235.62199 77.97213 -57.292946 4294967295
235.66315 85.769684 -57.046265 4294967295
235.66811 83.754471 -56.924534 4294967295
235.68196 80.333015 -57.329117 4294967295
235.68231 83.421043 -56.882751 4294967295
235.69719 78.320679 -57.190987 4294967295
235.70413 79.329391 -57.236683 4294967295
235.72313 84.436806 -56.873993 4294967295
235.75496 84.778839 -56.84174 4294967295
235.75613 79.674248 -57.172039 4294967295
235.76152 80.011063 -57.182304 4294967295
235.76346 85.116554 -56.84705 4294967295
235.8004 81.025581 -57.176662 4294967295
235.80118 76.262955 -57.525948 4294967295
235.80554 82.034187 -57.22525 4294967295
235.81003 85.461472 -56.791092 4294967295
235.8241 80.69384 -57.119659 4294967295
235.8269 81.366196 -57.153008 4294967295
235.83565 82.375526 -57.195827 4294967295
235.86348 77.280342 -57.482719 4294967295
235.87756 81.711166 -57.090569 4294967295
235.9032 76.95121 -57.400017 4294967295
235.90862 82.724701 -57.097496 4294967295
235.91138 76.616791 -57.367958 4294967295
235.91606 77.624878 -57.417213 4294967295
235.98085 83.745918 -57.038319 4294967295
235.99203 83.411949 -57.001389 4294967295
235.99406 78.645447 -57.348793 4294967295
235.9962 84.084808 -57.032623 4294967295
235.99823 79.98941 -57.417824 4294967295
236.0101 79.319839 -57.36087 4294967295
236.01173 78.312622 -57.301449 4294967295
236.02164 85.433739 -57.067574 4294967295
236.02217 85.097794 -57.047741 4294967295
236.03734 77.981094 -57.241402 4294967295
236.08278 84.773087 -56.931458 4294967295
236.08536 81.348091 -57.353706 4294967295
236.10785 79.672585 -57.2229 4294967295
236.11955 81.690056 -57.317711 4294967295
236.12698 80.34774 -57.230087 4294967295
236.1489 81.023453 -57.232773 4294967295
236.15131 76.260803 -57.578979 4294967295
236.16432 76.598633 -57.577065 4294967295
236.17029 76.935341 -57.586407 4294967295
236.1752 83.379662 -57.32312 4294967295
236.18257 80.693451 -57.159744 4294967295
236.20226 82.37677 -57.2229 4294967295
236.2088 82.713913 -57.231285 4294967295
236.23306 82.046341 -57.154518 4294967295
236.24866 78.962936 -57.574238 4294967295
236.26003 84.739166 -57.262745 4294967295
236.2617 85.41143 -57.297981 4294967295
236.26941 79.302261 -57.559872 4294967295
236.27023 77.623497 -57.463921 4294967295
236.27377 83.733734 -57.183872 4294967295
236.27707 84.070358 -57.197506 4294967295
236.2841 78.297417 -57.479527 4294967295
236.2845 77.29007 -57.42215 4294967295
236.29044 77.962685 -57.450466 4294967295
236.29352 85.081436 -57.227943 4294967295
236.3215 78.63958 -57.438519 4294967295
236.33446 84.41703 -57.124374 4294967295
236.33768 80.321472 -57.507183 4294967295
236.34384 79.98674 -57.478333 4294967295
236.39157 76.576279 -57.827087 4294967295
236.40855 79.662094 -57.355644 4294967295
236.42278 76.917068 -57.795998 4294967295
236.42719 81.680695 -57.439411 4294967295
236.43669 81.346497 -57.405212 4294967295
236.46342 82.023071 -57.400227 4294967295
236.47404 80.681274 -57.307404 4294967295
236.50198 82.365929 -57.357368 4294967295
236.50719 82.702812 -57.367897 4294967295
236.52538 77.269775 -57.650513 4294967295
236.54036 84.052666 -57.39045 4294967295
236.5695 83.722076 -57.32481 4294967295
236.57031 83.050255 -57.285633 4294967295
236.58932 79.29512 -57.661545 4294967295
236.59198 83.390205 -57.269848 4294967295
236.60205 85.408066 -57.36731 4294967295
236.60756 78.290878 -57.575603 4294967295
236.61824 80.643227 -57.690952 4294967295
236.61865 78.628563 -57.576736 4294967295
236.63039 85.0774 -57.303017 4294967295
236.63519 84.742271 -57.276352 4294967295
236.63985 77.96051 -57.504936 4294967295
236.65125 79.977402 -57.600212 4294967295
236.65685 79.642555 -57.57233 4294967295
236.66551 80.315712 -57.596268 4294967295
236.67276 78.97361 -57.50898 4294967295
236.6915 81.327774 -57.611423 4294967295
236.69629 76.231064 -57.933895 4294967295
236.70737 85.764023 -57.217495 4294967295
236.72359 82.00518 -57.597885 4294967295
236.74028 76.573914 -57.882355 4294967295
236.75026 81.67408 -57.536263 4294967295
236.77876 83.358635 -57.585247 4294967295
236.78012 81.007576 -57.450531 4294967295
236.79625 83.02594 -57.538303 4294967295
236.80269 82.691193 -57.50909 4294967295
236.81657 82.357788 -57.467846 4294967295
236.85243 77.599594 -57.759609 4294967295
236.86604 77.937614 -57.756729 4294967295
236.87291 78.61026 -57.783607 4294967295
236.8792 84.720879 -57.50013 4294967295
236.8815 78.275963 -57.750916 4294967295
236.88815 85.39447 -57.523613 4294967295
236.9068 84.054062 -57.418037 4294967295
236.94513 85.069206 -57.413475 4294967295
236.95369 85.742844 -57.437656 4294967295
236.97142 79.970299 -57.701584 4294967295
236.97209 79.298767 -57.662689 4294967295
236.97568 78.963554 -57.638012 4294967295
236.98698 80.308823 -57.695621 4294967295
236.99353 79.63829 -57.64727 4294967295
237.01259 76.55899 -58.059917 4294967295
237.01877 76.224396 -58.031139 4294967295
237.05388 81.328133 -57.645325 4294967295
237.05838 80.657166 -57.600281 4294967295
237.07713 80.996353 -57.589195 4294967295
237.09041 83.349945 -57.700417 4294967295
237.09471 82.007179 -57.617809 4294967295
237.12108 76.912514 -57.90535 4294967295
237.12247 82.348068 -57.592312 4294967295
237.12251 77.248451 -57.921963 4294967295
237.13297 78.257271 -57.962032 4294967295
237.13512 81.678467 -57.534248 4294967295
237.17145 77.928047 -57.881569 4294967295
237.17525 82.693535 -57.526848 4294967295
237.17528 84.373291 -57.621437 4294967295
237.19019 83.704147 -57.559681 4294967295
237.20935 78.605949 -57.858734 4294967295
237.2184 77.600159 -57.787537 4294967295
237.21857 79.614784 -57.900787 4294967295
237.2377 78.946526 -57.832375 4294967295
237.25101 85.731331 -57.576031 4294967295
237.25354 84.051796 -57.477314 4294967295
237.25479 84.724045 -57.513176 4294967295
237.26315 79.286674 -57.810551 4294967295
237.27263 85.063408 -57.503548 4294967295
237.30441 76.211708 -58.187263 4294967295
237.31723 80.639297 -57.799778 4294967295
237.31868 79.967896 -57.759602 4294967295
237.32181 80.304268 -57.77356 4294967295
237.32329 85.408951 -57.441452 4294967295
237.35471 82.325119 -57.834457 4294967295
237.35622 81.317856 -57.775314 4294967295
237.39583 83.00425 -57.806591 4294967295
237.39876 80.989502 -57.688343 4294967295
237.40019 81.997406 -57.742851 4294967295
237.40024 81.661545 -57.723831 4294967295
237.416 76.565598 -58.027924 4294967295
237.44608 77.577637 -58.036591 4294967295
237.45059 76.906982 -57.991577 4294967295
237.47908 79.261703 -58.078392 4294967295
237.48242 77.247971 -57.959606 4294967295
237.48605 78.25576 -58.010506 4294967295
237.48853 84.028931 -57.715195 4294967295
237.49001 77.920692 -57.985313 4294967295
237.49345 78.928444 -58.03653 4294967295
237.49744 83.694618 -57.682026 4294967295
237.50287 82.687721 -57.616631 4294967295
237.50473 83.360001 -57.651417 4294967295
237.51208 84.369217 -57.696491 4294967295
237.52341 78.597801 -57.969799 4294967295
237.55521 84.713211 -57.646465 4294967295
237.56126 80.618851 -58.022785 4294967295
237.57552 85.052986 -57.632999 4294967295
237.62466 85.398239 -57.573376 4294967295
237.62758 85.73481 -57.58765 4294967295
237.64055 79.625229 -57.839397 4294967295
237.64281 80.297302 -57.873653 4294967295
237.64377 82.312401 -57.985569 4294967295
237.64384 79.961639 -57.853081 4294967295
237.69 77.222237 -58.240437 4294967295
237.69775 80.978638 -57.823738 4294967295
237.69977 76.216919 -58.168205 4294967295
237.70023 83.330101 -57.952187 4294967295
237.70522 81.651711 -57.849606 4294967295
237.71353 78.233063 -58.259575 4294967295
237.75615 83.00441 -57.843941 4294967295
237.76129 81.32576 -57.741146 4294967295
237.76675 81.998581 -57.770287 4294967295
237.77066 84.014755 -57.877533 4294967295
237.78011 76.901459 -58.077744 4294967295
237.79828 77.575905 -58.086578 4294967295
237.80077 83.684372 -57.810604 4294967295
237.81412 82.67897 -57.732506 4294967295
237.81509 78.921616 -58.135361 4294967295
237.81995 79.258171 -58.14653 4294967295
237.82669 84.696976 -57.825943 4294967295
237.84193 85.707657 -57.858376 4294967295
237.88965 78.598534 -57.997444 4294967295
237.89018 84.372787 -57.705719 4294967295
237.90318 80.951332 -58.108253 4294967295
237.91049 80.616844 -58.077648 4294967295
237.91418 79.945908 -58.03397 4294967295
237.92007 85.386398 -57.714722 4294967295
237.9276 76.530388 -58.435276 4294967295
237.93312 85.052818 -57.674995 4294967295
237.94453 76.197594 -58.389374 4294967295
237.96548 80.290619 -57.971024 4294967295
237.97603 79.620758 -57.916389 4294967295
237.97957 81.300598 -58.005291 4294967295
237.98625 81.637634 -58.013527 4294967295
237.98978 83.31739 -58.102486 4294967295
237.99246 82.646233 -58.060337 4294967295
238.00732 82.313072 -58.017742 4294967295
238.05478 78.229546 -58.327003 4294967295
238.0634 77.223991 -58.256577 4294967295
238.06842 76.889137 -58.229671 4294967295
238.08417 77.563126 -58.242344 4294967295
238.08601 77.899117 -58.258312 4294967295
238.08737 78.570709 -58.293934 4294967295
238.10396 83.002274 -57.901443 4294967295
238.11374 85.019569 -57.999359 4294967295
238.12299 84.349464 -57.946747 4294967295
238.12964 78.913574 -58.245506 4294967295
238.1356 84.015862 -57.907722 4294967295
238.17551 83.687225 -57.825165 4294967295
238.18022 84.696022 -57.87439 4294967295
238.19142 79.259857 -58.165909 4294967295
238.20506 79.597969 -58.163048 4294967295
238.21039 85.373619 -57.86417 4294967295
238.2197 85.711357 -57.868202 4294967295
238.22166 82.286972 -58.287849 4294967295
238.23663 76.185966 -58.534946 4294967295
238.24611 79.940834 -58.116543 4294967295
238.25606 81.621567 -58.19519 4294967295
238.25929 82.965279 -58.265656 4294967295
238.26625 81.287582 -58.160069 4294967295
238.26956 80.280716 -58.098053 4294967295
238.27827 81.961319 -58.17868 4294967295
238.2845 76.52935 -58.477661 4294967295
238.28885 80.955734 -58.105156 4294967295
238.31712 78.548355 -58.538979 4294967295
238.321 80.625526 -58.035027 4294967295
238.32312 78.21376 -58.510586 4294967295
238.33673 76.873535 -58.413376 4294967295
238.34572 77.881935 -58.455673 4294967295
238.35133 82.646088 -58.100105 4294967295
238.35916 77.548538 -58.415436 4294967295
238.36607 83.656349 -58.133324 4294967295
238.39107 77.218163 -58.345673 4294967295
238.41736 79.236664 -58.417164 4294967295
238.46121 78.908447 -58.328484 4294967295
238.4671 84.346741 -58.010231 4294967295
238.46759 85.354637 -58.066177 4294967295
238.47652 79.918228 -58.360764 4294967295
238.48943 84.014893 -57.955738 4294967295
238.50055 85.024849 -57.994785 4294967295
238.50139 76.505417 -58.742828 4294967295
238.50949 80.595413 -58.346085 4294967295
238.52364 79.590591 -58.266914 4294967295
238.52917 84.694206 -57.930275 4294967295
238.55083 81.945702 -58.355896 4294967295
238.5594 85.70787 -57.938866 4294967295
238.56055 82.283218 -58.359276 4294967295
238.57336 76.181625 -58.609447 4294967295
238.58133 81.279564 -58.269489 4294967295
238.58583 80.94455 -58.243423 4294967295
238.59082 76.855621 -58.619446 4294967295
238.6273 78.204018 -58.636955 4294967295
238.62843 82.967026 -58.289036 4294967295
238.62953 78.539978 -58.652275 4294967295
238.66396 77.203278 -58.522003 4294967295
238.67937 83.647957 -58.245804 4294967295
238.6805 81.63295 -58.130573 4294967295
238.69353 82.642914 -58.166565 4294967295
238.72066 77.548332 -58.450706 4294967295
238.72371 79.562889 -58.559155 4294967295
238.74532 77.888145 -58.430336 4294967295
238.7477 84.332275 -58.174835 4294967295
238.75616 83.326073 -58.10466 4294967295
238.75647 83.997986 -58.141953 4294967295
238.76871 78.8992 -58.449825 4294967295
238.77315 80.242775 -58.518295 4294967295
238.7814 79.237076 -58.448509 4294967295
238.79884 79.911514 -58.458527 4294967295
238.81671 80.921791 -58.486763 4294967295
238.82002 85.689491 -58.135368 4294967295
238.82048 85.353615 -58.115757 4294967295
238.8412 84.685539 -58.044914 4294967295
238.86841 76.170494 -58.750267 4294967295
238.89435 80.599602 -58.344452 4294967295
238.89926 76.511086 -58.720089 4294967295
238.91179 82.28167 -58.411148 4294967295
238.92442 81.948128 -58.372192 4294967295
238.92517 81.612442 -58.352108 4294967295
238.92845 77.858192 -58.749218 4294967295
238.93988 82.622513 -58.385426 4294967295
238.94653 77.190018 -58.682732 4294967295
238.96063 77.527962 -58.679173 4294967295
238.96475 78.199867 -58.710415 4294967295
238.98239 81.286713 -58.242222 4294967295
238.99228 82.967804 -58.320992 4294967295
238.99974 76.863144 -58.579285 4294967295
239.01155 78.879005 -58.673752 4294967295
239.02014 84.652184 -58.371185 4294967295
239.04323 83.648811 -58.277824 4294967295
239.04341 78.548737 -58.604301 4294967295
239.04971 83.985886 -58.286392 4294967295
239.0775 79.225891 -58.587929 4294967295
239.09346 85.673523 -58.31131 4294967295
239.11418 84.333672 -58.202827 4294967295
239.12869 79.570358 -58.525448 4294967295
239.13455 76.154701 -58.936817 4294967295
239.13765 79.907639 -58.530113 4294967295
239.13953 80.915161 -58.583786 4294967295
239.15501 81.58934 -58.596962 4294967295
239.15758 81.925537 -58.611755 4294967295
239.17052 76.496048 -58.89859 4294967295
239.17381 85.352654 -58.164722 4294967295
239.18591 76.834106 -58.893066 4294967295
239.20425 81.262283 -58.499832 4294967295
239.20786 77.508797 -58.895924 4294967295
239.2079 80.255547 -58.437416 4294967295
239.22075 80.593582 -58.435894 4294967295
239.22997 77.848038 -58.879677 4294967295
239.2375 77.178146 -58.829994 4294967295
239.24321 78.185799 -58.877571 4294967295
239.25186 82.949722 -58.518719 4294967295
239.27687 78.527046 -58.842976 4294967295
239.29028 83.628334 -58.49543 4294967295
239.3091 79.53933 -58.848488 4294967295
239.3304 83.971497 -58.450634 4294967295
239.36453 78.877487 -58.722767 4294967295
239.36536 79.884621 -58.77808 4294967295
239.36649 84.649895 -58.431087 4294967295
239.37196 84.315018 -58.403492 4294967295
239.37334 85.322937 -58.457985 4294967295
239.3931 79.218033 -58.696285 4294967295
239.4171 80.564919 -58.733719 4294967295
239.42886 81.238365 -58.752808 4294967295
239.43759 85.670876 -58.374882 4294967295
239.44307 81.576576 -58.749107 4294967295
239.44673 76.146378 -59.050179 4294967295
239.46448 80.908897 -58.677399 4294967295
239.47409 80.239098 -58.624397 4294967295
239.49252 82.592529 -58.727295 4294967295
239.51532 76.828583 -58.979141 4294967295
239.52425 77.501137 -59.002747 4294967295
239.54512 76.497894 -58.912998 4294967295
239.55957 81.932976 -58.583138 4294967295
239.56125 77.171684 -58.925209 4294967295
239.56149 82.269112 -58.59901 4294967295
239.56992 83.9496 -58.680046 4294967295
239.57559 84.286423 -58.689949 4294967295
239.58308 83.280411 -58.621395 4294967295
239.58694 82.94529 -58.596352 4294967295
239.60333 83.619896 -58.608162 4294967295
239.61223 79.193748 -58.957542 4294967295
239.61244 84.964828 -58.669243 4294967295
239.61308 78.52269 -58.91853 4294967295
239.61868 78.188034 -58.890724 4294967295
239.63261 77.854721 -58.849758 4294967295
239.6692 79.874733 -58.90498 4294967295
239.68214 84.641914 -58.539795 4294967295
239.6841 79.541649 -58.862461 4294967295
239.69391 85.315865 -58.558907 4294967295
239.6998 78.872986 -58.799877 4294967295
239.70775 85.65432 -58.555855 4294967295
239.72368 80.219795 -58.837528 4294967295
239.75867 81.232971 -58.838631 4294967295
239.75888 80.561592 -58.800552 4294967295
239.78149 80.90126 -58.783585 4294967295
239.78246 78.1548 -59.239414 4294967295
239.81837 82.25071 -58.800621 4294967295
239.83679 77.828354 -59.134487 4294967295
239.83904 81.582863 -58.730141 4294967295
239.84331 82.590919 -58.780037 4294967295
239.87285 79.176559 -59.152809 4294967295
239.87387 81.92482 -58.693771 4294967295
239.92639 83.277481 -58.6861 4294967295
239.93036 82.942368 -58.660904 4294967295
239.94006 83.95163 -58.702156 4294967295
239.94206 84.287811 -58.717873 4294967295
239.94496 78.517601 -59.000904 4294967295
239.95273 78.854538 -59.007431 4294967295
239.95763 79.526596 -59.037445 4294967295
239.96852 79.864075 -59.039013 4294967295
239.97453 80.200737 -59.048374 4294967295
239.97516 85.301445 -58.722115 4294967295
239.98166 84.630959 -58.674007 4294967295
240.00299 84.970764 -58.659134 4294967295
240.02916 85.647415 -58.655384 4294967295
240.09627 80.893227 -58.893291 4294967295
240.12022 80.561661 -58.836563 4294967295
240.14841 81.238091 -58.829651 4294967295
240.15063 82.245758 -58.882729 4294967295
240.15785 81.911278 -58.852425 4294967295
240.23535 83.268326 -58.805206 4294967295
240.24197 83.941162 -58.832535 4294967295
240.25984 85.623497 -58.898598 4294967295
240.26085 82.937103 -58.745964 4294967295
240.27431 84.618736 -58.819084 4294967295
240.2804 83.612343 -58.752773 4294967295
240.28603 85.292572 -58.838242 4294967295
240.33685 84.966164 -58.738945 4294967295
240.41107 81.892311 -59.059593 4294967295
240.44054 82.568985 -59.05072 4294967295
240.44272 81.226456 -58.971817 4294967295
240.45953 81.565163 -58.964073 4294967295
240.48021 83.91906 -59.063457 4294967295
240.51768 83.254349 -58.966473 4294967295
240.52094 82.919167 -58.942451 4294967295
240.53661 82.250374 -58.879921 4294967295
240.608 83.60656 -58.842491 4294967295
240.60809 84.61412 -58.898933 4294967295
240.62061 85.62397 -58.935783 4294967295
240.63495 84.283203 -58.837563 4294967295
240.66196 84.95993 -58.832672 4294967295
240.88359 84.598755 -59.070934 4294967295
240.96718 85.621765 -58.995522 4294967295
240.97612 84.951683 -58.943645 4294967295
224.75076 92.620888 -52.07753 4294967295
224.76506 93.634514 -52.11113 4294967295
224.79131 92.966499 -52.028946 4294967295
224.84283 94.662201 -52.038704 4294967295
225.0363 92.94281 -52.258118 4294967295
225.06345 93.622322 -52.251144 4294967295
225.08403 92.279434 -52.14006 4294967295
225.13098 94.647682 -52.195854 4294967295
225.14497 93.303215 -52.095844 4294967295
225.14977 92.630432 -52.049484 4294967295
225.20103 94.326218 -52.059742 4294967295
225.2204 95.341316 -52.08498 4294967295
225.23766 95.008209 -52.036934 4294967295
225.38618 91.931297 -52.254639 4294967295
225.41174 92.610481 -52.250359 4294967295
225.43784 92.279205 -52.18766 4294967295
225.46478 92.958786 -52.181004 4294967295
225.4657 93.295883 -52.19865 4294967295
225.4743 94.645332 -52.260971 4294967295
225.48474 91.615372 -52.071045 4294967295
225.48927 94.311737 -52.216858 4294967295
225.49883 94.987656 -52.239262 4294967295
225.51952 93.981445 -52.147224 4294967295
225.54066 95.333878 -52.188614 4294967295
225.55801 93.652893 -52.06385 4294967295
225.6088 91.903122 -52.520836 4294967295
225.64633 91.574326 -52.439079 4294967295
225.69162 92.594383 -52.421131 4294967295
225.71675 92.262947 -52.360104 4294967295
225.72273 93.274765 -52.407547 4294967295
225.73083 93.950203 -52.432365 4294967295
225.73257 92.940041 -52.372036 4294967295
225.7365 91.256561 -52.269684 4294967295
225.73671 94.625153 -52.460945 4294967295
225.76552 94.968346 -52.432098 4294967295
225.78505 94.298927 -52.361217 4294967295
225.81648 95.316528 -52.366379 4294967295
225.85098 93.639503 -52.213074 4294967295
225.94876 91.563156 -52.572128 4294967295
225.95007 91.226669 -52.550789 4294967295
225.98433 91.907501 -52.532059 4294967295
225.9855 90.897324 -52.472691 4294967295
226.05278 92.258919 -52.437283 4294967295
226.06194 94.281982 -52.536972 4294967295
226.06436 92.93512 -52.456306 4294967295
226.07684 93.274673 -52.454735 4294967295
226.08505 93.950188 -52.479401 4294967295
226.09259 92.604309 -52.390182 4294967295
226.09532 93.615555 -52.443119 4294967295
226.11694 94.630936 -52.464607 4294967295
226.14824 94.974739 -52.431683 4294967295
226.19861 95.322838 -52.366997 4294967295
226.20782 91.206131 -52.758011 4294967295
226.23886 90.875923 -52.687286 4294967295
226.26411 92.228264 -52.721878 4294967295
226.26492 93.238686 -52.777962 4294967295
226.27057 90.545792 -52.615429 4294967295
226.27089 92.566483 -52.729744 4294967295
226.28453 91.559074 -52.649612 4294967295
226.2932 91.89769 -52.654366 4294967295
226.35403 93.59478 -52.648968 4294967295
226.37616 92.925888 -52.57386 4294967295
226.39488 89.897903 -52.370403 4294967295
226.39903 93.941399 -52.5933 4294967295
226.40128 94.952454 -52.647041 4294967295
226.47723 95.306152 -52.539917 4294967295
226.49092 90.517586 -52.884689 4294967295
226.51489 94.640594 -52.439041 4294967295
226.5403 91.20134 -52.840897 4294967295
226.57359 90.87159 -52.766479 4294967295
226.58321 90.20005 -52.712254 4294967295
226.61963 92.565186 -52.785709 4294967295
226.6492 91.561066 -52.67918 4294967295
226.65567 91.899269 -52.687592 4294967295
226.68178 93.252159 -52.720802 4294967295
226.68674 93.59005 -52.731743 4294967295
226.70767 92.247177 -52.620323 4294967295
226.70984 93.931923 -52.712456 4294967295
226.73515 89.220772 -52.402374 4294967295
226.73796 94.274933 -52.684925 4294967295
226.74413 95.28688 -52.732113 4294967295
226.77972 94.620972 -52.634743 4294967295
226.79272 92.939186 -52.517433 4294967295
226.79417 90.170029 -52.996899 4294967295
226.83347 91.861664 -53.027328 4294967295
226.85573 94.974648 -52.527695 4294967295
226.86227 90.520874 -52.903011 4294967295
226.89346 89.517052 -52.793858 4294967295
226.92857 91.208267 -52.831287 4294967295
226.93536 89.862465 -52.743507 4294967295
226.95267 92.560524 -52.867882 4294967295
226.95268 90.876511 -52.772171 4294967295
226.95609 92.224464 -52.843048 4294967295
226.95779 91.551216 -52.801918 4294967295
226.96397 93.236542 -52.887386 4294967295
226.99965 93.917877 -52.866497 4294967295
227.00731 92.909058 -52.796349 4294967295
227.01273 94.594383 -52.883053 4294967295
227.04538 94.264694 -52.809776 4294967295
227.05341 90.150032 -53.201149 4294967295
227.05875 94.941338 -52.825851 4294967295
227.0939 95.285973 -52.786682 4294967295
227.1136 89.489143 -53.063129 4294967295
227.11375 88.5513 -52.370811 4294967295
227.12848 89.828888 -53.057587 4294967295
227.13394 90.50341 -53.086727 4294967295
227.14766 91.179649 -53.102314 4294967295
227.18575 89.167198 -52.924377 4294967295
227.19545 91.863152 -53.061348 4294967295
227.20595 92.202095 -53.063103 4294967295
227.22003 90.858093 -52.9632 4294967295
227.22597 92.543098 -53.049034 4294967295
227.26109 93.560921 -53.048252 4294967295
227.2811 91.544472 -52.900238 4294967295
227.28868 93.230118 -52.983345 4294967295
227.29808 94.916077 -53.063446 4294967295
227.32367 94.584908 -53.001926 4294967295
227.3586 92.90831 -52.848389 4294967295
227.37413 95.269684 -52.956596 4294967295
227.38438 93.924492 -52.863068 4294967295
227.39368 87.524826 -52.483974 4294967295
227.39734 88.464363 -53.169289 4294967295
227.4151 90.151283 -53.235519 4294967295
227.41638 89.814873 -53.214291 4294967295
227.41786 89.141861 -53.173546 4294967295
227.43074 90.491173 -53.228745 4294967295
227.43965 94.273445 -52.790588 4294967295
227.47522 88.816833 -53.059509 4294967295
227.47961 89.49118 -53.090424 4294967295
227.49695 86.127068 -52.870495 4294967295
227.51682 90.845802 -53.105343 4294967295
227.54549 91.188545 -53.077011 4294967295
227.55078 92.536705 -53.144703 4294967295
227.55585 92.201019 -53.117195 4294967295
227.55925 91.528214 -53.073349 4294967295
227.56966 91.867188 -53.075264 4294967295
227.58815 94.228523 -53.178505 4294967295
227.58859 93.891846 -53.158676 4294967295
227.60353 86.077988 -53.327324 4294967295
227.61972 87.232712 -52.090054 4294967295
227.62633 86.89682 -52.059952 4294967295
227.62756 89.448547 -53.478657 4294967295
227.63397 92.891273 -53.026161 4294967295
227.63635 95.249428 -53.156067 4294967295
227.64078 85.818268 -52.613075 4294967295
227.65054 93.568497 -53.036987 4294967295
227.67349 93.23661 -52.979866 4294967295
227.67798 89.122269 -53.37611 4294967295
227.67841 88.449112 -53.3372 4294967295
227.69844 88.789803 -53.323185 4294967295
227.69879 88.116592 -53.284325 4294967295
227.71217 94.929321 -53.011494 4294967295
227.73843 89.807907 -53.314392 4294967295
227.73878 91.491226 -53.409367 4294967295
227.79225 90.492401 -53.263565 4294967295
227.80046 92.177582 -53.345562 4294967295
227.8019 91.167816 -53.285847 4294967295
227.81491 91.843948 -53.30262 4294967295
227.84921 90.840981 -53.188461 4294967295
227.87143 86.397034 -53.535778 4294967295
227.88068 90.173958 -53.098213 4294967295
227.90427 87.413132 -53.538826 4294967295
227.90553 92.536674 -53.190941 4294967295
227.91122 93.548218 -53.238926 4294967295
227.92867 86.071655 -53.42207 4294967295
227.93633 89.775429 -53.619572 4294967295
227.93945 86.746956 -53.442471 4294967295
227.94266 93.218208 -53.167816 4294967295
227.95308 92.883636 -53.13147 4294967295
227.95499 93.894478 -53.185669 4294967295
227.95584 87.086784 -53.434517 4294967295
227.96016 89.107185 -53.542 4294967295
227.96565 88.435127 -53.494736 4294967295
227.97421 94.572289 -53.192154 4294967295
227.99965 94.914688 -53.169201 4294967295
228.0042 88.106277 -53.411934 4294967295
228.02846 87.77449 -53.352737 4294967295
228.03987 94.249786 -53.064423 4294967295
228.04189 89.46048 -53.426029 4294967295
228.05701 91.14682 -53.496651 4294967295
228.0636 90.474899 -53.447556 4294967295
228.06874 90.139297 -53.419949 4294967295
228.09186 91.827438 -53.477268 4294967295
228.10486 86.036285 -53.762817 4294967295
228.12723 88.804459 -53.246811 4294967295
228.14082 86.716263 -53.741631 4294967295
228.1595 86.38343 -53.691727 4294967295
228.17833 87.39666 -53.71788 4294967295
228.19011 93.195168 -53.391449 4294967295
228.19177 90.838264 -53.254864 4294967295
228.19278 92.859001 -53.367916 4294967295
228.19382 91.512222 -53.289703 4294967295
228.19637 92.523018 -53.34288 4294967295
228.2007 93.534172 -53.393051 4294967295
228.20572 92.188248 -53.308304 4294967295
228.24457 87.07325 -53.589462 4294967295
228.2494 88.083908 -53.638741 4294967295
228.25203 90.103714 -53.749004 4294967295
228.28543 93.889282 -53.272202 4294967295
228.29675 87.756798 -53.541473 4294967295
228.31133 94.905388 -53.286785 4294967295
228.31879 94.57019 -53.255367 4294967295
228.31914 88.771133 -53.561871 4294967295
228.32027 89.444595 -53.59819 4294967295
228.32085 89.108101 -53.578159 4294967295
228.32764 88.436226 -53.528744 4294967295
228.4192 90.474884 -53.492207 4294967295
228.42342 91.822479 -53.561722 4294967295
228.42393 90.812546 -53.50351 4294967295
228.43452 89.804649 -53.428738 4294967295
228.43918 92.162483 -53.554794 4294967295
228.44537 91.153709 -53.487263 4294967295
228.44817 86.706436 -53.865593 4294967295
228.45651 87.044556 -53.87088 4294967295
228.4713 92.505997 -53.520905 4294967295
228.48436 92.845482 -53.518501 4294967295
228.49522 86.042671 -53.749802 4294967295
228.50369 86.380836 -53.754929 4294967295
228.51727 93.189262 -53.483269 4294967295
228.52914 91.507996 -53.368122 4294967295
228.53403 93.529602 -53.474739 4294967295
228.55519 94.20771 -53.478004 4294967295
228.55612 88.746971 -53.802105 4294967295
228.56047 87.738205 -53.737648 4294967295
228.57292 88.077248 -53.736237 4294967295
228.59932 89.428864 -53.769043 4294967295
228.60555 87.410606 -53.644196 4294967295
228.61186 95.230446 -53.441887 4294967295
228.63292 94.561447 -53.368866 4294967295
228.63773 94.899315 -53.380077 4294967295
228.64412 93.890198 -53.31221 4294967295
228.66341 89.105316 -53.644295 4294967295
228.68161 91.465424 -53.747971 4294967295
228.6926 88.437912 -53.557995 4294967295
228.69505 91.131622 -53.706703 4294967295
228.7085 90.124466 -53.627285 4294967295
228.71516 89.789177 -53.597153 4294967295
228.72487 90.801186 -53.63847 4294967295
228.73926 90.467491 -53.595634 4294967295
228.75304 86.359695 -53.974495 4294967295
228.79074 86.030579 -53.893276 4294967295
228.79768 91.8265 -53.575733 4294967295
228.80328 93.174538 -53.642944 4294967295
228.8047 92.164696 -53.58329 4294967295
228.81297 87.044426 -53.913929 4294967295
228.82825 92.843163 -53.582703 4294967295
228.83382 87.385056 -53.898624 4294967295
228.83551 93.518188 -53.608906 4294967295
228.83676 87.722153 -53.912933 4294967295
228.84383 88.733093 -53.958496 4294967295
228.85547 92.512215 -53.518692 4294967295
228.86066 86.717293 -53.816254 4294967295
228.86531 88.064384 -53.884926 4294967295
228.87672 93.863823 -53.560078 4294967295
228.87689 94.200615 -53.578888 4294967295
228.88745 95.213203 -53.618828 4294967295
228.89267 88.406418 -53.858971 4294967295
228.94051 90.435539 -53.894714 4294967295
228.96298 89.093781 -53.781384 4294967295
228.96645 94.556923 -53.450432 4294967295
228.97343 89.432526 -53.783249 4294967295
228.98604 90.781563 -53.83886 4294967295
228.99481 94.899971 -53.422787 4294967295
229.01251 90.113777 -53.757072 4294967295
229.03268 89.781265 -53.704765 4294967295
229.03693 87.01815 -54.17511 4294967295
229.05772 87.358688 -54.15992 4294967295
229.06296 86.35041 -54.094093 4294967295
229.06873 92.145432 -53.779083 4294967295
229.07275 88.034523 -54.173336 4294967295
229.0762 86.689453 -54.091389 4294967295
229.08246 86.017761 -54.042912 4294967295
229.12589 91.484077 -53.646694 4294967295
229.13394 91.822502 -53.652592 4294967295
229.14479 92.49826 -53.672905 4294967295
229.1577 93.174484 -53.689842 4294967295
229.17642 94.525459 -53.73547 4294967295
229.17986 94.86293 -53.748863 4294967295
229.18297 93.853409 -53.686424 4294967295
229.18494 89.066521 -54.046059 4294967295
229.189 89.740379 -54.077499 4294967295
229.19106 94.191902 -53.692215 4294967295
229.19785 93.519852 -53.642853 4294967295
229.2141 92.849777 -53.577896 4294967295
229.21857 87.727112 -53.914345 4294967295
229.2196 88.400459 -53.950779 4294967295
229.22794 90.0849 -54.032524 4294967295
229.23831 91.096672 -54.072693 4294967295
229.26451 89.41925 -53.934196 4294967295
229.27803 95.221268 -53.606392 4294967295
229.27809 90.768372 -53.988194 4294967295
229.31471 90.439362 -53.908821 4294967295
229.32095 85.994621 -54.279942 4294967295
229.32549 92.461273 -54.005638 4294967295
229.33939 91.790993 -53.944611 4294967295
229.34663 87.008812 -54.29496 4294967295
229.34715 93.139107 -54.008209 4294967295
229.35674 86.337982 -54.240211 4294967295
229.37093 86.677177 -54.235901 4294967295
229.38791 91.464516 -53.84568 4294967295
229.38846 92.137978 -53.882988 4294967295
229.41707 87.359146 -54.198193 4294967295
229.4464 92.823639 -53.825867 4294967295
229.44867 94.507614 -53.917557 4294967295
229.46716 88.378555 -54.173141 4294967295
229.47603 87.707321 -54.12043 4294967295
229.47626 94.850342 -53.891319 4294967295
229.48077 93.841164 -53.826637 4294967295
229.50151 88.04892 -54.097588 4294967295
229.50714 93.510109 -53.764149 4294967295
229.5106 89.396843 -54.158966 4294967295
229.52191 94.186821 -53.778042 4294967295
229.52684 95.198151 -53.827255 4294967295
229.52864 90.746605 -54.205608 4294967295
229.55185 90.078339 -54.129318 4294967295
229.59024 89.749641 -54.047115 4294967295
229.59715 88.741257 -53.978539 4294967295
229.6114 91.100357 -54.088696 4294967295
229.63237 90.43148 -54.01609 4294967295
229.66167 85.991333 -54.348816 4294967295
229.66649 92.458328 -54.074547 4294967295
229.69382 92.12748 -54.010513 4294967295
229.69576 91.454582 -53.969151 4294967295
229.70599 87.34568 -54.352306 4294967295
229.7112 87.010269 -54.324657 4294967295
229.71494 91.795265 -53.95673 4294967295
229.71544 86.674675 -54.29863 4294967295
229.72409 93.143875 -54.018032 4294967295
229.73785 88.697769 -54.376266 4294967295
229.76074 93.488403 -53.976891 4294967295
229.78555 86.351891 -54.164455 4294967295
229.81224 90.058739 -54.330425 4294967295
229.81314 87.703384 -54.19545 4294967295
229.81517 94.847023 -53.963852 4294967295
229.82504 88.042282 -54.194954 4294967295
229.83107 89.726097 -54.280388 4294967295
229.83157 89.389687 -54.260517 4294967295
229.84233 93.842697 -53.861935 4294967295
229.85408 88.384636 -54.16634 4294967295
229.86533 90.406174 -54.262325 4294967295
229.87352 95.196548 -53.887108 4294967295
229.8793 94.524261 -53.839409 4294967295
229.88281 89.063538 -54.157326 4294967295
229.89841 91.759201 -54.284336 4294967295
229.92725 85.973488 -54.540993 4294967295
229.93498 91.093704 -54.18615 4294967295
229.9519 86.314644 -54.5196 4294967295
229.96434 90.763206 -54.118851 4294967295
229.96786 86.990509 -54.531521 4294967295
230.0161 92.120552 -54.110245 4294967295
230.02299 91.448685 -54.060734 4294967295
230.02769 88.684372 -54.528679 4294967295
230.03673 93.134888 -54.133621 4294967295
230.04045 86.668327 -54.393402 4294967295
230.04933 88.015862 -54.45509 4294967295
230.06532 92.467621 -54.048542 4294967295
230.0715 93.478996 -54.09565 4294967295
230.07236 88.356903 -54.436378 4294967295
230.0817 94.154549 -54.117088 4294967295
230.10031 92.811752 -54.010136 4294967295
230.11502 87.355942 -54.309219 4294967295
230.13335 95.512596 -54.108665 4294967295
230.15018 95.179588 -54.061954 4294967295
230.15556 89.383148 -54.357143 4294967295
230.15974 89.04747 -54.331215 4294967295
230.18692 89.726059 -54.324787 4294967295
230.22676 94.859589 -53.917179 4294967295
230.24519 90.074539 -54.248291 4294967295
230.27806 86.64492 -54.631378 4294967295
230.28883 86.983398 -54.632816 4294967295
230.29941 92.105415 -54.273869 4294967295
230.30592 85.977562 -54.547611 4294967295
230.30852 91.434082 -54.220718 4294967295
230.31116 87.324173 -54.615288 4294967295
230.33128 90.765526 -54.145233 4294967295
230.36296 91.782127 -54.150566 4294967295
230.36978 93.466911 -54.234737 4294967295
230.37534 92.794769 -54.187489 4294967295
230.37895 88.683327 -54.580448 4294967295
230.40248 92.463837 -54.123913 4294967295
230.40535 89.025093 -54.556225 4294967295
230.40976 88.353065 -54.510933 4294967295
230.43288 94.827271 -54.207638 4294967295
230.43622 93.14444 -54.106739 4294967295
230.44777 94.157082 -54.145065 4294967295
230.45297 93.82148 -54.117477 4294967295
230.45416 90.044426 -54.533459 4294967295
230.46233 89.3731 -54.481937 4294967295
230.47243 89.71167 -54.484512 4294967295
230.47246 94.499168 -54.123657 4294967295
230.48769 90.387802 -54.497635 4294967295
230.54645 91.746124 -54.477615 4294967295
230.55161 95.526772 -54.051208 4294967295
230.57103 92.087837 -54.456413 4294967295
230.57343 91.415199 -54.414368 4294967295
230.6008 85.965401 -54.69165 4294967295
230.60284 91.084732 -54.347099 4294967295
230.61827 90.751305 -54.302803 4294967295
230.62857 92.436569 -54.381298 4294967295
230.64223 86.982643 -54.680969 4294967295
230.66895 87.324318 -54.65633 4294967295
230.66963 88.33371 -54.712337 4294967295
230.67001 93.118622 -54.35154 4294967295
230.67009 86.315239 -54.597324 4294967295
230.6803 92.784157 -54.315598 4294967295
230.68848 88.001045 -54.662483 4294967295
230.69656 94.134262 -54.365288 4294967295
230.69815 87.666519 -54.627625 4294967295
230.70587 86.658669 -54.557728 4294967295
230.71571 94.475067 -54.352985 4294967295
230.72285 89.353691 -54.682457 4294967295
230.74181 88.684601 -54.613319 4294967295
230.75183 89.696045 -54.654072 4294967295
230.77748 90.374245 -54.650219 4294967295
230.80173 95.503944 -54.269348 4294967295
230.8033 91.389038 -54.665169 4294967295
230.81581 89.036011 -54.511246 4294967295
230.81805 95.170792 -54.223557 4294967295
230.83768 91.732727 -54.62796 4294967295
230.84871 85.944176 -54.912434 4294967295
230.85417 86.617851 -54.941536 4294967295
230.85846 90.727448 -54.536758 4294967295
230.86073 86.282822 -54.91177 4294967295
230.89166 87.634163 -54.937401 4294967295
230.89339 86.961838 -54.8965 4294967295
230.90242 92.082855 -54.541069 4294967295
230.90961 93.094086 -54.586494 4294967295
230.91406 87.974945 -54.919838 4294967295
230.91472 93.431732 -54.597218 4294967295
230.92273 92.7603 -54.545959 4294967295
230.93109 92.425476 -54.513241 4294967295
230.95158 91.083313 -54.403431 4294967295
230.96887 87.313049 -54.792065 4294967295
231.00145 94.46022 -54.512505 4294967295
231.00435 94.124207 -54.488728 4294967295
231.01442 89.677017 -54.851021 4294967295
231.01727 88.331902 -54.770115 4294967295
231.02513 90.015625 -54.852516 4294967295
231.0401 95.478577 -54.5065 4294967295
231.04808 90.35675 -54.834045 4294967295
231.071 95.148674 -54.436905 4294967295
231.08308 89.018028 -54.700607 4294967295
231.09457 88.683853 -54.662754 4294967295
231.13074 89.364166 -54.641777 4294967295
231.14174 94.827393 -54.302094 4294967295
231.16875 90.718063 -54.655884 4294967295
231.17021 85.93718 -55.01268 4294967295
231.18283 86.275948 -55.011063 4294967295
231.20305 91.398277 -54.637913 4294967295
231.23207 91.067726 -54.571407 4294967295
231.23361 91.741234 -54.606976 4294967295
231.2449 92.080193 -54.607635 4294967295
231.24792 93.090584 -54.659866 4294967295
231.29912 87.644157 -54.897339 4294967295
231.31071 87.982864 -54.897385 4294967295
231.34021 94.120209 -54.566242 4294967295
231.34315 93.447525 -54.523277 4294967295
231.35371 93.786446 -54.525116 4294967295
231.37286 89.677513 -54.891132 4294967295
231.38098 95.475723 -54.575836 4294967295
231.38861 94.467346 -54.506203 4294967295
231.39047 90.017532 -54.881454 4294967295
231.39555 89.009171 -54.816025 4294967295
231.40007 89.346558 -54.827702 4294967295
231.40802 88.338684 -54.757549 4294967295
231.45274 90.703285 -54.81781 4294967295
231.47427 94.822655 -54.385323 4294967295
231.48415 90.373215 -54.747528 4294967295
231.51506 93.071953 -54.849419 4294967295
231.52274 91.727394 -54.760689 4294967295
231.53067 91.055923 -54.709652 4294967295
231.53894 93.413582 -54.829529 4294967295
231.54065 86.948677 -55.090164 4294967295
231.55315 91.397163 -54.692001 4294967295
231.55867 86.615837 -55.041725 4294967295
231.56194 86.280113 -55.017365 4294967295
231.56627 92.409676 -54.727745 4294967295
231.57591 94.431198 -54.826309 4294967295
231.59805 93.76281 -54.752048 4294967295
231.61212 87.971878 -55.030647 4294967295
231.61264 94.102539 -54.747364 4294967295
231.63666 87.640312 -54.9716 4294967295
231.63867 89.659172 -55.082527 4294967295
231.65369 88.98938 -55.020012 4294967295
231.65689 87.307861 -54.919563 4294967295
231.66711 92.767609 -54.582191 4294967295
231.66739 89.328575 -55.016701 4294967295
231.67662 88.321114 -54.944473 4294967295
231.69131 88.660507 -54.939545 4294967295
231.70415 94.795624 -54.636093 4294967295
231.71126 90.683266 -55.021275 4294967295
231.73848 91.025337 -54.995918 4294967295
231.74268 95.477417 -54.61137 4294967295
231.74776 85.910599 -55.319866 4294967295
231.7567 90.019623 -54.909073 4294967295
231.76286 90.357391 -54.918079 4294967295
231.7747 86.588326 -55.314026 4294967295
231.80707 91.376053 -54.903069 4294967295
231.82777 87.271263 -55.265579 4294967295
231.82837 86.262451 -55.207512 4294967295
231.84583 92.393776 -54.897018 4294967295
231.84831 86.938965 -55.213081 4294967295
231.86163 91.723961 -54.833141 4294967295
231.88423 92.065269 -54.815342 4294967295
231.88692 93.748726 -54.906235 4294967295
231.89589 87.957367 -55.192581 4294967295
231.89818 87.621468 -55.16983 4294967295
231.90685 94.42617 -54.911781 4294967295
231.92943 94.767632 -54.894035 4294967295
231.93398 93.422195 -54.81044 4294967295
231.94286 89.312248 -55.192238 4294967295
231.94695 93.088326 -54.770229 4294967295
231.94945 94.098747 -54.823265 4294967295
231.96661 88.3078 -55.096413 4294967295
231.97337 88.981995 -55.123455 4294967295
231.97531 92.757698 -54.704872 4294967295
231.98418 95.116165 -54.823814 4294967295
231.98541 95.453064 -54.840851 4294967295
232.00912 89.998497 -55.122303 4294967295
232.01758 91.345963 -55.184624 4294967295
232.02982 90.33918 -55.107597 4294967295
232.03369 90.676422 -55.120342 4294967295
232.0352 89.667358 -55.060753 4294967295
232.07002 91.693321 -55.118233 4294967295
232.0715 92.030083 -55.134892 4294967295
232.09544 86.5812 -55.415443 4294967295
232.09604 86.245056 -55.395424 4294967295
232.09927 85.909401 -55.371124 4294967295
232.13077 93.052032 -55.095459 4294967295
232.1525 92.383583 -55.021957 4294967295
232.17743 88.951393 -55.415142 4294967295
232.18854 94.410484 -55.07756 4294967295
232.19598 93.402428 -55.008274 4294967295
232.20255 92.730682 -54.959492 4294967295
232.21198 86.940208 -55.244736 4294967295
232.21217 88.285683 -55.320526 4294967295
232.21928 87.950729 -55.289913 4294967295
232.21994 88.623581 -55.326897 4294967295
