# .PCD v0.7 - Point Cloud Data file format
VERSION 0.7
FIELDS x y z rgb
SIZE 4 4 4 4
TYPE F F F U
COUNT 1 1 1 1
WIDTH 1145
HEIGHT 1
VIEWPOINT 0 0 0 1 0 0 0
POINTS 1145
DATA ascii
13.965883 11.80205 -16.010496 4294967295
13.970954 13.075501 -16.140211 4294967295
13.972552 9.0952883 -15.653878 4294967295
13.972781 8.4581966 -15.576151 4294967295
13.974851 11.642991 -15.949787 4294967295
13.977754 8.6174335 -15.572264 4294967295
13.980414 11.324652 -15.885695 4294967295
13.982371 10.210062 -15.742508 4294967295
13.987553 10.528575 -15.756819 4294967295
13.988455 8.7766371 -15.541822 4294967295
13.996303 9.4137478 -15.582108 4294967295
14.001186 10.68791 -15.712793 4294967295
14.003715 12.121073 -15.87352 4294967295
14.015532 9.8915987 -15.550478 4294967295
14.016921 10.369465 -15.601542 4294967295
14.022794 12.599114 -15.842605 4294967295
14.023095 12.91757 -15.879521 4294967295
14.034398 11.962356 -15.7122 4294967295
14.045218 12.758841 -15.757877 4294967295
14.04626 13.236601 -15.810534 4294967295
14.050091 12.440428 -15.69698 4294967295
14.054956 12.281252 -15.655275 4294967295
14.059051 13.714676 -15.808762 4294967295
14.066298 13.555636 -15.756036 4294967295
14.078101 7.8181 -15.766392 4294967295
14.087391 7.9772134 -15.742522 4294967295
14.094917 8.1363659 -15.72682 4294967295
14.096134 9.4102173 -15.874406 4294967295
14.09698 10.365441 -15.985381 4294967295
14.101943 8.295537 -15.713437 4294967295
14.102187 8.9325132 -15.788924 4294967295
14.109837 12.116515 -16.136463 4294967295
14.114484 12.912369 -16.210659 4294967295
14.115343 10.524736 -15.919524 4294967295
14.12174 9.5693979 -15.775002 4294967295
14.1225 12.275909 -16.097004 4294967295
14.125007 13.071769 -16.181112 4294967295
14.127259 8.613822 -15.634519 4294967295
14.131214 8.7730656 -15.635364 4294967295
14.133215 13.867724 -16.238831 4294967295
14.133237 8.4544878 -15.587677 4294967295
14.133364 10.206371 -15.797807 4294967295
14.13434 11.957754 -16.003925 4294967295
14.135417 12.435335 -16.056377 4294967295
14.137495 10.04714 -15.759525 4294967295
14.143303 9.2508259 -15.636858 4294967295
14.145466 9.8878984 -15.703472 4294967295
14.156211 12.754151 -15.99845 4294967295
14.164638 13.231941 -16.016899 4294967295
14.167072 10.843566 -15.718382 4294967295
14.172209 11.639891 -15.79038 4294967295
14.175254 9.7286301 -15.546406 4294967295
14.188077 11.480846 -15.697784 4294967295
14.195027 13.551176 -15.914595 4294967295
14.197845 11.799523 -15.690887 4294967295
14.199909 10.684529 -15.547231 4294967295
14.200908 11.162434 -15.60009 4294967295
14.202351 13.39215 -15.861566 4294967295
14.205279 12.595986 -15.752259 4294967295
14.222834 14.029702 -15.843405 4294967295
14.227455 7.8145323 -15.829038 4294967295
14.242895 8.9289379 -15.891627 4294967295
14.244479 8.6104813 -15.846012 4294967295
14.249547 9.8841724 -15.97571 4294967295
14.253786 9.7249699 -15.936968 4294967295
14.258377 9.4065323 -15.877453 4294967295
14.260379 10.520999 -16.002178 4294967295
14.27214 9.0880108 -15.775521 4294967295
14.284326 10.202681 -15.853181 4294967295
14.288201 11.158037 -15.950108 4294967295
14.288668 8.2915411 -15.603337 4294967295
14.291917 11.317288 -15.952075 4294967295
14.291989 13.545827 -16.219631 4294967295
14.294374 9.2471733 -15.691847 4294967295
14.304363 13.864498 -16.200718 4294967295
14.305984 13.387051 -16.135832 4294967295
14.306796 10.362013 -15.768428 4294967295
14.307182 10.83976 -15.824079 4294967295
14.309845 7.9726772 -15.467075 4294967295
14.311897 8.1319723 -15.476737 4294967295
14.313246 11.47677 -15.87262 4294967295
14.314266 10.043511 -15.695595 4294967295
14.31897 14.024115 -16.152363 4294967295
14.329156 12.432401 -15.913926 4294967295
14.329455 13.069274 -15.989098 4294967295
14.330079 9.5656557 -15.565028 4294967295
14.333652 12.591719 -15.91229 4294967295
14.334443 8.7690554 -15.449079 4294967295
14.337888 10.999283 -15.701269 4294967295
14.347365 13.228941 -15.925474 4294967295
14.356856 13.706875 -15.939038 4294967295
14.359056 12.273732 -15.756589 4294967295
14.372595 12.114702 -15.67487 4294967295
14.374744 12.751855 -15.741524 4294967295
14.380835 12.911265 -15.732523 4294967295
14.395002 8.2884111 -15.864959 4294967295
14.398833 7.9698935 -15.808986 4294967295
14.400728 14.185965 -15.793758 4294967295
14.409771 9.2436552 -15.911541 4294967295
14.41771 10.198932 -15.989667 4294967295
14.419069 8.128891 -15.734634 4294967295
14.422068 8.4473782 -15.759059 4294967295
14.424889 9.8805199 -15.918253 4294967295
14.443544 10.358251 -15.889496 4294967295
14.448224 9.4027758 -15.753065 4294967295
14.448527 11.791231 -16.038668 4294967295
14.451509 10.039797 -15.814445 4294967295
14.453846 11.313679 -15.956723 4294967295
14.454675 12.746481 -16.125057 4294967295
14.45561 10.995252 -15.910313 4294967295
14.457302 7.8098116 -15.519711 4294967295
14.459627 9.5620203 -15.719538 4294967295
14.460321 8.9248962 -15.639768 4294967295
14.460654 10.676821 -15.848753 4294967295
14.478466 11.950914 -15.919585 4294967295
14.484591 13.861545 -16.120859 4294967295
14.485011 11.47329 -15.831966 4294967295
14.488301 13.224865 -16.027231 4294967295
14.492589 12.588094 -15.93092 4294967295
14.495538 10.517775 -15.668534 4294967295
14.496933 14.18031 -16.102156 4294967295
14.499869 13.543593 -16.012096 4294967295
14.500725 9.0839853 -15.472284 4294967295
14.501993 8.7653027 -15.428129 4294967295
14.503658 12.110581 -15.822418 4294967295
14.504099 8.6059408 -15.399254 4294967295
14.508002 14.339874 -16.070204 4294967295
14.508893 13.703067 -15.989583 4294967295
14.531178 10.836628 -15.542245 4294967295
14.535763 11.633245 -15.616789 4294967295
14.544829 13.067041 -15.747193 4294967295
14.561807 14.50096 -15.841062 4294967295
14.562181 7.80688 -15.787888 4294967295
14.565064 12.430298 -15.57723 4294967295
14.567887 7.9660578 -15.780684 4294967295
14.569625 13.386253 -15.671025 4294967295
14.576018 8.6029825 -15.819679 4294967295
14.582772 8.4436665 -15.769389 4294967295
14.587435 8.1250782 -15.709611 4294967295
14.595038 9.2398758 -15.808441 4294967295
14.601313 10.354584 -15.913389 4294967295
14.604143 10.195358 -15.881208 4294967295
14.614922 10.83237 -15.907994 4294967295
14.616729 10.513901 -15.861409 4294967295
14.618754 11.150872 -15.928572 4294967295
14.622392 12.42466 -16.064775 4294967295
14.629411 8.2838984 -15.535057 4294967295
14.631978 11.310254 -15.886713 4294967295
14.635094 14.494365 -16.25474 4294967295
14.63869 14.335323 -16.219053 4294967295
14.640928 13.38029 -16.094036 4294967295
14.645823 9.080368 -15.555017 4294967295
14.659987 12.266154 -15.872313 4294967295
14.66503 10.036245 -15.581226 4294967295
14.667283 9.8769293 -15.551697 4294967295
14.669693 11.629254 -15.751049 4294967295
14.672832 11.947854 -15.774836 4294967295
14.673895 8.9208755 -15.406364 4294967295
14.674778 12.584955 -15.842373 4294967295
14.685344 8.7614346 -15.334399 4294967295
14.689395 11.788827 -15.679329 4294967295
14.693379 12.744623 -15.775738 4294967295
14.693803 14.655648 -16.003286 4294967295
14.694646 13.700242 -15.884662 4294967295
14.695637 14.018769 -15.918343 4294967295
14.709533 13.063562 -15.739528 4294967295
14.712955 13.860047 -15.819399 4294967295
14.716208 11.470565 -15.517414 4294967295
14.733809 13.542083 -15.685009 4294967295
14.740326 8.4399843 -15.79428 4294967295
14.756877 10.191673 -15.928329 4294967295
14.758611 9.8731947 -15.882107 4294967295
14.759546 8.2805119 -15.68658 4294967295
14.764128 9.7139454 -15.837569 4294967295
14.776102 9.3953924 -15.744153 4294967295
14.79129 8.1208391 -15.521149 4294967295
14.791824 11.625103 -15.939401 4294967295
14.791986 7.8021579 -15.479679 4294967295
14.792439 13.37648 -16.146805 4294967295
14.803491 13.217568 -16.076813 4294967295
14.803848 12.73993 -16.017828 4294967295
14.804981 7.9613252 -15.438918 4294967295
14.808707 8.7580023 -15.517403 4294967295
14.810761 10.032548 -15.660958 4294967295
14.811149 14.650555 -16.213537 4294967295
14.811389 9.0766497 -15.543304 4294967295
14.814958 11.306884 -15.794614 4294967295
14.815591 10.829048 -15.734329 4294967295
14.818444 13.695612 -16.065302 4294967295
14.821347 13.058793 -15.97548 4294967295
14.821697 14.17334 -16.107655 4294967295
14.831347 10.988477 -15.680873 4294967295
14.832555 11.944229 -15.790045 4294967295
14.84597 11.785151 -15.709138 4294967295
14.84786 12.10377 -15.738678 4294967295
14.851585 10.351327 -15.511136 4294967295
14.852195 12.26314 -15.737842 4294967295
14.852733 9.2358208 -15.371928 4294967295
14.857798 14.493003 -15.979697 4294967295
14.859571 10.510712 -15.493474 4294967295
14.87845 11.466959 -15.521291 4294967295
14.883561 13.538213 -15.746387 4294967295
14.890504 12.423183 -15.580546 4294967295
14.903335 13.857391 -15.693594 4294967295
14.906374 8.1176643 -15.741857 4294967295
14.908412 12.582888 -15.517208 4294967295
14.919052 9.7102728 -15.874638 4294967295
14.923034 8.5953512 -15.722519 4294967295
14.934669 9.0731421 -15.726314 4294967295
14.936204 9.2324238 -15.738362 4294967295
14.938714 10.506603 -15.879715 4294967295
14.948896 10.984447 -15.890195 4294967295
14.951226 10.3474 -15.803031 4294967295
14.951877 7.9577794 -15.513273 4294967295
14.952485 8.2764444 -15.548717 4294967295
14.964947 12.736355 -16.02655 4294967295
14.967121 7.7982183 -15.423971 4294967295
14.969593 10.028878 -15.680285 4294967295
14.9698 9.5509415 -15.62198 4294967295
14.970809 8.4355974 -15.483492 4294967295
14.973597 13.532681 -16.082291 4294967295
14.979945 12.418185 -15.919354 4294967295
14.982447 11.303333 -15.774069 4294967295
14.986384 10.66618 -15.679489 4294967295
14.990862 13.373922 -15.983791 4294967295
14.991129 11.144134 -15.71501 4294967295
14.9954 13.055543 -15.924705 4294967295
14.996582 11.462796 -15.728153 4294967295
14.99859 14.170325 -16.043785 4294967295
15.000817 12.577871 -15.842462 4294967295
15.004873 11.781509 -15.728242 4294967295
15.007744 13.21511 -15.887048 4294967295
15.008675 12.896593 -15.844544 4294967295
15.013577 10.825701 -15.573498 4294967295
15.014079 12.10026 -15.724123 4294967295
15.014283 10.188326 -15.493761 4294967295
15.014983 14.011609 -15.9493 4294967295
15.016926 11.622374 -15.653681 4294967295
15.025367 8.7538891 -15.270619 4294967295
15.042568 12.260087 -15.612199 4294967295
15.05382 11.941597 -15.522203 4294967295
15.056517 13.694302 -15.720095 4294967295
15.056608 13.853611 -15.738789 4294967295
15.059711 14.331613 -15.78186 4294967295
15.080959 9.069519 -15.803175 4294967295
15.09344 8.7508631 -15.707584 4294967295
15.098019 10.662202 -15.915799 4294967295
15.099595 10.184422 -15.851245 4294967295
15.100502 9.5473051 -15.770659 4294967295
15.10067 8.2728624 -15.617018 4294967295
15.109443 8.4320974 -15.595792 4294967295
15.111272 9.3879862 -15.702047 4294967295
15.133073 12.414442 -15.964839 4294967295
15.13957 10.343864 -15.686629 4294967295
15.143664 10.821815 -15.725139 4294967295
15.149157 8.1129541 -15.37497 4294967295
15.152964 7.9535184 -15.338347 4294967295
15.156111 8.5910263 -15.400354 4294967295
15.163861 13.529942 -15.957108 4294967295
15.165415 7.7939453 -15.261978 4294967295
15.173999 13.211679 -15.872342 4294967295
15.184143 10.981484 -15.558236 4294967295
15.185571 10.503429 -15.494334 4294967295
15.187973 11.300216 -15.578861 4294967295
15.192076 11.459609 -15.579122 4294967295
15.19371 9.706562 -15.361339 4294967295
15.194046 12.574956 -15.703837 4294967295
15.19621 9.8659554 -15.368971 4294967295
15.199687 13.053024 -15.735245 4294967295
15.202502 12.893776 -15.703203 4294967295
15.212523 10.025378 -15.313115 4294967295
15.214763 14.487172 -15.837945 4294967295
15.218068 12.097401 -15.536144 4294967295
15.22318 14.168857 -15.761083 4294967295
15.223779 13.85025 -15.720119 4294967295
15.227222 12.734999 -15.57054 4294967295
15.227688 11.938195 -15.472835 4294967295
15.229752 13.372437 -15.635362 4294967295
15.250479 8.7471857 -15.735066 4294967295
15.252428 14.010462 -15.60765 4294967295
15.258924 13.691948 -15.539596 4294967295
15.260496 14.648106 -15.647035 4294967295
15.269437 10.180789 -15.819915 4294967295
15.281885 8.5876141 -15.571751 4294967295
15.287602 10.977328 -15.832013 4294967295
15.293283 9.0655661 -15.576735 4294967295
15.297288 11.933121 -15.902137 4294967295
15.299619 9.5435667 -15.604955 4294967295
15.31032 9.3841982 -15.536719 4294967295
15.315068 8.2685595 -15.381161 4294967295
15.326003 8.4278412 -15.350056 4294967295
15.328348 12.730103 -15.855084 4294967295
15.330065 14.322813 -16.038126 4294967295
15.330485 13.685808 -15.959838 4294967295
15.332231 8.9059792 -15.378793 4294967295
15.332937 10.340348 -15.547522 4294967295
15.333058 10.659052 -15.585176 4294967295
15.333275 11.455738 -15.679693 4294967295
15.333762 9.7028913 -15.467307 4294967295
15.339537 14.482386 -16.013773 4294967295
15.346098 10.499774 -15.506217 4294967295
15.346247 9.2247028 -15.352663 4294967295
15.352074 7.7898383 -15.153876 4294967295
15.352219 13.367849 -15.821949 4294967295
15.359785 12.252803 -15.653543 4294967295
15.361382 11.774799 -15.588903 4294967295
15.366482 11.615517 -15.546398 4294967295
15.369887 12.412334 -15.626289 4294967295
15.370817 9.8622932 -15.316303 4294967295
15.376095 13.84644 -15.769706 4294967295
15.376497 11.137517 -15.443114 4294967295
15.382237 13.209312 -15.665131 4294967295
15.384314 13.528035 -15.693808 4294967295
15.384725 11.296994 -15.424464 4294967295
15.391626 14.16556 -15.736656 4294967295
15.405775 14.644015 -15.729055 4294967295
15.417092 12.572654 -15.428797 4294967295
15.430901 8.4246683 -15.617122 4294967295
15.438786 8.1058893 -15.542765 4294967295
15.449368 10.336498 -15.761556 4294967295
15.449462 9.0618925 -15.608378 4294967295
15.464846 10.65521 -15.728781 4294967295
15.471779 10.81458 -15.716086 4294967295
15.474153 8.7430172 -15.45695 4294967295
15.476739 8.2648296 -15.387782 4294967295
15.478687 11.770538 -15.798962 4294967295
15.478969 7.7865911 -15.320245 4294967295
15.488427 12.726502 -15.868849 4294967295
15.49782 10.017968 -15.501217 4294967295
15.501178 12.886084 -15.829507 4294967295
15.508548 10.177373 -15.471125 4294967295
15.513199 8.9021521 -15.296977 4294967295
15.514353 11.611718 -15.616389 4294967295
15.521488 12.249217 -15.660064 4294967295
15.527683 11.133783 -15.497994 4294967295
15.528569 11.930638 -15.589418 4294967295
15.52921 13.52403 -15.777409 4294967295
15.529754 9.380353 -15.278378 4294967295
15.537292 8.5830946 -15.148265 4294967295
15.53742 13.842901 -15.777966 4294967295
15.542155 14.320994 -15.81354 4294967295
15.546602 13.365171 -15.678622 4294967295
15.549917 13.683942 -15.701617 4294967295
15.56016 12.090537 -15.463724 4294967295
15.563087 13.206245 -15.583993 4294967295
15.576318 14.162786 -15.637937 4294967295
15.584799 12.569201 -15.408104 4294967295
15.597287 14.482215 -15.580056 4294967295
15.607151 14.641937 -15.553961 4294967295
15.631223 8.7393379 -15.484663 4294967295
15.648536 8.2609882 -15.34807 4294967295
15.650161 8.4203835 -15.359722 4294967295
15.651778 7.7826824 -15.275921 4294967295
15.651789 8.8985882 -15.409549 4294967295
15.654679 8.1014986 -15.300826 4294967295
15.661536 11.44857 -15.670346 4294967295
15.662049 11.129879 -15.629824 4294967295
15.666626 11.767323 -15.685217 4294967295
15.66726 12.086009 -15.720481 4294967295
15.667621 7.9419003 -15.222438 4294967295
15.6681 12.404683 -15.754803 4294967295
15.675454 8.5795765 -15.262948 4294967295
15.703262 13.520831 -15.727442 4294967295
15.712051 14.636401 -15.820795 4294967295
15.718899 12.724433 -15.560446 4294967295
15.71926 13.839975 -15.692398 4294967295
15.728036 13.202774 -15.57589 4294967295
15.736073 14.318561 -15.672712 4294967295
15.746945 14.159555 -15.603873 4294967295
15.749393 12.24684 -15.363585 4294967295
15.752504 13.681582 -15.521174 4294967295
15.755774 12.884653 -15.410753 4294967295
15.771716 13.044451 -15.356877 4294967295
15.793395 7.938633 -15.393604 4294967295
15.822237 8.0976906 -15.280716 4294967295
15.842755 8.416357 -15.225011 4294967295
15.846505 14.472633 -15.932928 4294967295
15.847714 13.35749 -15.7939 4294967295
15.860583 13.039136 -15.696924 4294967295
15.889581 14.15542 -15.697906 4294967295
15.9018 12.721322 -15.470334 4294967295
15.912903 13.837399 -15.553151 4294967295
15.914248 13.678045 -15.527924 4294967295
15.922435 14.315869 -15.566827 4294967295
15.930157 13.519086 -15.436122 4294967295
15.948686 14.635575 -15.485016 4294967295
16.011433 7.9341426 -15.14274 4294967295
16.042049 14.470294 -15.785026 4294967295
16.042112 13.673536 -15.689406 4294967295
16.06418 13.833555 -15.607727 4294967295
16.077635 14.630901 -15.641657 4294967295
16.077923 14.312145 -15.602199 4294967295
16.080915 13.036983 -15.435944 4294967295
16.09989 13.356324 -15.387468 4294967295
16.176907 14.625175 -15.933299 4294967295
16.216064 13.670349 -15.640406 4294967295
16.231853 13.511397 -15.549345 4294967295
16.235722 14.467885 -15.646091 4294967295
16.247011 13.83065 -15.518352 4294967295
16.27676 14.150424 -15.420839 4294967295
16.279114 13.991055 -15.391034 4294967295
16.370045 13.985339 -15.720669 4294967295
16.392908 14.14544 -15.635595 4294967295
16.420521 14.465166 -15.547951 4294967295
16.426399 14.305942 -15.502126 4294967295
16.430046 14.624919 -15.523634 4294967295
16.524012 10.163832 -13.815661 4294967295
16.526758 11.282597 -13.936947 4294967295
16.546051 14.460412 -15.719716 4294967295
16.554838 11.762411 -13.866196 4294967295
16.565987 10.803455 -13.700613 4294967295
16.569435 10.323853 -13.627507 4294967295
16.576328 9.2045431 -13.462155 4294967295
16.576908 10.643659 -13.631658 4294967295
16.578039 9.3644571 -13.47348 4294967295
16.597496 11.603157 -13.652482 4294967295
16.60058 10.4839 -13.504522 4294967295
16.603809 9.6842728 -13.394139 4294967295
16.686098 10.319995 -13.841845 4294967295
16.68812 11.438765 -13.966398 4294967295
16.698877 14.61597 -15.786156 4294967295
16.700674 10.479906 -13.794524 4294967295
16.707346 11.119331 -13.840565 4294967295
16.711924 9.5207214 -13.628567 4294967295
16.713936 11.758749 -13.88698 4294967295
16.727619 9.0409613 -13.499654 4294967295
16.729143 10.000394 -13.607431 4294967295
16.739023 9.2008314 -13.466796 4294967295
16.745699 11.279594 -13.684916 4294967295
16.749142 11.599391 -13.707451 4294967295
16.752398 14.298985 -15.504925 4294967295
16.759668 12.079174 -13.716834 4294967295
16.766121 10.800093 -13.5345 4294967295
16.767204 9.3606758 -13.357453 4294967295
16.768766 8.720809 -13.273827 4294967295
16.779804 12.719071 -13.701555 4294967295
16.781584 10.160441 -13.387539 4294967295
16.796633 12.239715 -13.567543 4294967295
16.798683 12.399665 -13.577322 4294967295
16.857479 9.5170507 -13.711131 4294967295
16.859215 8.2379103 -13.550343 4294967295
16.861629 11.5951 -13.940585 4294967295
16.861763 8.5576982 -13.576962 4294967295
16.862823 10.316386 -13.782331 4294967295
16.879179 11.915013 -13.898917 4294967295
16.881138 9.1972008 -13.565194 4294967295
16.887602 9.8368073 -13.612207 4294967295
16.89201 9.9967127 -13.611243 4294967295
16.892372 14.613584 -15.648975 4294967295
16.893572 8.39748 -13.413 4294967295
16.90839 8.8772011 -13.402876 4294967295
16.909613 11.755619 -13.741313 4294967295
16.909624 10.476488 -13.58839 4294967295
16.913197 10.156674 -13.533908 4294967295
16.920435 11.116195 -13.615624 4294967295
16.926418 9.3569784 -13.378142 4294967295
16.928928 12.075686 -13.691621 4294967295
16.929821 9.0370378 -13.324408 4294967295
16.934139 12.875192 -13.763439 4294967295
16.936003 8.7170429 -13.258022 4294967295
16.943291 12.555623 -13.683586 4294967295
16.951565 10.636664 -13.416592 4294967295
16.968828 11.436586 -13.433599 4294967295
16.98279 12.236543 -13.465634 4294967295
17.001923 12.716775 -13.435918 4294967295
17.011234 9.673234 -13.775373 4294967295
17.020475 10.632406 -13.847939 4294967295
17.024635 9.3534565 -13.676232 4294967295
17.025784 9.0336637 -13.63281 4294967295
17.028658 10.472597 -13.791641 4294967295
17.042631 9.5133123 -13.613499 4294967295
17.044437 11.112175 -13.796283 4294967295
17.045818 9.9930162 -13.656316 4294967295
17.049313 9.1934652 -13.544911 4294967295
17.055456 7.9138737 -13.364105 4294967295
17.058027 8.873558 -13.467064 4294967295
17.058451 8.7136126 -13.446027 4294967295
17.059708 10.312858 -13.631364 4294967295
17.064558 12.391348 -13.857588 4294967295
17.074194 10.792661 -13.622808 4294967295
17.077223 10.153002 -13.53262 4294967295
17.080677 11.912017 -13.727036 4294967295
17.084362 9.8331404 -13.461946 4294967295
17.096992 12.871627 -13.767466 4294967295
17.097969 11.592466 -13.610231 4294967295
17.101748 8.0732718 -13.172647 4294967295
17.102146 12.232167 -13.667651 4294967295
17.102892 8.3932762 -13.205672 4294967295
17.103653 10.952824 -13.507984 4294967295
17.106028 13.191603 -13.764605 4294967295
17.124163 11.432869 -13.472057 4294967295
17.12594 12.552446 -13.597707 4294967295
17.132723 12.072777 -13.509575 4294967295
17.134478 8.2329216 -13.042885 4294967295
17.138773 13.032497 -13.596694 4294967295
17.175959 10.948394 -13.923364 4294967295
17.178499 10.309011 -13.835472 4294967295
17.179602 11.907413 -14.021317 4294967295
17.19821 9.989316 -13.707781 4294967295
17.199106 9.3497152 -13.627337 4294967295
17.200106 9.6695242 -13.660979 4294967295
17.201729 10.468988 -13.749076 4294967295
17.203857 8.3901386 -13.491173 4294967295
17.204271 8.7100067 -13.527488 4294967295
17.21302 11.108596 -13.77416 4294967295
17.214136 7.9101629 -13.387169 4294967295
17.218157 8.8698483 -13.483506 4294967295
17.218763 9.1897249 -13.51895 4294967295
17.22393 9.0297594 -13.476378 4294967295
17.230886 7.7499537 -13.29196 4294967295
17.236006 11.588518 -13.727065 4294967295
17.239079 12.387986 -13.808559 4294967295
17.241369 10.789043 -13.607241 4294967295
17.243534 9.8294487 -13.48283 4294967295
17.244373 12.547966 -13.803615 4294967295
17.245106 11.268825 -13.647565 4294967295
17.246284 9.5095396 -13.432137 4294967295
17.247915 12.707917 -13.80662 4294967295
17.256195 13.187734 -13.826303 4294967295
17.263983 12.228556 -13.676414 4294967295
17.266781 8.2295036 -13.1862 4294967295
17.26985 11.429034 -13.554304 4294967295
17.280005 13.348225 -13.737323 4294967295
17.297857 13.508605 -13.675385 4294967295
17.303896 11.749391 -13.437922 4294967295
17.31052 13.668876 -13.637008 4294967295
17.332834 8.3867264 -13.648957 4294967295
17.354399 11.744156 -13.951847 4294967295
17.358044 9.9856291 -13.725433 4294967295
17.365595 11.424597 -13.86292 4294967295
17.371527 11.264794 -13.816936 4294967295
17.374033 8.2263622 -13.442918 4294967295
17.377487 9.5058937 -13.579966 4294967295
17.386496 9.3459358 -13.520007 4294967295
17.386559 10.78526 -13.691509 4294967295
17.389271 9.6658134 -13.545598 4294967295
17.393835 8.8660383 -13.429437 4294967295
17.400768 8.5460396 -13.359791 4294967295
17.401138 7.9060745 -13.281726 4294967295
17.402887 9.825757 -13.502918 4294967295
17.411444 11.585067 -13.674071 4294967295
17.416504 11.105357 -13.593863 4294967295
17.421762 12.544681 -13.74179 4294967295
17.423357 10.46563 -13.486428 4294967295
17.429789 10.305696 -13.438161 4294967295
17.430475 10.625629 -13.473231 4294967295
17.434576 10.945579 -13.492812 4294967295
17.438768 11.905312 -13.588335 4294967295
17.445415 13.344743 -13.729959 4294967295
17.448298 12.065405 -13.564216 4294967295
17.450714 13.184966 -13.686855 4294967295
17.451958 12.705224 -13.623968 4294967295
17.468735 13.025474 -13.586075 4294967295
17.479202 12.385872 -13.462257 4294967295
17.491673 13.825805 -13.577525 4294967295
17.498032 13.506075 -13.510524 4294967295
17.500988 10.141789 -13.838713 4294967295
17.50128 8.2230015 -13.608469 4294967295
12.06808 15.484464 -17.716413 4294967295
12.377787 15.15966 -17.748529 4294967295
12.549954 15.156651 -17.702887 4294967295
12.561825 15.474575 -17.685768 4294967295
12.69873 14.993988 -17.747385 4294967295
12.884853 15.30898 -17.675251 4294967295
12.89535 15.626901 -17.664637 4294967295
12.920157 16.739256 -17.683071 4294967295
13.053632 14.988336 -17.607595 4294967295
13.070436 16.735287 -17.739868 4294967295
13.198621 14.82549 -17.6698 4294967295
13.199946 15.143032 -17.701887 4294967295
13.2401 16.097305 -17.630049 4294967295
13.24021 15.462222 -17.553032 4294967295
13.348183 14.821578 -17.729784 4294967295
13.353066 15.139248 -17.745342 4294967295
13.374234 15.298859 -17.666208 4294967295
13.412182 15.459229 -17.509197 4294967295
13.412326 14.982818 -17.45116 4294967295
13.526662 15.136285 -17.693842 4294967295
13.531673 15.77151 -17.747038 4294967295
13.534006 15.612863 -17.717121 4294967295
13.537959 15.295507 -17.660576 4294967295
13.543162 16.248289 -17.751102 4294967295
13.560691 16.884178 -17.746286 4294967295
13.565804 16.408157 -17.665266 4294967295
13.57261 14.979311 -17.46171 4294967295
13.57301 14.820507 -17.440741 4294967295
13.582475 17.044109 -17.66444 4294967295
13.594953 17.679905 -17.683044 4294967295
13.596432 18.15629 -17.733511 4294967295
13.689913 15.132904 -17.690437 4294967295
13.692238 15.291765 -17.698771 4294967295
13.692521 15.609301 -17.735659 4294967295
13.729468 14.975671 -17.488171 4294967295
13.733108 16.087465 -17.605053 4294967295
13.739066 16.246544 -17.596571 4294967295
13.740334 15.452567 -17.495178 4294967295
13.742438 16.723083 -17.638266 4294967295
13.745317 14.817448 -17.395676 4294967295
13.748325 17.517302 -17.706514 4294967295
13.770668 18.153749 -17.679508 4294967295
13.777039 18.312935 -17.669123 4294967295
13.807922 20.061666 -17.736303 4294967295
13.85393 14.970775 -17.664476 4294967295
13.860714 15.447385 -17.690376 4294967295
13.884791 15.289597 -17.559933 4294967295
13.89037 17.036535 -17.74416 4294967295
13.896876 16.084154 -17.599524 4294967295
13.902429 16.719614 -17.650229 4294967295
13.905749 17.354931 -17.711241 4294967295
13.911069 17.514013 -17.705742 4294967295
13.919391 16.879299 -17.590899 4294967295
13.921016 17.99094 -17.717031 4294967295
13.929451 15.132569 -17.33429 4294967295
13.983266 20.535826 -17.734783 4294967295
14.012103 15.443518 -17.741941 4294967295
14.03115 16.079458 -17.730305 4294967295
14.036936 16.397287 -17.741745 4294967295
14.050005 15.762739 -17.605047 4294967295
14.053614 15.286448 -17.531118 4294967295
14.05447 15.127657 -17.508072 4294967295
14.069595 17.351694 -17.705429 4294967295
14.082381 18.14637 -17.741808 4294967295
14.088233 18.305519 -17.733873 4294967295
14.178394 15.599059 -17.74378 4294967295
14.21911 17.188869 -17.746721 4294967295
14.244736 17.984293 -17.723915 4294967295
14.278172 18.462805 -17.626963 4294967295
14.27951 19.098137 -17.697098 4294967295
14.282686 18.621918 -17.625233 4294967295
14.383882 17.185673 -17.736742 4294967295
14.38431 16.232857 -17.620356 4294967295
14.402095 17.504295 -17.690979 4294967295
14.441772 18.141947 -17.584511 4294967295
14.528972 16.069826 -17.683998 4294967295
14.574675 16.389679 -17.511812 4294967295
14.584257 17.819775 -17.639296 4294967295
14.700111 14.815107 -15.993333 4294967295
14.718066 16.861881 -17.657627 4294967295
14.725996 17.815241 -17.735502 4294967295
14.75801 18.928982 -17.721769 4294967295
14.770462 19.088655 -17.683619 4294967295
14.83515 14.969829 -16.141277 4294967295
14.853383 14.811307 -16.038242 4294967295
14.876182 17.175962 -17.71661 4294967295
14.877419 16.858376 -17.672838 4294967295
14.880211 15.290057 -15.972098 4294967295
14.880898 16.69972 -17.637827 4294967295
14.903152 15.131721 -15.847395 4294967295
14.912053 18.448694 -17.704334 4294967295
14.912899 18.131079 -17.662365 4294967295
14.929697 17.496649 -17.509087 4294967295
14.944169 19.086184 -17.633148 4294967295
14.986024 15.284309 -16.23526 4294967295
14.992037 21.472578 -17.699223 4294967295
14.995046 14.807075 -16.136488 4294967295
15.03954 16.855013 -17.675398 4294967295
15.054921 17.650045 -17.700073 4294967295
15.058145 17.332546 -17.647224 4294967295
15.067726 15.128356 -15.840567 4294967295
15.076291 18.604368 -17.716337 4294967295
15.08508 14.969736 -15.741673 4294967295
15.096188 18.446806 -17.606113 4294967295
15.123876 20.037304 -17.6696 4294967295
15.15715 21.310806 -17.669441 4294967295
15.177982 15.282073 -16.102324 4294967295
15.197495 15.442112 -16.031828 4294967295
15.211879 15.124184 -15.927589 4294967295
15.22335 17.329374 -17.635801 4294967295
15.227098 17.170719 -17.599609 4294967295
15.227919 17.647346 -17.652941 4294967295
15.234444 14.965776 -15.804878 4294967295
15.243311 18.124836 -17.639563 4294967295
15.243661 15.603339 -15.838965 4294967295
15.245437 17.807236 -17.59177 4294967295
15.245944 18.283859 -17.64654 4294967295
15.246703 17.012896 -17.490803 4294967295
15.254883 14.807234 -15.691919 4294967295
15.27284 18.603317 -17.561481 4294967295
15.274239 19.238905 -17.631199 4294967295
15.295261 20.670212 -17.706238 4294967295
15.295554 20.829086 -17.723923 4294967295
15.313147 21.307104 -17.700508 4294967295
15.325822 15.596461 -16.210274 4294967295
15.366718 15.279699 -15.984554 4294967295
15.377232 14.961566 -15.898159 4294967295
15.391338 14.802803 -15.814366 4294967295
15.396081 15.758764 -15.907176 4294967295
15.400252 18.280064 -17.685118 4294967295
15.401572 18.439001 -17.698105 4294967295
15.426196 17.646107 -17.490391 4294967295
15.428643 19.711672 -17.7265 4294967295
15.43233 15.919687 -15.760052 4294967295
15.460235 19.396196 -17.544041 4294967295
15.462072 20.985098 -17.725851 4294967295
15.468476 21.303345 -17.734619 4294967295
15.474636 20.509502 -17.611374 4294967295
15.507313 15.116123 -16.068571 4294967295
15.538101 17.798716 -17.741814 4294967295
15.539657 14.798815 -15.882243 4294967295
15.558485 14.958826 -15.815082 4294967295
15.560012 16.233263 -15.960766 4294967295
15.568532 18.277142 -17.659868 4294967295
15.569613 15.755826 -15.859539 4294967295
15.572336 18.595119 -17.680525 4294967295
15.574253 15.278082 -15.781028 4294967295
15.58197 17.642403 -17.522429 4294967295
15.586058 15.915872 -15.803311 4294967295
15.58674 18.437168 -17.59573 4294967295
15.594626 19.708706 -17.711828 4294967295
15.600195 15.438483 -15.681295 4294967295
15.602857 19.391554 -17.636223 4294967295
15.608494 19.550837 -17.629498 4294967295
15.609137 20.345247 -17.721624 4294967295
15.609228 20.18639 -17.702194 4294967295
15.609285 18.120768 -17.454731 4294967295
15.617616 15.598577 -15.620594 4294967295
15.622421 18.916206 -17.48984 4294967295
15.645607 21.142548 -17.650198 4294967295
15.65144 20.666346 -17.566536 4294967295
15.674586 15.590628 -16.106653 4294967295
15.682881 16.068737 -16.125919 4294967295
15.686365 14.794767 -15.957401 4294967295
15.714306 15.114423 -15.867716 4294967295
15.730431 15.433701 -15.832102 4294967295
15.73103 16.389559 -15.943825 4294967295
15.734926 17.638536 -17.567318 4294967295
15.737238 15.911942 -15.858195 4294967295
15.738327 17.797632 -17.570814 4294967295
15.742798 16.230822 -15.870915 4294967295
15.747701 18.115995 -17.566072 4294967295
15.748552 18.751623 -17.638216 4294967295
15.751449 17.957317 -17.529966 4294967295
15.76286 18.593662 -17.553947 4294967295
15.762881 18.434755 -17.534845 4294967295
15.766683 14.957109 -15.608996 4294967295
15.772066 15.276064 -15.622535 4294967295
15.773432 15.754216 -15.673543 4294967295
15.77459 19.547863 -17.614502 4294967295
15.780565 18.276945 -17.435169 4294967295
15.78346 18.912846 -17.498013 4294967295
15.785149 20.02532 -17.623369 4294967295
15.785883 19.389763 -17.543991 4294967295
15.810903 21.29851 -17.657986 4294967295
15.811247 20.662945 -17.580395 4294967295
15.83925 15.905798 -16.137667 4294967295
15.842694 15.428174 -16.064741 4294967295
15.872695 14.792182 -15.851374 4294967295
15.880477 17.952007 -17.68391 4294967295
15.900208 15.74922 -15.840078 4294967295
15.91152 14.952975 -15.69302 4294967295
15.918226 15.590663 -15.738674 4294967295
15.925509 19.5438 -17.668734 4294967295
15.927654 18.749447 -17.563969 4294967295
15.928025 16.069145 -15.751122 4294967295
15.932075 17.637217 -17.410805 4294967295
15.933533 16.228752 -15.745034 4294967295
15.936364 17.796413 -17.410261 4294967295
15.936672 20.497929 -17.731867 4294967295
15.93742 15.27273 -15.612816 4294967295
15.938623 18.909092 -17.532997 4294967295
15.939042 20.02146 -17.664087 4294967295
15.941105 18.273531 -17.445679 4294967295
15.94235 20.180601 -17.668018 4294967295
15.94918 19.227654 -17.522915 4294967295
15.949954 18.591974 -17.443371 4294967295
15.95367 16.548445 -15.691186 4294967295
15.960288 20.340878 -17.605318 4294967295
15.971425 21.454077 -17.687582 4294967295
15.972006 20.818529 -17.608953 4294967295
15.993653 21.614891 -17.605368 4294967295
16.049244 18.425739 -17.713682 4294967295
16.051256 16.701122 -16.009867 4294967295
16.078402 19.222101 -17.675957 4294967295
16.089596 16.54373 -15.815864 4294967295
16.090965 15.747029 -15.71429 4294967295
16.096264 16.384708 -15.766374 4294967295
16.105236 18.906101 -17.515877 4294967295
16.105322 14.950701 -15.553423 4294967295
16.108477 15.110224 -15.558091 4294967295
16.109398 20.17774 -17.64888 4294967295
16.10964 19.859943 -17.609798 4294967295
16.11294 19.701269 -17.57579 4294967295
16.116364 15.269941 -15.541169 4294967295
16.119389 19.542809 -17.527458 4294967295
16.120861 19.383978 -17.501766 4294967295
16.122576 14.791931 -15.455592 4294967295
16.123039 15.907833 -15.586986 4294967295
16.125111 18.589512 -17.387451 4294967295
16.126165 15.429751 -15.515505 4294967295
16.126366 20.337954 -17.590681 4294967295
16.128136 21.132639 -17.67758 4294967295
16.129028 17.79487 -17.274616 4294967295
16.135786 16.067816 -15.54789 4294967295
16.140226 17.954527 -17.242659 4294967295
16.140959 20.974789 -17.600273 4294967295
16.143806 20.498238 -17.530346 4294967295
16.146681 16.227736 -15.517242 4294967295
16.158728 21.294113 -17.557442 4294967295
16.17734 15.103107 -15.988484 4294967295
16.190851 15.581562 -15.984041 4294967295
16.19261 15.900237 -16.014126 4294967295
16.20476 18.104248 -17.70887 4294967295
16.227245 18.26453 -17.625647 4294967295
16.23122 18.582596 -17.645542 4294967295
16.238838 18.42417 -17.591934 4294967295
16.248123 14.787101 -15.627667 4294967295
16.24827 16.699484 -15.855703 4294967295
16.249046 14.946524 -15.642524 4294967295
16.250237 15.743457 -15.732396 4294967295
16.256849 20.173388 -17.718901 4294967295
16.260712 17.789743 -17.416561 4294967295
16.265163 16.859697 -15.797767 4294967295
16.266081 19.220591 -17.563047 4294967295
16.266945 16.222328 -15.713418 4294967295
16.267632 19.538551 -17.593971 4294967295
16.26993 16.541214 -15.73793 4294967295
16.275806 18.903374 -17.480879 4294967295
16.279552 20.969656 -17.710648 4294967295
16.282835 20.652113 -17.657776 4294967295
16.292007 16.382912 -15.618245 4294967295
16.296528 19.699568 -17.481653 4294967295
16.303244 20.494799 -17.546072 4294967295
16.308992 20.018394 -17.462992 4294967295
16.34219 21.451672 -17.483051 4294967295
16.345743 15.099884 -15.964671 4294967295
16.353382 15.418818 -15.967979 4294967295
16.36659 16.215954 -16.003057 4294967295
16.378193 16.694445 -16.007368 4294967295
16.380497 18.896254 -17.745085 4294967295
16.387739 14.782789 -15.735345 4294967295
16.391872 17.943523 -17.579588 4294967295
16.394318 15.898572 -15.838736 4294967295
16.40625 15.261624 -15.708211 4294967295
16.40863 19.374874 -17.674301 4294967295
16.416918 14.943261 -15.621531 4294967295
16.417492 19.693325 -17.672033 4294967295
16.426153 18.263494 -17.461914 4294967295
16.428427 20.011955 -17.660349 4294967295
16.432079 20.171144 -17.662746 4294967295
16.438538 16.378733 -15.694578 4294967295
16.444273 18.423595 -17.398634 4294967295
16.447521 21.284742 -17.725485 4294967295
16.455194 20.490774 -17.5958 4294967295
16.465782 21.604115 -17.68058 4294967295
16.467585 20.650688 -17.558552 4294967295
16.469366 20.33293 -17.512512 4294967295
16.470461 17.017935 -15.62547 4294967295
16.494558 16.540886 -15.458612 4294967295
16.524469 16.053017 -16.008257 4294967295
16.536402 14.778811 -15.801691 4294967295
16.54397 16.372574 -15.957657 4294967295
16.552528 15.098152 -15.766423 4294967295
16.553423 18.258017 -17.623486 4294967295
16.557499 16.532566 -15.915179 4294967295
16.557629 15.895184 -15.838437 4294967295
16.558788 16.213942 -15.871242 4294967295
16.562742 18.576456 -17.619167 4294967295
16.564827 18.735518 -17.628677 4294967295
16.572639 19.212814 -17.650166 4294967295
16.572767 15.736485 -15.750554 4294967295
16.576824 19.054173 -17.612223 4294967295
16.579466 14.939795 -15.624868 4294967295
16.580654 19.69014 -17.670736 4294967295
16.583036 18.418806 -17.508171 4294967295
16.583973 20.48494 -17.750513 4294967295
16.584711 15.258811 -15.639101 4294967295
16.585175 15.577631 -15.67509 4294967295
16.614216 15.41943 -15.523971 4294967295
16.615587 20.328468 -17.588249 4294967295
16.622932 21.441584 -17.687725 4294967295
16.665209 17.175701 -15.501652 4294967295
16.69417 15.412582 -15.902702 4294967295
16.70981 14.775739 -15.755524 4294967295
16.713049 15.891441 -15.874051 4294967295
16.72584 18.732145 -17.637146 4294967295
16.728584 16.370232 -15.860582 4294967295
16.729971 15.095273 -15.702013 4294967295
16.734394 16.529877 -15.853232 4294967295
16.741182 19.686764 -17.681433 4294967295
16.742783 18.25638 -17.503525 4294967295
16.743597 16.849068 -15.8495 4294967295
16.757662 20.32369 -17.682652 4294967295
16.758711 14.936959 -15.552415 4294967295
16.7591 20.164871 -17.657185 4294967295
16.760056 20.00601 -17.633896 4294967295
16.760479 18.575434 -17.461315 4294967295
16.766226 20.960056 -17.719711 4294967295
16.775034 16.053631 -15.611554 4294967295
16.775759 21.596518 -17.752384 4294967295
16.778294 20.643166 -17.627165 4294967295
16.78002 21.120111 -17.676233 4294967295
16.781605 16.21336 -15.600753 4294967295
16.783358 19.84878 -17.509436 4294967295
16.787891 16.691933 -15.629314 4294967295
16.792854 21.439054 -17.656048 4294967295
16.794233 19.531607 -17.422255 4294967295
16.797447 18.418783 -17.274916 4294967295
16.803106 18.896208 -17.306204 4294967295
16.806414 21.28125 -17.575714 4294967295
16.811258 20.80475 -17.496901 4294967295
16.839447 17.013483 -15.433276 4294967295
16.84635 17.332798 -15.440023 4294967295
16.851261 17.17359 -15.39868 4294967295
16.885305 16.207186 -15.871308 4294967295
16.898092 15.889019 -15.775254 4294967295
16.898232 18.888462 -17.613153 4294967295
16.906765 18.412144 -17.517679 4294967295
16.917858 15.41165 -15.628492 4294967295
16.919205 17.005737 -15.812665 4294967295
16.930775 15.093297 -15.53182 4294967295
16.930916 17.165747 -15.778579 4294967295
16.942091 16.050415 -15.594685 4294967295
16.948507 15.572365 -15.508472 4294967295
16.951441 19.368992 -17.429356 4294967295
16.955524 16.848223 -15.628905 4294967295
16.958754 16.688955 -15.595231 4294967295
16.958939 16.370083 -15.556325 4294967295
16.962725 21.595467 -17.643702 4294967295
16.968515 20.006205 -17.427971 4294967295
16.974335 20.801603 -17.496441 4294967295
16.975977 19.529724 -17.337345 4294967295
16.988838 21.756687 -17.5446 4294967295
16.990219 17.328396 -15.528643 4294967295
16.995083 20.167208 -17.326784 4294967295
17.050234 14.769352 -15.692711 4294967295
17.068989 20.316225 -17.748243 4294967295
17.072865 18.727024 -17.541286 4294967295
17.074347 15.248528 -15.6405 4294967295
17.075193 17.00201 -15.845884 4294967295
17.075737 15.886262 -15.710293 4294967295
17.076797 20.475754 -17.731915 4294967295
17.081028 19.045507 -17.542303 4294967295
17.084999 16.364922 -15.725383 4294967295
17.085484 19.52272 -17.579014 4294967295
17.085854 16.52437 -15.740539 4294967295
17.096659 19.205549 -17.490641 4294967295
17.097385 20.159441 -17.601042 4294967295
17.106762 14.930882 -15.455544 4294967295
17.11623 15.728602 -15.507778 4294967295
17.118061 21.591694 -17.678162 4294967295
17.118391 15.409759 -15.459934 4294967295
17.122078 19.684317 -17.432663 4294967295
17.124746 21.274349 -17.610088 4294967295
17.125628 20.797512 -17.549271 4294967295
17.128309 18.889664 -17.309738 4294967295
17.132784 16.686132 -15.546938 4294967295
17.134184 17.323999 -15.616691 4294967295
17.140587 20.957701 -17.500662 4294967295
17.142603 20.639872 -17.453651 4294967295
17.144119 17.165091 -15.552657 4294967295
17.146339 16.846283 -15.504553 4294967295
17.14772 15.091938 -15.288958 4294967295
17.152229 16.049162 -15.382723 4294967295
17.153143 21.117723 -17.462904 4294967295
17.165136 21.754732 -17.484541 4294967295
17.204693 16.200092 -15.903923 4294967295
17.210651 18.881084 -17.673782 4294967295
17.216614 15.722475 -15.792948 4294967295
17.220966 16.360239 -15.849284 4294967295
17.227924 19.359104 -17.652658 4294967295
17.229856 16.041864 -15.77103 4294967295
17.239922 15.085752 -15.611388 4294967295
17.244045 19.519194 -17.598852 4294967295
17.253227 15.883496 -15.646246 4294967295
17.255522 15.245812 -15.559796 4294967295
17.256781 19.202124 -17.503508 4294967295
17.262182 19.043495 -17.460192 4294967295
17.26992 16.681458 -15.665777 4294967295
17.272015 20.634062 -17.605236 4294967295
17.277681 17.638424 -15.744738 4294967295
17.280018 19.998743 -17.493376 4294967295
17.281435 21.747562 -17.695295 4294967295
17.28167 17.000931 -15.650645 4294967295
17.289511 15.406656 -15.424973 4294967295
17.293001 20.794706 -17.529503 4294967295
17.296429 19.840944 -17.400389 4294967295
17.299873 21.431211 -17.574268 4294967295
17.317539 17.481234 -15.54539 4294967295
17.319994 20.955883 -17.426685 4294967295
17.32626 20.479301 -17.341585 4294967295
17.327726 16.843855 -15.423221 4294967295
17.342392 17.163624 -15.394906 4294967295
17.346306 17.323341 -15.396218 4294967295
17.35549 17.80237 -15.411734 4294967295
17.364559 18.877245 -17.714478 4294967295
17.372553 15.878148 -15.845358 4294967295
17.386158 19.037636 -17.636059 4294967295
17.404997 19.833773 -17.645803 4294967295
17.406574 19.515947 -17.600836 4294967295
17.406612 16.676762 -15.786418 4294967295
17.407578 16.357979 -15.744044 4294967295
17.41003 17.314556 -15.846977 4294967295
17.410656 20.152117 -17.658159 4294967295
17.415583 20.788324 -17.71167 4294967295
17.421795 20.311926 -17.626896 4294967295
17.426456 16.51832 -15.677719 4294967295
17.427456 21.266146 -17.714956 4294967295
17.443455 19.359533 -17.415688 4294967295
17.462833 21.42808 -17.574512 4294967295
17.466316 21.110382 -17.520952 4294967295
17.470402 16.201487 -15.441067 4294967295
17.470953 15.563489 -15.362512 4294967295
17.475855 19.99798 -17.345425 4294967295
17.480618 15.404368 -15.2998 4294967295
17.480782 17.956306 -15.60327 4294967295
17.48291 15.244927 -15.270414 4294967295
17.483896 21.588869 -17.49855 4294967295
17.487877 20.635057 -17.367002 4294967295
17.489683 17.478399 -15.50602 4294967295
17.49065 21.748459 -17.487062 4294967295
17.492321 15.723924 -15.284926 4294967295
17.494576 20.953667 -17.374701 4294967295
15.334993 21.94445 -17.676662 4294967295
15.644202 21.777924 -17.732653 4294967295
15.676083 22.734068 -17.701221 4294967295
15.680741 22.893391 -17.698973 4294967295
15.691194 23.529922 -17.727316 4294967295
15.806828 21.774801 -17.733568 4294967295
15.84361 23.049221 -17.717924 4294967295
15.973966 22.089834 -17.751989 4294967295
15.986275 22.408716 -17.733938 4294967295
15.987908 22.249981 -17.70751 4294967295
16.00493 21.933712 -17.59202 4294967295
16.013186 22.729023 -17.64942 4294967295
16.02083 23.36537 -17.690599 4294967295
16.026493 23.207027 -17.645826 4294967295
16.144344 22.246309 -17.736778 4294967295
16.151592 21.929169 -17.665846 4294967295
16.166862 22.566185 -17.672359 4294967295
16.169895 22.08972 -17.601608 4294967295
16.17091 23.043276 -17.710918 4294967295
16.17461 23.361431 -17.732061 4294967295
16.196751 23.84037 -17.688366 4294967295
16.209896 23.523869 -17.590633 4294967295
16.326347 22.880606 -17.725842 4294967295
16.340914 23.040916 -17.678671 4294967295
16.344469 22.405554 -17.586609 4294967295
16.346298 23.200356 -17.673203 4294967295
16.356644 23.519217 -17.664186 4294967295
16.36132 23.36076 -17.623972 4294967295
16.366791 23.838089 -17.656067 4294967295
16.490631 22.718767 -17.700651 4294967295
16.515802 23.197958 -17.643394 4294967295
16.672958 23.512205 -17.707594 4294967295
16.680214 21.76442 -17.466085 4294967295
16.696642 23.037701 -17.543413 4294967295
16.787245 21.91535 -17.738306 4294967295
16.812822 22.235495 -17.660465 4294967295
16.820494 22.871948 -17.701571 4294967295
16.841663 23.350811 -17.662647 4294967295
16.844988 23.19219 -17.628649 4294967295
16.85121 22.07999 -17.467772 4294967295
16.958963 21.913023 -17.698601 4294967295
16.966349 22.231554 -17.703112 4294967295
16.972866 22.708954 -17.730497 4294967295
16.997812 23.347101 -17.693542 4294967295
17.001341 23.188501 -17.658649 4294967295
17.011049 22.553566 -17.538961 4294967295
17.024426 22.077806 -17.421633 4294967295
17.046919 23.669931 -17.509516 4294967295
17.04781 23.829012 -17.524448 4294967295
17.141855 22.706453 -17.703321 4294967295
17.149324 21.912334 -17.574884 4294967295
17.188297 22.074785 -17.417856 4294967295
17.191414 22.234079 -17.422735 4294967295
17.191534 22.870115 -17.49799 4294967295
17.307755 22.544703 -17.671272 4294967295
17.309286 22.226912 -17.626497 4294967295
17.313622 21.909344 -17.569073 4294967295
17.346035 22.707247 -17.517593 4294967295
17.352798 23.661852 -17.600721 4294967295
17.357851 22.39032 -17.42643 4294967295
17.384312 23.824039 -17.477585 4294967295
17.438292 21.90287 -17.741852 4294967295
17.472073 22.859678 -17.703241 4294967295
17.476225 22.065191 -17.589907 4294967295
17.484032 22.701834 -17.630457 4294967295
17.484451 23.496717 -17.723192 4294967295
17.488503 23.338156 -17.686029 4294967295
17.528849 -2.1244738 -16.677116 4294967295
17.54463 -0.8526774 -16.757465 4294967295
17.545469 -0.69361532 -16.772619 4294967295
17.554024 -1.0125371 -16.696171 4294967295
17.570154 -1.9688302 -16.509792 4294967295
17.574322 -0.37748581 -16.680424 4294967295
17.578409 -0.059485201 -16.699884 4294967295
17.586042 -1.4925823 -16.494986 4294967295
17.591188 -1.8114029 -16.433897 4294967295
17.594921 -1.3341036 -16.4739 4294967295
17.600397 -0.53857428 -16.543938 4294967295
17.607201 -0.2207059 -16.551159 4294967295
17.62056 -1.1769309 -16.377256 4294967295
17.621365 0.73339462 -16.600981 4294967295
17.650774 0.25383681 -16.411587 4294967295
17.663258 0.4122138 -16.374266 4294967295
17.664259 -1.8081231 -16.838438 4294967295
17.679583 -1.9685309 -16.750494 4294967295
17.683489 -0.85501009 -16.865404 4294967295
17.685915 -1.4916686 -16.778767 4294967295
17.692999 -0.060198899 -16.91721 4294967295
17.705004 -1.0157908 -16.749588 4294967295
17.713333 0.41570559 -16.882439 4294967295
17.71876 -0.38028511 -16.763372 4294967295
17.721201 -0.2213276 -16.771303 4294967295
17.747066 0.095130697 -16.692709 4294967295
17.752859 -0.70113492 -16.571964 4294967295
17.753286 -1.1787353 -16.513227 4294967295
17.761387 0.25330329 -16.647179 4294967295
17.762878 -1.3387001 -16.451097 4294967295
17.772093 -0.54338211 -16.504297 4294967295
17.784994 0.72925222 -16.5977 4294967295
17.844938 -1.1773072 -16.833704 4294967295
17.869467 0.25293821 -16.893667 4294967295
17.873583 -0.54298031 -16.780556 4294967295
17.876324 -1.3389388 -16.673607 4294967295
17.886406 0.57003379 -16.855333 4294967295
17.88693 -1.9765131 -16.550192 4294967295
17.887314 0.72909629 -16.870174 4294967295
17.899696 -0.70408708 -16.644188 4294967295
17.900482 -0.86332113 -16.621719 4294967295
17.916656 -1.8198034 -16.435396 4294967295
17.92256 -1.5018505 -16.446697 4294967295
17.949347 0.088264197 -16.515539 4294967295
17.952471 -0.23038469 -16.463627 4294967295
17.957973 0.4060913 -16.514601 4294967295
18.025402 -1.6603426 -16.697742 4294967295
18.030293 -1.8199131 -16.656849 4294967295
18.033047 -1.5018028 -16.682318 4294967295
18.034061 -0.2286813 -16.829081 4294967295
18.035574 -1.1836785 -16.708794 4294967295
18.036087 -1.3428819 -16.687572 4294967295
18.053207 -0.70754319 -16.686323 4294967295
18.059084 -1.9815171 -16.50856 4294967295
18.068184 0.087205403 -16.713638 4294967295
18.091265 -1.0288401 -16.47751 4294967295
18.09483 -0.55146241 -16.518269 4294967295
18.124678 0.56094652 -16.516657 4294967295
18.12812 -0.076198801 -16.425503 4294967295
18.132538 -0.39500481 -16.3678 4294967295
18.137569 0.71932417 -16.477686 4294967295
18.153934 0.24050251 -16.347404 4294967295
18.167772 0.39882869 -16.304182 4294967295
18.194614 -1.8242471 -16.650389 4294967295
18.200605 -1.0288639 -16.718054 4294967295
18.205206 -1.188394 -16.678492 4294967295
