# .PCD v0.7 - Point Cloud Data file format
VERSION 0.7
FIELDS x y z rgb
SIZE 4 4 4 4
TYPE F F F U
COUNT 1 1 1 1
WIDTH 1147
HEIGHT 1
VIEWPOINT 0 0 0 1 0 0 0
POINTS 1147
DATA ascii
37.950302 98.312454 -18.498537 4294967295
37.951664 98.633392 -18.529366 4294967295
37.953468 92.782295 -18.522106 4294967295
37.954998 93.423294 -18.588428 4294967295
37.960007 92.465584 -18.460318 4294967295
37.963009 95.827881 -18.828165 4294967295
37.963543 95.668167 -18.808014 4294967295
37.965904 98.80146 -18.491659 4294967295
37.966301 93.269188 -18.526075 4294967295
37.970638 94.391815 -18.635624 4294967295
37.970757 92.951401 -18.472452 4294967295
37.988163 96.481583 -18.80195 4294967295
37.99091 93.76236 -18.48391 4294967295
37.999119 94.727119 -18.560236 4294967295
38.000977 94.888168 -18.571035 4294967295
38.003246 92.327988 -18.272797 4294967295
38.004929 96.17067 -18.700165 4294967295
38.008934 96.332886 -18.702564 4294967295
38.013805 92.173347 -18.213341 4294967295
38.0172 93.616158 -18.362839 4294967295
38.026981 95.22226 -18.505356 4294967295
38.028797 98.104103 -18.823582 4294967295
38.037365 97.468735 -18.717754 4294967295
38.049839 95.554749 -18.451994 4294967295
38.051971 96.99662 -18.606354 4294967295
38.071342 92.117279 -18.638357 4294967295
38.07378 92.598618 -18.683039 4294967295
38.08054 98.452995 -18.657198 4294967295
38.083416 97.654236 -18.555563 4294967295
38.107777 93.416565 -18.640347 4294967295
38.112343 97.18988 -18.388079 4294967295
38.114193 97.351021 -18.398916 4294967295
38.11972 94.223053 -18.683966 4294967295
38.126278 91.985657 -18.405251 4294967295
38.130165 93.108215 -18.516579 4294967295
38.144268 92.795441 -18.425222 4294967295
38.146339 94.077133 -18.561731 4294967295
38.15538 98.334618 -18.346188 4294967295
38.155399 95.042305 -18.63472 4294967295
38.156605 94.722839 -18.593853 4294967295
38.158039 92.96273 -18.389406 4294967295
38.160538 95.685257 -18.686892 4294967295
34.297215 98.875153 -17.894466 4294967295
34.449757 99.028015 -17.966496 4294967295
34.972782 99.204048 -17.884399 4294967295
35.544518 98.899178 -18.894369 4294967295
35.749954 99.082161 -18.755247 4294967295
35.782375 98.940697 -18.608339 4294967295
35.853935 99.876419 -17.755054 4294967295
35.88282 98.903969 -18.868162 4294967295
35.997787 100.02432 -17.861828 4294967295
36.015579 100.19473 -17.809351 4294967295
36.036068 99.057205 -18.936357 4294967295
36.045139 98.902466 -18.882278 4294967295
36.091328 99.248604 -18.735487 4294967295
36.234921 99.076477 -18.80582 4294967295
36.267021 99.574615 -18.733131 4294967295
36.332893 98.878532 -19.056475 4294967295
36.452824 99.426498 -18.636538 4294967295
36.478973 99.281387 -18.51499 4294967295
36.518536 99.624008 -18.394806 4294967295
36.592232 99.25193 -18.723455 4294967295
36.639679 99.598938 -18.572262 4294967295
36.64756 99.443405 -18.523003 4294967295
36.66222 99.771828 -18.501345 4294967295
36.66243 99.931984 -18.518646 4294967295
36.695827 99.217049 -18.969687 4294967295
36.728836 99.075829 -18.821308 4294967295
36.731647 99.877174 -18.90077 4294967295
36.735302 98.919533 -18.777681 4294967295
36.802898 100.07793 -18.637739 4294967295
36.813747 99.764091 -18.558693 4294967295
36.863914 99.058868 -18.943117 4294967295
36.875393 99.225304 -18.915974 4294967295
36.899681 101.67033 -17.762976 4294967295
36.941845 98.94297 -18.617764 4294967295
36.942837 99.583572 -18.686302 4294967295
36.979748 100.08469 -18.595142 4294967295
37.0168 100.26595 -18.467207 4294967295
37.033653 99.955444 -18.364538 4294967295
37.040165 100.43943 -18.39323 4294967295
37.040619 99.799324 -18.318962 4294967295
37.050396 99.230957 -18.880386 4294967295
37.065796 99.079704 -18.801636 4294967295
37.086853 99.891571 -18.809216 4294967295
37.112541 99.426186 -18.653753 4294967295
37.142124 98.962814 -18.48292 4294967295
37.145027 99.604675 -18.543941 4294967295
37.150131 99.767624 -18.541943 4294967295
37.16975 100.57911 -18.555235 4294967295
37.175941 105.74286 -17.782848 4294967295
37.186108 100.10828 -18.436497 4294967295
37.223866 100.28998 -18.30595 4294967295
37.247009 99.56881 -18.79612 4294967295
37.252735 103.60658 -17.89999 4294967295
37.258728 99.735474 -18.768124 4294967295
37.272873 99.103432 -18.640087 4294967295
37.29554 104.27307 -17.803909 4294967295
37.296753 98.956863 -18.528032 4294967295
37.308357 100.40388 -18.645308 4294967295
37.308475 99.283607 -18.518118 4294967295
37.31078 105.40405 -17.870823 4294967295
37.318714 99.929657 -18.550264 4294967295
37.321754 100.73166 -18.628805 4294967295
37.322029 100.25166 -18.573427 4294967295
37.329254 100.57591 -18.581217 4294967295
37.332233 100.89774 -18.605703 4294967295
37.333405 105.57801 -17.799854 4294967295
37.3988 99.561279 -18.852108 4294967295
37.407902 98.92643 -18.743975 4294967295
37.419518 100.21304 -18.843063 4294967295
37.422642 99.254776 -18.722233 4294967295
37.437271 99.42308 -18.682846 4294967295
37.449394 99.750015 -18.671389 4294967295
37.452785 100.07201 -18.69425 4294967295
37.460606 103.95251 -17.772785 4294967295
37.473217 100.72385 -18.686356 4294967295
37.484234 99.929886 -18.552578 4294967295
37.490891 104.93232 -17.762392 4294967295
37.513924 105.74769 -17.76243 4294967295
37.53009 100.59642 -18.444798 4294967295
37.539738 101.08226 -18.461201 4294967295
37.547089 101.2466 -18.450418 4294967295
37.549232 101.40794 -18.460102 4294967295
37.569195 100.93911 -18.327364 4294967295
37.595047 99.258888 -18.697353 4294967295
37.605644 99.584953 -18.691931 4294967295
37.607025 99.905807 -18.722687 4294967295
37.613716 100.38971 -18.75069 4294967295
37.615326 103.78605 -17.800508 4294967295
37.621288 98.953583 -18.558153 4294967295
37.625748 100.23654 -18.685379 4294967295
37.64019 100.88499 -18.701046 4294967295
37.654263 99.452423 -18.48299 4294967295
37.666988 99.139412 -18.39683 4294967295
37.670307 99.7817 -18.4562 4294967295
37.716228 100.60845 -18.36643 4294967295
37.718136 99.075165 -18.847914 4294967295
37.718693 99.235474 -18.863819 4294967295
37.726521 101.57512 -18.434605 4294967295
37.727642 101.41564 -18.412113 4294967295
37.729137 100.77599 -18.333857 4294967295
37.735489 100.20498 -18.90641 4294967295
37.776035 100.38814 -18.765505 4294967295
37.782219 99.431374 -18.632763 4294967295
37.789345 100.87586 -18.767572 4294967295
37.800179 100.56198 -18.688929 4294967295
37.800701 101.04243 -18.741129 4294967295
37.806309 100.0853 -18.610647 4294967295
37.807808 101.84673 -18.803658 4294967295
37.81086 99.607651 -18.538532 4294967295
37.823864 99.935196 -18.523724 4294967295
37.832096 100.74033 -18.581881 4294967295
37.837257 99.782707 -18.453119 4294967295
37.840176 101.70544 -18.658701 4294967295
37.854866 101.23368 -18.546869 4294967295
37.866093 101.56036 -18.539026 4294967295
37.878494 101.40742 -18.472319 4294967295
37.904579 99.88726 -18.858435 4294967295
37.930595 99.421898 -18.702311 4294967295
37.933704 101.02401 -18.870863 4294967295
37.934227 99.263893 -18.67 4294967295
37.937347 99.105591 -18.639702 4294967295
37.944839 101.19044 -18.845325 4294967295
37.969913 101.52496 -18.783291 4294967295
37.977062 101.84919 -18.791441 4294967295
37.978783 99.6092 -18.53162 4294967295
37.984028 100.5727 -18.619545 4294967295
38.012024 100.74881 -18.527979 4294967295
38.014324 102.03088 -18.66361 4294967295
38.026871 102.19825 -18.632553 4294967295
38.029228 102.35971 -18.641405 4294967295
38.039101 101.40482 -18.494267 4294967295
38.042168 99.39167 -18.915783 4294967295
38.062828 99.243294 -18.816866 4294967295
38.073978 105.74783 -18.845776 4294967295
38.074696 100.37017 -18.896894 4294967295
38.080166 98.932961 -18.712868 4294967295
38.095333 101.75759 -18.310232 4294967295
38.106113 102.56467 -18.358454 4294967295
38.106937 99.108055 -18.626171 4294967295
38.118462 102.89223 -18.346273 4294967295
38.137997 101.84683 -18.81184 4294967295
38.147602 99.771347 -18.539337 4294967295
38.149109 100.25249 -18.587671 4294967295
38.149445 100.09259 -18.568275 4294967295
38.150284 101.69389 -18.745712 4294967295
38.155216 104.25741 -19.015455 4294967295
38.155468 102.33713 -18.797707 4294967295
31.284821 110.40839 -17.953306 4294967295
31.323503 111.92351 -18.656536 4294967295
31.337866 111.77334 -18.57951 4294967295
31.368269 110.67474 -18.326971 4294967295
31.374004 111.63771 -18.413456 4294967295
31.390446 110.52954 -18.217968 4294967295
31.394762 110.05269 -18.145336 4294967295
31.396023 112.70952 -19.822416 4294967295
31.419147 112.24651 -19.673292 4294967295
31.425787 110.23306 -18.036802 4294967295
31.429199 110.39526 -18.041185 4294967295
31.439079 111.3614 -18.110779 4294967295
31.444019 111.04483 -18.053917 4294967295
31.445623 111.20583 -18.065689 4294967295
31.465084 112.43702 -19.504223 4294967295
31.46649 110.89981 -17.943712 4294967295
31.510691 111.77921 -18.550621 4294967295
31.534264 111.63514 -18.436052 4294967295
31.547596 111.16443 -18.326651 4294967295
31.552322 110.8478 -18.270718 4294967295
31.552647 112.06663 -19.785421 4294967295
31.555908 112.38788 -19.808661 4294967295
31.561699 110.21439 -18.159128 4294967295
31.565945 111.01674 -18.233402 4294967295
31.592939 112.57238 -19.676064 4294967295
31.596214 110.71696 -18.07313 4294967295
31.635395 112.76061 -19.521381 4294967295
31.66991 111.77596 -18.577356 4294967295
31.704226 112.3775 -19.878536 4294967295
31.705612 111.16035 -18.358492 4294967295
31.717911 111.64819 -18.363251 4294967295
31.72357 111.49207 -18.321852 4294967295
31.73102 111.91687 -19.71472 4294967295
31.740368 111.34336 -18.235018 4294967295
31.760511 112.0962 -19.612961 4294967295
31.768272 110.72214 -18.047915 4294967295
31.780462 112.74797 -19.604811 4294967295
31.781605 112.58914 -19.5819 4294967295
31.791065 110.25726 -17.89995 4294967295
31.825872 110.44019 -17.776262 4294967295
31.876724 110.04562 -18.208796 4294967295
31.885647 111.65058 -18.355507 4294967295
31.904232 110.5435 -18.151615 4294967295
31.905399 111.34392 -18.238413 4294967295
31.911797 112.72609 -19.743952 4294967295
31.919619 112.25262 -19.657394 4294967295
31.920843 111.03431 -18.138859 4294967295
31.929214 111.5197 -18.159674 4294967295
31.929836 112.41908 -19.634113 4294967295
32.022533 111.47253 -18.455112 4294967295
32.029385 112.05688 -19.865711 4294967295
32.031746 111.31878 -18.399323 4294967295
32.034477 111.90074 -19.826784 4294967295
32.051094 112.70961 -19.850517 4294967295
32.055992 111.6547 -18.337223 4294967295
32.063755 112.55857 -19.780874 4294967295
32.081779 111.19207 -18.177355 4294967295
32.084396 112.25327 -19.660559 4294967295
32.084412 110.87391 -18.130041 4294967295
32.089756 112.41646 -19.657042 4294967295
32.099243 110.40379 -18.014734 4294967295
32.102375 111.04576 -18.075209 4294967295
32.178913 111.14761 -18.457012 4294967295
32.180637 112.36755 -19.960024 4294967295
32.189819 111.8951 -19.868074 4294967295
32.203751 110.68433 -18.301132 4294967295
32.222672 112.07659 -19.753036 4294967295
32.245461 111.51159 -18.223011 4294967295
32.246979 111.35265 -18.198542 4294967295
32.271599 110.56907 -18.006924 4294967295
32.272358 110.08958 -17.94891 4294967295
32.276955 110.4126 -17.966831 4294967295
32.279099 112.59319 -19.578882 4294967295
32.283054 110.2566 -17.923719 4294967295
32.286453 112.27886 -19.512548 4294967295
32.303875 111.28151 -18.641361 4294967295
32.319721 111.45187 -18.595266 4294967295
32.394409 111.02163 -18.237055 4294967295
32.396019 111.76376 -19.685003 4294967295
32.400173 110.06567 -18.103878 4294967295
32.40591 110.7093 -18.153748 4294967295
32.41481 110.87514 -18.135893 4294967295
32.423504 112.42053 -19.646589 4294967295
32.435101 110.24854 -17.980284 4294967295
32.447529 112.11734 -19.512751 4294967295
32.456242 111.22249 -18.00419 4294967295
32.460316 110.42509 -17.896156 4294967295
32.466328 112.60886 -19.491299 4294967295
32.563709 110.70503 -18.186771 4294967295
32.582836 111.19756 -18.164015 4294967295
32.582916 110.3977 -18.072258 4294967295
32.583191 112.25813 -19.652325 4294967295
32.583939 112.57786 -19.685759 4294967295
32.590382 111.04256 -18.115114 4294967295
32.597664 111.36735 -18.122141 4294967295
32.60556 112.11342 -19.543552 4294967295
32.624161 112.44514 -19.504732 4294967295
32.624992 110.90538 -17.956394 4294967295
32.631504 110.5896 -17.893379 4294967295
32.655647 110.28532 -17.758812 4294967295
32.678886 111.31241 -18.465631 4294967295
32.692162 112.2215 -19.881378 4294967295
32.710434 110.21362 -18.209824 4294967295
32.714584 111.91727 -19.754265 4294967295
32.721111 110.86047 -18.239666 4294967295
32.723068 112.08251 -19.73819 4294967295
32.749359 112.57891 -19.686554 4294967295
32.758881 112.74491 -19.666281 4294967295
32.769627 111.21242 -18.079588 4294967295
32.782173 111.06068 -18.010447 4294967295
32.787693 112.4449 -19.513348 4294967295
32.800243 110.75251 -17.900625 4294967295
32.84605 111.73616 -19.873949 4294967295
32.863491 110.20625 -18.262001 4294967295
32.870625 112.07166 -19.811106 4294967295
32.889221 110.38305 -18.176081 4294967295
32.896393 111.18764 -18.238422 4294967295
32.900772 111.03056 -18.202414 4294967295
32.909081 111.356 -18.205328 4294967295
32.90921 112.73584 -19.728134 4294967295
32.911732 110.71778 -18.121479 4294967295
32.924129 110.56591 -18.053003 4294967295
32.947544 112.60185 -19.55509 4294967295
32.951771 110.90411 -17.977644 4294967295
32.956844 112.44839 -19.499311 4294967295
33.01601 110.99828 -18.407612 4294967295
33.051987 112.08329 -19.747536 4294967295
33.059124 112.40728 -19.755161 4294967295
33.05949 110.38692 -18.158686 4294967295
33.059742 110.22709 -18.139408 4294967295
33.063324 111.18938 -18.234526 4294967295
33.065693 111.77312 -19.655807 4294967295
33.07832 110.71925 -18.119072 4294967295
33.097126 111.95363 -19.547195 4294967295
33.100754 110.894 -18.046602 4294967295
33.10556 112.59791 -19.586031 4294967295
33.108971 112.75985 -19.590496 4294967295
33.130203 110.11301 -17.836115 4294967295
33.138245 112.30033 -19.41773 4294967295
33.145561 110.60327 -17.828831 4294967295
33.232761 110.71276 -18.165806 4294967295
33.236485 111.77766 -19.635113 4294967295
33.241425 110.23838 -18.075998 4294967295
33.276665 111.06161 -18.024952 4294967295
33.30146 112.29983 -19.427866 4294967295
33.303658 112.78042 -19.47365 4294967295
33.304874 110.43983 -17.837908 4294967295
33.306755 110.12088 -17.793758 4294967295
33.391827 111.77197 -19.676743 4294967295
33.423168 112.75075 -19.659771 4294967295
33.425804 112.43317 -19.612749 4294967295
33.43198 110.41547 -17.995253 4294967295
33.438251 110.2595 -17.951677 4294967295
33.439964 110.90086 -18.017817 4294967295
33.442268 110.74231 -17.990259 4294967295
33.447784 109.78547 -17.858402 4294967295
33.453209 112.13199 -19.466013 4294967295
33.454536 112.61198 -19.515278 4294967295
33.473793 110.60284 -17.844755 4294967295
33.490479 111.99696 -19.297737 4294967295
33.490829 112.31669 -19.332748 4294967295
33.527596 112.07261 -19.833435 4294967295
33.55619 111.02932 -18.237007 4294967295
33.561363 112.73359 -19.770405 4294967295
33.562801 112.41525 -19.728235 4294967295
33.567383 109.91645 -18.064125 4294967295
33.573002 111.78335 -19.614429 4294967295
33.594044 110.8941 -18.066153 4294967295
33.598171 110.41662 -17.99474 4294967295
33.603321 110.2599 -17.955734 4294967295
33.608013 110.74317 -17.991587 4294967295
33.608353 110.1031 -17.917175 4294967295
33.641926 110.60524 -17.836601 4294967295
33.642933 111.98929 -19.351364 4294967295
33.64505 112.62965 -19.41567 4294967295
33.702072 111.91995 -19.779848 4294967295
33.717411 109.90711 -18.12866 4294967295
33.728622 109.59428 -18.04701 4294967295
33.729156 112.57652 -19.743784 4294967295
33.729946 110.39536 -18.132921 4294967295
33.737148 110.72012 -18.140409 4294967295
33.765999 111.80249 -19.504822 4294967295
33.769421 109.46053 -17.86441 4294967295
33.778271 110.10663 -17.901777 4294967295
33.781738 112.7712 -19.550741 4294967295
33.784664 112.13427 -19.466215 4294967295
33.790829 109.79456 -17.814684 4294967295
33.790836 110.27489 -17.869419 4294967295
33.814594 112.31384 -19.364172 4294967295
33.819153 112.47662 -19.364054 4294967295
33.886196 112.57194 -19.778585 4294967295
33.890846 112.7347 -19.778111 4294967295
33.897293 112.41964 -19.715878 4294967295
33.901951 112.10336 -19.660814 4294967295
33.921715 110.41314 -18.029482 4294967295
33.922829 111.79774 -19.540663 4294967295
33.925037 110.73544 -18.052612 4294967295
33.942764 112.29008 -19.515211 4294967295
33.948261 111.49503 -19.402208 4294967295
33.958183 110.27674 -17.864523 4294967295
33.96682 111.66698 -19.345917 4294967295
33.971329 109.96501 -17.775135 4294967295
33.976952 110.12879 -17.770761 4294967295
34.058777 111.93895 -19.678377 4294967295
34.063305 109.43789 -18.018581 4294967295
34.078072 109.28729 -17.940981 4294967295
34.080379 111.47404 -19.537241 4294967295
34.084694 110.2521 -18.023808 4294967295
34.088867 109.93462 -17.970562 4294967295
34.097183 110.74046 -18.02833 4294967295
34.100578 112.12624 -19.528984 4294967295
34.104008 111.6493 -19.46069 4294967295
34.104534 109.62453 -17.871098 4294967295
34.105183 112.44875 -19.546894 4294967295
34.106983 111.811 -19.466948 4294967295
34.107731 109.78671 -17.876492 4294967295
34.118198 110.59405 -17.925632 4294967295
34.150723 112.31915 -19.346146 4294967295
34.196873 111.44286 -19.734621 4294967295
34.213444 112.41184 -19.777269 4294967295
34.221397 111.29923 -19.618221 4294967295
34.237576 112.2681 -19.662479 4294967295
34.24511 109.92928 -18.010241 4294967295
34.250916 109.45273 -17.932228 4294967295
34.251263 111.95771 -19.571314 4294967295
34.254322 110.57561 -18.046181 4294967295
34.259197 111.64346 -19.503187 4294967295
34.261066 111.80444 -19.513874 4294967295
34.301125 112.7894 -19.462524 4294967295
34.304539 112.6319 -19.430683 4294967295
34.364883 112.08421 -19.798195 4294967295
34.381683 111.13705 -19.621981 4294967295
34.402916 110.5653 -18.116518 4294967295
34.40593 108.96628 -17.922171 4294967295
34.407722 110.08816 -18.042576 4294967295
34.422264 111.80254 -19.532318 4294967295
34.427105 112.76415 -19.621969 4294967295
34.439491 109.94855 -17.896933 4294967295
34.440067 112.45326 -19.533783 4294967295
34.442036 110.27045 -17.923185 4294967295
34.443794 109.15062 -17.788515 4294967295
34.444073 111.65711 -19.426888 4294967295
34.447025 110.43381 -17.921406 4294967295
34.452904 109.3166 -17.770205 4294967295
34.459019 111.34734 -19.330744 4294967295
34.483715 112.00273 -19.304649 4294967295
34.487553 112.32486 -19.325657 4294967295
34.506901 110.36604 -18.347267 4294967295
34.535671 111.44989 -19.705441 4294967295
34.54285 111.93371 -19.731226 4294967295
34.543613 109.90961 -18.145544 4294967295
34.545067 110.23069 -18.176163 4294967295
34.582893 110.09503 -18.006399 4294967295
34.591656 108.65948 -17.807261 4294967295
34.593994 112.44657 -19.581345 4294967295
34.601032 109.46619 -17.860825 4294967295
34.601761 109.78694 -17.894358 4294967295
34.603981 109.14779 -17.812565 4294967295
34.618168 109.31702 -17.773945 4294967295
34.618561 111.34434 -19.355995 4294967295
34.625809 111.82845 -19.381544 4294967295
34.631489 112.63112 -19.449688 4294967295
34.643959 112.79916 -19.41802 4294967295
34.654224 110.03494 -18.385929 4294967295
34.697163 109.74249 -18.177668 4294967295
34.717484 111.46149 -19.641426 4294967295
34.719261 111.62239 -19.652485 4294967295
34.731884 110.24511 -18.093349 4294967295
34.73291 111.15208 -19.543526 4294967295
34.734207 112.11139 -19.647285 4294967295
34.738625 112.59349 -19.684122 4294967295
34.738708 108.64829 -17.883869 4294967295
34.747646 111.00191 -19.466534 4294967295
34.756622 108.81983 -17.830387 4294967295
34.770443 109.94973 -17.902599 4294967295
34.780186 109.63568 -17.827177 4294967295
34.785034 109.47862 -17.789553 4294967295
34.818665 111.84729 -19.273817 4294967295
34.820133 112.48753 -19.340622 4294967295
34.82354 112.80941 -19.363361 4294967295
34.828457 112.33321 -19.289228 4294967295
34.869591 111.13422 -19.659781 4294967295
34.872147 111.77479 -19.722187 4294967295
34.898907 112.59101 -19.706221 4294967295
34.915943 112.12299 -19.583851 4294967295
34.917812 108.49731 -17.813993 4294967295
34.918209 109.93892 -17.976322 4294967295
34.921547 109.46063 -17.908344 4294967295
34.934044 109.62878 -17.876596 4294967295
34.935879 108.9893 -17.796396 4294967295
34.945068 112.30192 -19.485857 4294967295
34.992123 109.72063 -18.326696 4294967295
35.023586 110.80818 -19.670597 4294967295
35.053619 109.92018 -18.099306 4294967295
35.062153 111.79176 -19.62582 4294967295
35.064457 112.11277 -19.652927 4294967295
35.069588 110.99778 -19.505466 4294967295
35.069633 109.61021 -17.998934 4294967295
35.074978 112.27943 -19.629169 4294967295
35.077412 112.4408 -19.637611 4294967295
35.079994 108.6559 -17.848309 4294967295
35.085136 111.64702 -19.516113 4294967295
35.085693 109.46033 -17.916588 4294967295
35.087795 111.96832 -19.541817 4294967295
35.090603 108.50245 -17.78772 4294967295
35.09304 112.61086 -19.593512 4294967295
35.099335 111.4965 -19.441402 4294967295
35.134247 112.79784 -19.447536 4294967295
35.166424 109.56683 -18.275873 4294967295
35.193432 111.45084 -19.727137 4294967295
35.219307 111.62746 -19.642307 4294967295
35.221359 111.94831 -19.670416 4294967295
35.230038 110.6758 -19.490755 4294967295
35.241917 112.28131 -19.624891 4294967295
35.250473 112.60647 -19.627134 4294967295
35.253674 108.98196 -17.854982 4294967295
35.255562 109.784 -17.938463 4294967295
35.256226 111.17216 -19.440962 4294967295
35.260597 108.66599 -17.790945 4294967295
35.263908 111.01733 -19.392241 4294967295
35.264484 108.50826 -17.757236 4294967295
35.277401 110.86625 -19.320383 4294967295
35.278316 109.47821 -17.81127 4294967295
35.278908 112.4654 -19.495844 4294967295
35.309185 112.16564 -19.339092 4294967295
35.323769 112.8146 -19.353643 4294967295
35.324982 111.37669 -19.185472 4294967295
35.37624 111.94228 -19.714073 4294967295
35.408897 109.61662 -17.971703 4294967295
35.413891 109.13931 -17.897205 4294967295
35.415161 108.49938 -17.819351 4294967295
35.417503 111.17027 -19.459358 4294967295
35.418503 112.44928 -19.600481 4294967295
35.419106 108.66207 -17.821827 4294967295
35.423695 112.77226 -19.616119 4294967295
35.432583 111.65951 -19.453833 4294967295
35.436661 112.1416 -19.492029 4294967295
35.437054 110.86329 -19.345358 4294967295
35.437893 111.02367 -19.360161 4294967295
35.447357 110.55025 -19.268105 4294967295
35.454388 112.63268 -19.475994 4294967295
35.454746 111.35428 -19.329437 4294967295
35.478397 111.52951 -19.253557 4294967295
35.491505 111.85779 -19.237749 4294967295
35.529125 111.13618 -19.67498 4294967295
35.573074 112.76257 -19.681738 4294967295
35.581959 109.14146 -17.889999 4294967295
35.582394 108.18056 -17.77911 4294967295
35.586758 110.3744 -19.355427 4294967295
35.594437 110.85886 -19.379337 4294967295
35.599102 111.82085 -19.469625 4294967295
35.606743 112.62492 -19.529938 4294967295
35.608154 110.70786 -19.306725 4294967295
35.612446 112.30904 -19.471029 4294967295
35.621033 112.47449 -19.455069 4294967295
35.637566 111.52621 -19.280605 4294967295
35.637867 112.16584 -19.351965 4294967295
35.64484 110.57164 -19.142881 4294967295
35.695671 110.81818 -19.636082 4294967295
35.701019 109.27265 -18.095943 4294967295
35.715767 108.4812 -17.946375 4294967295
35.726624 108.96858 -17.957747 4294967295
35.727146 111.6375 -19.601837 4294967295
35.73349 110.2033 -19.413532 4294967295
35.736233 112.60217 -19.674532 4294967295
35.747517 108.82162 -17.856462 4294967295
35.75404 111.49518 -19.477022 4294967295
35.76347 111.02179 -19.385231 4294967295
35.765564 111.18298 -19.395058 4294967295
35.769398 111.98466 -19.470488 4294967295
35.782135 111.35357 -19.347443 4294967295
35.790413 112.47791 -19.441509 4294967295
35.857052 109.10705 -18.118317 4294967295
35.859665 108.62825 -18.053411 4294967295
35.87149 110.66588 -19.578634 4294967295
35.877468 111.46871 -19.645542 4294967295
35.885216 110.19526 -19.469875 4294967295
35.89669 111.00175 -19.515011 4294967295
35.907078 107.85709 -17.774107 4294967295
35.90892 110.37029 -19.394047 4294967295
35.910427 112.44897 -19.623644 4294967295
35.91127 108.98121 -17.884729 4294967295
35.918182 108.18449 -17.766356 4294967295
35.926132 110.86091 -19.380196 4294967295
35.929993 111.34295 -19.419275 4294967295
35.933418 111.66486 -19.441948 4294967295
35.935879 112.14598 -19.486553 4294967295
35.943104 112.31054 -19.476053 4294967295
35.956047 110.56042 -19.22538 4294967295
35.989967 112.66096 -19.326624 4294967295
36.005447 112.03149 -19.192781 4294967295
36.021404 108.62639 -18.07131 4294967295
36.028984 108.79133 -18.059404 4294967295
36.059143 108.48996 -17.903355 4294967295
36.06591 110.04591 -19.393349 4294967295
36.06749 110.84615 -19.477688 4294967295
36.079964 111.81321 -19.536982 4294967295
36.082199 109.89645 -19.310734 4294967295
36.091881 112.4603 -19.562269 4294967295
36.09446 111.50294 -19.443373 4294967295
36.095352 110.54436 -19.331127 4294967295
36.096344 111.9837 -19.490273 4294967295
36.102715 112.62722 -19.537518 4294967295
36.109196 110.23347 -19.240072 4294967295
36.113823 112.3148 -19.457308 4294967295
36.117794 111.67794 -19.369131 4294967295
36.137451 111.37091 -19.255081 4294967295
36.149261 112.17805 -19.298939 4294967295
36.150536 111.05956 -19.167028 4294967295
36.153366 110.74153 -19.11957 4294967295
36.194111 108.7916 -18.063919 4294967295
36.196117 108.63269 -18.0378 4294967295
36.196194 112.8484 -19.185675 4294967295
36.203693 108.15688 -17.953268 4294967295
36.221859 111.31926 -19.577887 4294967295
36.238834 108.49935 -17.850273 4294967295
36.24049 110.85177 -19.449877 4294967295
36.246666 110.21628 -19.352995 4294967295
36.246964 108.34422 -17.799868 4294967295
36.262329 110.06641 -19.272928 4294967295
36.269299 112.14925 -19.480833 4294967295
36.270123 111.03071 -19.3508 4294967295
36.277508 111.99473 -19.430273 4294967295
36.278107 112.4747 -19.482241 4294967295
36.28231 112.79716 -19.501835 4294967295
36.30299 111.85141 -19.311396 4294967295
36.306221 109.77454 -19.06308 4294967295
36.310658 109.93731 -19.063648 4294967295
36.320469 110.74329 -19.115456 4294967295
36.321392 112.34309 -19.292982 4294967295
36.360508 108.63248 -18.045321 4294967295
36.406631 109.89373 -19.340639 4294967295
36.411316 108.1837 -17.789581 4294967295
36.418549 111.34022 -19.456532 4294967295
36.421539 108.5106 -17.785416 4294967295
36.422577 108.351 -17.76314 4294967295
36.431782 110.06965 -19.259386 4294967295
36.434296 111.67014 -19.430534 4294967295
36.439259 111.9931 -19.44714 4294967295
36.445621 112.47685 -19.47632 4294967295
36.457184 112.80415 -19.466869 4294967295
36.462444 109.76933 -19.102001 4294967295
36.47308 111.85518 -19.295441 4294967295
36.47319 110.41594 -19.13199 4294967295
36.476746 109.61845 -19.027367 4294967295
36.476761 110.89803 -19.172234 4294967295
36.480141 110.58033 -19.122644 4294967295
36.488033 111.54503 -19.200148 4294967295
36.498363 111.23182 -19.123114 4294967295
36.501003 111.07357 -19.09458 4294967295
36.504139 112.67499 -19.263321 4294967295
36.509502 110.27919 -18.970402 4294967295
36.518684 112.20467 -19.151537 4294967295
36.532585 112.37367 -19.114746 4294967295
36.569984 108.17985 -17.820007 4294967295
36.572887 110.37459 -19.394016 4294967295
36.576782 110.0573 -19.342434 4294967295
36.608864 111.83669 -19.414949 4294967295
36.618591 110.88356 -19.267944 4294967295
36.619118 109.28456 -19.084787 4294967295
36.621185 111.20506 -19.293917 4294967295
36.622185 109.6064 -19.1089 4294967295
36.628242 112.00916 -19.356583 4294967295
36.633282 111.53268 -19.282385 4294967295
36.642929 111.69884 -19.26243 4294967295
36.652378 112.82442 -19.351871 4294967295
36.653534 109.94622 -19.021383 4294967295
36.65715 109.46858 -18.952759 4294967295
36.667091 109.79485 -18.949755 4294967295
36.672863 110.75843 -19.035645 4294967295
36.673412 110.27884 -18.979145 4294967295
36.678696 111.08212 -19.048851 4294967295
36.696934 112.21371 -19.103666 4294967295
36.70475 107.84061 -17.908613 4294967295
36.704834 112.69877 -19.126822 4294967295
36.704918 112.37888 -19.090271 4294967295
36.723167 109.5662 -19.365629 4294967295
36.734974 110.85278 -19.463839 4294967295
36.737724 111.17429 -19.489183 4294967295
36.744537 112.4576 -19.607056 4294967295
36.745701 109.74039 -19.294865 4294967295
36.769634 111.03492 -19.345295 4294967295
36.771114 112.31503 -19.484221 4294967295
36.776516 111.35916 -19.354359 4294967295
36.77681 111.99895 -19.425583 4294967295
36.779774 109.92194 -19.178617 4294967295
36.809502 110.42072 -19.115713 4294967295
36.817459 111.54549 -19.211073 4294967295
36.820107 112.66676 -19.327324 4294967295
36.821239 109.14832 -18.924582 4294967295
36.821503 110.74832 -19.10461 4294967295
36.828083 110.2726 -19.024357 4294967295
36.835758 112.83691 -19.283739 4294967295
36.843666 106.54269 -17.871792 4294967295
36.847084 111.88456 -19.130493 4294967295
36.859726 111.73276 -19.062571 4294967295
36.875191 109.39848 -19.402733 4294967295
36.888058 109.56651 -19.370134 4294967295
36.890625 107.53317 -17.795233 4294967295
36.902519 108.93599 -19.240803 4294967295
36.92654 109.11103 -19.164261 4294967295
36.929794 109.27303 -19.16954 4294967295
36.935333 112.47488 -19.50956 4294967295
36.945824 110.72266 -19.269258 4294967295
36.956387 112.64849 -19.444763 4294967295
36.959145 112.8102 -19.451994 4294967295
36.960621 110.89207 -19.229084 4294967295
36.963127 112.33306 -19.382051 4294967295
36.963772 110.41424 -19.162394 4294967295
36.971348 111.37879 -19.241133 4294967295
36.973022 111.21992 -19.216434 4294967295
36.974445 111.06089 -19.192736 4294967295
36.981373 109.78554 -19.020657 4294967295
36.988144 110.2698 -19.048298 4294967295
36.989944 106.37104 -17.932844 4294967295
36.990063 112.19062 -19.25791 4294967295
36.996513 105.89433 -17.85251 4294967295
37.004738 107.18128 -17.965176 4294967295
37.024265 111.73285 -19.068951 4294967295
37.027222 110.61472 -18.930595 4294967295
37.043362 107.04485 -17.794666 4294967295
37.059471 110.85011 -19.493711 4294967295
37.068424 111.65527 -19.548887 4294967295
37.077187 109.58213 -19.279324 4294967295
37.090214 111.50943 -19.445101 4294967295
37.092247 110.07146 -19.274336 4294967295
37.100254 108.95687 -19.116184 4294967295
37.105045 109.11985 -19.115423 4294967295
37.108234 109.92167 -19.19334 4294967295
37.109062 112.16122 -19.443296 4294967295
37.115078 112.00521 -19.40156 4294967295
37.135063 110.73854 -19.178236 4294967295
37.1376 111.22005 -19.222527 4294967295
37.142277 111.38301 -19.222214 4294967295
37.145813 109.3055 -18.973085 4294967295
37.148445 109.78716 -19.017027 4294967295
37.154644 105.89017 -17.884928 4294967295
37.158768 112.83325 -19.32015 4294967295
37.159843 108.83426 -18.863577 4294967295
37.161995 106.69588 -17.94663 4294967295
37.178177 110.28605 -18.954329 4294967295
37.178394 112.52612 -19.206783 4294967295
37.185001 112.37043 -19.16272 4294967295
37.186756 110.45153 -18.938679 4294967295
37.187763 106.87195 -17.863214 4294967295
37.207947 107.04463 -17.8018 4294967295
37.226044 108.93258 -19.274736 4294967295
37.249424 110.2268 -19.327488 4294967295
37.249725 111.50632 -19.470945 4294967295
37.256287 112.46996 -19.553614 4294967295
37.2617 109.75475 -19.224989 4294967295
37.268032 109.11889 -19.127764 4294967295
37.272068 111.84055 -19.419302 4294967295
37.277508 108.64488 -19.03624 4294967295
37.278465 112.64427 -19.484562 4294967295
37.286045 109.93012 -19.147387 4294967295
37.287109 108.33087 -18.962301 4294967295
37.290806 110.57303 -19.201014 4294967295
37.302677 108.82063 -18.955372 4294967295
37.306278 111.70267 -19.266806 4294967295
37.32333 110.91374 -19.109373 4294967295
37.327995 110.75673 -19.072956 4294967295
37.330967 112.03854 -19.205969 4294967295
37.340099 109.32421 -18.862539 4294967295
37.346718 105.90665 -17.783701 4294967295
37.348373 112.20979 -19.155661 4294967295
37.352654 109.65221 -18.849392 4294967295
37.355721 109.49409 -18.819241 4294967295
37.375916 112.38764 -19.065536 4294967295
37.397739 109.09704 -19.270809 4294967295
37.402275 110.37937 -19.39761 4294967295
37.406265 111.1815 -19.472315 4294967295
37.407909 108.94347 -19.212795 4294967295
37.412167 108.46622 -19.141836 4294967295
37.415123 110.2276 -19.329092 4294967295
37.426208 108.63497 -19.104771 4294967295
37.431149 111.67723 -19.428848 4294967295
37.434883 109.28033 -19.143028 4294967295
37.438339 110.08237 -19.219868 4294967295
37.448498 110.56873 -19.234221 4294967295
37.453571 112.01156 -19.376982 4294967295
37.468437 109.78145 -19.065525 4294967295
37.470459 111.06265 -19.202242 4294967295
37.471008 111.38296 -19.236238 4294967295
37.4786 109.46783 -18.989449 4294967295
37.481956 111.86992 -19.247496 4294967295
37.489601 112.83467 -19.325962 4294967295
37.494724 108.03753 -18.763309 4294967295
37.501812 109.96256 -18.952564 4294967295
37.505138 105.90265 -17.815111 4294967295
37.505379 112.205 -19.191729 4294967295
37.517025 112.37254 -19.164101 4294967295
37.527306 108.85819 -18.725821 4294967295
37.53788 108.38452 -18.629995 4294967295
37.553776 112.71641 -19.056032 4294967295
37.566757 110.37941 -19.403986 4294967295
37.586033 109.59187 -19.238035 4294967295
37.586891 108.31257 -19.090055 4294967295
37.5909 108.15506 -19.056248 4294967295
37.612309 109.9284 -19.171118 4294967295
37.613464 108.80914 -19.040041 4294967295
37.619877 109.45319 -19.087193 4294967295
37.623272 107.535 -18.856903 4294967295
37.627316 108.49774 -18.949535 4294967295
37.63055 110.57992 -19.171873 4294967295
37.632248 108.02069 -18.875937 4294967295
37.635731 112.50292 -19.36842 4294967295
37.637329 107.86378 -18.837906 4294967295
37.640457 110.1062 -19.078791 4294967295
37.640625 112.0262 -19.295017 4294967295
37.647602 111.39076 -19.195372 4294967295
37.651325 111.07315 -19.144627 4294967295
37.656551 112.35644 -19.268724 4294967295
37.66806 109.00332 -18.843943 4294967295
37.670731 110.2854 -18.978125 4294967295
37.670952 109.80541 -18.92301 4294967295
37.676613 108.68853 -18.774214 4294967295
37.694756 111.58102 -19.028549 4294967295
37.706203 111.74842 -19.00173 4294967295
37.710037 111.27073 -18.932455 4294967295
37.715992 112.71498 -19.071823 4294967295
37.728504 112.24295 -18.968538 4294967295
37.741257 108.62618 -19.172428 4294967295
37.763241 110.0798 -19.248909 4294967295
37.768257 108.483 -19.048532 4294967295
37.769482 109.60379 -19.17025 4294967295
37.800655 112.34332 -19.355251 4294967295
37.800709 108.18309 -18.885204 4294967295
37.806736 108.02677 -18.843493 4294967295
37.814808 107.71162 -18.7757 4294967295
37.818077 110.75458 -19.106329 4294967295
37.825413 111.71934 -19.18602 4294967295
37.826416 111.55997 -19.164017 4294967295
37.826435 111.39997 -19.14587 4294967295
37.833511 112.52456 -19.244644 4294967295
37.836147 111.08614 -19.071692 4294967295
37.84029 108.36774 -18.748144 4294967295
37.843178 109.81023 -18.89954 4294967295
37.849365 107.41272 -18.604069 4294967295
37.853706 109.33663 -18.804054 4294967295
37.853752 110.2971 -18.912342 4294967295
37.86134 109.50151 -18.792213 4294967295
37.864101 110.94392 -18.944109 4294967295
37.873318 107.90787 -18.564426 4294967295
37.876976 112.23262 -19.038269 4294967295
37.900581 107.18291 -19.036606 4294967295
37.902954 107.98441 -19.117651 4294967295
37.908607 107.66789 -19.059374 4294967295
37.914322 110.71117 -19.380213 4294967295
37.918343 108.63397 -19.12966 4294967295
37.922718 110.07663 -19.275114 4294967295
37.927113 108.47942 -19.077255 4294967295
37.93499 109.12438 -19.118694 4294967295
37.945457 108.33079 -18.987368 4294967295
37.945763 112.33087 -19.437752 4294967295
37.946274 107.371 -18.87574 4294967295
37.948265 107.53229 -18.886011 4294967295
37.957661 111.05872 -19.246717 4294967295
37.962154 106.74044 -18.741253 4294967295
37.96479 109.78316 -19.074308 4294967295
37.965111 111.86343 -19.307865 4294967295
37.974087 110.90919 -19.164377 4294967295
37.974586 109.94936 -19.054029 4294967295
37.983372 108.83453 -18.893147 4294967295
37.983433 108.19428 -18.820608 4294967295
37.985863 110.59663 -19.082153 4294967295
37.992142 109.64033 -18.949169 4294967295
37.994633 112.68243 -19.282675 4294967295
37.996353 109.0027 -18.860399 4294967295
38.004627 111.56878 -19.117126 4294967295
38.005878 111.40955 -19.094166 4294967295
38.018875 109.33696 -18.808382 4294967295
38.022064 109.49905 -18.813967 4294967295
38.032219 112.54675 -19.117552 4294967295
38.044212 106.20993 -19.016459 4294967295
38.049839 105.89329 -18.958303 4294967295
38.05394 111.76046 -18.942234 4294967295
38.062614 109.58121 -19.323723 4294967295
38.06657 112.24882 -18.947025 4294967295
38.06921 106.70523 -18.972847 4294967295
38.069679 107.02558 -19.007143 4294967295
38.072559 109.26749 -19.248726 4294967295
38.073566 108.78814 -19.190603 4294967295
38.081226 110.07285 -19.305113 4294967295
38.086803 108.9564 -19.156904 4294967295
38.091034 108.31896 -19.068111 4294967295
38.091629 106.07864 -18.81286 4294967295
38.098724 107.68357 -18.965782 4294967295
38.099972 109.76467 -19.195702 4294967295
38.100189 110.24481 -19.249023 4294967295
38.100468 106.56422 -18.832483 4294967295
38.108322 111.20991 -19.325554 4294967295
38.112045 111.8522 -19.383221 4294967295
38.116707 110.73527 -19.238619 4294967295
38.1185 107.37561 -18.852282 4294967295
38.121128 106.89698 -18.787794 4294967295
38.124863 106.41898 -18.718966 4294967295
38.129314 108.02256 -18.882259 4294967295
38.131485 109.94453 -19.090542 4294967295
38.133511 111.54599 -19.263201 4294967295
38.13689 110.58806 -19.141651 4294967295
38.138294 111.70905 -19.262558 4294967295
38.142399 112.35168 -19.318731 4294967295
38.144257 112.83286 -19.365629 4294967295
38.147232 107.55335 -18.757957 4294967295
38.149841 111.39642 -19.181307 4294967295
38.158798 107.88068 -18.748857 4294967295
38.160431 112.52333 -19.266312 4294967295
31.278421 115.93121 -19.992496 4294967295
31.305002 114.99259 -19.774406 4294967295
31.306808 114.19609 -19.675657 4294967295
31.314783 116.27563 -19.880682 4294967295
31.318134 114.68256 -19.684267 4294967295
31.328064 117.88012 -20.00919 4294967295
31.329144 116.92381 -19.895176 4294967295
31.33597 117.72622 -19.958679 4294967295
31.336363 115.49297 -19.701258 4294967295
31.346832 116.45762 -19.768196 4294967295
31.350374 117.25784 -19.845114 4294967295
31.369059 118.06878 -19.86026 4294967295
31.369095 113.64819 -20.041803 4294967295
31.384201 114.93427 -20.126286 4294967295
31.412025 116.70763 -20.213705 4294967295
31.423172 115.43966 -20.022213 4294967295
31.425684 115.12241 -19.975449 4294967295
31.439625 114.17493 -19.809025 4294967295
31.441128 112.89957 -19.656744 4294967295
31.441919 116.56914 -20.073622 4294967295
31.449503 114.66031 -19.823561 4294967295
31.454159 115.7802 -19.932436 4294967295
31.457664 114.34684 -19.753748 4294967295
31.464636 115.3089 -19.83494 4294967295
31.467159 116.42732 -19.952503 4294967295
31.469595 113.07844 -19.558928 4294967295
31.472162 117.22838 -20.02342 4294967295
31.476994 117.55079 -20.040257 4294967295
31.481911 117.39477 -20.001957 4294967295
31.483644 115.64117 -19.793993 4294967295
31.485088 114.04651 -19.605402 4294967295
31.487804 113.41 -19.521223 4294967295
31.489017 117.71881 -20.009529 4294967295
31.489975 113.57107 -19.530653 4294967295
31.490677 113.89074 -19.564342 4294967295
31.492052 116.92336 -19.905849 4294967295
31.493542 116.28625 -19.826715 4294967295
31.495121 117.08504 -19.911604 4294967295
31.500753 114.53602 -19.596352 4294967295
31.523802 113.00421 -20.012484 4294967295
31.531149 113.16868 -20.000813 4294967295
31.544434 114.61304 -20.110992 4294967295
31.547129 118.07912 -19.809296 4294967295
31.553045 115.4163 -20.167187 4294967295
31.560133 114.78332 -20.065317 4294967295
31.58617 113.84415 -19.849739 4294967295
31.595686 115.28635 -19.975315 4294967295
31.595797 116.56238 -20.120893 4294967295
31.603436 115.77025 -19.998528 4294967295
31.614428 113.38475 -19.679859 4294967295
31.620068 112.90984 -19.602089 4294967295
31.620802 114.18691 -19.74522 4294967295
31.6222 117.37837 -20.104675 4294967295
31.626837 113.55276 -19.647583 4294967295
31.627197 113.71259 -19.664379 4294967295
31.630049 114.35281 -19.725824 4294967295
31.630312 115.62939 -19.870846 4294967295
31.63249 117.22613 -20.044544 4294967295
31.639273 116.91188 -19.980419 4294967295
31.640633 114.99834 -19.755774 4294967295
31.641808 115.15871 -19.769257 4294967295
31.641861 118.03027 -20.09767 4294967295
31.648153 116.12043 -19.852983 4294967295
31.664463 114.05721 -19.549137 4294967295
31.684322 117.58176 -19.870085 4294967295
31.698404 117.113 -19.757988 4294967295
31.705959 114.45214 -20.108732 4294967295
31.725719 113.66817 -19.937099 4294967295
31.727976 113.19115 -19.873156 4294967295
31.731287 113.35292 -19.877939 4294967295
31.737179 113.99503 -19.926979 4294967295
31.742126 115.75296 -20.107592 4294967295
31.743135 115.59417 -20.085245 4294967295
31.757582 114.96613 -19.953489 4294967295
31.760368 112.89398 -19.704842 4294967295
31.770565 114.81555 -19.882427 4294967295
31.781719 116.25902 -20.00132 4294967295
31.792427 116.74506 -20.01252 4294967295
31.796638 115.15262 -19.812878 4294967295
31.799177 115.47348 -19.839062 4294967295
31.811176 113.88596 -19.60767 4294967295
31.811956 113.08846 -19.513184 4294967295
31.816158 116.12349 -19.843018 4294967295
31.817221 117.08152 -19.948208 4294967295
31.817787 117.56052 -20.000654 4294967295
31.824371 117.24609 -19.937382 4294967295
31.827587 113.57792 -19.504375 4294967295
31.831875 116.61314 -19.833866 4294967295
31.838017 115.34077 -19.662828 4294967295
31.839851 114.22477 -19.52754 4294967295
31.84071 116.45975 -19.77968 4294967295
31.864838 116.9554 -19.736338 4294967295
31.865643 117.91344 -19.8426 4294967295
31.877165 118.08118 -19.814011 4294967295
31.877577 113.66013 -19.992531 4294967295
31.879272 117.44433 -19.732422 4294967295
31.887754 113.02895 -19.878181 4294967295
31.892488 114.30834 -20.004902 4294967295
31.903318 115.27282 -20.070349 4294967295
31.92844 114.1734 -19.840555 4294967295
31.940897 114.66058 -19.844688 4294967295
31.94482 114.50372 -19.81049 4294967295
31.949289 113.38974 -19.664574 4294967295
31.950857 116.42242 -20.004921 4294967295
31.954367 113.23359 -19.625679 4294967295
31.957188 114.03346 -19.705486 4294967295
31.957848 116.26777 -19.958281 4294967295
31.958549 116.58733 -19.991915 4294967295
31.959995 112.91818 -19.56629 4294967295
31.963396 115.63343 -19.862753 4294967295
31.971418 116.75586 -19.957888 4294967295
31.972935 115.16132 -19.769255 4294967295
31.984293 117.24352 -19.960335 4294967295
31.987076 117.88364 -20.022003 4294967295
31.990862 115.01409 -19.678164 4294967295
31.994087 118.04814 -20.01177 4294967295
31.996071 114.85807 -19.638741 4294967295
31.997986 117.73181 -19.95945 4294967295
32.016609 115.51068 -19.628309 4294967295
32.027138 117.43324 -19.804558 4294967295
32.033298 117.59717 -19.797787 4294967295
32.041759 113.50096 -19.979624 4294967295
32.073692 114.6394 -19.977669 4294967295
32.076618 114.00326 -19.892832 4294967295
32.076809 114.80107 -19.983248 4294967295
32.084423 116.40149 -20.134706 4294967295
32.087833 114.48956 -19.902021 4294967295
32.096321 115.2931 -19.95878 4294967295
32.10376 113.38344 -19.709661 4294967295
32.105808 113.06564 -19.664854 4294967295
32.118286 117.8608 -20.161415 4294967295
32.123257 117.38576 -20.08655 4294967295
32.125099 115.9512 -19.914938 4294967295
32.127487 116.91014 -20.014679 4294967295
32.135052 113.24501 -19.564365 4294967295
32.142227 114.3672 -19.662991 4294967295
32.142296 113.8884 -19.607962 4294967295
32.144199 117.24094 -19.983358 4294967295
32.147312 115.16869 -19.733578 4294967295
32.154976 116.76982 -19.884907 4294967295
32.160702 117.73122 -19.971109 4294967295
32.161057 115.81657 -19.750774 4294967295
32.161625 118.05096 -20.003853 4294967295
32.165031 116.2981 -19.789383 4294967295
32.169525 115.66283 -19.698164 4294967295
32.196182 116.63902 -19.699471 4294967295
32.209007 113.50336 -19.972593 4294967295
32.211346 117.60733 -19.747423 4294967295
32.225689 114.15283 -19.977869 4294967295
32.24453 114.96339 -19.992643 4294967295
32.247047 114.64604 -19.945976 4294967295
32.256954 112.89751 -19.705179 4294967295
32.261612 117.20855 -20.178598 4294967295
32.262947 114.01866 -19.808556 4294967295
32.26746 114.34088 -19.826727 4294967295
32.271095 116.25805 -20.03079 4294967295
32.276047 116.7401 -20.065414 4294967295
32.28141 116.5843 -20.025448 4294967295
32.289181 115.4728 -19.866322 4294967295
32.291298 115.15511 -19.82126 4294967295
32.30014 117.87374 -20.095377 4294967295
32.302345 116.91802 -19.977057 4294967295
32.310284 115.32777 -19.762531 4294967295
32.310551 117.40244 -19.998505 4294967295
32.311722 115.96713 -19.829649 4294967295
32.319588 113.73795 -19.542374 4294967295
32.321762 113.89906 -19.551809 4294967295
32.324368 117.57172 -19.960739 4294967295
32.32674 117.09467 -19.896429 4294967295
32.344227 116.14928 -19.716125 4294967295
32.408558 114.16589 -19.907694 4294967295
32.412952 113.21143 -19.780514 4294967295
32.417324 114.49099 -19.908648 4294967295
32.417831 115.60819 -20.034184 4294967295
32.41943 115.76884 -20.045933 4294967295
32.423557 114.01653 -19.828701 4294967295
32.4282 115.29624 -19.955738 4294967295
32.434441 113.86433 -19.766394 4294967295
32.436405 117.21643 -20.141209 4294967295
32.439171 116.10159 -20.002438 4294967295
32.445595 113.07384 -19.63003 4294967295
32.451443 117.8651 -20.15321 4294967295
32.461418 116.43616 -19.948805 4294967295
32.464466 116.91698 -19.99115 4294967295
32.466316 115.48208 -19.819607 4294967295
32.47332 113.41182 -19.554169 4294967295
32.477898 114.85162 -19.69976 4294967295
32.482002 117.72709 -20.01129 4294967295
32.483086 115.17442 -19.715229 4294967295
32.484299 113.5789 -19.527935 4294967295
32.487656 113.74082 -19.532576 4294967295
32.491299 116.61655 -19.846054 4294967295
32.51152 117.58827 -19.873571 4294967295
32.512657 118.06786 -19.923645 4294967295
32.523136 116.00019 -19.644215 4294967295
32.541161 113.98518 -20.022898 4294967295
32.56778 113.52454 -19.860523 4294967295
32.572628 114.64481 -19.968456 4294967295
32.594318 116.89341 -20.135778 4294967295
32.601067 113.22783 -19.689356 4294967295
32.604836 115.14558 -19.892828 4294967295
32.605988 114.18882 -19.778816 4294967295
32.615688 114.51463 -19.776009 4294967295
32.619553 112.92101 -19.578085 4294967295
32.622223 114.99792 -19.804262 4294967295
32.623512 117.23291 -20.054144 4294967295
32.628044 115.64031 -19.853605 4294967295
32.62912 115.32185 -19.812811 4294967295
32.632366 115.80289 -19.854347 4294967295
32.641216 116.60698 -19.909672 4294967295
32.653187 115.97688 -19.788355 4294967295
32.654282 116.13726 -19.802149 4294967295
32.665527 113.75032 -19.483191 4294967295
32.666611 117.58228 -19.916302 4294967295
32.668209 114.86979 -19.599981 4294967295
32.672539 117.74604 -19.910545 4294967295
32.67873 117.11195 -19.812622 4294967295
32.67939 115.51608 -19.627672 4294967295
32.681423 118.0715 -19.911074 4294967295
32.68222 116.47588 -19.725605 4294967295
32.689068 117.43843 -19.807268 4294967295
32.706776 117.92975 -19.790335 4294967295
32.725784 114.47805 -20.000479 4294967295
32.732002 114.16315 -19.938929 4294967295
32.73642 112.88946 -19.77532 4294967295
32.747265 115.13097 -19.986538 4294967295
32.747387 114.3332 -19.894955 4294967295
32.748062 113.05688 -19.746475 4294967295
32.751396 113.69755 -19.80588 4294967295
32.75177 113.21899 -19.749704 4294967295
32.775738 115.94844 -19.962551 4294967295
32.778091 117.2266 -20.098738 4294967295
32.778736 115.79092 -19.932219 4294967295
32.78154 114.83528 -19.811581 4294967295
32.788998 113.56335 -19.635653 4294967295
32.789356 113.40395 -19.61598 4294967295
32.79388 115.48217 -19.834589 4294967295
32.794067 115.32269 -19.815613 4294967295
32.798489 117.71957 -20.070986 4294967295
32.811295 113.89774 -19.581985 4294967295
32.811638 115.0155 -19.708168 4294967295
32.824562 115.66292 -19.728823 4294967295
32.829304 116.78358 -19.837215 4294967295
32.831303 114.07097 -19.519327 4294967295
32.846191 116.95497 -19.787199 4294967295
32.854187 117.12019 -19.77313 4294967295
32.858032 116.64394 -19.702921 4294967295
32.865105 116.16987 -19.619673 4294967295
32.869595 117.45024 -19.74733 4294967295
32.872143 116.49408 -19.627697 4294967295
