# .PCD v0.7 - Point Cloud Data file format
VERSION 0.7
FIELDS x y z rgb
SIZE 4 4 4 4
TYPE F F F U
COUNT 1 1 1 1
WIDTH 1142
HEIGHT 1
VIEWPOINT 0 0 0 1 0 0 0
POINTS 1142
DATA ascii
185.67563 3.0596917 -41.246601 4294967295
185.6898 5.40516 -41.357182 4294967295
185.69374 3.72926 -41.251251 4294967295
185.71365 -0.95372558 -41.649303 4294967295
185.7269 5.7390141 -41.305893 4294967295
185.75072 0.71895999 -41.676727 4294967295
185.7561 6.0732102 -41.269699 4294967295
185.78204 -1.2925286 -41.498852 4294967295
185.78317 1.0522976 -41.634338 4294967295
185.78568 0.382231 -41.590195 4294967295
185.79681 7.412755 -41.2705 4294967295
185.80075 -0.28854769 -41.522095 4294967295
185.80176 0.0464039 -41.53981 4294967295
185.80772 2.391005 -41.666042 4294967295
185.81412 6.7417789 -41.198032 4294967295
185.82034 1.3854694 -41.582916 4294967295
185.83316 6.4059238 -41.141907 4294967295
185.84402 7.0761228 -41.160522 4294967295
185.88272 1.7175291 -41.483299 4294967295
185.89868 -1.9574002 -41.947178 4294967295
185.90921 2.0513651 -41.452324 4294967295
185.923 2.7209127 -41.465298 4294967295
185.92926 3.3908119 -41.492638 4294967295
185.94638 3.7251933 -41.47963 4294967295
185.9534 3.0546947 -41.426826 4294967295
185.95479 -0.95615292 -41.898941 4294967295
185.96054 4.7299151 -41.511543 4294967295
185.97498 4.3942652 -41.464298 4294967295
185.98111 -1.6273606 -41.809361 4294967295
185.98456 -0.62293673 -41.861725 4294967295
185.99706 5.0636778 -41.461411 4294967295
186.03218 4.0568857 -41.335258 4294967295
186.05708 5.3966751 -41.366344 4294967295
186.06758 0.71230632 -41.781761 4294967295
186.08884 6.4011798 -41.364677 4294967295
186.09523 1.3808274 -41.76828 4294967295
186.11162 2.0499651 -41.776283 4294967295
186.11842 0.039771099 -41.645355 4294967295
186.12276 5.7296038 -41.26049 4294967295
186.12341 -1.3005455 -41.557182 4294967295
186.12627 6.0647311 -41.273487 4294967295
186.14203 7.405211 -41.322048 4294967295
186.15175 6.7344184 -41.264118 4294967295
186.15855 -0.2973721 -41.549026 4294967295
186.17618 7.068944 -41.237141 4294967295
186.17802 2.7169554 -41.688725 4294967295
186.18173 3.0518041 -41.701332 4294967295
186.18562 1.0414329 -41.575951 4294967295
186.20271 2.380827 -41.621933 4294967295
186.20993 3.385644 -41.667168 4294967295
186.21321 1.7102244 -41.562592 4294967295
186.25551 4.0539017 -41.619457 4294967295
186.26036 3.7186275 -41.590496 4294967295
186.2984 -0.96427578 -41.952652 4294967295
186.2995 5.0575066 -41.594421 4294967295
186.30589 -1.9693351 -41.879475 4294967295
186.30992 5.3922405 -41.594196 4294967295
186.31419 -1.3000402 -41.902889 4294967295
186.33554 -1.6361606 -41.842541 4294967295
186.33795 5.7263861 -41.560383 4294967295
186.34508 -0.63195628 -41.883293 4294967295
186.36821 6.3956742 -41.541931 4294967295
186.37636 4.7195129 -41.428024 4294967295
186.3877 1.0404196 -41.900208 4294967295
186.38976 -0.29943749 -41.817673 4294967295
186.40123 0.0349061 -41.815449 4294967295
186.42122 1.3737309 -41.85585 4294967295
186.43195 1.7081814 -41.855064 4294967295
186.43254 6.728827 -41.438805 4294967295
186.46205 7.0631542 -41.40213 4294967295
186.463 0.70171243 -41.736877 4294967295
186.4678 3.7163916 -41.904533 4294967295
186.47101 0.36628339 -41.701977 4294967295
186.49051 7.3975749 -41.367504 4294967295
186.50739 3.0447569 -41.789757 4294967295
186.537 4.0486193 -41.792255 4294967295
186.56337 4.3826318 -41.761635 4294967295
186.58044 2.3714213 -41.611145 4294967295
186.58527 3.3765216 -41.660896 4294967295
186.58775 4.716773 -41.734814 4294967295
186.60181 -1.6398752 -42.043884 4294967295
186.60187 5.051331 -41.727543 4294967295
186.60983 -0.63576078 -42.08749 4294967295
186.61635 5.3859072 -41.719547 4294967295
186.62141 5.7208233 -41.729568 4294967295
186.62932 0.70261359 -42.128868 4294967295
186.63084 -1.9764358 -41.968899 4294967295
186.65514 0.031558301 -42.040421 4294967295
186.65884 -1.3082416 -41.954811 4294967295
186.68042 -0.97453141 -41.933369 4294967295
186.68408 6.3889942 -41.649403 4294967295
186.69743 1.0341144 -42.018719 4294967295
186.69832 0.3642256 -41.977791 4294967295
186.73935 7.0576262 -41.583344 4294967295
186.7466 -0.30821249 -41.846542 4294967295
186.75053 6.0516319 -41.503021 4294967295
186.75963 6.7217946 -41.525047 4294967295
186.79796 3.3741879 -41.964783 4294967295
186.80655 1.6988037 -41.850151 4294967295
186.81082 2.0336235 -41.861641 4294967295
186.82719 1.3627882 -41.791195 4294967295
186.82977 4.7128801 -41.982689 4294967295
186.85713 3.7067635 -41.871681 4294967295
186.86099 4.0416489 -41.883942 4294967295
186.86569 2.7012463 -41.796379 4294967295
186.87106 3.0360773 -41.805851 4294967295
186.91391 0.027946699 -42.255882 4294967295
186.91913 4.374444 -41.792889 4294967295
186.93457 1.0313678 -42.275417 4294967295
186.95099 -1.9832554 -42.067516 4294967295
186.95532 6.0486441 -41.822151 4294967295
186.96056 -0.30936649 -42.147491 4294967295
186.97966 5.0424204 -41.716854 4294967295
186.97975 -0.98019427 -42.071648 4294967295
186.99036 -1.3157043 -42.031853 4294967295
186.99646 0.35853601 -42.118382 4294967295
187.00095 -0.64644241 -42.050987 4294967295
187.00923 5.3765202 -41.680256 4294967295
187.01419 7.3873186 -41.788692 4294967295
187.02513 -1.6526346 -41.94603 4294967295
187.0376 6.7162857 -41.704811 4294967295
187.04277 5.7105422 -41.635998 4294967295
187.06017 2.6999316 -42.134583 4294967295
187.07111 6.3800249 -41.621361 4294967295
187.07242 1.6945357 -42.052433 4294967295
187.11931 3.3673189 -42.061356 4294967295
187.12041 2.027293 -41.980686 4294967295
187.1288 1.3568604 -41.92543 4294967295
187.13148 2.3617961 -41.979248 4294967295
187.15097 3.0309796 -41.98143 4294967295
187.17169 4.035203 -42.000954 4294967295
187.18462 4.7047625 -42.015644 4294967295
187.18826 4.3695927 -41.989059 4294967295
187.19122 -0.31141949 -42.416222 4294967295
187.23483 5.3730397 -41.959389 4294967295
187.23708 5.0378857 -41.935501 4294967295
187.23824 0.0209041 -42.346447 4294967295
187.27628 6.7120028 -41.959167 4294967295
187.28218 -1.3209271 -42.184391 4294967295
187.28793 7.046742 -41.956577 4294967295
187.28857 6.0413923 -41.896423 4294967295
187.29855 5.7059288 -41.857841 4294967295
187.30125 -0.98708987 -42.167747 4294967295
187.31839 -1.6579061 -42.095932 4294967295
187.34277 -0.65444022 -42.108444 4294967295
187.34676 2.6945794 -42.297127 4294967295
187.37109 0.68388492 -42.13311 4294967295
187.37328 6.3737869 -41.75499 4294967295
187.37637 2.0234189 -42.201599 4294967295
187.37817 0.34856629 -42.100037 4294967295
187.38446 1.0181818 -42.127319 4294967295
187.41312 1.3517671 -42.092525 4294967295
187.41322 2.3567064 -42.151173 4294967295
187.44331 1.6853364 -42.054756 4294967295
187.45103 -2.000622 -41.82407 4294967295
187.46898 3.3592701 -42.104153 4294967295
187.4819 3.6937602 -42.099197 4294967295
187.49478 3.0231543 -42.035469 4294967295
187.51572 4.027442 -42.054619 4294967295
187.51695 5.3675666 -42.130772 4294967295
187.54558 -0.65488338 -42.430008 4294967295
187.55087 4.3611412 -42.007397 4294967295
187.5755 4.6953011 -41.98027 4294967295
187.57999 -0.3218942 -42.384308 4294967295
187.59415 -0.99240041 -42.318172 4294967295
187.60431 6.3698339 -42.023697 4294967295
187.60474 5.0293436 -41.944332 4294967295
187.60641 5.6995335 -41.980438 4294967295
187.62268 0.010725 -42.322868 4294967295
187.63686 0.34489229 -42.315536 4294967295
187.64197 6.7037668 -41.971817 4294967295
187.64211 1.0144298 -42.344795 4294967295
187.64465 6.0333824 -41.927399 4294967295
187.659 1.3485143 -42.332401 4294967295
187.65936 7.0383844 -41.958397 4294967295
187.67143 -1.3316426 -42.151787 4294967295
187.69696 2.3515208 -42.319168 4294967295
187.70464 0.67639351 -42.206497 4294967295
187.72626 1.6802645 -42.224304 4294967295
187.73851 2.6846321 -42.259953 4294967295
187.74028 2.0145938 -42.217312 4294967295
187.74524 7.3710546 -41.814915 4294967295
187.74974 4.3589902 -42.336746 4294967295
187.75317 3.0189714 -42.251751 4294967295
187.77571 5.0279417 -42.326675 4294967295
187.79999 5.697051 -42.319851 4294967295
187.80574 -0.65844631 -42.642262 4294967295
187.81071 3.6865928 -42.181751 4294967295
187.83018 4.6909337 -42.203705 4294967295
187.84259 0.0091372002 -42.611633 4294967295
187.86076 -0.9962585 -42.51828 4294967295
187.89047 6.0290303 -42.167786 4294967295
187.90311 0.67567372 -42.536045 4294967295
187.90735 5.3582716 -42.09647 4294967295
187.90805 -0.3291361 -42.467842 4294967295
187.91803 1.0097766 -42.52734 4294967295
187.92374 6.3630371 -42.124275 4294967295
187.94746 7.3676472 -42.138161 4294967295
187.95004 2.0128365 -42.525505 4294967295
187.96037 6.6970029 -42.07444 4294967295
187.96823 7.0319061 -42.079124 4294967295
187.99841 -1.673825 -42.217968 4294967295
187.99992 1.3406954 -42.391701 4294967295
188.0253 2.3443313 -42.402409 4294967295
188.04376 1.6735706 -42.328133 4294967295
188.048 3.0132365 -42.398605 4294967295
188.05418 0.33310339 -42.229927 4294967295
188.09711 4.6861048 -42.40361 4294967295
188.11121 2.675514 -42.259132 4294967295
188.1183 3.3452635 -42.284935 4294967295
188.12798 5.0199585 -42.364719 4294967295
188.1313 4.0147858 -42.299515 4294967295
188.1675 6.3586712 -42.368248 4294967295
188.1843 0.0011899 -42.669182 4294967295
188.20897 0.33473921 -42.642044 4294967295
188.21713 5.351819 -42.215309 4294967295
188.22168 -1.0053344 -42.539577 4294967295
188.22583 6.0217099 -42.238098 4294967295
188.22833 6.6918077 -42.272606 4294967295
188.2361 7.0266542 -42.277508 4294967295
188.24283 5.6860332 -42.186218 4294967295
188.25688 7.3611403 -42.257774 4294967295
188.27559 -0.33848 -42.476608 4294967295
188.2784 2.0056396 -42.608555 4294967295
188.28397 1.0007153 -42.539196 4294967295
188.28447 -1.3437431 -42.401024 4294967295
188.33601 1.6680608 -42.479824 4294967295
188.3457 4.3470545 -42.618328 4294967295
188.34616 3.0073578 -42.539066 4294967295
188.35406 4.6816492 -42.622181 4294967295
188.36424 4.0114107 -42.563652 4294967295
188.3716 3.3412259 -42.510517 4294967295
188.38156 1.3309357 -42.373978 4294967295
188.38612 2.6706777 -42.44379 4294967295
188.39427 2.3353302 -42.408745 4294967295
188.42587 5.3489299 -42.525436 4294967295
188.43773 3.6734958 -42.404903 4294967295
188.45078 5.0130472 -42.458656 4294967295
188.50029 6.6864843 -42.462982 4294967295
188.52989 6.0154228 -42.36771 4294967295
188.54532 6.3500056 -42.358093 4294967295
188.5713 -0.6788888 -42.601929 4294967295
188.58572 7.0189552 -42.320885 4294967295
188.59258 7.3538713 -42.327557 4294967295
188.60078 -0.34556791 -42.565777 4294967295
188.63013 -1.0170369 -42.471054 4294967295
188.64558 2.3315921 -42.637886 4294967295
188.71603 4.0033445 -42.602634 4294967295
188.78114 6.0108914 -42.597111 4294967295
188.78499 6.6807623 -42.629082 4294967295
188.79759 5.0052595 -42.507179 4294967295
188.8098 5.6749039 -42.523308 4294967295
188.82358 5.3393764 -42.477657 4294967295
188.82701 7.3495307 -42.588852 4294967295
188.83958 -1.710573 -41.329674 4294967295
188.87259 7.013134 -42.483051 4294967295
188.93153 -1.368984 -41.881088 4294967295
188.98431 -0.69074082 -42.525085 4294967295
188.99515 -0.35632899 -42.524204 4294967295
188.99869 -0.021523699 -42.537132 4294967295
189.0159 2.3225291 -42.641823 4294967295
189.03198 2.9917772 -42.65057 4294967295
189.04811 3.326086 -42.639744 4294967295
189.11647 4.9984875 -42.608612 4294967295
189.11899 5.6684618 -42.643051 4294967295
189.12161 6.0033979 -42.657688 4294967295
189.15846 7.0073423 -42.646954 4294967295
189.16823 7.3421011 -42.648125 4294967295
189.30304 -1.0433471 -41.903049 4294967295
189.31392 -0.0280819 -42.645248 4294967295
189.48978 -2.0721958 -40.785378 4294967295
189.52844 -0.70969391 -42.201138 4294967295
189.53391 6.9988661 -42.641701 4294967295
189.66367 -0.37146381 -42.668736 4294967295
189.69099 -1.736279 -41.130562 4294967295
189.80334 -2.0785987 -40.898544 4294967295
189.99118 -1.0704749 -41.307938 4294967295
190.08499 -1.7473054 -41.091545 4294967295
190.0975 -0.049166702 -42.57312 4294967295
190.12212 -2.0853007 -41.001801 4294967295
190.33177 -1.0783968 -41.369743 4294967295
190.37608 -1.752425 -41.246925 4294967295
190.38824 -0.39973471 -42.005943 4294967295
190.39833 -2.0895224 -41.185352 4294967295
190.59589 -0.065245204 -42.337017 4294967295
190.61276 -0.74733353 -41.563496 4294967295
190.61671 -1.0832498 -41.536465 4294967295
190.62067 -1.7548883 -41.489765 4294967295
190.64182 -1.4203622 -41.46957 4294967295
190.75963 -2.0987093 -41.208427 4294967295
190.88879 -0.070635997 -42.487698 4294967295
190.91437 -0.41745901 -41.718365 4294967295
190.92964 -1.425338 -41.630722 4294967295
190.97934 -1.0923824 -41.556828 4294967295
190.99167 -0.75730872 -41.553299 4294967295
191.08328 -1.7698333 -41.322056 4294967295
191.14948 -2.109556 -41.177917 4294967295
191.28169 -0.76247311 -41.710323 4294967295
191.31691 -1.4358964 -41.604927 4294967295
191.34009 -1.1014111 -41.581013 4294967295
191.38678 -2.111515 -41.434387 4294967295
191.44962 -1.7792614 -41.335934 4294967295
191.52124 -0.093652204 -42.001179 4294967295
191.56833 0.24904729 -42.632767 4294967295
191.60483 -0.76942939 -41.805077 4294967295
191.62212 -2.1133645 -41.694214 4294967295
191.62363 -1.1061885 -41.750187 4294967295
191.62596 -0.43482921 -41.785011 4294967295
191.63812 -1.4427512 -41.703369 4294967295
191.73262 -1.7839236 -41.506416 4294967295
191.95677 -1.4494584 -41.806591 4294967295
191.95773 -0.44223449 -41.86367 4294967295
191.97841 0.2376745 -42.563923 4294967295
191.98462 -1.1152251 -41.774063 4294967295
192.01465 -0.78105968 -41.737362 4294967295
192.0649 -1.7914004 -41.584339 4294967295
192.21931 -0.1102478 -42.093346 4294967295
192.24889 -0.78321719 -41.998753 4294967295
192.24899 -1.7904193 -41.939758 4294967295
192.24921 -0.44751051 -42.017754 4294967295
192.27119 -1.1201718 -41.937393 4294967295
192.31639 -1.4584575 -41.833183 4294967295
192.57428 -0.79029179 -42.089329 4294967295
192.59988 -0.45592049 -42.061043 4294967295
192.64555 -1.8015687 -41.897247 4294967295
192.65279 -1.1303399 -41.922901 4294967295
192.71104 -1.4694214 -41.794369 4294967295
192.79974 0.21487521 -42.425327 4294967295
192.90584 -1.8049464 -42.109608 4294967295
192.90723 -1.1335223 -42.146187 4294967295
192.91148 -0.46226639 -42.177444 4294967295
192.96561 -0.80092049 -42.056736 4294967295
192.9832 -1.4735208 -41.984665 4294967295
193.05293 0.2114725 -42.650387 4294967295
193.18954 -0.46683481 -42.356373 4294967295
193.19662 -1.4743407 -42.284374 4294967295
193.2113 -1.1394315 -42.276581 4294967295
193.23639 -0.80505317 -42.249352 4294967295
193.28323 -1.8150001 -42.103226 4294967295
193.4193 -0.80446631 -42.605541 4294967295
193.47534 -0.47181821 -42.520676 4294967295
193.48343 -0.13658141 -42.525181 4294967295
193.51721 -1.1454444 -42.403515 4294967295
193.5417 -1.8182774 -42.318672 4294967295
193.5439 -1.4826493 -42.33416 4294967295
193.79681 -0.1430278 -42.637974 4294967295
193.8138 -1.4866343 -42.528114 4294967295
193.83434 0.190722 -42.587769 4294967295
193.85017 -0.81721967 -42.499535 4294967295
193.87219 -1.825655 -42.399818 4294967295
193.90349 -0.48431349 -42.419838 4294967295
193.90836 -1.1561298 -42.371628 4294967295
194.1722 -0.82411188 -42.596428 4294967295
194.18599 -1.4963357 -42.531647 4294967295
194.19734 -1.1612124 -42.530121 4294967295
194.20229 -0.4899807 -42.560059 4294967295
194.2049 -1.8331609 -42.476852 4294967295
194.23438 -0.1558921 -42.519951 4294967295
194.4843 -1.8376303 -42.653 4294967295
194.53745 -1.5048718 -42.57383 4294967295
194.58865 -1.1719017 -42.498283 4294967295
171.30637 7.7168398 -35.467026 4294967295
171.37135 8.3867846 -35.375446 4294967295
171.41028 8.0497646 -35.276634 4294967295
171.67667 8.0444698 -35.486519 4294967295
171.69223 7.7081013 -35.435055 4294967295
171.69998 9.051589 -35.49942 4294967295
171.70247 8.3796749 -35.454365 4294967295
171.70589 8.7155161 -35.46743 4294967295
171.7831 11.065475 -35.451393 4294967295
171.80128 9.3850937 -35.314579 4294967295
171.81302 9.720849 -35.310837 4294967295
171.81668 10.056801 -35.323471 4294967295
171.84665 10.728272 -35.302902 4294967295
171.89244 10.391283 -35.190296 4294967295
171.98503 8.0379887 -35.611374 4294967295
172.02115 7.7010322 -35.51841 4294967295
172.03786 9.3802624 -35.584702 4294967295
172.04103 8.3723621 -35.518257 4294967295
172.07642 9.7153158 -35.526821 4294967295
172.11481 10.050453 -35.469276 4294967295
172.11482 8.7063923 -35.389191 4294967295
172.11987 10.722353 -35.499077 4294967295
172.13312 9.0419607 -35.372307 4294967295
172.16241 12.065666 -35.493248 4294967295
172.17566 11.393385 -35.426437 4294967295
172.18401 10.385044 -35.349548 4294967295
172.2175 12.737003 -35.422001 4294967295
172.22992 11.056349 -35.296825 4294967295
172.25099 12.400472 -35.334389 4294967295
172.26134 11.728065 -35.273445 4294967295
172.26334 13.072548 -35.349503 4294967295
172.27345 8.7037716 -35.81638 4294967295
172.27368 8.0320635 -35.775936 4294967295
172.30742 13.74436 -35.300575 4294967295
172.31606 7.6949596 -35.670456 4294967295
172.32025 13.408073 -35.254604 4294967295
172.32794 14.080347 -35.279106 4294967295
172.35976 10.045251 -35.722271 4294967295
172.37512 9.0370884 -35.631317 4294967295
172.38213 10.380711 -35.697128 4294967295
172.3911 9.3726587 -35.619099 4294967295
172.39139 9.7086134 -35.638489 4294967295
172.39372 14.416057 -35.166363 4294967295
172.45155 11.387313 -35.617104 4294967295
172.4641 12.395109 -35.651829 4294967295
172.46545 10.715039 -35.549091 4294967295
172.50093 12.730637 -35.597527 4294967295
172.50632 11.722434 -35.526699 4294967295
172.51692 11.050127 -35.465332 4294967295
172.54427 13.066163 -35.530205 4294967295
172.55893 12.057706 -35.44062 4294967295
172.56924 8.6975899 -35.966389 4294967295
172.59961 13.737784 -35.458603 4294967295
172.61032 7.6889067 -35.823643 4294967295
172.61311 14.073794 -35.451393 4294967295
172.62263 8.3603249 -35.838799 4294967295
172.62442 9.3679028 -35.895187 4294967295
172.64723 8.0237446 -35.769264 4294967295
172.65904 14.745771 -35.398823 4294967295
172.66344 15.754246 -35.449989 4294967295
172.66763 9.7027903 -35.828121 4294967295
172.67502 14.409489 -35.346596 4294967295
172.68814 10.710096 -35.846756 4294967295
172.70309 15.08173 -35.330009 4294967295
172.71118 9.0298758 -35.700386 4294967295
172.73735 10.373174 -35.727661 4294967295
172.73805 16.090294 -35.319595 4294967295
172.74553 11.044966 -35.751198 4294967295
172.75133 11.716807 -35.779446 4294967295
172.754 11.38079 -35.75407 4294967295
172.78732 12.388236 -35.746994 4294967295
172.80263 16.762804 -35.229462 4294967295
172.80391 17.099096 -35.246872 4294967295
172.8084 12.051924 -35.684513 4294967295
172.8459 13.059544 -35.668961 4294967295
172.84778 7.6845198 -36.091049 4294967295
172.86078 12.723301 -35.619015 4294967295
172.88805 8.0191669 -36.029972 4294967295
172.90996 14.067144 -35.599976 4294967295
172.92638 14.40313 -35.586891 4294967295
172.93568 13.394657 -35.508179 4294967295
172.95224 9.0250235 -35.960762 4294967295
172.95679 8.3531294 -35.911617 4294967295
172.97354 8.6885862 -35.897903 4294967295
172.98265 15.075079 -35.513599 4294967295
172.99469 14.73884 -35.469368 4294967295
172.99644 10.03169 -35.931709 4294967295
173.01463 16.083509 -35.509224 4294967295
173.01538 9.3594036 -35.853683 4294967295
173.03262 16.419683 -35.492989 4294967295
173.03827 9.6948261 -35.827602 4294967295
173.04121 10.366684 -35.861679 4294967295
173.04343 10.702596 -35.877182 4294967295
173.05978 15.410959 -35.378296 4294967295
173.06458 11.374126 -35.874607 4294967295
173.06598 17.092133 -35.465893 4294967295
173.07428 11.037985 -35.835091 4294967295
173.12163 11.70918 -35.779797 4294967295
173.12755 12.045111 -35.78788 4294967295
173.13651 12.381008 -35.789871 4294967295
173.14044 7.6785126 -36.24707 4294967295
173.17935 13.052559 -35.743683 4294967295
173.21881 14.060397 -35.724266 4294967295
173.2384 14.396346 -35.704872 4294967295
173.24593 12.715652 -35.589745 4294967295
173.25174 8.3469963 -36.063286 4294967295
173.26628 8.0107136 -36.014072 4294967295
173.26851 9.3541756 -36.089516 4294967295
173.27065 15.06839 -35.679981 4294967295
173.27185 9.0182209 -36.062866 4294967295
173.27779 13.387598 -35.565689 4294967295
173.2782 14.732212 -35.644848 4294967295
173.27943 16.07674 -35.722328 4294967295
173.32005 8.6810884 -35.945957 4294967295
173.32034 10.360701 -36.045227 4294967295
173.32243 16.749004 -35.675835 4294967295
173.33197 10.024538 -36.001892 4294967295
173.341 11.368048 -36.063709 4294967295
173.34134 15.404258 -35.557831 4294967295
173.34349 16.412834 -35.613487 4294967295
173.35077 9.6881828 -35.944138 4294967295
173.3688 15.740385 -35.522644 4294967295
173.38246 10.695407 -35.940395 4294967295
173.4258 11.030588 -35.873314 4294967295
173.4306 11.70253 -35.903618 4294967295
173.43069 12.374535 -35.943405 4294967295
173.46509 7.671566 -36.338707 4294967295
173.47105 14.054116 -35.962215 4294967295
173.47469 12.03788 -35.835052 4294967295
173.47928 13.045957 -35.88575 4294967295
173.48752 8.0066929 -36.313622 4294967295
173.50974 13.71774 -35.864517 4294967295
173.51875 8.3416214 -36.270927 4294967295
173.52736 13.381495 -35.809155 4294967295
173.54527 8.6767387 -36.237652 4294967295
173.54802 12.709046 -35.727684 4294967295
173.59247 14.389267 -35.738327 4294967295
173.59779 14.725377 -35.747646 4294967295
173.61316 9.346777 -36.141342 4294967295
173.61671 10.354363 -36.194065 4294967295
173.61862 9.0107422 -36.110367 4294967295
173.62367 15.397552 -35.735619 4294967295
173.63193 16.405998 -35.77903 4294967295
173.63989 15.733665 -35.723053 4294967295
173.64275 10.01792 -36.121857 4294967295
173.65121 15.061256 -35.660309 4294967295
173.65536 16.069809 -35.711975 4294967295
173.65855 9.6816406 -36.070156 4294967295
173.70085 11.360546 -36.085133 4294967295
173.71465 11.024334 -36.037476 4294967295
173.71529 17.078442 -35.651608 4294967295
173.72356 10.688182 -35.99963 4294967295
173.72523 12.368056 -36.096081 4294967295
173.74341 11.695821 -36.019676 4294967295
173.78108 13.039333 -36.02404 4294967295
173.79341 12.703159 -35.979321 4294967295
173.79669 13.37519 -36.012672 4294967295
173.81023 8.6713562 -36.449192 4294967295
173.82384 14.047012 -35.9981 4294967295
173.85074 7.6628313 -36.308083 4294967295
173.86121 8.3342037 -36.327 4294967295
173.87196 14.718807 -35.941528 4294967295
173.87955 9.3412333 -36.350124 4294967295
173.89064 13.71034 -35.844116 4294967295
173.90523 7.9971266 -36.218769 4294967295
173.90923 10.012254 -36.330475 4294967295
173.91872 15.054668 -35.867737 4294967295
173.91879 15.726926 -35.907524 4294967295
173.92792 15.390765 -35.869232 4294967295
173.93161 14.382296 -35.801899 4294967295
173.96022 9.0033932 -36.168411 4294967295
173.96617 16.062975 -35.83252 4294967295
173.97603 16.73531 -35.852707 4294967295
173.99252 16.39913 -35.799622 4294967295
173.99283 17.407686 -35.85899 4294967295
174.00476 10.682106 -36.178959 4294967295
174.00723 9.6741762 -36.114082 4294967295
174.01331 17.071547 -35.797928 4294967295
174.02002 10.345846 -36.128365 4294967295
174.02254 11.017732 -36.163269 4294967295
174.04707 13.36908 -36.253834 4294967295
174.08495 11.688651 -36.078156 4294967295
174.09354 11.352482 -36.040913 4294967295
174.10556 12.360398 -36.076767 4294967295
174.10602 12.696423 -36.095825 4294967295
174.11986 13.704348 -36.128021 4294967295
174.12192 12.024121 -36.024017 4294967295
174.12526 7.6573572 -36.50032 4294967295
174.13506 13.032114 -36.057594 4294967295
174.19302 9.3345728 -36.464348 4294967295
174.19586 15.048035 -36.055565 4294967295
174.19724 8.9986429 -36.435986 4294967295
174.21005 14.039633 -35.967186 4294967295
174.21019 14.375751 -35.986916 4294967295
174.21065 16.392324 -36.105835 4294967295
174.21779 7.9905281 -36.335003 4294967295
174.23616 10.341146 -36.437889 4294967295
174.24426 8.3256855 -36.301907 4294967295
174.24493 8.6615629 -36.320518 4294967295
174.24614 15.720061 -35.994755 4294967295
174.25417 17.06455 -36.058605 4294967295
174.2558 9.6689777 -36.358616 4294967295
174.2623 14.711548 -35.902435 4294967295
174.26248 11.012367 -36.425072 4294967295
174.2639 16.05616 -35.979202 4294967295
174.26482 15.383858 -35.937355 4294967295
174.27785 10.00439 -36.33445 4294967295
174.30267 10.675715 -36.324627 4294967295
174.35251 16.7285 -35.841629 4294967295
174.35312 12.018613 -36.303513 4294967295
174.35974 17.400969 -35.867088 4294967295
174.36578 11.346475 -36.23819 4294967295
174.3813 12.354181 -36.266994 4294967295
174.38492 12.690117 -36.279739 4294967295
174.3932 11.682016 -36.203289 4294967295
174.42467 13.025632 -36.220192 4294967295
174.43196 14.369606 -36.2854 4294967295
174.43234 13.697586 -36.244736 4294967295
174.43565 14.03357 -36.258034 4294967295
174.45891 7.9859381 -36.594006 4294967295
174.46985 9.328784 -36.651859 4294967295
174.47505 7.6496768 -36.541771 4294967295
174.48792 15.041327 -36.213352 4294967295
174.50647 13.360795 -36.076393 4294967295
174.50764 9.6637039 -36.596226 4294967295
174.519 8.6559439 -36.513702 4294967295
174.51903 16.721542 -36.250946 4294967295
174.51968 8.3200798 -36.492378 4294967295
174.52704 15.377232 -36.155037 4294967295
174.52974 8.991518 -36.512142 4294967295
174.53957 14.704962 -36.09005 4294967295
174.56821 16.049337 -36.112576 4294967295
174.56909 15.713206 -36.090858 4294967295
174.57124 16.38546 -36.126431 4294967295
174.58078 11.005575 -36.529778 4294967295
174.58247 9.9979019 -36.466526 4294967295
174.60365 17.393894 -36.121544 4294967295
174.60629 10.333303 -36.438881 4294967295
174.62514 11.676597 -36.480968 4294967295
174.63019 10.668751 -36.411011 4294967295
174.66296 12.01194 -36.425301 4294967295
174.70107 12.683332 -36.389019 4294967295
174.72079 14.027023 -36.429413 4294967295
174.72806 8.3162909 -36.816555 4294967295
174.74789 7.9800014 -36.757015 4294967295
174.75339 13.0187 -36.304394 4294967295
174.76358 14.362686 -36.363846 4294967295
174.7643 15.370702 -36.422295 4294967295
174.78336 13.690462 -36.284416 4294967295
174.80455 8.9858246 -36.70364 4294967295
174.81105 15.034473 -36.308868 4294967295
174.81702 9.3213243 -36.698647 4294967295
174.83324 16.714691 -36.364296 4294967295
174.83769 14.698256 -36.235649 4294967295
174.85004 10.999678 -36.732399 4294967295
174.85655 9.6562338 -36.639648 4294967295
174.85689 8.6486673 -36.579174 4294967295
174.86598 16.042526 -36.258949 4294967295
174.8806 10.327416 -36.631496 4294967295
174.89275 9.9912939 -36.587296 4294967295
174.89449 17.050846 -36.261871 4294967295
174.90385 15.706323 -36.163307 4294967295
174.91145 10.662679 -36.589779 4294967295
174.92107 16.378593 -36.168816 4294967295
174.92177 17.387033 -36.227341 4294967295
174.95135 12.677385 -36.629768 4294967295
174.98096 12.005145 -36.5308 4294967295
174.99646 11.668953 -36.479843 4294967295
175.02122 11.332561 -36.410503 4294967295
175.0363 12.340319 -36.440201 4294967295
175.04311 13.684192 -36.506401 4294967295
175.04674 13.012179 -36.459263 4294967295
175.06825 8.3089275 -36.877174 4294967295
175.08101 13.347809 -36.41082 4294967295
175.11121 7.9719734 -36.771557 4294967295
175.11588 14.019568 -36.3811 4294967295
175.14578 14.355407 -36.341354 4294967295
175.14908 15.027542 -36.374657 4294967295
175.17035 14.691338 -36.312241 4294967295
175.17526 10.656942 -36.8032 4294967295
175.1768 8.9777145 -36.700481 4294967295
175.17792 15.363504 -36.337013 4294967295
175.19244 10.320766 -36.748985 4294967295
175.19279 9.6490498 -36.70845 4294967295
175.1983 9.313056 -36.677551 4294967295
175.21106 17.043987 -36.370644 4294967295
175.21159 9.9845009 -36.690895 4294967295
175.21498 16.035633 -36.302998 4294967295
175.21507 10.992038 -36.743721 4294967295
175.21735 11.99956 -36.798988 4294967295
175.22189 16.707886 -36.329105 4294967295
175.22786 15.699466 -36.257301 4294967295
175.25568 12.334877 -36.742508 4294967295
175.25917 17.380228 -36.294601 4294967295
175.26961 13.006472 -36.754585 4294967295
175.27896 11.326804 -36.636238 4294967295
175.28137 11.662688 -36.65136 4294967295
175.3075 12.670099 -36.659065 4294967295
175.35631 13.67742 -36.621548 4294967295
175.36137 13.341394 -36.591534 4294967295
175.38452 8.6379566 -37.005527 4294967295
175.394 15.357059 -36.646126 4294967295
175.41969 8.9728165 -36.955353 4294967295
175.42419 14.684896 -36.54607 4294967295
175.42596 15.020915 -36.562408 4294967295
175.4348 16.364964 -36.624573 4294967295
175.44438 9.3079948 -36.926109 4294967295
175.46326 8.3000889 -36.828712 4294967295
175.46356 7.9642534 -36.808167 4294967295
175.4687 9.6432323 -36.897533 4294967295
175.47125 15.692829 -36.512005 4294967295
175.50388 11.321606 -36.927101 4294967295
175.53668 12.328588 -36.921516 4294967295
175.54329 17.037155 -36.448196 4294967295
175.54414 16.701035 -36.426594 4294967295
175.55501 16.028755 -36.364998 4294967295
175.55757 9.9771242 -36.740387 4294967295
175.57724 10.64854 -36.741055 4294967295
175.57837 10.984428 -36.758724 4294967295
175.58063 17.373381 -36.393692 4294967295
175.59296 11.655998 -36.769527 4294967295
175.63251 12.663208 -36.750561 4294967295
175.6478 11.991091 -36.680233 4294967295
175.69949 13.670372 -36.676964 4294967295
175.70261 7.9597178 -37.070435 4294967295
175.71021 14.342272 -36.695477 4294967295
175.71747 14.006214 -36.661091 4294967295
175.72063 15.686178 -36.754486 4294967295
175.72322 8.2949018 -37.049339 4294967295
175.7242 12.998082 -36.587864 4294967295
175.73865 9.6375465 -37.09827 4294967295
175.75569 16.022102 -36.704571 4294967295
175.76422 9.3011837 -37.027454 4294967295
175.77296 8.6293697 -36.970268 4294967295
175.7897 14.677784 -36.557106 4294967295
175.79614 15.013824 -36.564213 4294967295
175.79765 9.9720278 -37.000778 4294967295
175.81564 16.358082 -36.605133 4294967295
175.85951 16.694183 -36.537743 4294967295
175.86606 10.978196 -36.924446 4294967295
175.88089 11.649687 -36.93475 4294967295
175.88228 11.313785 -36.912048 4294967295
175.88737 10.641909 -36.862103 4294967295
175.89439 10.305863 -36.828217 4294967295
175.89774 11.985311 -36.921139 4294967295
175.90285 17.366531 -36.491352 4294967295
175.92085 17.030401 -36.435547 4294967295
175.95107 8.2905798 -37.333534 4294967295
175.95451 12.656353 -36.848095 4294967295
175.95544 13.328212 -36.886024 4294967295
175.95561 13.664137 -36.905628 4294967295
175.95691 7.9547548 -37.301979 4294967295
175.99776 12.99179 -36.78196 4294967295
176.01614 14.335536 -36.825069 4294967295
176.02867 13.999451 -36.780224 4294967295
176.03252 9.9670429 -37.271126 4294967295
176.06134 9.6306715 -37.193905 4294967295
176.06525 8.6232786 -37.126427 4294967295
176.06963 9.2947149 -37.157539 4294967295
176.07199 15.007206 -36.753876 4294967295
176.09456 15.679186 -36.748825 4294967295
176.09473 16.015226 -36.768433 4294967295
176.1011 15.343117 -36.715874 4294967295
176.10716 8.9580097 -37.063046 4294967295
176.11644 14.670901 -36.645554 4294967295
176.13736 10.97226 -37.122459 4294967295
176.13882 10.300588 -37.079781 4294967295
176.14011 17.02338 -36.738007 4294967295
176.15736 11.979383 -37.142456 4294967295
176.1875 17.359577 -36.663658 4294967295
176.20352 12.650427 -37.090561 4294967295
176.22227 10.634802 -36.933819 4294967295
176.22542 11.306567 -36.967377 4294967295
176.24086 12.985852 -37.036278 4294967295
176.25066 11.642067 -36.937111 4294967295
176.25792 13.321566 -37.022346 4294967295
176.28545 13.65721 -36.987556 4294967295
176.30624 12.313148 -36.866516 4294967295
176.30823 13.992952 -36.962223 4294967295
176.31834 8.2824926 -37.340408 4294967295
176.3259 14.664738 -36.966957 4294967295
176.341 8.9533348 -37.335205 4294967295
176.35753 9.288661 -37.322311 4294967295
176.36664 7.9454222 -37.224613 4294967295
176.3734 15.000454 -36.892494 4294967295
176.37996 16.008438 -36.939255 4294967295
176.39299 9.6235905 -37.271839 4294967295
176.40152 16.344418 -36.916313 4294967295
176.4118 14.328156 -36.776367 4294967295
176.42126 15.672325 -36.837257 4294967295
176.4236 8.6154699 -37.151333 4294967295
176.42813 15.336247 -36.803703 4294967295
176.42854 17.016479 -36.902527 4294967295
176.44026 11.637329 -37.297382 4294967295
176.45114 10.629742 -37.216064 4294967295
176.45514 10.293844 -37.188217 4294967295
176.4859 11.972433 -37.226723 4294967295
176.48643 12.644072 -37.26548 4294967295
176.5051 12.979667 -37.248337 4294967295
176.51114 17.352734 -36.758373 4294967295
176.51276 10.964428 -37.113693 4294967295
176.51923 11.300193 -37.120731 4294967295
176.52539 16.680494 -36.690216 4294967295
176.54047 13.315127 -37.198051 4294967295
176.5657 12.307156 -37.088226 4294967295
176.57968 13.986518 -37.160069 4294967295
176.6026 14.322248 -37.134468 4294967295
176.60504 13.65038 -37.08984 4294967295
176.63737 14.993896 -37.105293 4294967295
176.66008 9.9536753 -37.497635 4294967295
176.67445 8.2747059 -37.369675 4294967295
176.68781 8.6101036 -37.363098 4294967295
176.71561 8.9451656 -37.327843 4294967295
176.71771 7.9377422 -37.263962 4294967295
176.72911 14.657392 -36.903389 4294967295
176.73238 16.337566 -36.996506 4294967295
176.7327 9.2805367 -37.313858 4294967295
176.73445 15.665498 -36.95253 4294967295
176.74055 15.329435 -36.920475 4294967295
176.75166 9.6159 -37.29615 4294967295
176.77492 11.29447 -37.349533 4294967295
176.77574 11.63026 -37.367805 4294967295
176.77681 17.345734 -36.968094 4294967295
176.78563 16.001448 -36.870903 4294967295
176.80716 12.301413 -37.345314 4294967295
176.82341 10.286039 -37.193687 4294967295
176.8255 10.95774 -37.229343 4294967295
176.85249 12.636656 -37.275398 4294967295
176.85799 13.308319 -37.304302 4294967295
176.85991 11.964801 -37.220871 4294967295
176.91064 12.971846 -37.180031 4294967295
176.91554 8.9413319 -37.666672 4294967295
176.91956 7.9342508 -37.599106 4294967295
176.92549 14.987217 -37.270039 4294967295
176.92805 9.2766781 -37.661804 4294967295
176.96307 8.6044521 -37.552689 4294967295
176.96747 13.64315 -37.107208 4294967295
176.98769 16.330761 -37.226368 4294967295
176.98871 9.9466696 -37.581425 4294967295
177.00246 9.6106472 -37.534332 4294967295
177.02434 14.650702 -37.054169 4294967295
177.02814 14.314651 -37.026764 4294967295
177.03502 10.281435 -37.509621 4294967295
177.0442 15.658686 -37.074543 4294967295
177.045 10.616995 -37.509735 4294967295
177.04984 15.322634 -37.043488 4294967295
177.05434 16.66674 -37.114227 4294967295
177.05875 10.952498 -37.502445 4294967295
177.06706 17.3388 -37.128822 4294967295
177.07986 15.994647 -37.023849 4294967295
177.08298 11.623638 -37.494225 4294967295
177.09398 12.295044 -37.512226 4294967295
177.11032 11.959014 -37.459934 4294967295
177.13283 11.286998 -37.375603 4294967295
177.14809 13.63763 -37.484688 4294967295
177.15767 17.002922 -36.929417 4294967295
177.16162 13.301664 -37.437984 4294967295
177.17264 12.965691 -37.396259 4294967295
177.22147 12.629205 -37.27969 4294967295
177.2272 8.5990849 -37.764046 4294967295
177.24358 14.644485 -37.355316 4294967295
177.26154 14.980298 -37.339684 4294967295
177.27841 8.2620583 -37.642883 4294967295
177.30058 16.323919 -37.341995 4294967295
177.30399 9.2685375 -37.65192 4294967295
177.30544 8.9327841 -37.629173 4294967295
177.31059 14.308086 -37.202805 4294967295
177.31728 9.6039486 -37.645512 4294967295
177.32483 13.971977 -37.154659 4294967295
177.3268 15.315962 -37.230423 4294967295
177.33867 10.274948 -37.642986 4294967295
177.34634 15.651893 -37.211647 4294967295
177.35095 16.659883 -37.262222 4294967295
177.35262 16.995874 -37.278843 4294967295
177.37048 9.9385252 -37.560173 4294967295
177.38913 11.281268 -37.60281 4294967295
177.39558 10.945374 -37.57016 4294967295
177.42461 15.987757 -37.076626 4294967295
177.43352 10.60885 -37.475288 4294967295
177.45053 17.332119 -37.104961 4294967295
177.46883 12.959139 -37.544651 4294967295
177.47081 12.623278 -37.520851 4294967295
177.49994 11.95115 -37.42347 4294967295
177.51672 12.286798 -37.410156 4294967295
177.55733 15.309473 -37.508907 4294967295
177.56206 8.2562256 -37.815563 4294967295
177.56696 8.9274178 -37.845612 4294967295
177.57152 13.293884 -37.3615 4294967295
177.57866 7.9200926 -37.76289 4294967295
177.59128 8.5911293 -37.777733 4294967295
177.59254 13.965577 -37.359722 4294967295
177.59743 9.5980339 -37.825157 4294967295
177.60213 14.301455 -37.360626 4294967295
177.60704 13.629486 -37.311142 4294967295
177.61293 15.981146 -37.438789 4294967295
177.62155 9.2617779 -37.757675 4294967295
177.64226 15.645118 -37.360905 4294967295
177.65691 11.275339 -37.807022 4294967295
177.66318 10.268041 -37.735031 4294967295
177.66339 9.932291 -37.714718 4294967295
177.66615 16.317043 -37.353504 4294967295
177.69089 10.603239 -37.700203 4294967295
177.69637 16.653044 -37.313614 4294967295
177.7252 12.953047 -37.771545 4294967295
177.7388 17.325182 -37.269558 4294967295
177.74724 12.617003 -37.708153 4294967295
177.77602 11.94498 -37.611507 4294967295
177.77777 10.937419 -37.548409 4294967295
177.78133 11.609056 -37.581184 4294967295
177.78192 13.28821 -37.679379 4294967295
177.78299 13.624012 -37.697212 4294967295
177.81958 14.295366 -37.664688 4294967295
177.82513 12.280132 -37.534382 4294967295
177.88777 7.9135857 -37.88517 4294967295
177.88882 14.966688 -37.567699 4294967295
177.89012 8.2491941 -37.900383 4294967295
177.90314 15.638447 -37.579197 4294967295
177.91714 15.302476 -37.531685 4294967295
177.93048 14.63052 -37.465553 4294967295
177.93843 15.974292 -37.529415 4294967295
177.96286 9.2544584 -37.816471 4294967295
177.96506 10.261589 -37.871758 4294967295
177.98064 9.5897865 -37.801277 4294967295
177.98311 10.932687 -37.875877 4294967295
177.99812 8.9178467 -37.727028 4294967295
178.01839 10.596273 -37.786396 4294967295
178.02588 11.26768 -37.811367 4294967295
178.03081 17.31826 -37.426613 4294967295
178.07294 11.938499 -37.75827 4294967295
178.08238 16.646223 -37.285023 4294967295
178.08716 13.281537 -37.809715 4294967295
178.10356 12.273882 -37.717705 4294967295
178.10405 16.982346 -37.262115 4294967295
178.10567 11.602165 -37.673817 4294967295
178.12378 12.609456 -37.697716 4294967295
178.15189 13.952583 -37.721809 4294967295
178.16438 13.6166 -37.67728 4294967295
178.16864 14.624186 -37.728497 4294967295
178.17447 8.5789719 -38.091347 4294967295
178.19438 15.295807 -37.717495 4294967295
178.21637 9.249218 -38.048458 4294967295
178.21777 8.2421761 -37.986107 4294967295
178.22768 8.9132767 -38.006313 4294967295
178.22922 7.9061766 -37.943676 4294967295
178.23665 9.5844202 -38.028347 4294967295
178.24759 10.255535 -38.046509 4294967295
178.24982 16.303394 -37.667774 4294967295
178.25111 14.959631 -37.585732 4294967295
178.26051 15.631494 -37.606972 4294967295
178.28821 10.590426 -37.986313 4294967295
178.29089 17.311255 -37.646431 4294967295
178.31697 12.268532 -38.02898 4294967295
178.31955 10.925567 -37.944427 4294967295
178.34163 9.9178324 -37.841309 4294967295
178.3457 16.639353 -37.498623 4294967295
178.35199 15.96728 -37.446426 4294967295
178.38716 11.260147 -37.831059 4294967295
178.38937 11.595922 -37.846558 4294967295
178.41075 11.931408 -37.824303 4294967295
178.41916 14.28199 -37.946804 4294967295
178.42004 12.938751 -37.865616 4294967295
178.46516 13.609951 -37.816475 4294967295
178.47975 14.617406 -37.847343 4294967295
178.48038 8.572525 -38.21973 4294967295
178.48633 8.9079828 -38.227928 4294967295
178.48668 8.2367449 -38.187485 4294967295
178.48875 14.953213 -37.849472 4294967295
178.49323 12.601997 -37.701576 4294967295
178.51553 7.9003067 -38.110847 4294967295
178.5204 13.945345 -37.727505 4294967295
178.52666 15.28892 -37.794674 4294967295
178.54008 15.624773 -37.788071 4294967295
178.56349 15.960632 -37.761852 4294967295
178.56718 9.9130478 -38.128296 4294967295
178.56779 9.5773487 -38.107212 4294967295
178.5903 16.632479 -37.748825 4294967295
178.6035 9.2408142 -38.017082 4294967295
178.6109 10.247831 -38.062088 4294967295
178.62741 17.304443 -37.715466 4294967295
178.6436 11.590154 -38.077148 4294967295
178.66492 10.582508 -37.975655 4294967295
178.66965 11.925498 -38.045715 4294967295
178.6745 16.96854 -37.602917 4294967295
178.68439 13.268328 -38.096169 4294967295
178.70479 12.596554 -38.016312 4294967295
178.7206 13.603733 -38.044792 4294967295
178.76208 12.259972 -37.883682 4294967295
178.7704 8.9020596 -38.399204 4294967295
178.78612 8.230484 -38.328587 4294967295
178.78711 12.931374 -37.874176 4294967295
178.8046 14.946397 -37.958981 4294967295
178.83328 15.61801 -37.942242 4294967295
178.85387 14.610234 -37.842178 4294967295
178.85768 9.5712156 -38.267231 4294967295
178.87184 16.62562 -37.925987 4294967295
178.87675 9.2351055 -38.209892 4294967295
178.89247 8.5633287 -38.139328 4294967295
178.89497 15.281886 -37.801014 4294967295
178.90564 11.919931 -38.311913 4294967295
178.9265 16.289673 -37.798649 4294967295
178.92767 9.9053593 -38.149521 4294967295
178.93867 12.590827 -38.286652 4294967295
178.939 10.576576 -38.166916 4294967295
179.03491 14.604263 -38.216629 4294967295
179.03549 11.582176 -38.036842 4294967295
179.05225 17.297861 -37.610909 4294967295
179.05412 12.253535 -38.039875 4294967295
179.06583 8.2247581 -38.508358 4294967295
179.08957 13.596436 -38.049671 4294967295
179.09271 8.5596151 -38.475372 4294967295
179.09358 14.268068 -38.081509 4294967295
179.10309 13.260452 -38.00322 4294967295
179.10789 15.275476 -38.11293 4294967295
179.10828 7.888011 -38.405155 4294967295
179.11522 12.924451 -37.959534 4294967295
179.12766 15.611244 -38.09396 4294967295
179.16685 14.939342 -37.9772 4294967295
179.17114 13.931585 -37.909184 4294967295
179.17847 9.2287264 -38.346634 4294967295
179.18947 10.235454 -38.384548 4294967295
179.20241 8.8924704 -38.2798 4294967295
179.20277 10.570845 -38.378273 4294967295
179.21962 9.8991451 -38.305504 4294967295
179.22084 11.913178 -38.422127 4294967295
179.23689 9.5630589 -38.251766 4294967295
179.23987 17.290676 -37.972771 4294967295
179.25702 16.618795 -37.899384 4294967295
179.26855 11.241028 -38.288799 4294967295
179.28464 16.954798 -37.864952 4294967295
179.29095 12.247862 -38.304352 4294967295
179.30197 10.904695 -38.203346 4294967295
179.30621 13.590589 -38.353802 4294967295
179.33414 12.583036 -38.239395 4294967295
179.33672 11.575655 -38.174828 4294967295
179.3837 7.8824501 -38.593201 4294967295
179.41771 13.253678 -38.115097 4294967295
179.43353 15.268617 -38.203148 4294967295
179.43858 14.932754 -38.173332 4294967295
179.44472 9.894371 -38.592476 4294967295
179.44952 8.2162313 -38.48391 4294967295
179.46429 8.8870955 -38.494614 4294967295
179.47487 16.611916 -38.201416 4294967295
179.48466 10.229139 -38.533985 4294967295
179.50429 9.5574331 -38.455807 4294967295
179.56313 15.940028 -37.988506 4294967295
179.56894 11.234545 -38.428196 4294967295
179.59833 16.947941 -37.978966 4294967295
179.59908 11.905481 -38.408745 4294967295
179.60136 13.583996 -38.503475 4294967295
179.6046 10.562443 -38.318581 4294967295
179.62961 12.912262 -38.408398 4294967295
179.63414 12.240715 -38.359833 4294967295
179.64394 12.576341 -38.36047 4294967295
179.67526 14.590591 -38.418118 4294967295
179.69249 13.918919 -38.344639 4294967295
179.69487 13.247307 -38.300327 4294967295
179.70265 9.2178364 -38.775051 4294967295
179.71648 14.254527 -38.317497 4294967295
179.71902 15.261919 -38.372013 4294967295
179.72711 7.8749838 -38.647839 4294967295
179.75098 9.5522728 -38.700207 4294967295
179.75363 8.2098446 -38.615704 4294967295
179.75658 8.5453701 -38.629753 4294967295
179.79382 15.933355 -38.265106 4294967295
179.80205 16.269211 -38.268791 4294967295
179.81824 8.8794403 -38.528786 4294967295
179.82854 10.221832 -38.587944 4294967295
179.83876 11.899861 -38.667011 4294967295
179.83893 17.276878 -38.256054 4294967295
179.84135 15.597345 -38.152065 4294967295
179.85057 10.557055 -38.564541 4294967295
179.862 16.605091 -38.171135 4294967295
179.86389 11.228151 -38.578133 4294967295
179.8737 9.8852081 -38.479637 4294967295
179.88658 12.906173 -38.632851 4294967295
179.88976 16.941051 -38.136612 4294967295
179.90366 10.891754 -38.480442 4294967295
179.95065 13.241157 -38.527225 4294967295
179.95427 11.562367 -38.420952 4294967295
179.95575 12.569615 -38.477558 4294967295
179.96625 7.8704405 -38.906677 4294967295
179.96629 14.248211 -38.556042 4294967295
179.98827 8.2053318 -38.883385 4294967295
180.00005 12.23325 -38.370975 4294967295
180.01077 8.875783 -38.878944 4294967295
180.0433 14.583456 -38.42514 4294967295
180.05501 15.255015 -38.441895 4294967295
180.05684 10.216887 -38.868099 4294967295
180.05783 13.911704 -38.357021 4294967295
180.09488 15.590701 -38.383678 4294967295
180.1093 8.5377121 -38.666351 4294967295
180.12958 16.26236 -38.355438 4294967295
180.14441 10.550741 -38.71656 4294967295
180.14729 15.926449 -38.300888 4294967295
180.15616 16.598236 -38.323235 4294967295
180.1624 9.5433912 -38.62191 4294967295
180.17633 11.892774 -38.73341 4294967295
180.17738 11.221439 -38.691708 4294967295
180.19478 17.270117 -38.287323 4294967295
180.19772 16.934191 -38.261711 4294967295
180.23488 13.570396 -38.718002 4294967295
180.25558 11.555845 -38.558525 4294967295
180.26147 12.562971 -38.60651 4294967295
180.27246 13.234306 -38.624634 4294967295
180.2852 12.898423 -38.579929 4294967295
180.29167 12.226817 -38.527611 4294967295
180.30228 14.912745 -38.66547 4294967295
180.31427 15.248427 -38.661861 4294967295
180.31784 8.5337811 -38.984886 4294967295
180.34747 14.576719 -38.557266 4294967295
180.35707 16.255596 -38.637638 4294967295
180.37894 8.1966143 -38.845673 4294967295
180.38211 15.919774 -38.568859 4294967295
180.39781 13.9047 -38.419186 4294967295
180.41873 14.240398 -38.398079 4294967295
180.45203 9.537262 -38.782101 4294967295
180.46378 10.543933 -38.818527 4294967295
180.47115 11.21507 -38.843765 4294967295
180.47278 9.2011251 -38.721703 4294967295
180.47659 10.879335 -38.813309 4294967295
180.49362 11.88599 -38.83947 4294967295
180.50235 12.221513 -38.842205 4294967295
180.5128 13.228327 -38.881237 4294967295
180.52243 11.549876 -38.763405 4294967295
180.52298 17.263288 -38.372719 4294967295
180.55132 16.591408 -38.277657 4294967295
180.55646 12.892169 -38.776188 4294967295
180.57721 12.556201 -38.715797 4294967295
180.58865 14.570381 -38.812374 4294967295
180.59985 13.563138 -38.731041 4294967295
180.61256 8.1921329 -39.114838 4294967295
180.65967 15.241487 -38.713303 4294967295
180.66847 13.898285 -38.616791 4294967295
180.67351 8.8615894 -39.035477 4294967295
180.6813 15.577188 -38.690876 4294967295
180.68518 14.905581 -38.643646 4294967295
180.69199 8.5255661 -38.979622 4294967295
180.72939 16.584534 -38.656403 4294967295
180.73888 9.8667974 -38.967304 4294967295
180.74062 9.5311546 -38.944084 4294967295
180.74619 15.912844 -38.583939 4294967295
180.76669 16.920401 -38.603405 4294967295
180.77615 11.879728 -39.013382 4294967295
180.77649 11.2085 -38.973064 4294967295
180.78465 10.201456 -38.897766 4294967295
180.80222 11.543702 -38.942734 4294967295
180.81702 12.886038 -38.993057 4294967295
180.85736 13.221235 -38.934135 4294967295
180.86673 13.556816 -38.935661 4294967295
180.8992 14.227915 -38.911957 4294967295
180.9115 7.8504157 -39.236496 4294967295
180.92276 14.563458 -38.885773 4294967295
180.94025 8.1851091 -39.200249 4294967295
180.94186 12.213025 -38.70982 4294967295
180.97897 16.24193 -38.875172 4294967295
180.98323 8.8550301 -39.156017 4294967295
181.0016 13.891342 -38.692318 4294967295
181.01456 16.577684 -38.825603 4294967295
181.01675 15.570303 -38.761879 4294967295
181.01738 15.23449 -38.74086 4294967295
181.01819 15.906099 -38.778927 4294967295
181.02667 9.8606701 -39.130768 4294967295
181.02766 10.196213 -39.148571 4294967295
181.06352 9.1886625 -39.019279 4294967295
181.07336 11.202075 -39.118858 4294967295
181.1071 9.5232887 -38.954117 4294967295
181.11241 10.530127 -39.003189 4294967295
181.12863 10.865474 -38.991352 4294967295
181.13393 17.249521 -38.632427 4294967295
181.14748 16.913635 -38.586182 4294967295
181.16814 12.878845 -39.033207 4294967295
181.20615 14.221176 -39.038342 4294967295
181.20781 7.8442659 -39.382961 4294967295
181.21133 13.214046 -38.968777 4294967295
181.22148 13.549652 -38.968819 4294967295
181.24051 8.8497725 -39.37862 4294967295
181.25145 8.51402 -39.337582 4294967295
181.25548 12.542055 -38.843117 4294967295
181.26434 14.556491 -38.944725 4294967295
181.27307 13.884924 -38.888058 4294967295
181.2822 9.1842422 -39.317268 4294967295
