# .PCD v0.7 - Point Cloud Data file format
VERSION 0.7
FIELDS x y z rgb
SIZE 4 4 4 4
TYPE F F F U
COUNT 1 1 1 1
WIDTH 1148
HEIGHT 1
VIEWPOINT 0 0 0 1 0 0 0
POINTS 1148
DATA ascii
71.885155 94.464745 -11.194476 4294967295
71.887291 92.502586 -10.978243 4294967295
71.924911 95.62738 -11.186656 4294967295
71.939575 94.815887 -11.051601 4294967295
71.950264 96.293076 -11.17361 4294967295
72.029755 95.271118 -11.368076 4294967295
72.032539 94.45459 -11.271859 4294967295
72.039726 95.766182 -11.387818 4294967295
72.052956 93.154831 -11.065771 4294967295
72.071274 95.94381 -11.302314 4294967295
72.093712 93.499718 -10.967587 4294967295
72.094696 93.33651 -10.946939 4294967295
72.102974 94.812744 -11.076837 4294967295
72.117302 92.691658 -10.803388 4294967295
72.118088 96.128326 -11.166983 4294967295
72.145386 94.013145 -10.851233 4294967295
72.207375 92.984207 -11.1028 4294967295
72.246544 95.291649 -11.219035 4294967295
72.27742 94.159935 -10.996362 4294967295
72.294762 95.640259 -11.096694 4294967295
72.317726 94.832207 -10.934679 4294967295
72.360718 95.178528 -10.829365 4294967295
72.363731 95.834602 -10.889282 4294967295
72.369522 93.471306 -11.184285 4294967295
72.418823 92.674461 -10.936501 4294967295
72.433609 93.98999 -11.027759 4294967295
72.444382 93.667389 -10.957795 4294967295
72.449463 94.324188 -11.010965 4294967295
72.463036 92.857109 -10.809838 4294967295
72.480591 94.174133 -10.892113 4294967295
72.504921 95.821548 -10.987161 4294967295
72.510384 94.678223 -10.847342 4294967295
72.531883 95.015076 -10.812165 4294967295
72.53286 95.670288 -10.878731 4294967295
72.558846 92.497643 -11.02049 4294967295
72.587524 94.800819 -11.171054 4294967295
72.612122 93.338776 -10.934168 4294967295
72.616379 94.649857 -11.059712 4294967295
72.62867 95.47348 -11.106822 4294967295
72.690155 95.009628 -10.854434 4294967295
72.704964 92.977936 -11.154219 4294967295
72.714188 92.491028 -11.071951 4294967295
72.732742 94.626076 -11.238043 4294967295
72.733047 94.953415 -11.271872 4294967295
72.762474 93.329971 -11.001985 4294967295
72.771675 93.497604 -10.989482 4294967295
72.778427 93.82785 -11.002353 4294967295
72.792908 95.470695 -11.129465 4294967295
72.796532 94.163048 -10.978325 4294967295
72.825912 95.321625 -11.004736 4294967295
72.981079 93.841698 -10.900191 4294967295
72.996811 92.702499 -10.727097 4294967295
73.024361 92.550529 -10.620125 4294967295
73.033745 92.645233 -11.163369 4294967295
73.048149 94.034538 -10.699662 4294967295
73.055489 93.309074 -11.162411 4294967295
73.061699 93.639015 -11.177065 4294967295
73.078621 93.809975 -11.139524 4294967295
73.094109 92.998383 -11.002172 4294967295
73.102776 94.311409 -11.113338 4294967295
73.108505 92.840874 -10.938013 4294967295
73.136711 95.144562 -11.09022 4294967295
73.151001 94.987175 -11.026434 4294967295
73.154213 92.532997 -10.754738 4294967295
73.166473 94.502876 -10.923951 4294967295
73.202591 94.846107 -10.841545 4294967295
73.292603 93.501328 -10.965955 4294967295
73.292953 94.647247 -11.086687 4294967295
73.31739 92.365959 -10.763629 4294967295
73.366455 93.369423 -10.708952 4294967295
73.421455 94.62883 -11.225227 4294967295
73.423904 94.138954 -11.165095 4294967295
73.468155 92.684822 -10.865 4294967295
73.469254 93.503853 -10.948492 4294967295
73.474838 94.815834 -11.069647 4294967295
73.491928 94.332199 -10.962056 4294967295
73.511986 93.849739 -10.844818 4294967295
73.533859 92.876625 -10.669443 4294967295
73.560349 92.560356 -10.548739 4294967295
73.564178 93.053383 -10.588557 4294967295
73.6045 93.979568 -11.117406 4294967295
73.698311 93.856438 -10.796233 4294967295
73.701454 93.202736 -10.716414 4294967295
73.713318 93.69915 -10.730229 4294967295
73.717392 92.390617 -10.577734 4294967295
73.781136 93.163643 -11.013049 4294967295
73.803734 94.483002 -11.079113 4294967295
73.817924 92.851936 -10.859193 4294967295
73.821274 94.1632 -10.987574 4294967295
73.838905 92.533371 -10.756491 4294967295
73.844803 94.337135 -10.928865 4294967295
73.938354 93.485199 -11.093332 4294967295
73.94136 92.667976 -10.996644 4294967295
68.306099 65.614601 -10.366707 4294967295
68.745804 69.237587 -10.423488 4294967295
68.79007 64.949471 -10.38739 4294967295
68.991203 64.957207 -10.285435 4294967295
69.006577 65.12513 -10.251902 4294967295
69.027527 65.458176 -10.217394 4294967295
69.033371 66.277206 -10.285583 4294967295
69.044029 66.6073 -10.285257 4294967295
69.16375 65.120064 -10.296123 4294967295
69.20472 66.766708 -10.335361 4294967295
69.245178 68.413582 -10.376331 4294967295
69.252731 68.742828 -10.386318 4294967295
69.339653 65.610832 -10.330746 4294967295
69.378548 66.439659 -10.289391 4294967295
69.412918 68.084755 -10.350631 4294967295
69.549706 66.275238 -10.269856 4294967295
69.56916 65.790489 -10.152884 4294967295
69.690117 65.447792 -10.282096 4294967295
69.739685 67.914803 -10.380687 4294967295
69.751335 66.93737 -10.23712 4294967295
69.788383 68.093178 -10.237115 4294967295
69.812325 64.942146 -10.389443 4294967295
69.867157 66.429443 -10.365685 4294967295
69.903809 66.113304 -10.209527 4294967295
69.961349 68.419891 -10.264403 4294967295
70.045731 65.286163 -10.216774 4294967295
70.049728 66.431885 -10.326078 4294967295
70.07476 67.910843 -10.400868 4294967295
70.077103 66.603523 -10.253161 4294967295
70.091202 66.280655 -10.171587 4294967295
70.117722 66.77916 -10.136513 4294967295
70.128059 67.763535 -10.207405 4294967295
70.130791 67.110176 -10.128369 4294967295
70.196548 65.933243 -10.352057 4294967295
70.288521 68.413506 -10.311039 4294967295
70.290604 68.250618 -10.286655 4294967295
70.309692 67.602249 -10.153719 4294967295
70.30986 68.747139 -10.275628 4294967295
70.34642 69.739761 -10.260025 4294967295
70.363258 70.56282 -10.291945 4294967295
70.410194 64.96344 -10.105183 4294967295
70.416275 68.235832 -10.434971 4294967295
70.430016 65.296303 -10.074811 4294967295
70.432388 65.62413 -10.10197 4294967295
70.462547 67.759346 -10.229989 4294967295
70.516785 69.248009 -10.208681 4294967295
70.563858 67.246773 -10.406018 4294967295
70.598557 68.401871 -10.414129 4294967295
70.635277 66.941071 -10.135823 4294967295
70.644508 67.107407 -10.122919 4294967295
70.655632 68.255783 -10.208721 4294967295
70.680298 68.590485 -10.162467 4294967295
70.693893 65.598534 -10.364841 4294967295
70.71566 65.931938 -10.32817 4294967295
70.73539 66.101257 -10.280728 4294967295
70.745804 66.431412 -10.281422 4294967295
70.749054 65.451042 -10.165816 4294967295
70.779701 67.259247 -10.257298 4294967295
70.802322 67.59317 -10.217849 4294967295
70.808205 68.903427 -10.338358 4294967295
70.822365 70.052635 -10.414141 4294967295
70.845688 68.751411 -10.197556 4294967295
70.880669 70.725288 -10.292314 4294967295
70.887703 69.582382 -10.146802 4294967295
70.895348 69.748375 -10.139142 4294967295
70.89872 70.240242 -10.180507 4294967295
70.91716 65.77626 -10.209284 4294967295
70.926353 65.288216 -10.126598 4294967295
70.975021 67.919853 -10.2463 4294967295
71.003418 68.582817 -10.222894 4294967295
71.003433 67.76487 -10.135418 4294967295
71.021538 68.751968 -10.180816 4294967295
71.021568 67.443115 -10.040843 4294967295
71.049454 70.560165 -10.281344 4294967295
71.053925 66.582886 -10.408131 4294967295
71.087616 64.957138 -10.122692 4294967295
71.087646 66.429306 -10.279895 4294967295
71.092865 67.248627 -10.350128 4294967295
71.095604 66.758781 -10.288692 4294967295
71.121964 68.075157 -10.341932 4294967295
71.133766 65.461266 -10.023506 4294967295
71.138275 68.243675 -10.305824 4294967295
71.149155 66.283844 -10.060346 4294967295
71.1838 67.112221 -10.033968 4294967295
71.218079 70.067772 -10.236012 4294967295
71.245506 69.91275 -10.128512 4294967295
71.252838 65.772278 -10.22812 4294967295
71.27169 67.740646 -10.375902 4294967295
71.345268 67.108345 -10.06458 4294967295
71.351784 68.746475 -10.217935 4294967295
71.354843 68.092972 -10.138001 4294967295
71.358994 70.548187 -10.38647 4294967295
71.363762 69.240974 -10.231069 4294967295
71.384079 69.901711 -10.234296 4294967295
71.409821 70.073395 -10.167341 4294967295
71.423203 66.098183 -10.264247 4294967295
71.426033 69.58754 -10.06175 4294967295
71.444801 66.922447 -10.28077 4294967295
71.47715 67.750053 -10.262062 4294967295
71.482613 68.24247 -10.296551 4294967295
71.499916 68.574928 -10.274755 4294967295
71.500076 66.61161 -10.064597 4294967295
71.518295 67.435196 -10.09221 4294967295
71.5821 70.727417 -10.232503 4294967295
71.586945 67.076416 -10.391985 4294967295
71.606606 67.900108 -10.414884 4294967295
71.611275 65.120453 -10.102661 4294967295
71.62941 68.561295 -10.410039 4294967295
71.680992 68.413437 -10.223619 4294967295
71.695732 68.908791 -10.227759 4294967295
71.716209 68.260513 -10.09081 4294967295
71.729431 69.900963 -10.222177 4294967295
71.739143 69.576714 -10.155443 4294967295
71.74604 65.272522 -10.238039 4294967295
71.770676 64.952377 -10.122469 4294967295
71.771095 65.770569 -10.208421 4294967295
71.778519 66.099945 -10.219046 4294967295
71.794464 70.575966 -10.079114 4294967295
71.796104 70.085457 -10.021354 4294967295
71.80069 68.724007 -10.42583 4294967295
71.821808 67.912476 -10.26943 4294967295
71.833115 69.551895 -10.407026 4294967295
71.868759 64.930382 -10.360305 4294967295
71.869392 65.094131 -10.375687 4294967295
71.874641 70.54644 -10.375904 4294967295
71.880882 67.439308 -10.0237 4294967295
71.935066 69.092491 -10.021081 4294967295
71.981499 67.253616 -10.235983 4294967295
72.016998 68.40966 -10.242116 4294967295
72.019577 69.719376 -10.373321 4294967295
72.047211 68.746147 -10.178237 4294967295
72.05056 69.074463 -10.202215 4294967295
72.061096 69.568642 -10.220155 4294967295
72.069595 65.264984 -10.296857 4294967295
72.078026 64.940201 -10.234385 4294967295
72.084885 65.105774 -10.229427 4294967295
72.105583 70.237122 -10.144576 4294967295
72.107811 65.439606 -10.189401 4294967295
72.122124 68.605331 -9.9158831 4294967295
72.124359 68.933441 -9.9435072 4294967295
72.130096 68.063919 -10.395844 4294967295
72.135582 66.756699 -10.238315 4294967295
72.14399 66.268272 -10.158473 4294967295
72.150345 68.560852 -10.382042 4294967295
72.16114 65.945976 -10.067513 4294967295
72.169128 67.257538 -10.181059 4294967295
72.173195 68.895042 -10.342306 4294967295
72.175407 70.75016 -9.968751 4294967295
72.208412 67.432907 -10.070187 4294967295
72.236557 65.589905 -10.34423 4294967295
72.29113 66.587463 -10.270749 4294967295
72.295837 69.751144 -10.029043 4294967295
72.346214 68.240181 -10.265443 4294967295
72.347153 66.112915 -10.035498 4294967295
72.35331 70.042206 -10.434204 4294967295
72.355309 66.933685 -10.096145 4294967295
72.39476 65.585106 -10.385281 4294967295
72.403938 68.421333 -10.094498 4294967295
72.403984 67.602898 -10.007089 4294967295
72.416405 68.752495 -10.088719 4294967295
72.417244 65.264374 -10.277052 4294967295
72.429024 69.574791 -10.134822 4294967295
72.432549 70.55793 -10.228019 4294967295
72.440948 68.105133 -9.9387951 4294967295
72.441818 64.944145 -10.16199 4294967295
72.443115 66.908028 -10.367119 4294967295
72.462029 68.602692 -9.9223852 4294967295
72.462242 67.077309 -10.322176 4294967295
72.463097 69.912743 -10.058558 4294967295
72.483551 66.429039 -10.182889 4294967295
72.489052 69.10215 -9.886569 4294967295
72.491264 65.940315 -10.105378 4294967295
72.536835 70.372444 -10.427819 4294967295
72.595596 69.081398 -10.096682 4294967295
72.598045 65.756943 -10.296839 4294967295
72.611389 70.232124 -10.167355 4294967295
72.662308 70.739204 -10.053719 4294967295
72.663429 65.448494 -10.048838 4294967295
72.683182 65.945274 -10.036817 4294967295
72.6838 68.891426 -10.348793 4294967295
72.689636 67.911301 -10.225144 4294967295
72.700035 68.241753 -10.226155 4294967295
72.701157 66.76899 -10.065478 4294967295
72.705032 70.043419 -10.401706 4294967295
72.705666 69.552696 -10.347336 4294967295
72.71859 67.101532 -10.043568 4294967295
72.719322 69.393265 -10.285406 4294967295
72.723999 68.576355 -10.182958 4294967295
72.726311 65.630325 -9.8613319 4294967295
72.743423 67.436325 -9.9975414 4294967295
72.757851 66.621941 -9.8632679 4294967295
72.759369 70.715019 -10.294491 4294967295
72.764954 70.553108 -10.258883 4294967295
72.774338 67.77301 -9.931715 4294967295
72.777832 69.738686 -10.129729 4294967295
72.779373 68.10199 -9.9502258 4294967295
72.786064 68.758934 -9.998209 4294967295
72.792046 66.417068 -10.291188 4294967295
72.798904 65.437141 -10.164221 4294967295
72.809814 68.438667 -9.8859482 4294967295
72.82373 66.262665 -10.170592 4294967295
72.845238 65.941559 -10.065664 4294967295
72.85656 65.126282 -9.9415617 4294967295
72.924049 69.238983 -10.157966 4294967295
72.935974 66.080811 -10.343984 4294967295
72.938438 67.606148 -9.9366884 4294967295
72.938652 65.917953 -10.317849 4294967295
72.94178 67.115898 -9.8734474 4294967295
72.962585 70.233131 -10.137197 4294967295
72.9636 67.070709 -10.358713 4294967295
72.994125 65.279259 -10.067607 4294967295
73.000122 68.771027 -9.8580399 4294967295
73.038734 70.420654 -9.9068651 4294967295
73.039116 69.220863 -10.339744 4294967295
73.043526 65.129669 -9.8894081 4294967295
73.051208 65.623085 -9.9167547 4294967295
73.053574 67.588425 -10.118369 4294967295
73.058136 68.408279 -10.190725 4294967295
73.079994 66.45015 -9.9103212 4294967295
73.089485 68.090317 -10.053879 4294967295
73.089958 69.400146 -10.191847 4294967295
73.104805 67.931183 -9.9866323 4294967295
73.107567 70.551476 -10.25665 4294967295
73.118004 66.788811 -9.8215675 4294967295
73.120239 70.064323 -10.163136 4294967295
73.134384 68.267578 -9.9253025 4294967295
73.134888 65.760483 -10.21796 4294967295
73.136345 69.741875 -10.075917 4294967295
73.157974 66.094513 -10.177785 4294967295
73.168411 66.915962 -10.23102 4294967295
73.184517 68.774078 -9.8146105 4294967295
73.194489 66.596237 -10.111417 4294967295
73.223541 70.533333 -10.43534 4294967295
73.230309 69.062393 -10.256503 4294967295
73.231682 67.09832 -10.042844 4294967295
73.240486 68.738098 -10.188581 4294967295
73.268837 65.257713 -10.28572 4294967295
73.281761 65.58873 -10.278612 4294967295
73.32093 67.943649 -9.840003 4294967295
73.366867 67.250366 -10.176525 4294967295
73.384567 66.764442 -10.066754 4294967295
73.388657 67.42054 -10.123195 4294967295
73.404198 67.916321 -10.125037 4294967295
73.422432 65.956726 -9.8565989 4294967295
73.428047 68.087196 -10.065034 4294967295
73.432762 66.451042 -9.8753824 4294967295
73.435555 68.7444 -10.110406 4294967295
73.450081 67.602531 -9.941205 4294967295
73.464439 70.390556 -10.190934 4294967295
73.468666 69.081955 -10.037783 4294967295
73.470711 68.591309 -9.9788418 4294967295
73.474159 69.902382 -10.10711 4294967295
73.477127 69.412056 -10.045194 4294967295
73.488991 68.43306 -9.9020691 4294967295
73.499832 66.092224 -10.177857 4294967295
73.51033 69.258461 -9.9199667 4294967295
73.517326 67.786362 -9.7403193 4294967295
73.524521 68.935204 -9.8390388 4294967295
73.527512 66.427689 -10.122901 4294967295
73.540253 68.284698 -9.7182112 4294967295
73.548981 65.28772 -9.9312 4294967295
73.549896 64.960457 -9.8933744 4294967295
73.551323 70.745247 -9.9438591 4294967295
73.568169 70.095284 -9.819438 4294967295
73.605507 65.467667 -9.7652035 4294967295
73.633171 66.29467 -9.7626505 4294967295
73.640312 66.788177 -9.791791 4294967295
73.664421 70.562401 -10.114519 4294967295
73.67337 65.109512 -10.064944 4294967295
73.674187 65.764641 -10.13201 4294967295
73.710335 66.266273 -10.067107 4294967295
73.72963 70.418968 -9.8856688 4294967295
73.733269 65.454102 -9.9055901 4294967295
73.743614 65.948395 -9.9243441 4294967295
73.743988 64.965805 -9.8185329 4294967295
73.745186 67.91391 -10.128382 4294967295
73.756111 66.934647 -9.9884024 4294967295
73.757851 69.391289 -10.24414 4294967295
73.776581 68.250809 -10.061477 4294967295
73.779427 70.762184 -9.7590675 4294967295
73.791451 69.892799 -10.187535 4294967295
73.797523 67.438187 -9.9064589 4294967295
73.801529 68.913383 -10.050348 4294967295
73.802856 70.38755 -10.202836 4294967295
73.823914 66.790733 -9.7512093 4294967295
73.836334 68.760162 -9.920126 4294967295
73.846329 69.090797 -9.9226017 4294967295
73.8508 66.634758 -9.6466093 4294967295
73.85128 67.781776 -9.7671127 4294967295
73.85218 68.437332 -9.8339167 4294967295
73.853348 70.730827 -10.074116 4294967295
73.88768 70.250153 -9.9106264 4294967295
73.906502 66.436203 -10.003054 4294967295
73.915237 65.292259 -9.8527641 4294967295
73.91761 66.111877 -9.9322214 4294967295
73.926033 67.26075 -10.02691 4294967295
73.955154 67.596916 -9.9674644 4294967295
74.027771 68.109985 -9.7845898 4294967295
74.028145 69.584488 -9.9402227 4294967295
74.040497 68.277641 -9.7608328 4294967295
74.054703 66.919685 -10.129243 4294967295
74.056129 69.920731 -9.8844862 4294967295
74.064224 64.957214 -9.8893824 4294967295
74.064941 69.431946 -9.8036814 4294967295
74.068871 70.416153 -9.8955193 4294967295
74.079399 70.255592 -9.844017 4294967295
74.089645 67.748756 -10.103269 4294967295
74.09713 66.276978 -9.9222841 4294967295
74.10482 67.09816 -9.9844933 4294967295
74.107437 65.952354 -9.8540621 4294967295
74.109062 67.590752 -10.023022 4294967295
74.123123 68.741371 -10.099459 4294967295
74.132843 70.763809 -9.7233295 4294967295
74.136208 65.141441 -9.6738186 4294967295
74.139412 68.091148 -9.9771147 4294967295
74.151001 67.275558 -9.8524952 4294967295
74.178009 69.904587 -10.04387 4294967295
74.186714 66.630669 -9.6672258 4294967295
74.187683 66.794807 -9.681531 4294967295
74.195969 69.091049 -9.8986702 4294967295
74.196678 70.72934 -10.070566 4294967295
74.198509 64.945618 -10.008334 4294967295
74.199684 65.928505 -10.109032 4294967295
74.203629 66.471718 -9.5950727 4294967295
74.245132 67.958878 -9.6176586 4294967295
74.249886 66.270538 -9.9815397 4294967295
74.274048 65.458458 -9.8162994 4294967295
74.351547 70.068169 -10.053509 4294967295
74.35276 69.577133 -9.9973478 4294967295
74.356949 65.104622 -10.066492 4294967295
74.365227 67.451027 -9.7305822 4294967295
74.374352 68.109177 -9.7707806 4294967295
74.376556 69.420586 -9.9030323 4294967295
74.380745 70.568642 -10.011408 4294967295
74.396767 67.296455 -9.6112022 4294967295
74.399643 66.641708 -9.5322027 4294967295
74.429062 66.599335 -9.990242 4294967295
74.435616 67.092628 -10.021296 4294967295
74.446251 65.621429 -9.8302155 4294967295
74.454559 66.279121 -9.8730259 4294967295
74.46106 64.970276 -9.7126904 4294967295
74.469154 65.791824 -9.7736216 4294967295
74.471054 68.741074 -10.080962 4294967295
74.549805 65.273392 -10.013513 4294967295
74.557144 64.947884 -9.9550161 4294967295
69.479088 70.884529 -10.429084 4294967295
69.654503 70.88517 -10.413184 4294967295
69.741158 73.52951 -10.406565 4294967295
69.950638 74.849998 -10.418358 4294967295
70.436356 73.694077 -10.383308 4294967295
70.542397 71.872978 -10.404119 4294967295
70.562172 71.061584 -10.251552 4294967295
70.632912 73.538338 -10.280875 4294967295
70.724365 70.894371 -10.262237 4294967295
70.788277 73.532425 -10.331665 4294967295
70.814873 74.195648 -10.314112 4294967295
70.936935 73.033569 -10.352036 4294967295
70.944519 71.890907 -10.204723 4294967295
70.974846 74.518433 -10.384724 4294967295
70.976006 73.53727 -10.276036 4294967295
71.070465 77.659729 -10.402598 4294967295
71.0839 72.697777 -10.395384 4294967295
71.204453 71.372101 -10.420532 4294967295
71.280296 73.686897 -10.416195 4294967295
71.294922 72.382896 -10.228454 4294967295
71.30088 72.548462 -10.226377 4294967295
71.321388 72.882431 -10.194012 4294967295
71.323433 73.864861 -10.292156 4294967295
71.34301 74.362282 -10.280334 4294967295
71.367561 76.170433 -10.391966 4294967295
71.382088 70.882668 -10.345651 4294967295
71.394699 72.031784 -10.426555 4294967295
71.427811 71.060829 -10.213165 4294967295
71.450966 71.886375 -10.224611 4294967295
71.463593 72.21772 -10.218136 4294967295
71.51281 73.379333 -10.179075 4294967295
71.550224 71.208092 -10.389349 4294967295
71.610176 71.554504 -10.227852 4294967295
71.669006 73.046387 -10.192316 4294967295
71.685242 72.72438 -10.104197 4294967295
71.689812 73.54422 -10.176579 4294967295
71.700897 76.329834 -10.437159 4294967295
71.708557 76.005226 -10.37717 4294967295
71.718201 74.208336 -10.153478 4294967295
71.740341 77.32531 -10.412798 4294967295
71.769432 70.895363 -10.196009 4294967295
71.801193 71.232765 -10.126965 4294967295
71.830559 73.042511 -10.222949 4294967295
71.870567 70.872345 -10.424152 4294967295
71.875587 74.039391 -10.180394 4294967295
71.875717 75.021408 -10.284731 4294967295
71.912407 76.015884 -10.269474 4294967295
71.930145 76.185661 -10.22891 4294967295
71.955811 72.208572 -10.285009 4294967295
71.962715 73.847099 -10.436966 4294967295
71.971008 71.558868 -10.165456 4294967295
72.004486 74.024628 -10.317881 4294967295
72.011719 73.372406 -10.224393 4294967295
72.119667 77.991928 -10.360344 4294967295
72.12529 77.339195 -10.272173 4294967295
72.179016 74.352379 -10.341023 4294967295
72.188835 72.391525 -10.099496 4294967295
72.208946 74.853401 -10.295629 4294967295
72.213501 74.200226 -10.210955 4294967295
72.238777 75.681877 -10.28548 4294967295
72.24649 76.993866 -10.399899 4294967295
72.261246 75.853233 -10.229577 4294967295
72.275558 76.512924 -10.252645 4294967295
72.298401 73.516289 -10.422083 4294967295
72.338974 71.565468 -10.080233 4294967295
72.34993 72.223793 -10.114276 4294967295
72.379257 73.379265 -10.140737 4294967295
72.391914 73.710854 -10.134347 4294967295
72.410362 70.878235 -10.335281 4294967295
72.416946 71.371239 -10.366145 4294967295
72.438522 71.214462 -10.278333 4294967295
72.480202 77.342506 -10.230214 4294967295
72.488358 72.867142 -10.290238 4294967295
72.537544 71.082191 -9.9378576 4294967295
72.540329 71.574295 -9.9811325 4294967295
72.545471 71.903419 -9.9992781 4294967295
72.564941 74.038177 -10.162643 4294967295
72.607933 72.031372 -10.370486 4294967295
72.69722 71.89637 -10.062087 4294967295
72.700935 73.37101 -10.207006 4294967295
72.701363 72.716316 -10.135837 4294967295
72.71022 75.665703 -10.42092 4294967295
72.733673 74.527802 -10.222464 4294967295
72.749756 71.693886 -10.430425 4294967295
72.778564 74.8703 -10.111134 4294967295
72.781586 71.213051 -10.274471 4294967295
72.783432 70.886284 -10.233573 4294967295
72.787651 76.183235 -10.221092 4294967295
72.7883 72.033546 -10.339818 4294967295
72.800423 75.205162 -10.07482 4294967295
72.826363 77.178986 -10.199678 4294967295
72.832458 77.508583 -10.214724 4294967295
72.876282 73.699074 -10.227768 4294967295
72.876305 72.225578 -10.070735 4294967295
72.88134 71.572212 -9.9845476 4294967295
72.918701 71.365089 -10.402032 4294967295
72.919174 72.403168 -9.9485979 4294967295
72.920761 74.041229 -10.117892 4294967295
72.947556 74.37764 -10.06556 4294967295
72.954445 75.689926 -10.182694 4294967295
73.010162 72.867592 -10.261428 4294967295
73.033463 72.220268 -10.115881 4294967295
73.048279 75.008255 -10.364106 4294967295
73.05307 75.173561 -10.365973 4294967295
73.067024 73.704796 -10.163691 4294967295
73.068672 71.740295 -9.9490347 4294967295
73.070656 74.524635 -10.239067 4294967295
73.072289 71.905228 -9.9547005 4294967295
73.081421 74.037025 -10.151732 4294967295
73.090309 70.873413 -10.347606 4294967295
73.092896 72.403183 -9.9400158 4294967295
73.097549 74.861099 -10.186474 4294967295
73.103699 75.35437 -10.218801 4294967295
73.114693 75.68557 -10.217933 4294967295
73.118752 71.537125 -10.324872 4294967295
73.119957 76.178566 -10.253117 4294967295
73.124092 75.852501 -10.204803 4294967295
73.132721 71.21418 -10.244623 4294967295
73.145584 71.709373 -10.255103 4294967295
73.148163 73.183403 -10.403587 4294967295
73.151237 72.365974 -10.306464 4294967295
73.160942 77.175133 -10.224494 4294967295
73.180359 72.702797 -10.246683 4294967295
73.187729 74.014832 -10.362172 4294967295
73.19487 78.005753 -10.201421 4294967295
73.197723 74.509232 -10.381993 4294967295
73.206345 73.366135 -10.231957 4294967295
73.22403 73.699394 -10.209381 4294967295
73.227486 71.407967 -9.9540262 4294967295
73.235626 72.065666 -9.9973278 4294967295
73.246445 75.835251 -10.363134 4294967295
73.253883 74.200478 -10.164684 4294967295
73.337311 76.685059 -10.155176 4294967295
73.359428 71.394669 -10.081142 4294967295
73.364029 72.214867 -10.153366 4294967295
73.378777 73.529526 -10.244929 4294967295
73.379738 73.202377 -10.206966 4294967295
73.386086 71.894432 -10.046898 4294967295
73.394402 74.844482 -10.33362 4294967295
73.397034 75.336502 -10.37737 4294967295
73.409515 76.159271 -10.423971 4294967295
73.412773 72.721863 -10.047412 4294967295
73.412872 74.031975 -10.18653 4294967295
73.425156 72.070724 -9.9374504 4294967295
73.431808 75.511978 -10.281924 4294967295
73.434601 75.021698 -10.220588 4294967295
73.435829 71.363777 -10.38833 4294967295
73.446068 72.021751 -10.424797 4294967295
73.447174 75.844666 -10.266915 4294967295
73.471428 74.706497 -10.066191 4294967295
73.474304 77.982567 -10.405397 4294967295
73.479088 76.838066 -10.267916 4294967295
73.50769 75.210045 -10.000795 4294967295
73.539673 73.034218 -10.225664 4294967295
73.543877 70.906693 -9.9854612 4294967295
73.607193 71.745735 -9.8671894 4294967295
73.624008 72.570221 -9.8997927 4294967295
73.646683 76.67247 -10.261984 4294967295
73.648254 72.849396 -10.410821 4294967295
73.649803 74.380585 -10.007885 4294967295
73.66217 73.345016 -10.417985 4294967295
73.698738 71.719521 -10.125236 4294967295
73.701965 74.340355 -10.393515 4294967295
73.702888 76.036552 -10.010058 4294967295
73.70472 73.850113 -10.33233 4294967295
73.710808 74.670723 -10.399697 4294967295
73.717247 70.906502 -9.9780979 4294967295
73.724602 77.354538 -10.079107 4294967295
73.727417 73.53009 -10.223944 4294967295
73.7323 74.186684 -10.277805 4294967295
73.739922 74.025459 -10.235686 4294967295
73.747879 75.338043 -10.349251 4294967295
73.749222 75.665962 -10.379745 4294967295
73.759926 71.575188 -9.9094534 4294967295
73.76487 72.068199 -9.9457283 4294967295
73.767357 71.086075 -9.8330641 4294967295
73.769051 72.233353 -9.9495926 4294967295
73.775131 75.183472 -10.243551 4294967295
73.782097 71.36335 -10.374599 4294967295
73.782188 73.220436 -10.011582 4294967295
73.785095 76.496857 -10.350624 4294967295
73.802055 74.537369 -10.086617 4294967295
73.827095 76.675026 -10.232 4294967295
73.838676 75.53244 -10.072514 4294967295
73.839439 72.85511 -10.345629 4294967295
73.847931 75.044113 -9.9902534 4294967295
73.85405 73.514755 -10.367965 4294967295
73.866852 71.226395 -10.082647 4294967295
73.876991 77.511215 -10.157495 4294967295
73.883888 76.85836 -10.06547 4294967295
73.892654 77.844284 -10.141617 4294967295
73.906662 72.057961 -10.040834 4294967295
73.911812 72.387199 -10.058997 4294967295
73.966194 75.025673 -10.161659 4294967295
73.977913 73.063812 -9.9146318 4294967295
74.03875 72.699684 -10.236873 4294967295
74.041077 76.033798 -10.023797 4294967295
74.045181 73.356781 -10.285725 4294967295
74.047935 72.211342 -10.154894 4294967295
74.051537 75.545815 -9.9376802 4294967295
74.051598 77.020355 -10.09427 4294967295
74.069267 71.235367 -9.9813538 4294967295
74.077141 74.022285 -10.251992 4294967295
74.08091 72.058098 -10.030797 4294967295
74.093216 71.406746 -9.9212866 4294967295
74.106438 71.738602 -9.9133263 4294967295
74.107208 72.885597 -10.032804 4294967295
74.125275 74.693344 -10.165942 4294967295
74.128365 75.513298 -10.243027 4294967295
74.144821 74.863655 -10.120152 4294967295
74.156273 74.376015 -10.03086 4294967295
74.160858 75.19664 -10.103118 4294967295
74.184822 74.221626 -9.9210787 4294967295
74.198166 77.502655 -10.226291 4294967295
74.20665 70.896248 -10.055738 4294967295
74.225746 73.850349 -10.307435 4294967295
74.228912 76.530319 -10.022391 4294967295
74.247635 71.72821 -10.010307 4294967295
74.280228 73.704445 -10.113937 4294967295
74.341209 72.030228 -10.295811 4294967295
74.378113 71.714424 -10.141786 4294967295
74.384247 72.862854 -10.243849 4294967295
74.389069 70.898872 -10.019329 4294967295
71.513535 81.131477 -10.437407 4294967295
71.525612 81.299606 -10.415302 4294967295
72.088402 82.62648 -10.392375 4294967295
72.127083 83.950783 -10.405632 4294967295
72.136116 78.325096 -10.341514 4294967295
72.337532 84.948006 -10.381942 4294967295
72.401138 81.959961 -10.418642 4294967295
72.456055 83.290306 -10.379091 4294967295
72.629349 83.781998 -10.424383 4294967295
72.826103 84.28273 -10.39334 4294967295
72.834831 78.819214 -10.346523 4294967295
73.040588 79.486015 -10.303545 4294967295
73.109512 81.47612 -10.288662 4294967295
73.128899 83.120888 -10.399975 4294967295
73.146164 82.472351 -10.274134 4294967295
73.166237 84.281357 -10.400659 4294967295
73.215286 79.978035 -10.344271 4294967295
73.332336 83.460312 -10.330138 4294967295
73.337898 83.953743 -10.364372 4294967295
73.37014 78.98922 -10.292609 4294967295
73.388901 79.814705 -10.318862 4294967295
73.398331 80.636879 -10.375378 4294967295
73.459053 81.477982 -10.265445 4294967295
73.50145 78.31958 -10.352198 4294967295
73.554047 84.462044 -10.270967 4294967295
73.62114 82.456856 -10.399606 4294967295
73.649063 82.303505 -10.291664 4294967295
73.649452 83.450111 -10.412354 4294967295
73.65612 78.14949 -10.388174 4294967295
73.675827 84.442802 -10.43139 4294967295
73.724388 79.811287 -10.341129 4294967295
73.735481 78.832581 -10.200664 4294967295
73.750618 79.165558 -10.186458 4294967295
73.769272 80.646416 -10.282809 4294967295
73.796761 81.803024 -10.315701 4294967295
73.808968 81.643738 -10.258744 4294967295
73.960342 80.161751 -10.166357 4294967295
73.966843 81.310814 -10.267231 4294967295
74.055946 83.965225 -10.257573 4294967295
74.061058 79.316933 -10.307485 4294967295
74.078049 78.340134 -10.148044 4294967295
74.085739 79.653343 -10.262488 4294967295
74.105141 80.806946 -10.321623 4294967295
74.109123 79.17025 -10.134593 4294967295
74.144272 80.165863 -10.125403 4294967295
74.209785 79.635963 -10.415034 4294967295
72.176483 85.770737 -10.436242 4294967295
73.038361 85.935936 -10.43412 4294967295
73.40712 85.9459 -10.348796 4294967295
73.434425 86.775635 -10.347334 4294967295
73.560631 86.102547 -10.423853 4294967295
73.584038 85.292686 -10.260835 4294967295
73.725487 91.247345 -10.42958 4294967295
73.761147 86.769081 -10.398817 4294967295
73.853157 89.591003 -10.396944 4294967295
73.916061 85.288162 -10.295187 4294967295
73.918587 86.43586 -10.408906 4294967295
73.955894 86.286705 -10.270753 4294967295
45.91367 77.473846 -14.387239 4278255360
45.972263 77.659065 -14.185159 4278255360
45.987518 77.988159 -14.163836 4278255360
46.049557 77.299118 -14.487958 4278255360
46.088116 76.99192 -14.307302 4278255360
46.144432 77.821838 -14.185901 4278255360
46.290848 77.328392 -14.211355 4278255360
46.326546 77.827217 -14.131486 4278255360
46.35696 77.516609 -13.981523 4278255360
46.365391 77.612968 -14.59575 4278255360
46.412144 77.95472 -14.45661 4278255360
46.514809 77.350594 -14.000289 4278255360
46.623394 77.164757 -14.203347 4278255360
46.669456 77.115334 -14.657662 4278255360
46.682888 77.282089 -14.625427 4278255360
46.688072 77.929596 -14.67785 4278255360
46.752613 77.633026 -14.400748 4278255360
46.777512 77.804543 -14.325661 4278255360
45.962875 78.946503 -14.364286 4278255360
46.007339 78.642059 -14.161355 4278255360
46.008575 78.319672 -14.120742 4278255360
46.099209 79.094467 -14.499393 4278255360
46.11179 78.45414 -14.380299 4278255360
46.12767 78.783485 -14.356671 4278255360
46.339554 78.962753 -14.208583 4278255360
46.355556 78.646439 -14.112658 4278255360
46.443699 78.290413 -14.374393 4278255360
46.444435 78.613533 -14.407562 4278255360
46.444847 78.936508 -14.441951 4278255360
46.615673 78.13028 -14.340016 4278255360
46.712376 78.262215 -14.622931 4278255360
46.763416 79.090103 -14.521977 4278255360
45.987518 77.988159 -14.163836 4278255360
46.412144 77.95472 -14.45661 4278255360
46.688072 77.929596 -14.67785 4278255360
45.950321 79.42543 -14.465371 4278255360
45.962875 78.946503 -14.364286 4278255360
46.000011 79.607597 -14.296782 4278255360
46.007339 78.642059 -14.161355 4278255360
46.008575 78.319672 -14.120742 4278255360
46.01741 79.937737 -14.267431 4278255360
46.038269 79.139229 -14.099186 4278255360
46.039642 79.30127 -14.112019 4278255360
46.099209 79.094467 -14.499393 4278255360
46.103275 79.741615 -14.556028 4278255360
46.11179 78.45414 -14.380299 4278255360
46.12767 78.783485 -14.356671 4278255360
46.142868 79.274002 -14.353595 4278255360
46.339554 78.962753 -14.208583 4278255360
46.345993 79.772659 -14.274334 4278255360
46.355556 78.646439 -14.112658 4278255360
46.443699 78.290413 -14.374393 4278255360
46.444435 78.613533 -14.407562 4278255360
46.444847 78.936508 -14.441951 4278255360
46.451828 79.423599 -14.469709 4278255360
46.463123 79.751106 -14.46336 4278255360
46.478325 79.918877 -14.424425 4278255360
46.507999 79.28553 -14.241475 4278255360
46.615673 78.13028 -14.340016 4278255360
46.671757 79.92926 -14.327873 4278255360
46.674957 79.123322 -14.22608 4278255360
46.712376 78.262215 -14.622931 4278255360
46.762699 79.573975 -14.578521 4278255360
46.763416 79.090103 -14.521977 4278255360
45.950321 79.42543 -14.465371 4278255360
45.962875 78.946503 -14.364286 4278255360
45.967182 80.723457 -14.545897 4278255360
46.000011 79.607597 -14.296782 4278255360
46.01741 79.937737 -14.267431 4278255360
46.038269 79.139229 -14.099186 4278255360
46.039642 79.30127 -14.112019 4278255360
46.045456 80.433868 -14.216095 4278255360
46.099209 79.094467 -14.499393 4278255360
46.103275 79.741615 -14.556028 4278255360
46.142262 80.88765 -14.535606 4278255360
46.142868 79.274002 -14.353595 4278255360
46.315445 80.728271 -14.496612 4278255360
46.339554 78.962753 -14.208583 4278255360
46.341125 80.416328 -14.364468 4278255360
46.345993 79.772659 -14.274334 4278255360
46.354946 80.260735 -14.294712 4278255360
46.369247 80.105309 -14.223149 4278255360
46.383686 80.595772 -14.222993 4278255360
46.401634 80.926323 -14.191696 4278255360
46.444847 78.936508 -14.441951 4278255360
46.451828 79.423599 -14.469709 4278255360
46.463123 79.751106 -14.46336 4278255360
46.478325 79.918877 -14.424425 4278255360
46.507999 79.28553 -14.241475 4278255360
46.671757 79.92926 -14.327873 4278255360
46.674957 79.123322 -14.22608 4278255360
46.698078 81.07048 -14.35518 4278255360
46.762699 79.573975 -14.578521 4278255360
46.763416 79.090103 -14.521977 4278255360
46.826092 80.246132 -14.413514 4278255360
46.835205 80.734276 -14.433346 4278255360
46.878475 80.59111 -14.253763 4278255360
47.001312 80.733231 -14.439124 4278255360
46.900974 75.849022 -14.275086 4278255360
47.056465 75.843628 -14.320295 4278255360
47.056728 75.35939 -14.265453 4278255360
47.073833 75.527542 -14.219595 4278255360
47.148201 76.135925 -14.638977 4278255360
47.348782 75.664108 -14.462196 4278255360
47.379364 75.35318 -14.312435 4278255360
47.415955 75.044449 -14.140295 4278255360
47.464638 74.901787 -13.94105 4278255360
47.7048 75.025116 -14.31321 4278255360
47.148201 76.135925 -14.638977 4278255360
47.001312 80.733231 -14.439124 4278255360
47.027493 81.390121 -14.41324 4278255360
47.168194 82.023964 -14.585584 4278255360
47.206844 81.717667 -14.405655 4278255360
47.360653 81.872833 -14.475374 4278255360
47.027493 81.390121 -14.41324 4278255360
47.055946 82.69397 -14.45067 4278255360
47.168194 82.023964 -14.585584 4278255360
47.206844 81.717667 -14.405655 4278255360
47.294865 83.047615 -14.221216 4278255360
47.297771 82.887352 -14.192442 4278255360
47.360653 81.872833 -14.475374 4278255360
47.375851 82.363739 -14.47261 4278255360
47.388069 82.691948 -14.462989 4278255360
47.476036 82.891617 -14.153473 4278255360
47.546528 82.203232 -14.443709 4278255360
47.608093 82.391235 -14.232677 4278255360
47.672558 83.065361 -14.064691 4278255360
47.689556 82.838097 -14.607244 4278255360
47.691086 82.354408 -14.547796 4278255360
47.915825 83.024666 -14.407928 4278255360
47.006565 83.230339 -14.062807 4278255360
47.015343 84.041908 -14.119846 4278255360
47.055946 82.69397 -14.45067 4278255360
47.067383 83.667633 -14.515678 4278255360
47.119469 83.52906 -14.303482 4278255360
47.126255 83.855034 -14.314073 4278255360
47.168194 82.023964 -14.585584 4278255360
47.245575 83.510536 -14.458698 4278255360
47.294865 83.047615 -14.221216 4278255360
47.297771 82.887352 -14.192442 4278255360
47.375179 83.728966 -13.993782 4278255360
47.375851 82.363739 -14.47261 4278255360
47.388069 82.691948 -14.462989 4278255360
47.446373 84.009254 -14.389474 4278255360
47.447914 83.848442 -14.365796 4278255360
47.476036 82.891617 -14.153473 4278255360
47.482124 83.540436 -14.20259 4278255360
47.546528 82.203232 -14.443709 4278255360
47.608093 82.391235 -14.232677 4278255360
47.616173 83.686905 -14.34611 4278255360
47.672558 83.065361 -14.064691 4278255360
47.67765 83.229156 -14.063704 4278255360
47.687004 83.394821 -14.046861 4278255360
47.689556 82.838097 -14.607244 4278255360
47.691086 82.354408 -14.547796 4278255360
47.824692 84.027603 -14.230755 4278255360
47.877319 83.889168 -14.017336 4278255360
47.915825 83.024666 -14.407928 4278255360
48.049942 83.567757 -13.963998 4278255360
48.08387 83.347511 -14.44288 4278255360
48.102665 83.194168 -14.355281 4278255360
48.160053 84.026978 -14.232134 4278255360
48.17485 83.710312 -14.14143 4278255360
48.183216 83.552376 -14.092494 4278255360
48.215366 83.889656 -14.009162 4278255360
48.358635 83.555389 -14.064714 4278255360
48.365479 83.719994 -14.057291 4278255360
48.72261 83.890404 -13.996766 4278255360
48.793114 83.686028 -14.338865 4278255360
47.919315 74.396446 -14.06751 4278255360
48.054649 74.060318 -14.151839 4278255360
48.088696 74.234833 -14.043467 4278255360
48.15424 73.9366 -13.764437 4278255360
47.915825 83.024666 -14.407928 4278255360
48.035599 85.015839 -14.178594 4278255360
48.036446 84.854637 -14.15753 4278255360
48.049942 83.567757 -13.963998 4278255360
48.076023 84.710609 -13.992755 4278255360
48.08387 83.347511 -14.44288 4278255360
48.08651 84.391983 -13.91798 4278255360
48.102665 83.194168 -14.355281 4278255360
48.160053 84.026978 -14.232134 4278255360
48.17485 83.710312 -14.14143 4278255360
48.175072 84.518303 -14.230228 4278255360
48.183216 83.552376 -14.092494 4278255360
48.215366 83.889656 -14.009162 4278255360
48.354965 84.846565 -14.221662 4278255360
48.358635 83.555389 -14.064714 4278255360
48.365479 83.719994 -14.057291 4278255360
48.406315 84.222794 -13.959835 4278255360
48.414726 84.388145 -13.946612 4278255360
48.42218 85.038033 -13.99071 4278255360
48.462425 84.658035 -14.427433 4278255360
48.486267 84.183884 -14.285503 4278255360
48.517982 84.359421 -14.186095 4278255360
48.613258 84.165695 -14.436752 4278255360
48.695557 84.525055 -14.168407 4278255360
48.704273 84.852135 -14.172003 4278255360
48.72261 83.890404 -13.996766 4278255360
48.765064 85.040718 -13.965274 4278255360
48.793114 83.686028 -14.338865 4278255360
48.811199 84.501801 -14.361585 4278255360
48.815048 84.180344 -14.311582 4278255360
48.871952 85.013428 -14.191005 4278255360
48.937366 84.395676 -13.877874 4278255360
49.03973 84.528259 -14.138076 4278255360
49.231441 84.861794 -14.086523 4278255360
49.249104 84.707916 -14.003549 4278255360
49.269543 85.040314 -13.964038 4278255360
49.363007 84.845512 -14.220807 4278255360
49.384998 85.016869 -14.157742 4278255360
49.045696 73.08078 -14.101594 4278255360
49.072708 72.929237 -13.984053 4278255360
48.937366 84.395676 -13.877874 4278255360
49.03973 84.528259 -14.138076 4278255360
49.231441 84.861794 -14.086523 4278255360
49.249104 84.707916 -14.003549 4278255360
49.269543 85.040314 -13.964038 4278255360
49.363007 84.845512 -14.220807 4278255360
49.384998 85.016869 -14.157742 4278255360
49.124264 85.53569 -13.933729 4278255360
49.127995 85.860748 -13.955783 4278255360
49.23996 85.512207 -14.126719 4278255360
49.249432 85.839745 -14.127624 4278255360
49.4198 85.517288 -14.083325 4278255360
49.472042 85.378799 -13.873149 4278255360
49.480713 85.220909 -13.823345 4278255360
49.669651 85.876984 -13.818432 4278255360
49.675617 86.041405 -13.814395 4278255360
49.743217 85.187943 -14.094383 4278255360
49.754025 85.354416 -14.072575 4278255360
49.782063 85.690269 -14.005354 4278255360
49.794521 86.019257 -13.995361 4278255360
49.945717 85.364685 -13.98602 4278255360
50.010841 85.231712 -13.729157 4278255360
50.112289 85.363815 -13.991797 4278255360
50.14172 86.023842 -13.955402 4278255360
50.168705 85.712326 -13.820724 4278255360
50.217232 85.895691 -13.660723 4278255360
50.386185 86.057678 -13.676065 4278255360
50.468246 85.533897 -13.937875 4278255360
50.673687 85.873795 -13.83752 4278255360
50.80798 85.858589 -13.961556 4278255360
50.842007 86.035477 -13.855166 4278255360
51.053379 85.730751 -13.662245 4278255360
50.158577 72.144974 -13.606324 4278255360
50.263142 71.959351 -13.82091 4278255360
50.457275 71.968033 -13.725148 4278255360
49.945717 85.364685 -13.98602 4278255360
50.010841 85.231712 -13.729157 4278255360
50.112289 85.363815 -13.991797 4278255360
50.14172 86.023842 -13.955402 4278255360
50.168705 85.712326 -13.820724 4278255360
50.217232 85.895691 -13.660723 4278255360
50.386185 86.057678 -13.676065 4278255360
50.468246 85.533897 -13.937875 4278255360
50.673687 85.873795 -13.83752 4278255360
50.80798 85.858589 -13.961556 4278255360
50.842007 86.035477 -13.855166 4278255360
51.053379 85.730751 -13.662245 4278255360
51.150711 85.861053 -13.938859 4278255360
51.256477 86.069733 -13.571279 4278255360
51.600452 85.910721 -13.527275 4278255360
51.19133 71.501656 -13.445823 4278255360
51.226871 71.028786 -13.26262 4278255360
51.230442 71.19194 -13.267474 4278255360
51.335106 71.168434 -13.498862 4278255360
51.338036 71.493134 -13.5239 4278255360
51.481335 71.159775 -13.578583 4278255360
51.762566 71.199165 -13.167361 4278255360
51.848862 71.007309 -13.447209 4278255360
52.121124 71.205276 -13.087405 4278255360
50.915409 87.039268 -13.694341 4278255360
51.037701 86.533012 -13.808716 4278255360
51.053379 85.730751 -13.662245 4278255360
51.054401 86.216774 -13.712094 4278255360
51.083595 86.391632 -13.623458 4278255360
51.106346 87.049339 -13.611924 4278255360
51.150711 85.861053 -13.938859 4278255360
51.164154 86.913368 -13.38323 4278255360
51.220116 86.862885 -13.793047 4278255360
51.236084 86.222572 -13.663449 4278255360
51.256477 86.069733 -13.571279 4278255360
51.392845 86.702888 -13.759226 4278255360
51.43774 87.046738 -13.631496 4278255360
51.488117 86.259575 -13.358849 4278255360
51.552876 86.375336 -13.753841 4278255360
51.597725 86.557167 -13.608578 4278255360
51.600452 85.910721 -13.527275 4278255360
51.626362 86.73185 -13.522293 4278255360
51.762081 86.555252 -13.623334 4278255360
51.763325 86.879623 -13.654494 4278255360
51.987282 87.066269 -13.470801 4278255360
52.050285 86.371529 -13.781994 4278255360
52.10693 87.04435 -13.647919 4278255360
52.115734 86.562469 -13.562489 4278255360
52.200867 86.762283 -13.27164 4278255360
52.305969 86.733971 -13.501504 4278255360
52.461166 86.727951 -13.549701 4278255360
52.494968 86.418961 -13.391715 4278255360
52.531792 87.083366 -13.329777 4278255360
52.558254 86.933113 -13.21617 4278255360
52.865204 86.595375 -13.289916 4278255360
53.007748 86.907799 -13.419634 4278255360
52.121124 71.205276 -13.087405 4278255360
51.987282 87.066269 -13.470801 4278255360
52.050285 86.371529 -13.781994 4278255360
52.10693 87.04435 -13.647919 4278255360
52.115734 86.562469 -13.562489 4278255360
52.200867 86.762283 -13.27164 4278255360
52.305969 86.733971 -13.501504 4278255360
52.461166 86.727951 -13.549701 4278255360
52.494968 86.418961 -13.391715 4278255360
52.531792 87.083366 -13.329777 4278255360
52.558254 86.933113 -13.21617 4278255360
52.865204 86.595375 -13.289916 4278255360
53.007748 86.907799 -13.419634 4278255360
53.370586 86.918945 -13.327377 4278255360
53.559196 86.765572 -13.237796 4278255360
53.67474 86.904076 -13.446653 4278255360
53.781662 86.789169 -13.044536 4278255360
53.007748 86.907799 -13.419634 4278255360
53.370586 86.918945 -13.327377 4278255360
53.559196 86.765572 -13.237796 4278255360
53.67474 86.904076 -13.446653 4278255360
53.781662 86.789169 -13.044536 4278255360
54.23304 86.764679 -13.241532 4278255360
54.568073 87.087646 -13.286057 4278255360
54.801292 86.953712 -13.038027 4278255360
54.23304 86.764679 -13.241532 4278255360
54.568073 87.087646 -13.286057 4278255360
54.801292 86.953712 -13.038027 4278255360
55.335091 86.965302 -12.941292 4278255360
55.507526 86.966728 -12.928857 4278255360
55.877552 86.980545 -12.814857 4278255360
55.335091 86.965302 -12.941292 4278255360
55.507526 86.966728 -12.928857 4278255360
55.877552 86.980545 -12.814857 4278255360
56.25116 86.833466 -12.671062 4278255360
56.260098 86.999733 -12.657108 4278255360
56.728596 86.982536 -12.794495 4278255360
57.058598 86.816376 -12.80584 4278255360
56.25116 86.833466 -12.671062 4278255360
56.260098 86.999733 -12.657108 4278255360
56.728596 86.982536 -12.794495 4278255360
57.058598 86.816376 -12.80584 4278255360
57.199238 86.80394 -12.906338 4278255360
57.301659 87.010704 -12.562901 4278255360
57.464409 86.682884 -12.550248 4278255360
57.631023 86.844101 -12.577191 4278255360
57.766777 86.829536 -12.69497 4278255360
57.772423 86.507072 -12.639688 4278255360
57.934353 86.666267 -12.683074 4278255360
57.991753 86.528442 -12.46371 4278255360
57.994755 86.854744 -12.488597 4278255360
57.485821 70.960808 -11.964513 4278255360
57.58564 71.09864 -12.226253 4278255360
58.479286 71.110786 -12.056907 4278255360
58.672489 71.118126 -11.972713 4278255360
58.772537 70.931137 -12.196997 4278255360
58.832722 71.114189 -12.004096 4278255360
58.89547 71.298233 -11.802235 4278255360
57.058598 86.816376 -12.80584 4278255360
57.199238 86.80394 -12.906338 4278255360
57.301659 87.010704 -12.562901 4278255360
57.464409 86.682884 -12.550248 4278255360
57.631023 86.844101 -12.577191 4278255360
57.766777 86.829536 -12.69497 4278255360
57.772423 86.507072 -12.639688 4278255360
57.934353 86.666267 -12.683074 4278255360
57.991753 86.528442 -12.46371 4278255360
57.994755 86.854744 -12.488597 4278255360
58.171196 86.37014 -12.410414 4278255360
58.505886 86.855774 -12.4775 4278255360
58.521336 86.374763 -12.370261 4278255360
58.718983 86.386688 -12.271302 4278255360
58.82938 86.849022 -12.530753 4278255360
58.838562 87.015503 -12.516346 4278255360
58.895432 86.552155 -12.264417 4278255360
58.92831 86.240929 -12.11404 4278255360
59.011448 86.529228 -12.451032 4278255360
58.479286 71.110786 -12.056907 4278255360
58.672489 71.118126 -11.972713 4278255360
58.772537 70.931137 -12.196997 4278255360
58.832722 71.114189 -12.004096 4278255360
58.89547 71.298233 -11.802235 4278255360
59.244549 71.46273 -11.783175 4278255360
59.283245 71.09211 -12.203534 4278255360
59.572784 71.62011 -11.837122 4278255360
59.629089 71.25544 -12.195374 4278255360
59.680332 70.947685 -11.98153 4278255360
59.684399 71.43689 -12.02043 4278255360
59.694172 71.11499 -11.951017 4278255360
59.852371 71.272964 -12.00735 4278255360
59.878796 71.444595 -11.933094 4278255360
59.94767 71.79348 -11.728825 4278255360
60.055347 71.120888 -11.872635 4278255360
59.236317 85.902237 -12.1867 4278255360
59.500404 86.032906 -12.465269 4278255360
59.595779 85.910568 -12.115313 4278255360
59.668709 85.86969 -12.451534 4278255360
59.925007 85.906097 -12.149552 4278255360
60.008957 86.032532 -12.46461 4278255360
59.244549 71.46273 -11.783175 4278255360
59.283245 71.09211 -12.203534 4278255360
59.572784 71.62011 -11.837122 4278255360
59.629089 71.25544 -12.195374 4278255360
59.680332 70.947685 -11.98153 4278255360
59.684399 71.43689 -12.02043 4278255360
59.694172 71.11499 -11.951017 4278255360
59.852371 71.272964 -12.00735 4278255360
59.878796 71.444595 -11.933094 4278255360
59.94767 71.79348 -11.728825 4278255360
60.055347 71.120888 -11.872635 4278255360
60.181187 71.10527 -12.02378 4278255360
60.183681 71.593987 -12.068142 4278255360
60.221272 71.76947 -11.955264 4278255360
60.422516 71.291451 -11.791646 4278255360
60.450859 72.114639 -11.781679 4278255360
60.472507 71.145676 -11.600504 4278255360
60.528225 71.431633 -12.030149 4278255360
60.564037 71.118446 -11.87068 4278255360
60.564564 70.95594 -11.851184 4278255360
60.568134 71.93322 -11.94482 4278255360
60.651077 71.636147 -11.621972 4278255360
60.652229 72.124779 -11.671002 4278255360
60.791183 71.62529 -11.723706 4278255360
60.807278 71.305267 -11.632633 4278255360
60.820499 71.798027 -11.639862 4278255360
