# .PCD v0.7 - Point Cloud Data file format
VERSION 0.7
FIELDS x y z rgb
SIZE 4 4 4 4
TYPE F F F U
COUNT 1 1 1 1
WIDTH 1148
HEIGHT 1
VIEWPOINT 0 0 0 1 0 0 0
POINTS 1148
DATA ascii
26.306707 107.69771 -20.522167 4294967295
26.310268 108.81335 -20.636141 4294967295
26.363001 108.05338 -20.321791 4294967295
26.367029 108.69246 -20.378548 4294967295
26.368975 108.21647 -20.315054 4294967295
26.372032 107.58205 -20.228432 4294967295
26.390163 106.63918 -20.041368 4294967295
26.390285 107.11674 -20.09618 4294967295
26.404556 107.28534 -20.054474 4294967295
26.421486 107.93325 -20.05689 4294967295
26.486786 108.027 -20.494396 4294967295
26.512157 107.24841 -20.295465 4294967295
26.53735 106.94678 -20.152538 4294967295
26.583891 107.45504 -20.011908 4294967295
26.599384 107.14689 -19.909805 4294967295
26.650906 108.66381 -20.570749 4294967295
26.65151 106.91433 -20.365622 4294967295
26.693691 108.37428 -20.354027 4294967295
26.701401 107.42463 -20.211082 4294967295
26.71459 108.06996 -20.229321 4294967295
26.728697 108.55682 -20.225273 4294967295
19.767767 117.16873 -20.736294 4294967295
19.785038 115.15528 -21.159376 4294967295
19.786989 116.1082 -21.262817 4294967295
19.794973 120.04606 -20.952791 4294967295
19.800758 114.69123 -21.034101 4294967295
19.802597 115.32703 -21.100708 4294967295
19.805891 114.21918 -20.955448 4294967295
19.814777 114.86031 -20.991016 4294967295
19.825998 116.7721 -21.16571 4294967295
19.831812 113.60375 -20.766506 4294967295
19.852762 117.58554 -21.14122 4294967295
19.858774 118.38318 -21.208115 4294967295
19.863146 116.95899 -21.020792 4294967295
19.868744 117.28053 -21.033501 4294967295
19.874271 116.49151 -20.915762 4294967295
19.880924 118.71751 -21.147945 4294967295
19.916679 114.33947 -21.208841 4294967295
19.923107 119.54342 -21.055639 4294967295
19.924953 118.59293 -20.935446 4294967295
19.95767 114.05266 -20.991114 4294967295
19.974657 119.10749 -20.772694 4294967295
20.013403 116.15663 -20.988623 4294967295
20.016081 117.74496 -21.163527 4294967295
20.018135 118.22236 -21.210489 4294967295
20.026482 113.62748 -20.632231 4294967295
20.02693 116.9601 -21.022474 4294967295
20.027122 113.78667 -20.64809 4294967295
20.030443 115.69349 -20.857637 4294967295
20.031544 117.12225 -21.020855 4294967295
20.036245 118.07767 -21.112183 4294967295
20.043556 116.02072 -20.837299 4294967295
20.046293 119.51299 -21.235996 4294967295
20.051653 115.55074 -20.74564 4294967295
20.055149 117.45757 -20.954372 4294967295
20.056185 119.04483 -21.136509 4294967295
20.060268 119.84112 -21.211884 4294967295
20.061005 117.93804 -20.984638 4294967295
20.073509 120.01009 -21.172342 4294967295
20.083263 115.41572 -20.587881 4294967295
20.095676 116.69495 -20.682734 4294967295
20.100372 118.60304 -20.886206 4294967295
20.101828 119.71491 -21.010515 4294967295
20.110035 119.24528 -20.918419 4294967295
20.122618 114.3718 -21.024841 4294967295
20.122738 114.05462 -20.986986 4294967295
20.122757 115.16502 -21.11754 4294967295
20.128855 118.78375 -20.77964 4294967295
20.131443 114.53699 -21.004711 4294967295
20.146807 113.75508 -20.843842 4294967295
20.149443 116.45401 -21.149559 4294967295
20.164248 117.41693 -21.196472 4294967295
20.166437 114.88034 -20.888235 4294967295
20.212793 116.66062 -20.889879 4294967295
20.229271 118.73592 -21.060137 4294967295
20.241598 114.02242 -21.18581 4294967295
20.246195 117.00336 -20.780464 4294967295
20.267786 117.81341 -20.778969 4294967295
20.267946 120.19392 -21.05826 4294967295
20.269493 114.5189 -21.119303 4294967295
20.280615 115.95468 -21.238354 4294967295
20.281364 119.56966 -20.924685 4294967295
20.286814 118.62164 -20.788746 4294967295
20.34013 115.52345 -20.921164 4294967295
20.345449 119.65193 -21.382784 4294967295
20.350468 119.18004 -21.304829 4294967295
20.353165 118.23042 -21.181107 4294967295
20.354483 118.39006 -21.193972 4294967295
20.358091 117.44099 -21.066219 4294967295
20.362593 115.85767 -20.85988 4294967295
20.368042 116.49653 -20.910608 4294967295
20.369757 114.27584 -20.641783 4294967295
20.379631 113.64812 -20.523746 4294967295
20.385777 116.98603 -20.888762 4294967295
20.387142 115.08245 -20.658802 4294967295
20.392462 118.89526 -21.083319 4294967295
20.400988 115.25153 -20.61669 4294967295
20.404934 119.85687 -21.14053 4294967295
20.418301 116.69324 -20.708708 4294967295
20.419827 114.66856 -21.198473 4294967295
20.420887 119.55196 -21.033255 4294967295
20.42428 120.03062 -21.074339 4294967295
20.436457 117.97694 -20.778353 4294967295
20.438843 117.18506 -20.674559 4294967295
20.439087 114.20695 -21.058075 4294967295
20.443626 118.61735 -20.82155 4294967295
20.45179 118.14742 -20.729744 4294967295
20.455599 113.74316 -20.929701 4294967295
20.456118 115.80595 -21.169868 4294967295
20.458361 114.06254 -20.954893 4294967295
20.473442 119.11657 -20.74675 4294967295
20.49823 117.74134 -21.209011 4294967295
20.506397 114.57413 -20.8002 4294967295
20.506445 118.85798 -21.303505 4294967295
20.523256 116.33241 -20.931484 4294967295
20.526669 117.1284 -21.009783 4294967295
20.566299 116.04737 -20.705482 4294967295
20.56847 120.01652 -21.162266 4294967295
20.569159 118.27161 -20.954124 4294967295
20.588957 120.34984 -21.109816 4294967295
20.609417 115.64053 -21.198812 4294967295
20.640011 115.18744 -21.008909 4294967295
20.641735 115.03005 -20.982714 4294967295
20.66824 113.62128 -20.69878 4294967295
20.672491 114.10061 -20.736109 4294967295
20.673967 116.16491 -20.972075 4294967295
20.692007 116.01977 -20.874435 4294967295
20.695375 116.9745 -20.97156 4294967295
20.697142 117.92793 -21.075686 4294967295
20.698019 118.40461 -21.127762 4294967295
20.703642 118.09158 -21.06587 4294967295
20.703722 114.91741 -20.692579 4294967295
20.708843 117.46081 -20.968533 4294967295
20.727358 118.90319 -21.055277 4294967295
20.730062 119.69866 -21.136641 4294967295
20.739779 120.02356 -21.131397 4294967295
20.743202 115.89942 -20.631605 4294967295
20.747604 120.18833 -21.115797 4294967295
20.747847 119.07768 -20.984245 4294967295
20.748812 119.39583 -21.017309 4294967295
20.765291 119.88472 -21.001125 4294967295
20.784349 118.78836 -20.787203 4294967295
20.786537 118.31377 -20.721674 4294967295
20.790695 116.28924 -21.198503 4294967295
20.791819 113.7514 -20.895426 4294967295
20.797096 114.8661 -21.002806 4294967295
20.798454 117.56413 -21.313606 4294967295
20.798752 114.70866 -20.976927 4294967295
20.807259 115.34969 -21.014261 4294967295
20.818907 115.67575 -21.000582 4294967295
20.826927 116.47516 -21.058681 4294967295
20.828861 117.11129 -21.124756 4294967295
20.84119 117.91396 -21.164001 4294967295
20.848082 118.23655 -21.171141 4294967295
20.848545 114.42805 -20.7218 4294967295
20.849039 118.71324 -21.222839 4294967295
20.865751 117.29794 -20.982073 4294967295
20.873568 115.24036 -20.705555 4294967295
20.880653 119.53092 -21.177794 4294967295
20.885958 116.20213 -20.763227 4294967295
20.919163 113.88427 -21.075251 4294967295
20.994415 114.41575 -20.802273 4294967295
20.997423 115.52904 -20.919569 4294967295
21.003195 117.12034 -21.080647 4294967295
21.004774 119.66002 -21.371706 4294967295
21.009712 118.55333 -21.219807 4294967295
21.009993 118.7122 -21.237204 4294967295
21.011307 114.26945 -20.709814 4294967295
21.01132 119.34782 -21.305893 4294967295
21.01512 116.49455 -20.954041 4294967295
21.017622 117.76602 -21.09214 4294967295
21.020212 113.48213 -20.577688 4294967295
21.020681 117.60966 -21.060152 4294967295
21.030952 119.9976 -21.294661 4294967295
21.038956 118.25837 -21.054857 4294967295
21.042215 116.19745 -20.79841 4294967295
21.0492 116.04393 -20.74926 4294967295
21.056774 119.22423 -21.08881 4294967295
21.062376 120.33937 -21.194729 4294967295
21.076735 118.92218 -20.964403 4294967295
21.077942 118.44691 -20.903242 4294967295
21.078728 113.88213 -21.095465 4294967295
21.106041 114.53691 -21.050724 4294967295
21.116394 119.90522 -20.903036 4294967295
21.118332 120.22422 -20.931839 4294967295
21.141703 114.4045 -20.87644 4294967295
21.159496 115.37001 -20.910536 4294967295
21.161352 116.79976 -21.070045 4294967295
21.167906 114.90005 -20.817953 4294967295
21.178026 115.86 -20.88555 4294967295
21.209864 115.0899 -20.653454 4294967295
21.211012 120.17007 -21.244406 4294967295
21.231836 115.5826 -20.613459 4294967295
21.236441 119.555 -21.059055 4294967295
21.24468 116.54498 -20.66921 4294967295
21.255686 117.82356 -20.770243 4294967295
21.271929 118.31227 -20.755283 4294967295
21.293041 113.76136 -20.85836 4294967295
21.323755 114.26011 -20.780304 4294967295
21.328142 115.05709 -20.854292 4294967295
21.329231 118.70806 -21.277653 4294967295
21.330862 113.9478 -20.712069 4294967295
21.331089 116.17041 -20.971775 4294967295
21.333174 116.96554 -21.055765 4294967295
21.337059 113.63477 -20.6478 4294967295
21.337706 114.74666 -20.775354 4294967295
21.337984 117.44528 -21.090645 4294967295
21.338335 119.667 -21.349632 4294967295
21.340303 115.54235 -20.857136 4294967295
21.343945 117.9259 -21.120506 4294967295
21.348207 118.24653 -21.139162 4294967295
21.372572 117.15398 -20.902693 4294967295
21.383875 116.68623 -20.797577 4294967295
21.388067 116.37183 -20.742054 4294967295
21.388899 118.9125 -21.036329 4294967295
21.389322 118.59536 -20.997263 4294967295
21.389673 119.23053 -21.07019 4294967295
21.393559 119.86838 -21.127714 4294967295
21.395901 115.26608 -20.577534 4294967295
21.400169 120.34962 -21.154753 4294967295
21.40695 115.75074 -20.585253 4294967295
21.412006 117.66011 -20.786715 4294967295
21.428568 120.05422 -20.993845 4294967295
21.432531 114.6967 -21.077997 4294967295
21.440155 118.15787 -20.719934 4294967295
21.457781 119.60052 -20.810747 4294967295
21.483086 115.36894 -20.932304 4294967295
21.490171 117.43755 -21.143353 4294967295
21.492315 116.01074 -20.966555 4294967295
21.493645 119.3443 -21.351454 4294967295
21.516897 118.09263 -21.101454 4294967295
21.518211 120.31525 -21.356157 4294967295
21.518339 114.91876 -20.722948 4294967295
21.519623 117.77727 -21.052387 4294967295
21.543785 115.57278 -20.686623 4294967295
21.563883 119.87455 -21.101665 4294967295
21.56979 117.18018 -20.759586 4294967295
21.585983 113.57912 -20.994802 4294967295
21.596933 118.47111 -20.790373 4294967295
21.628531 119.28931 -20.745956 4294967295
21.630405 114.24652 -20.875977 4294967295
21.65369 113.94604 -20.737465 4294967295
21.670431 114.11707 -20.683249 4294967295
21.671936 117.7696 -21.10462 4294967295
21.673031 114.59536 -20.72777 4294967295
21.674809 115.07303 -20.775871 4294967295
21.677248 115.8687 -20.858301 4294967295
21.686512 116.19314 -20.85523 4294967295
21.687103 115.71725 -20.796831 4294967295
21.697035 116.51855 -20.84668 4294967295
21.700779 117.15643 -20.904823 4294967295
21.707808 116.05025 -20.744011 4294967295
21.710047 119.38589 -21.124956 4294967295
21.714722 118.2783 -20.974432 4294967295
21.715271 118.43746 -20.99065 4294967295
21.722258 117.01382 -20.792833 4294967295
21.728827 116.70116 -20.727053 4294967295
21.73612 120.04091 -21.086044 4294967295
21.737318 115.59574 -20.559837 4294967295
21.743492 119.57036 -20.998205 4294967295
21.747982 118.77996 -20.885675 4294967295
21.758245 113.58617 -20.960087 4294967295
21.761753 119.74319 -20.937452 4294967295
21.770317 115.97574 -21.186544 4294967295
21.776903 119.27849 -20.815796 4294967295
21.77779 115.34647 -21.079716 4294967295
21.795971 114.40746 -20.889158 4294967295
21.796711 113.93172 -20.830139 4294967295
21.806873 119.9368 -20.759989 4294967295
21.837122 113.48477 -20.598717 4294967295
21.845423 120.31728 -21.362286 4294967295
21.865709 117.63456 -20.958189 4294967295
21.881378 119.86896 -21.150467 4294967295
21.885456 115.10849 -20.574783 4294967295
21.913074 115.00896 -21.168476 4294967295
21.928097 118.47581 -20.780298 4294967295
21.97677 120.10136 -20.755016 4294967295
21.987385 113.63456 -20.67865 4294967295
21.998585 118.56456 -21.206347 4294967295
22.001938 114.59805 -20.727072 4294967295
22.001968 116.66226 -20.968647 4294967295
22.00671 117.93582 -21.096779 4294967295
22.007132 113.96658 -20.630136 4294967295
22.00819 115.71425 -20.830111 4294967295
22.008299 117.14329 -20.99695 4294967295
22.011303 116.3517 -20.890972 4294967295
22.019239 118.10406 -21.061026 4294967295
22.030098 115.41286 -20.697855 4294967295
22.036013 117.48168 -20.913925 4294967295
22.043388 117.01086 -20.826157 4294967295
22.043642 120.0276 -21.178219 4294967295
22.045609 118.91789 -21.039602 4294967295
22.050825 115.90469 -20.663719 4294967295
22.054457 119.71844 -21.09417 4294967295
22.058918 119.08683 -21.000479 4294967295
22.059875 116.86441 -20.73604 4294967295
22.068686 113.89291 -21.076044 4294967295
22.075809 113.58063 -21.007998 4294967295
22.087729 114.38299 -21.049234 4294967295
22.092302 119.42997 -20.8929 4294967295
22.105232 116.30057 -21.196306 4294967295
22.11562 115.35592 -21.03982 4294967295
22.12203 115.99562 -21.086361 4294967295
22.128035 120.25153 -20.830946 4294967295
22.141375 119.94416 -20.735916 4294967295
22.1429 117.12234 -21.125973 4294967295
22.148085 114.74475 -20.824766 4294967295
22.157465 114.11639 -20.709749 4294967295
22.172741 120.00195 -21.331051 4294967295
22.18689 119.53668 -21.21406 4294967295
22.192017 118.58815 -21.080393 4294967295
22.198214 115.73457 -20.719025 4294967295
22.222549 116.70565 -20.725103 4294967295
22.251652 118.15704 -20.766321 4294967295
22.257944 115.02354 -21.098011 4294967295
22.305037 120.26275 -20.776745 4294967295
22.314037 115.22358 -20.873739 4294967295
22.32205 116.18223 -20.950521 4294967295
22.325054 118.5658 -21.216103 4294967295
22.330496 114.75925 -20.746742 4294967295
22.335758 117.46265 -21.039785 4294967295
22.342495 117.78526 -21.047783 4294967295
22.353027 113.66376 -20.519066 4294967295
22.3549 116.04782 -20.789747 4294967295
22.359802 119.54475 -21.177179 4294967295
22.364182 117.00762 -20.861052 4294967295
22.365675 115.73814 -20.70594 4294967295
22.373798 117.33245 -20.856594 4294967295
22.376448 118.12847 -20.938013 4294967295
22.377413 119.717 -21.119576 4294967295
22.380133 116.54307 -20.736269 4294967295
22.380636 116.86111 -20.771255 4294967295
22.381489 118.92625 -21.009079 4294967295
22.38875 117.18485 -20.773304 4294967295
22.410173 118.47165 -20.829241 4294967295
22.418238 120.22475 -20.998703 4294967295
22.427851 115.6639 -21.148201 4294967295
22.439964 114.24397 -20.928709 4294967295
22.453835 116.00062 -21.072979 4294967295
22.454205 114.73073 -20.922829 4294967295
22.454945 119.45881 -20.747034 4294967295
22.46162 113.78333 -20.779316 4294967295
22.462044 113.94245 -20.796066 4294967295
22.465572 119.30807 -20.68247 4294967295
22.48774 114.91411 -20.796373 4294967295
22.500216 118.25795 -21.132387 4294967295
22.504456 114.13214 -20.631191 4294967295
22.506586 115.24561 -20.752022 4294967295
22.528252 119.07306 -21.104048 4294967295
22.56518 119.73643 -21.018747 4294967295
22.565191 116.40091 -20.628666 4294967295
22.569592 119.4222 -20.962549 4294967295
22.57662 115.0188 -21.141291 4294967295
22.593782 118.80532 -20.783731 4294967295
22.607109 113.61206 -20.842514 4294967295
22.626865 115.69082 -20.998507 4294967295
22.639816 117.60567 -21.165285 4294967295
22.644127 118.24391 -21.220898 4294967295
22.650278 113.80215 -20.674568 4294967295
22.652239 117.45624 -21.093096 4294967295
22.655594 116.82363 -21.004364 4294967295
22.674887 117.31444 -20.976751 4294967295
22.675652 113.50278 -20.52779 4294967295
22.685356 116.68701 -20.857285 4294967295
22.687231 117.95891 -20.997692 4294967295
22.687325 114.30566 -20.570232 4294967295
22.68866 120.18283 -21.251329 4294967295
22.696909 114.94818 -20.603121 4294967295
22.698343 118.92008 -21.06109 4294967295
22.702744 115.90569 -20.68936 4294967295
22.72868 117.03701 -20.70735 4294967295
22.73609 118.63111 -20.861027 4294967295
22.736971 116.40768 -20.597254 4294967295
22.749514 119.59434 -20.914473 4294967295
22.753281 118.16755 -20.731119 4294967295
22.758085 119.2832 -20.840349 4294967295
22.758972 118.80732 -20.780817 4294967295
22.769896 115.0413 -21.016533 4294967295
22.774544 113.45667 -20.810898 4294967295
22.778997 119.93461 -20.824354 4294967295
22.780638 114.41397 -20.895954 4294967295
22.782732 116.63848 -21.146677 4294967295
22.782953 117.11491 -21.201372 4294967295
22.784733 114.57576 -20.896845 4294967295
22.786264 115.68846 -21.020124 4294967295
22.805153 119.79578 -20.692907 4294967295
22.817194 116.0289 -20.923805 4294967295
22.824091 120.12809 -20.648321 4294967295
22.828547 118.73679 -21.190241 4294967295
22.835941 115.24856 -20.750134 4294967295
22.838903 118.26831 -21.089937 4294967295
22.86157 116.37943 -20.769505 4294967295
22.893503 114.0602 -21.081099 4294967295
22.921192 120.2367 -20.957808 4294967295
22.940628 115.20603 -21.00782 4294967295
22.963106 116.17535 -21.022247 4294967295
22.96817 117.60818 -21.167336 4294967295
22.9701 113.48034 -20.676708 4294967295
22.970833 120.11594 -20.725271 4294967295
22.981033 114.44142 -20.740921 4294967295
22.981617 119.64749 -20.623095 4294967295
23.002056 117.95119 -21.058462 4294967295
23.009483 117.16269 -20.933725 4294967295
23.015068 114.94285 -20.649908 4294967295
23.017895 115.42155 -20.693394 4294967295
23.02244 114.31264 -20.543886 4294967295
23.025578 118.60416 -21.031334 4294967295
23.026239 119.39868 -21.121204 4294967295
23.034548 117.4991 -20.862856 4294967295
23.039858 119.25024 -21.044024 4294967295
23.048338 115.76172 -20.599327 4294967295
23.059467 118.94748 -20.922478 4294967295
23.062605 114.38243 -21.097881 4294967295
23.063856 120.22147 -21.051962 4294967295
23.08474 119.76096 -20.906397 4294967295
23.093102 115.0398 -21.040749 4294967295
23.10487 114.0955 -20.878828 4294967295
23.138027 115.86681 -20.940079 4294967295
23.142757 115.71147 -20.901175 4294967295
23.144461 116.98329 -21.042185 4294967295
23.145308 113.80706 -20.667622 4294967295
23.172958 118.27509 -21.067877 4294967295
23.179356 116.69157 -20.854931 4294967295
23.186974 116.37949 -20.785053 4294967295
23.199091 116.86509 -20.788546 4294967295
23.199293 116.54749 -20.750584 4294967295
23.214193 119.57688 -21.038815 4294967295
23.232607 117.84338 -20.755617 4294967295
23.236216 117.52831 -20.702991 4294967295
23.238235 115.34457 -21.160791 4294967295
23.257847 116.47041 -21.206184 4294967295
23.276173 113.62518 -20.793764 4294967295
23.290424 114.42975 -20.825174 4294967295
23.312006 114.60429 -20.750904 4294967295
23.321131 115.72301 -20.841459 4294967295
23.325813 119.22057 -21.229063 4294967295
23.327723 114.93349 -20.720407 4294967295
23.330019 118.27097 -21.099819 4294967295
23.330898 120.14267 -20.592506 4294967295
23.332157 117.95494 -21.053568 4294967295
23.334427 118.75071 -21.136469 4294967295
23.335398 118.59264 -21.113766 4294967295
23.341852 116.37373 -20.826538 4294967295
23.342316 113.99068 -20.546381 4294967295
23.347267 116.21886 -20.784716 4294967295
23.359268 117.02212 -20.825827 4294967295
23.380476 119.89741 -21.068336 4294967295
23.382166 120.05753 -21.079609 4294967295
23.388609 119.10938 -20.940723 4294967295
23.390905 117.68124 -20.764015 4294967295
23.393063 116.88834 -20.662024 4294967295
23.406555 113.60188 -20.940268 4294967295
23.406668 118.48753 -20.788977 4294967295
23.420715 114.56505 -20.990616 4294967295
23.422588 118.97624 -20.776186 4294967295
23.423746 119.4538 -20.826838 4294967295
23.438295 119.62376 -20.782866 4294967295
23.453657 115.06552 -20.904716 4294967295
23.464943 119.80297 -20.686928 4294967295
23.47501 117.62254 -21.10947 4294967295
23.476648 115.24117 -20.824505 4294967295
23.500296 115.41734 -20.741474 4294967295
23.509975 117.1721 -20.903776 4294967295
23.514044 118.92243 -21.090117 4294967295
23.51428 115.90427 -20.737026 4294967295
23.5205 116.7033 -20.802994 4294967295
23.527765 114.04836 -21.181414 4294967295
23.530525 120.20554 -21.16757 4294967295
23.530552 115.5984 -20.630074 4294967295
23.546871 116.56392 -20.671227 4294967295
23.572508 118.33104 -20.765064 4294967295
23.607031 119.31059 -20.728104 4294967295
23.614138 116.81104 -21.125685 4294967295
23.615379 113.635 -20.749897 4294967295
23.617468 115.54287 -20.963242 4294967295
23.618347 117.29058 -21.163183 4294967295
23.61894 115.3851 -20.938408 4294967295
23.620049 116.49777 -21.063299 4294967295
23.623407 120.11765 -20.750498 4294967295
23.624275 114.75356 -20.841417 4294967295
23.627357 115.86781 -20.957869 4294967295
23.62957 118.41056 -21.244665 4294967295
23.634005 114.9195 -20.818205 4294967295
23.64312 114.44947 -20.723511 4294967295
23.643835 117.6272 -21.090919 4294967295
23.646091 113.81599 -20.636631 4294967295
23.660891 114.30342 -20.628729 4294967295
23.675966 115.26788 -20.675245 4294967295
23.679344 117.01822 -20.864561 4294967295
23.682266 116.38483 -20.777927 4294967295
23.686018 119.24723 -21.095251 4294967295
23.693155 116.71067 -20.76828 4294967295
23.696293 113.5762 -21.10829 4294967295
23.699337 118.14527 -20.908499 4294967295
23.701178 117.19332 -20.789463 4294967295
23.703222 114.05759 -21.134123 4294967295
23.713297 117.99684 -20.830126 4294967295
23.722576 114.23036 -21.069687 4294967295
23.723516 120.22883 -21.04563 4294967295
23.732599 118.32912 -20.784416 4294967295
23.735161 118.96666 -20.847532 4294967295
23.743374 115.51598 -21.128656 4294967295
23.751743 119.61481 -20.850557 4294967295
23.766073 119.94353 -20.826181 4294967295
23.773096 113.94911 -20.816126 4294967295
23.783552 119.79791 -20.732733 4294967295
23.786955 113.4824 -20.701159 4294967295
23.800034 118.89292 -21.274632 4294967295
23.810518 116.35944 -20.93355 4294967295
23.876154 118.63257 -20.911644 4294967295
23.894342 113.44269 -20.945913 4294967295
23.897301 118.0128 -20.747002 4294967295
23.908792 115.83562 -21.161661 4294967295
23.947016 115.22818 -20.924044 4294967295
23.950264 120.27782 -20.779516 4294967295
23.961815 117.93948 -21.175318 4294967295
23.971706 119.49935 -20.595095 4294967295
23.999687 117.17339 -20.920761 4294967295
24.002342 119.71708 -21.205492 4294967295
24.005487 117.0188 -20.877432 4294967295
24.010319 118.29345 -21.004837 4294967295
24.019012 117.8233 -20.912117 4294967295
24.031786 118.46842 -20.931511 4294967295
24.034185 116.40432 -20.680571 4294967295
24.035788 116.24655 -20.655203 4294967295
24.037769 119.90283 -21.072489 4294967295
24.048286 117.52728 -20.749853 4294967295
24.049078 118.7992 -20.894566 4294967295
24.05872 119.28318 -20.908861 4294967295
24.064228 117.38019 -20.663126 4294967295
24.073299 118.18169 -20.716908 4294967295
24.076273 119.61428 -20.870804 4294967295
24.084803 120.0975 -20.88986 4294967295
24.105461 116.81358 -21.135124 4294967295
24.121014 116.18963 -20.99465 4294967295
24.126947 118.25903 -21.209764 4294967295
24.133833 116.04015 -20.921347 4294967295
24.164452 117.65159 -20.975513 4294967295
24.168673 116.70135 -20.846451 4294967295
24.172724 120.19954 -21.23613 4294967295
24.197256 117.04029 -20.761297 4294967295
24.25375 117.12064 -21.24147 4294967295
24.285744 118.41502 -21.25281 4294967295
24.288212 116.82841 -21.057373 4294967295
24.313427 120.14768 -20.616623 4294967295
24.327433 117.81071 -21.000906 4294967295
24.333143 117.49717 -20.939539 4294967295
24.336563 118.13528 -20.998924 4294967295
24.350864 119.73482 -21.12282 4294967295
24.358152 118.94591 -20.99926 4294967295
24.360256 118.62969 -20.953289 4294967295
24.36838 117.36437 -20.770628 4294967295
24.381035 119.12203 -20.920099 4294967295
24.382626 117.69283 -20.746819 4294967295
24.406389 119.459 -20.848902 4294967295
24.429029 117.60648 -21.251095 4294967295
24.429348 118.36352 -20.621412 4294967295
24.429983 120.27158 -20.840723 4294967295
24.440813 119.9619 -20.757519 4294967295
24.461462 117.78941 -21.131298 4294967295
24.476509 117.32395 -21.011681 4294967295
24.476763 118.2774 -21.121517 4294967295
24.600775 119.16496 -20.685314 4294967295
24.61025 118.09682 -21.23555 4294967295
24.625177 117.79021 -21.135031 4294967295
24.658098 119.24464 -21.161139 4294967295
24.669424 119.88868 -21.186819 4294967295
24.670233 118.936 -21.07251 4294967295
24.672827 119.09684 -21.079945 4294967295
24.681219 118.62642 -20.988771 4294967295
24.730173 120.09358 -20.946688 4294967295
24.732967 119.61887 -20.879343 4294967295
24.750887 119.79135 -20.821537 4294967295
24.765081 118.84814 -20.650167 4294967295
24.804737 118.12051 -21.10836 4294967295
24.80559 118.91554 -21.19709 4294967295
24.890696 118.5024 -20.77968 4294967295
24.925892 119.64165 -20.759365 4294967295
24.971773 119.5537 -21.264326 4294967295
24.971924 118.91831 -21.189846 4294967295
24.988138 120.32476 -20.568605 4294967295
25.010458 120.21842 -21.173859 4294967295
25.016329 118.47475 -20.945793 4294967295
25.072758 120.10663 -20.890787 4294967295
25.089014 119.48296 -20.747845 4294967295
25.092985 119.32693 -20.712494 4294967295
25.114079 119.06186 -21.30374 4294967295
25.127953 118.5956 -21.189503 4294967295
25.260532 119.96657 -20.774639 4294967295
25.261591 119.33131 -20.696266 4294967295
25.27066 120.29223 -20.7686 4294967295
25.275581 119.50084 -20.655375 4294967295
25.300867 119.23882 -21.228298 4294967295
25.35424 120.23242 -21.112797 4294967295
25.363729 119.92171 -21.035681 4294967295
25.387712 119.14487 -20.841745 4294967295
25.398746 119.63011 -20.850357 4294967295
25.468264 119.56017 -21.253654 4294967295
25.688263 119.76211 -21.038216 4294967295
25.724371 119.4712 -20.848637 4294967295
25.941002 120.30677 -20.721979 4294967295
26.027519 119.93143 -21.015696 4294967295
26.048998 120.26555 -20.961943 4294967295
26.170321 120.23442 -21.145271 4294967295
26.35442 120.25047 -21.064026 4294967295
19.770842 121.13751 -21.189886 4294967295
19.772991 122.09083 -21.292484 4294967295
19.7892 124.00685 -21.445185 4294967295
19.789223 121.46932 -21.146276 4294967295
19.798416 121.79388 -21.143141 4294967295
19.801584 123.06535 -21.27861 4294967295
19.802698 121.63866 -21.105597 4294967295
19.824533 126.2557 -21.551016 4294967295
19.826313 120.54671 -20.870768 4294967295
19.842293 126.74612 -21.528862 4294967295
19.846992 124.37104 -21.228081 4294967295
19.847128 122.94337 -21.059366 4294967295
19.850029 123.42168 -21.102638 4294967295
19.864088 127.08141 -21.470285 4294967295
19.870428 126.13509 -21.330353 4294967295
19.878742 124.71422 -21.12566 4294967295
19.923534 122.87448 -21.445826 4294967295
19.927296 120.65714 -21.167923 4294967295
19.932358 122.40582 -21.351017 4294967295
19.944078 120.82899 -21.112747 4294967295
19.960239 121.3177 -21.097651 4294967295
19.985888 122.13133 -21.07818 4294967295
19.987757 125.62244 -21.480675 4294967295
19.99667 121.82259 -20.993399 4294967295
20.016136 125.48717 -21.337238 4294967295
20.021709 123.42937 -21.070009 4294967295
20.033905 124.39124 -21.128416 4294967295
20.044449 125.82771 -21.250101 4294967295
20.063503 126.00207 -21.185001 4294967295
20.065626 126.79707 -21.269024 4294967295
20.068245 127.27517 -21.313522 4294967295
20.071232 126.32577 -21.18837 4294967295
20.078833 127.12535 -21.248312 4294967295
20.079851 120.49093 -21.200459 4294967295
20.084976 125.22633 -20.997221 4294967295
20.085772 122.08169 -21.361059 4294967295
20.096746 122.88342 -21.406126 4294967295
20.097095 121.7735 -21.27397 4294967295
20.100807 120.98331 -21.164339 4294967295
20.110756 121.30845 -21.157948 4294967295
20.113564 120.67607 -21.070944 4294967295
20.12216 122.58657 -21.257143 4294967295
20.126749 123.54195 -21.348948 4294967295
20.128298 120.37031 -20.968838 4294967295
20.140474 123.87026 -21.325979 4294967295
20.146973 121.97179 -21.073454 4294967295
20.14875 124.03558 -21.308281 4294967295
20.149427 121.49773 -21.006662 4294967295
20.154213 123.24683 -21.190971 4294967295
20.155476 126.7372 -21.595909 4294967295
20.156139 121.18566 -20.939821 4294967295
20.161242 122.3005 -21.048086 4294967295
20.185268 126.92051 -21.483763 4294967295
20.191538 124.7049 -21.19499 4294967295
20.210049 123.13305 -20.926992 4294967295
20.211027 125.19679 -21.165388 4294967295
20.218584 124.56824 -21.057537 4294967295
20.252403 123.19542 -21.480927 4294967295
20.25425 125.54958 -21.012909 4294967295
20.323681 122.45937 -21.074854 4294967295
20.324825 126.26754 -21.51753 4294967295
20.34391 127.07632 -21.527075 4294967295
20.344368 126.60089 -21.469124 4294967295
20.345243 122.15916 -20.94289 4294967295
20.357269 124.23183 -21.132719 4294967295
20.361746 125.34613 -21.243687 4294967295
20.374943 126.15024 -21.279076 4294967295
20.388657 124.89208 -21.069658 4294967295
20.391615 127.2746 -21.336544 4294967295
20.397093 120.96117 -21.305466 4294967295
20.409576 122.08132 -21.381254 4294967295
20.426731 126.82773 -21.126585 4294967295
20.429995 121.14571 -21.179844 4294967295
20.432301 126.51493 -21.06484 4294967295
20.438797 124.00796 -21.476889 4294967295
20.446814 120.68295 -21.050133 4294967295
20.449778 123.85822 -21.41013 4294967295
20.452951 121.32249 -21.097837 4294967295
20.453798 122.75107 -21.261984 4294967295
20.461336 121.80513 -21.117031 4294967295
20.467978 123.397 -21.274422 4294967295
20.468174 125.61781 -21.53458 4294967295
20.471363 124.51016 -21.390108 4294967295
20.477669 123.24614 -21.213295 4294967295
20.487709 122.46082 -21.076029 4294967295
20.500532 126.43744 -21.486027 4294967295
20.518335 125.18297 -21.258869 4294967295
20.519243 124.7077 -21.198946 4294967295
20.527546 126.93564 -21.423632 4294967295
20.550541 123.1459 -20.875227 4294967295
20.588615 125.87526 -21.025566 4294967295
20.613672 122.59059 -21.262587 4294967295
20.661562 122.78748 -21.071547 4294967295
20.664862 125.64618 -21.39266 4294967295
20.668989 124.22163 -21.206831 4294967295
20.673025 122.00303 -20.928106 4294967295
20.677429 127.24282 -21.524033 4294967295
20.683411 126.93053 -21.460594 4294967295
20.683773 125.97898 -21.347179 4294967295
20.68503 124.86935 -21.211193 4294967295
20.703964 126.78889 -21.35203 4294967295
20.704895 122.98083 -20.900463 4294967295
20.70558 125.52084 -21.195833 4294967295
20.708984 127.11035 -21.367348 4294967295
20.711321 124.5733 -21.05883 4294967295
20.718733 120.4831 -21.279392 4294967295
20.739906 124.75523 -20.952366 4294967295
20.742758 126.50354 -21.145014 4294967295
20.743301 122.24741 -21.376877 4294967295
20.757103 121.62378 -21.241978 4294967295
20.767237 123.85278 -21.458498 4294967295
20.77095 120.68262 -21.069567 4294967295
20.792957 122.44553 -21.178333 4294967295
20.796801 123.08329 -21.236067 4294967295
20.797678 121.33842 -21.027203 4294967295
20.802544 120.3899 -20.894056 4294967295
20.810183 125.47385 -21.457037 4294967295
20.813589 123.41409 -21.199923 4294967295
20.813824 122.93822 -21.142981 4294967295
20.821047 126.27588 -21.502691 4294967295
20.822218 125.64231 -21.423058 4294967295
20.828222 122.6323 -21.042738 4294967295
20.836826 121.84549 -20.911888 4294967295
20.837711 125.02032 -21.280804 4294967295
20.83922 126.76674 -21.479151 4294967295
20.868431 123.77555 -20.997391 4294967295
20.905298 121.93 -21.349514 4294967295
20.907547 125.87083 -21.068726 4294967295
20.93894 127.00781 -21.06201 4294967295
20.946716 121.1693 -21.075399 4294967295
20.992638 123.90369 -21.19153 4294967295
20.994013 122.47639 -21.017826 4294967295
20.995735 122.63648 -21.028938 4294967295
21.000797 120.73547 -20.783161 4294967295
21.006271 126.13625 -21.392767 4294967295
21.006601 124.54974 -21.205061 4294967295
21.01446 121.06373 -20.760746 4294967295
21.015846 124.87462 -21.201956 4294967295
21.017471 121.85998 -20.840797 4294967295
21.018433 123.28952 -21.004335 4294967295
21.022369 127.10146 -21.434238 4294967295
21.03787 125.20993 -21.143049 4294967295
21.046158 125.3754 -21.125488 4294967295
21.04788 125.05934 -21.080708 4294967295
21.064121 121.13408 -21.280216 4294967295
21.070004 126.50597 -21.151808 4294967295
21.076269 126.03492 -21.068562 4294967295
21.085581 125.88379 -21.00927 4294967295
21.088474 121.47055 -21.21117 4294967295
21.098644 124.49306 -21.520535 4294967295
21.102505 122.11635 -21.22443 4294967295
21.102751 120.84697 -21.074364 4294967295
21.107435 121.80286 -21.165668 4294967295
21.107752 123.23122 -21.331875 4294967295
21.109772 126.85621 -21.01548 4294967295
21.111921 123.39323 -21.332306 4294967295
21.125521 124.0388 -21.34745 4294967295
21.129501 125.78715 -21.534857 4294967295
21.134296 122.61765 -21.141573 4294967295
21.13632 122.77795 -21.151367 4294967295
21.138882 121.98641 -21.047066 4294967295
21.15641 123.74625 -21.175463 4294967295
21.159945 126.60529 -21.495176 4294967295
21.174149 123.12555 -21.023569 4294967295
21.181822 123.92538 -21.083225 4294967295
21.195518 124.25387 -21.060734 4294967295
21.203573 125.68895 -21.193224 4294967295
21.206038 124.89732 -21.089354 4294967295
21.221806 124.43382 -20.964699 4294967295
21.223717 122.40119 -21.449581 4294967295
21.250069 126.83817 -21.120857 4294967295
21.279911 120.38235 -20.962608 4294967295
21.285057 125.30592 -21.517227 4294967295
21.291056 121.34351 -21.025755 4294967295
21.308994 121.19883 -20.928926 4294967295
21.333138 123.28167 -21.065783 4294967295
21.337116 124.87211 -21.234613 4294967295
21.343935 125.98856 -21.335205 4294967295
21.346514 125.03844 -21.212292 4294967295
21.352728 126.78921 -21.389961 4294967295
21.353661 123.61557 -21.013588 4294967295
21.363367 127.11535 -21.38085 4294967295
21.370249 126.48621 -21.276436 4294967295
21.381914 125.86086 -21.151167 4294967295
21.38294 124.59167 -20.99774 4294967295
21.386457 123.48303 -20.852047 4294967295
21.392033 125.55161 -21.069859 4294967295
21.40027 120.9845 -21.228745 4294967295
21.417311 120.68039 -21.117325 4294967295
21.430891 120.53224 -21.03957 4294967295
21.431686 124.18285 -21.464071 4294967295
21.433321 123.54951 -21.382553 4294967295
21.44768 122.76752 -21.227024 4294967295
21.455793 123.88486 -21.321947 4294967295
21.467297 125.32225 -21.439318 4294967295
21.47481 124.37622 -21.295004 4294967295
21.479834 121.68178 -20.956747 4294967295
21.480627 124.06349 -21.232473 4294967295
21.483587 122.95477 -21.089321 4294967295
21.4842 122.32026 -21.012201 4294967295
21.498255 126.6169 -21.453451 4294967295
21.499739 121.22105 -20.814219 4294967295
21.50778 121.54495 -20.816448 4294967295
21.524858 122.0348 -20.797955 4294967295
21.53804 122.20401 -20.759182 4294967295
21.570045 126.19954 -21.08532 4294967295
21.570694 125.72375 -21.026665 4294967295
21.58876 122.11594 -21.253901 4294967295
21.593529 126.37753 -21.001774 4294967295
21.597076 121.3289 -21.124725 4294967295
21.626343 122.46307 -21.127676 4294967295
21.648479 123.27433 -21.124441 4294967295
21.654955 125.18423 -21.319508 4294967295
21.656292 126.45487 -21.462467 4294967295
21.656551 123.43951 -21.107954 4294967295
21.66474 121.85828 -20.886271 4294967295
21.668606 124.56036 -21.18578 4294967295
21.674891 123.77167 -21.065434 4294967295
21.675018 125.83537 -21.306711 4294967295
21.685099 125.52612 -21.225704 4294967295
21.703125 122.36496 -20.775185 4294967295
21.707079 126.17897 -21.204592 4294967295
21.707289 123.95637 -20.943197 4294967295
21.709749 126.97485 -21.285992 4294967295
21.713312 122.69067 -20.768116 4294967295
21.715975 125.39242 -21.072912 4294967295
21.717035 126.66335 -21.217134 4294967295
21.728151 124.44952 -20.908342 4294967295
21.740841 120.83823 -21.158516 4294967295
21.761618 121.80683 -21.179834 4294967295
21.762564 126.38307 -20.9821 4294967295
21.766533 121.17574 -21.084095 4294967295
21.775078 120.38859 -20.953962 4294967295
21.794024 125.48289 -21.466717 4294967295
21.79565 124.05592 -21.292341 4294967295
21.807194 120.7311 -20.851627 4294967295
21.811872 121.36995 -20.90572 4294967295
21.822042 123.12453 -21.066162 4294967295
21.822548 122.48985 -20.989569 4294967295
21.828392 124.87586 -21.243155 4294967295
21.832508 121.06844 -20.778856 4294967295
21.83453 122.02291 -20.881714 4294967295
21.852848 122.67259 -20.87657 4294967295
21.855425 121.56285 -20.735123 4294967295
21.861586 126.33144 -21.266405 4294967295
21.903282 120.99703 -21.185526 4294967295
21.917742 126.85368 -21.078476 4294967295
21.929962 125.75198 -20.89522 4294967295
21.953852 123.89397 -21.300703 4294967295
21.955732 122.78433 -21.162437 4294967295
21.961208 125.64565 -21.473213 4294967295
21.966555 125.96738 -21.487194 4294967295
21.98317 126.1396 -21.433735 4294967295
21.985083 125.34759 -21.332529 4294967295
21.985954 121.8555 -20.91976 4294967295
21.98702 126.61884 -21.472786 4294967295
21.987772 123.44479 -21.097813 4294967295
21.99032 124.71688 -21.235476 4294967295
21.993681 123.76704 -21.109365 4294967295
21.994041 125.03736 -21.25651 4294967295
21.994791 122.97403 -21.011583 4294967295
22.002472 121.55081 -20.810888 4294967295
22.003534 122.18693 -20.880674 4294967295
22.00746 122.66646 -20.919439 4294967295
22.018892 126.32744 -21.297453 4294967295
22.051275 120.98586 -21.256622 4294967295
22.054743 122.09954 -21.371634 4294967295
22.065115 120.36167 -21.122295 4294967295
22.072281 127.16494 -21.158953 4294967295
22.075003 121.95674 -21.265257 4294967295
22.079554 125.90049 -20.978687 4294967295
22.085073 127.01665 -21.084908 4294967295
22.086575 126.54147 -21.022621 4294967295
22.097366 123.24417 -21.31698 4294967295
22.100544 122.92924 -21.266054 4294967295
22.105371 123.56797 -21.319448 4294967295
22.110786 121.19096 -21.017244 4294967295
22.114929 126.8823 -20.936895 4294967295
22.116926 120.56056 -20.916279 4294967295
22.139854 125.97643 -21.448729 4294967295
22.148535 120.74389 -20.79785 4294967295
22.172735 124.41553 -21.120523 4294967295
22.176771 122.51311 -20.87999 4294967295
22.180693 125.6921 -21.234715 4294967295
22.185804 121.40828 -20.710686 4294967295
22.19169 124.27192 -21.019825 4294967295
22.202976 121.29502 -21.348698 4294967295
22.20949 124.12734 -20.924131 4294967295
22.223076 126.67922 -21.162664 4294967295
22.225332 121.47118 -21.270489 4294967295
22.235023 124.6243 -20.869291 4294967295
22.263288 125.91788 -20.895599 4294967295
22.278646 123.8942 -21.318306 4294967295
22.287346 126.2819 -21.559181 4294967295
22.314169 126.93858 -21.517431 4294967295
22.315651 124.24124 -21.195332 4294967295
22.331715 124.57165 -21.162977 4294967295
22.3389 126.4826 -21.354773 4294967295
22.339144 125.21273 -21.20513 4294967295
22.340155 124.73721 -21.145031 4294967295
22.349695 124.10966 -21.029438 4294967295
22.35095 123.79303 -20.986849 4294967295
22.351833 125.38174 -21.16881 4294967295
22.35891 125.70502 -21.175352 4294967295
22.363512 123.16767 -20.858156 4294967295
22.363562 123.4854 -20.895109 4294967295
22.365574 126.82188 -21.276541 4294967295
22.367575 124.44158 -20.989237 4294967295
22.368628 121.13889 -21.324675 4294967295
22.383467 125.08963 -20.994799 4294967295
22.395407 120.36591 -21.11602 4294967295
22.395426 121.31847 -21.227352 4294967295
22.395638 126.21122 -21.072206 4294967295
22.408421 125.90394 -20.979755 4294967295
22.41371 127.17885 -21.105518 4294967295
22.41481 120.69846 -21.069246 4294967295
22.439142 121.6701 -21.075451 4294967295
22.441774 121.51336 -21.0455 4294967295
22.442337 126.72575 -20.925962 4294967295
22.442532 122.7842 -21.190788 4294967295
22.4603 122.00423 -21.021111 4294967295
22.460442 122.32195 -21.057644 4294967295
22.46319 123.11806 -21.138617 4294967295
22.537369 122.54124 -20.743624 4294967295
22.537489 126.19463 -21.170332 4294967295
22.538176 125.40114 -21.074516 4294967295
22.556244 127.0039 -21.182154 4294967295
22.624809 126.29256 -21.522184 4294967295
22.636953 123.28588 -21.117165 4294967295
22.637045 122.3331 -21.005379 4294967295
22.637447 122.65105 -21.040771 4294967295
22.639334 122.17606 -20.976931 4294967295
22.640032 124.71739 -21.270927 4294967295
22.650253 121.07267 -20.79977 4294967295
22.651161 124.24994 -21.167202 4294967295
22.65283 126.47406 -21.419815 4294967295
22.656311 123.77763 -21.089275 4294967295
22.657009 121.87222 -20.863445 4294967295
22.664673 123.14898 -20.978907 4294967295
22.671539 127.12431 -21.413311 4294967295
22.680206 125.3848 -21.171764 4294967295
22.680826 124.43243 -21.057705 4294967295
22.699018 125.8764 -21.146254 4294967295
22.700172 124.60672 -20.99275 4294967295
22.704004 120.3534 -21.203665 4294967295
22.705782 126.67592 -21.209877 4294967295
22.715628 121.15619 -21.246279 4294967295
22.716158 125.57259 -21.035154 4294967295
22.717148 121.63364 -21.295374 4294967295
22.718513 122.11094 -21.34514 4294967295
22.724279 125.73798 -21.018669 4294967295
22.732149 124.15565 -20.798998 4294967295
22.732481 126.85648 -21.11323 4294967295
22.738022 126.0668 -20.996489 4294967295
22.740364 120.69901 -21.083879 4294967295
22.750589 122.61234 -21.262428 4294967295
22.751944 126.23693 -20.954981 4294967295
22.780773 127.05474 -20.923424 4294967295
22.791958 124.55033 -21.306641 4294967295
22.794695 123.12343 -21.127851 4294967295
22.794884 125.02897 -21.349682 4294967295
22.799961 123.92159 -21.197918 4294967295
22.807158 125.9914 -21.40806 4294967295
22.856684 121.90125 -20.711954 4294967295
22.923813 124.9735 -20.775232 4294967295
22.963196 125.51011 -21.388947 4294967295
22.964806 126.46394 -21.493258 4294967295
22.96619 124.40105 -21.246243 4294967295
22.966333 121.06576 -20.856026 4294967295
22.966839 123.28994 -21.113607 4294967295
22.969967 125.67432 -21.378334 4294967295
22.975037 122.81992 -21.022633 4294967295
22.979391 122.50565 -20.966766 4294967295
22.979708 124.09421 -21.150921 4294967295
22.985184 121.55699 -20.830467 4294967295
22.991262 126.00906 -21.323719 4294967295
23.030516 124.77004 -21.006294 4294967295
23.032732 125.08952 -21.03385 4294967295
23.032852 120.99156 -21.278152 4294967295
23.034174 120.67504 -21.23538 4294967295
23.035479 126.83891 -21.226078 4294967295
23.043171 125.25675 -21.007448 4294967295
23.047827 123.83056 -20.820391 4294967295
23.048918 126.21449 -21.094015 4294967295
23.058973 122.12324 -21.295481 4294967295
23.059544 123.04526 -20.677107 4294967295
23.069437 126.70768 -21.061331 4294967295
23.072361 127.02777 -21.085848 4294967295
23.078686 122.45621 -21.247723 4294967295
23.111544 127.21858 -20.935719 4294967295
23.112669 120.41781 -20.860344 4294967295
23.124836 121.6981 -20.956366 4294967295
23.131002 124.72063 -21.282152 4294967295
23.132666 125.19833 -21.330614 4294967295
23.134052 123.77021 -21.157793 4294967295
23.13419 120.59324 -20.786243 4294967295
23.139784 126.79179 -21.48535 4294967295
23.15181 123.14889 -21.0072 4294967295
23.155592 121.24533 -20.768324 4294967295
23.166227 126.4957 -21.334566 4294967295
23.168579 123.9564 -21.027781 4294967295
23.171089 124.59379 -21.09116 4294967295
23.207193 127.0054 -21.214018 4294967295
23.230404 124.16433 -20.780327 4294967295
23.264391 121.99797 -21.101028 4294967295
23.26549 122.79293 -21.188986 4294967295
23.289696 120.7467 -20.843895 4294967295
23.297148 122.34119 -20.99728 4294967295
23.301001 124.40911 -21.221703 4294967295
23.302368 125.36304 -21.327017 4294967295
23.302572 121.07441 -20.825613 4294967295
23.30817 123.30296 -21.06114 4294967295
23.311798 126.9585 -21.471798 4294967295
23.316267 126.327 -21.378485 4294967295
23.318243 124.74049 -21.184679 4294967295
23.320507 121.24716 -20.767042 4294967295
23.323032 123.79124 -21.052874 4294967295
23.327127 120.93445 -20.701477 4294967295
23.327864 122.68296 -20.902319 4294967295
23.333622 124.2762 -21.062984 4294967295
23.339279 127.13964 -21.372288 4294967295
23.342617 121.58212 -20.709076 4294967295
23.344347 123.17255 -20.887094 4294967295
23.361929 125.25194 -21.05258 4294967295
23.372913 125.10185 -20.986839 4294967295
23.377529 124.62887 -20.911379 4294967295
23.382252 123.04343 -20.705627 4294967295
23.384672 120.85356 -21.161493 4294967295
23.389456 124.00269 -20.785948 4294967295
23.3916 125.75237 -20.980722 4294967295
23.391838 120.54143 -21.093657 4294967295
23.397026 125.91563 -20.97595 4294967295
23.405422 122.14012 -21.2206 4294967295
23.420467 123.10472 -21.26716 4294967295
23.430798 126.26067 -20.86795 4294967295
23.454571 121.38404 -20.916876 4294967295
23.454647 125.19621 -21.361258 4294967295
23.459867 126.31191 -21.468504 4294967295
23.461676 121.70731 -20.923431 4294967295
23.465227 126.76532 -20.775694 4294967295
23.489859 122.04698 -20.839479 4294967295
23.511852 126.19505 -21.226923 4294967295
23.536772 124.1496 -20.879049 4294967295
23.537439 126.69227 -21.172714 4294967295
23.573877 121.66833 -21.148279 4294967295
23.574591 124.49745 -20.753796 4294967295
23.575592 126.56425 -20.99048 4294967295
23.627468 121.86873 -20.936924 4294967295
23.630634 122.34785 -20.978926 4294967295
23.634367 121.07957 -20.814676 4294967295
23.635319 123.30475 -21.069992 4294967295
23.645205 124.42455 -21.157274 4294967295
23.671682 124.28668 -21.025221 4294967295
23.677385 122.70213 -20.815472 4294967295
23.679108 123.02132 -20.845146 4294967295
23.681005 124.77073 -21.040831 4294967295
23.693766 123.66852 -20.856419 4294967295
23.695837 125.57698 -21.069872 4294967295
23.699722 127.16879 -21.238453 4294967295
23.69997 122.2429 -20.663002 4294967295
23.700825 126.2165 -21.122593 4294967295
23.703743 126.69547 -21.165659 4294967295
23.709589 123.20415 -20.73296 4294967295
23.718208 120.38362 -21.086893 4294967295
23.723852 125.12267 -20.894196 4294967295
23.725271 123.85229 -20.739849 4294967295
23.733143 125.92471 -20.947016 4294967295
23.734436 124.17744 -20.737629 4294967295
23.734798 127.03838 -21.069614 4294967295
23.736017 126.40376 -20.990284 4294967295
23.747919 122.15382 -21.163265 4294967295
23.750708 121.36172 -21.058733 4294967295
23.762674 122.48299 -21.137083 4294967295
23.773277 125.79798 -20.756456 4294967295
23.781267 126.59921 -20.814878 4294967295
23.799374 125.52988 -21.331654 4294967295
23.81068 126.33306 -21.375801 4294967295
23.813089 120.93304 -20.735844 4294967295
23.823799 124.91399 -21.153015 4294967295
23.846415 121.91245 -20.704214 4294967295
23.860054 123.98935 -20.886627 4294967295
23.875751 120.53866 -21.135529 4294967295
23.876999 125.75089 -21.017803 4294967295
23.88739 122.73917 -20.621313 4294967295
23.92252 124.6746 -20.693209 4294967295
23.95326 120.7569 -20.822245 4294967295
23.956013 121.23578 -20.86602 4294967295
23.958969 127.08843 -20.815069 4294967295
23.960026 122.82793 -21.033993 4294967295
23.965195 121.87853 -20.900787 4294967295
23.968079 120.9272 -20.77733 4294967295
23.96814 122.03973 -20.906696 4294967295
23.970865 122.35967 -20.932072 4294967295
23.987738 121.5781 -20.767265 4294967295
23.991306 123.48801 -20.974205 4294967295
23.995388 123.17338 -20.919716 4294967295
24.001524 124.44948 -21.041578 4294967295
24.011354 125.25176 -21.092091 4294967295
24.021858 127.00786 -21.250765 4294967295
24.02265 124.78404 -20.988237 4294967295
24.0424 124.16394 -20.829681 4294967295
24.058744 124.01788 -20.74124 4294967295
24.061155 126.72183 -21.045719 4294967295
24.068693 124.97955 -20.809809 4294967295
24.069351 123.86725 -20.677341 4294967295
24.070063 120.40406 -20.989916 4294967295
24.086468 125.9475 -20.844902 4294967295
24.093355 125.79405 -20.796921 4294967295
24.09539 123.12449 -21.196209 4294967295
24.113338 126.44599 -20.785545 4294967295
24.120207 121.39594 -20.88656 4294967295
24.141937 124.90867 -21.200823 4294967295
24.144205 125.86365 -21.302132 4294967295
24.164639 126.19775 -21.251846 4294967295
24.177223 122.71162 -20.79093 4294967295
24.183712 121.28584 -20.596544 4294967295
24.184137 122.55804 -20.742861 4294967295
24.216505 120.86838 -21.123117 4294967295
24.243122 126.4197 -20.935112 4294967295
24.252005 124.51907 -20.675009 4294967295
24.277794 120.59743 -20.824347 4294967295
24.282566 122.34928 -21.007505 4294967295
24.290104 123.62636 -21.123308 4294967295
24.293661 122.83464 -21.015635 4294967295
24.301374 121.09232 -20.779161 4294967295
24.30378 123.31927 -21.027935 4294967295
24.311836 121.41828 -20.771496 4294967295
24.313398 126.66338 -21.375278 4294967295
24.319572 120.47034 -20.627399 4294967295
24.326492 121.90646 -20.764435 4294967295
24.33387 124.13748 -20.991989 4294967295
24.3424 124.62099 -21.011091 4294967295
24.344053 125.41689 -21.096527 4294967295
24.347698 127.00876 -21.26593 4294967295
24.34901 123.83151 -20.89036 4294967295
24.349241 122.08303 -20.685799 4294967295
24.350071 124.30918 -20.941343 4294967295
24.358185 123.04388 -20.758665 4294967295
24.360584 122.56879 -20.6929 4294967295
24.382881 126.0836 -21.004845 4294967295
24.384304 126.40261 -21.035774 4294967295
24.388046 121.51077 -21.167578 4294967295
24.39152 121.19568 -21.115784 4294967295
