# .PCD v0.7 - Point Cloud Data file format
VERSION 0.7
FIELDS x y z
SIZE 4 4 4
TYPE F F F
COUNT 1 1 1
WIDTH 1558
HEIGHT 1
VIEWPOINT 0 0 0 1 0 0 0
POINTS 1558
DATA ascii
235.0787 123.07792 29.522234
237.08038 123.07032 29.291317
238.9881 123.13725 29.294155
241.00803 122.7599 29.717176
242.98901 122.96744 29.506712
244.93423 123.09515 29.350449
246.9942 123.15921 29.025524
248.96281 123.08318 28.781904
250.89828 122.96566 28.490816
252.8125 123.20759 28.339895
254.08054 123.67114 28.101315
233.42654 124.44093 29.906818
234.98883 124.32086 29.911985
237.24782 124.78227 29.772869
239.14598 124.93708 29.731895
240.73135 125.10115 29.701525
242.8524 124.88888 29.857998
245.01817 124.62199 29.764414
247.05382 124.95258 29.590965
248.97398 125.03519 29.41703
251.03419 125.05956 29.126499
252.96309 124.903 28.456545
254.59109 125.26835 28.125931
256.45135 125.28382 28.173645
258.03125 125.71658 28.039623
237.84427 126.24335 29.95731
241.35283 126.40752 29.830631
242.89279 126.75223 29.753244
244.97797 127.32037 29.827852
247.09317 127.17323 29.777012
249.07608 127.10114 29.535439
251.11536 127.07069 29.137739
253.06155 126.92131 28.704851
255.01648 127.07787 28.572172
257.02362 127.15957 28.404879
258.93674 127.38677 28.283554
261.17786 127.61792 28.027969
245.96446 128.22711 29.971436
247.23717 128.37553 29.882601
249.0387 128.79311 29.764055
251.07187 128.85347 29.581192
253.12096 129.01649 29.464624
254.95143 129.08273 29.244926
256.9274 129.10612 29.074125
259.00165 128.9332 28.693451
260.95804 129.03444 28.553238
262.9906 129.10095 28.272003
264.78275 129.40239 28.11725
266.46548 129.32695 28.15097
268.5336 129.70404 28.218121
251.11638 130.29041 29.782753
253.2748 130.45415 29.874969
255.2027 130.80196 29.72595
257.08185 130.98087 29.614126
258.92947 131.00171 29.411585
260.98978 131.00853 29.097189
262.95923 130.99321 28.878653
264.88489 130.94286 28.585653
267.05399 130.98143 28.441229
269.01971 131.09566 28.292738
270.79306 131.18759 28.223434
272.90503 131.64229 28.150543
274.74481 131.74788 28.076777
257.58026 132.61275 29.882692
259.14008 132.64857 29.685577
261.16196 132.83932 29.612562
262.88699 133.02853 29.548262
264.88007 132.99393 29.347862
266.89484 132.9799 29.112524
268.85312 133.02632 28.879961
270.87228 132.94965 28.718176
272.88138 133.0051 28.47262
274.83044 133.1263 28.27759
276.78024 133.41861 28.156406
278.15793 133.34782 28.157818
261.77222 134.30402 29.839014
263.04391 134.40755 29.853632
265.05112 134.7719 29.740061
266.97424 135.09181 29.733828
268.96719 135.06078 29.602663
270.91791 135.03773 29.361723
272.91513 135.00146 29.144123
274.90607 135.01506 28.878534
276.89963 134.97615 28.65007
278.24677 135.07442 28.461422
267.43604 136.29294 29.930975
268.99585 136.56168 29.90283
271.11185 136.67061 29.762688
273.01041 137.00948 29.742512
274.92352 137.0854 29.476028
276.94641 137.00406 29.23827
278.35089 137.14198 28.907621
275.14252 138.55394 29.856506
277.21011 138.77019 29.82036
278.43515 138.65428 29.167124
277.67758 140.31267 29.981899
117.7132 85.397064 30.237522
118.9431 85.251007 30.169897
121.03458 85.288597 30.073038
123.07294 85.826889 30.257057
117.58634 87.056976 30.635031
119.02415 86.962791 30.62203
120.95895 87.042542 30.477514
122.98713 87.065399 30.324085
124.92988 87.322784 30.190474
126.891 87.306541 30.130045
128.66377 87.675537 30.086601
117.43421 89.034996 31.33489
119.07793 89.062675 31.220175
121.07734 89.050079 31.041281
123.07172 89.002327 30.830738
125.0894 88.982132 30.665617
127.06384 88.984383 30.419729
128.84007 89.154984 30.424164
130.70329 89.336487 30.199018
133.00047 89.485962 30.104944
135.07471 89.693947 30.002417
117.41434 90.608955 31.798101
119.16857 90.727905 31.729628
121.09979 90.886963 31.543331
123.1311 91.007179 31.513733
125.10045 91.017181 31.361418
127.08825 91.021255 31.109747
129.05269 90.985001 30.882763
131.06714 90.956772 30.607729
132.98001 90.950722 30.370918
134.83987 90.912079 30.300056
136.73553 91.107399 30.185253
139.08923 91.677979 30.154936
119.45198 92.71315 31.875542
123.32579 92.605553 31.75951
125.41386 92.751709 31.792398
127.19538 92.942932 31.712021
129.14345 93.042374 31.520128
131.06227 92.946968 31.206322
133.10509 93.040192 31.025316
135.04758 92.975708 30.817539
137.08723 93.054314 30.546186
138.96524 93.060165 30.277504
141.00175 93.204414 30.147268
143.097 93.135147 30.147648
144.44731 93.272621 30.143967
147.5536 93.644508 30.141973
125.89676 94.258759 31.966331
129.04515 94.504997 31.783548
131.25891 94.825317 31.665916
133.1064 94.950272 31.668081
135.19099 95.013741 31.479952
137.11325 95.010635 31.236654
139.10739 94.974464 31.008801
141.05873 94.998505 30.710484
143.08987 95.036919 30.547729
145.07008 94.987366 30.333969
147.06285 95.070953 30.225697
149.12691 95.234154 30.21274
150.96982 95.426331 30.304941
152.49498 95.785713 30.192352
154.65929 95.772087 30.130941
132.97432 96.272438 31.860548
135.44122 96.495087 31.691757
137.16685 96.831589 31.644775
139.15532 97.042603 31.656565
141.18665 97.078674 31.383438
143.0549 97.053421 31.166685
145.07547 96.924454 31.04723
147.10568 97.030632 30.797827
149.11234 97.060852 30.640362
151.1046 96.955452 30.482948
153.08142 97.089745 30.267834
155.06406 97.324677 30.169043
156.76712 97.66024 30.235046
158.35316 97.703239 30.011709
137.11057 98.269302 31.957329
139.51459 98.583588 31.834721
141.22726 98.746582 31.788507
143.20122 98.829758 31.741035
145.22908 98.810699 31.591753
147.13753 99.02121 31.435434
149.11853 99.102379 31.26029
151.14249 99.006813 31.132952
153.13817 98.941002 30.901033
155.08569 98.965416 30.592268
157.15497 98.926147 30.524324
159.04639 99.056099 30.280733
160.97047 99.568314 30.284531
162.81723 99.629478 30.343149
164.83545 99.246796 30.127186
143.52571 100.27341 31.919428
145.53189 101.06892 31.952583
147.21355 100.67669 31.932232
149.14354 100.72099 31.749216
151.14188 100.85957 31.651546
152.97119 101.00163 31.543613
154.99332 101.00747 31.355661
157.07362 100.98179 31.055645
159.09052 100.99874 30.887062
161.0786 101.04576 30.691317
163.02309 100.91536 30.386396
164.9552 101.07603 30.324347
166.40022 101.15836 30.260597
168.50923 101.48 30.162464
149.54195 102.27434 31.913471
151.13681 103.08147 31.926088
153.17467 102.46982 31.786381
155.41039 102.76276 31.708313
157.01634 102.88804 31.561716
158.90785 103.07175 31.535942
160.94456 103.05437 31.394352
163.02872 102.99229 31.030607
165.09731 103.07274 30.820648
167.08559 102.89977 30.586121
168.92531 103.05495 30.42725
170.85274 103.20954 30.253315
172.86249 103.29378 30.171354
174.74274 103.48018 30.159538
177.30127 103.44946 30.147125
159.36581 104.57622 31.844666
160.94608 104.49385 31.768574
162.99582 104.83003 31.634666
165.00958 104.9764 31.54781
167.01344 104.98532 31.273243
169.02434 104.95541 31.009876
171.03783 105.01778 30.77927
172.99783 105.00282 30.516884
174.92398 105.11008 30.491142
176.86256 105.26521 30.372942
178.7345 105.23946 30.230972
180.56363 105.27345 30.173767
183.10916 105.47997 30.062794
163.59256 106.67675 31.868607
164.77893 106.56729 31.874929
166.87959 106.75241 31.819138
168.89468 107.01696 31.575197
170.94885 106.95805 31.481123
172.85504 107.05697 31.247206
174.86621 106.96633 31.068119
176.97688 107.11265 30.885889
178.95801 106.94426 30.620872
180.92303 107.02625 30.458555
182.69182 107.12617 30.392841
184.87038 107.40715 30.192169
186.49445 107.37832 30.113596
190.15779 107.67942 30.061096
169.50053 108.52355 31.92997
171.01376 108.55441 31.822811
173.07198 108.65084 31.71154
174.95448 108.9781 31.651217
176.85295 109.05859 31.546167
178.90137 108.99432 31.313643
180.90309 109.00573 31.107494
182.8766 108.97287 30.837492
184.88379 108.95655 30.648685
186.83176 108.93707 30.432737
188.92825 109.15198 30.278467
190.97829 109.31128 30.13776
192.7191 109.51189 30.086578
194.13123 109.71671 30.034939
173.64328 110.2568 31.98324
175.04642 110.46872 31.905579
176.95775 110.72707 31.825571
178.96552 110.86536 31.800264
180.92302 110.93109 31.584799
183.00313 110.91999 31.462839
184.87633 111.0307 31.213011
186.91182 110.97121 31.07144
188.86191 110.99583 30.896942
190.89049 110.87875 30.654184
192.8748 110.96725 30.41573
194.80675 111.10313 30.29384
196.73114 111.50757 30.121792
199.16635 111.51033 30.089062
179.6619 112.26714 31.953299
181.25945 112.81199 31.913818
183.00102 112.56599 31.853693
184.88295 112.67916 31.738356
187.02563 112.81833 31.706106
188.96399 113.01872 31.535664
190.97369 112.97205 31.296026
192.94016 112.97881 31.056702
194.87912 112.96259 30.762529
196.88293 113.04833 30.580172
198.81966 113.02426 30.314322
200.71013 113.3505 30.225668
202.71185 113.5625 30.174047
204.71181 113.59656 30.065308
187.33722 114.24288 31.981621
188.91171 114.29736 31.715067
191.04491 114.64739 31.861856
193.03468 115.01582 31.670692
194.99797 115.04286 31.426893
196.98972 115.09653 31.308672
198.9411 115.01656 30.934174
201.01215 115.01986 30.693588
202.90074 115.00815 30.523829
204.87273 115.06987 30.335718
206.84697 115.30914 30.287806
208.88326 115.48636 30.313725
211.04517 115.55288 30.130554
192.93912 116.27025 31.911373
195.17162 116.68398 31.820547
197.1438 116.81056 31.781837
199.00409 117.06473 31.658485
200.92604 117.06207 31.375509
202.97742 117.03796 31.227747
204.99419 117.0021 31.002899
207.00015 116.99869 30.800009
209.00272 117.05164 30.598619
210.92995 117.06511 30.38376
212.96712 117.22686 30.168653
214.60352 117.55273 30.100523
216.38298 117.60567 30.087469
199.50093 118.41521 31.878036
200.91283 118.57351 31.838312
203.03809 118.60001 31.688429
205.05341 119.03564 31.702044
207.08809 119.04224 31.558374
209.01303 119.1065 31.309261
211.0298 119.05456 30.958656
213.01108 118.86874 30.665442
215.03682 118.98104 30.50741
216.97227 118.97905 30.373621
218.96974 119.30178 30.249895
220.94295 118.89153 30.25889
222.97481 119.60596 30.086908
204.97868 120.43147 31.854959
207.22633 120.68168 31.862299
209.07298 120.88406 31.805885
211.09227 121.05676 31.651054
213.05602 120.95112 31.394697
215.06592 121.0339 31.281687
217.07936 120.96954 31.030819
219.08975 121.00988 30.798367
221.05672 120.97655 30.546522
223.0714 121.06982 30.406343
225.0291 121.28258 30.225321
227.0186 121.47997 30.093277
228.54205 121.54736 30.091694
211.81252 122.32166 31.734869
213.31404 122.49293 31.81179
215.17657 122.82873 31.739737
217.10051 122.99459 31.657007
219.12209 123.06222 31.465178
221.11728 123.05524 31.222464
223.15845 123.01306 31.022589
225.0779 122.967 30.649807
227.07654 122.93102 30.525682
229.06271 123.14085 30.351799
231.12242 123.35041 30.214865
232.33148 123.7514 30.216423
241.02901 123.34873 30.104357
242.22795 123.69587 30.050337
215.86191 124.27824 31.99786
217.47137 124.68466 31.96207
218.86385 124.56812 31.827847
221.05829 124.83317 31.722136
223.13097 125.00249 31.561287
225.08852 124.94046 31.336155
227.10857 125.02248 31.090752
229.10945 124.95223 30.843208
231.0882 124.92222 30.529457
233.03439 125.04996 30.418491
235.16483 125.07897 30.301846
236.89787 125.376 30.153198
239.0547 125.76123 30.180634
241.7169 124.75128 30.2547
243.0368 124.93174 30.240873
244.87344 125.5592 30.265301
246.39958 125.29368 30.114588
223.51578 126.29907 31.879341
225.243 126.72909 31.747917
227.12576 126.99392 31.691685
229.14783 127.01627 31.43759
231.11349 126.96475 31.278463
233.07256 126.99294 31.119913
235.08755 126.88692 30.768847
237.11018 127.02528 30.650137
239.12738 126.92571 30.40123
241.06888 127.12595 30.305687
243.18349 127.2434 30.194405
245.10651 126.71465 30.191425
246.78552 126.44603 30.214355
248.22443 126.52216 30.094633
229.3508 128.87944 31.899853
231.20227 128.77107 31.746241
233.14621 128.94893 31.546568
235.14409 128.96938 31.472353
237.13197 129.00502 31.318569
239.11519 128.99852 31.068512
241.02405 128.98094 30.885569
243.067 128.91626 30.611828
245.10402 128.94188 30.437481
246.91968 129.23782 30.289816
248.79085 129.51031 30.233181
250.74725 129.70003 30.092808
252.47928 129.8058 30.020794
233.74127 130.32339 31.901905
235.30432 130.45677 31.862772
236.92628 130.5659 31.781578
239.02826 130.79286 31.681112
240.94337 131.02264 31.600149
242.97466 130.92564 31.282743
244.98296 131.02724 31.06831
246.84178 131.01921 30.860003
248.89389 130.88512 30.648678
250.84505 131.03577 30.392157
252.83629 131.15173 30.278744
254.68205 131.40491 30.14426
256.73492 131.67784 30.218187
241.42493 132.52031 31.910191
243.23598 132.73912 31.796526
244.92419 132.88092 31.665558
246.86601 133.01727 31.548176
248.88605 132.97772 31.272692
250.89146 132.96106 30.997816
252.94023 132.91005 30.778183
254.90721 132.95467 30.600662
256.85645 133.10744 30.354776
258.99103 133.36363 30.253965
260.6059 133.49057 30.207756
262.08499 133.84303 30.028172
245.00903 134.3345 31.943281
247.4286 134.55859 31.788532
248.91493 134.61287 31.711571
251.04124 134.97874 31.633644
252.93379 134.99001 31.465839
254.8903 134.92485 31.261007
256.89706 134.88513 30.984055
258.8685 134.94537 30.673906
260.83145 135.01915 30.448486
262.90103 135.27449 30.317923
264.80716 135.44891 30.256212
266.1618 135.60089 30.278719
268.28287 135.36554 30.329754
250.84425 136.34479 31.940529
253.13142 136.3741 31.746698
255.01352 136.52283 31.678404
256.90897 136.8709 31.533245
258.96735 136.95358 31.410978
260.88284 136.95166 31.189955
262.93878 136.9173 30.824413
264.93759 136.97972 30.639137
266.86081 137.06282 30.459297
268.8829 137.19 30.289452
270.8378 137.28154 30.195694
272.71857 137.38429 30.06542
274.6026 137.85948 30.025253
256.77478 138.2991 31.827719
259.04114 138.70552 31.806211
261.06216 138.80992 31.701323
262.95142 138.90919 31.52845
264.93686 138.90761 31.290958
266.93732 138.90302 31.051067
268.9704 138.92085 30.913994
270.97964 138.95509 30.709557
272.96054 139.00833 30.426653
274.9155 139.17233 30.282358
276.75674 139.35374 30.154676
278.49432 139.6076 30.328205
263.18542 140.40244 31.763962
265.10986 140.43221 31.724754
266.96719 140.82175 31.688231
269.01587 140.91852 31.528805
270.98566 140.97731 31.394199
273.00897 140.89842 31.110596
274.99396 140.94882 30.839293
276.97672 141.01039 30.66493
278.47928 140.96307 30.675375
267.02493 142.13948 31.822348
268.85938 142.19366 31.829033
271.34024 142.6275 31.801758
273.11365 142.76573 31.73111
275.04315 142.8828 31.537783
277.03418 142.93944 31.239695
278.55457 142.95357 31.410736
272.73389 144.20941 31.864645
275.02942 144.32129 31.759922
277.13635 144.52927 31.71748
278.18304 144.86272 31.547354
277.68207 148.24544 31.083611
117.63924 89.186653 32.560936
117.58838 91.253555 32.343616
119.01736 91.485283 32.226967
121.21661 91.496422 32.124214
122.97095 91.344437 32.076061
117.55489 92.967255 32.774242
119.08681 92.97821 32.622353
121.12936 92.88018 32.507336
122.99088 93.157127 32.402668
124.95528 93.075256 32.167591
126.75647 93.57251 32.122223
117.49774 95.057434 33.404186
119.04137 94.97184 33.264656
121.03068 94.843117 33.047455
122.85043 94.99218 32.961258
124.96455 95.005943 32.725994
127.14735 94.984055 32.432652
129.15288 95.121445 32.369534
130.81567 95.270752 32.247662
133.25079 95.464348 32.037739
134.39444 95.360153 32.050392
117.41106 96.520531 33.900253
119.0757 96.653381 33.721928
121.05168 96.912224 33.644726
123.10101 96.987473 33.525703
125.04595 97.028755 33.309753
127.04613 96.982704 33.116356
129.16795 97.005539 32.82325
131.0631 96.86319 32.601143
133.04437 97.103905 32.430878
135.07295 97.146782 32.290268
137.12117 97.340225 32.279068
138.76431 97.811172 32.016663
140.42653 96.950912 32.022163
121.40077 98.34343 33.885441
123.1474 98.336143 33.825714
125.21055 98.648262 33.695049
127.04343 98.8694 33.666466
128.95287 99.011391 33.505817
130.85451 98.92907 33.344597
132.91734 98.953232 33.062649
135.02667 98.970856 32.771389
137.09163 98.940872 32.510658
138.99553 99.112701 32.306568
140.92871 99.233978 32.200577
142.92317 99.443726 32.220829
144.83107 99.478088 32.201752
127.22721 100.31458 33.98724
129.22592 100.43587 33.83276
131.15114 100.57594 33.682407
133.03882 100.6636 33.624115
134.90477 100.91216 33.492619
136.97029 100.95516 33.264126
138.94585 101.00535 32.979782
141.05232 100.9516 32.72913
143.01552 101.00859 32.540886
144.81911 100.92778 32.472889
146.7673 101.15974 32.298622
148.90506 101.31774 32.240261
150.71227 101.55395 32.189392
152.84441 101.78098 32.023968
154.06662 101.76674 32.01548
133.47075 102.89789 33.873112
135.27376 102.48817 33.698196
136.88675 102.72614 33.743263
138.99593 102.90987 33.504253
140.82137 102.96151 33.415642
142.87675 103.00175 33.243523
144.96611 102.96873 33.128109
146.91306 102.98262 32.901894
148.91245 103.02225 32.641487
151.01813 103.0602 32.451035
152.82623 103.11933 32.24873
154.68411 103.08138 32.243038
156.80534 103.48785 32.178913
159.28801 103.76235 32.07431
139.01991 104.66019 33.873589
141.08165 104.39692 33.816971
142.81171 104.92789 33.810959
144.81169 104.91177 33.636257
146.86501 104.98241 33.476261
148.92012 104.99204 33.348137
150.81892 105.1104 33.125717
152.92273 104.90118 32.861038
154.90297 105.03677 32.672104
156.90089 104.89075 32.484413
158.78816 105.04778 32.3158
160.84517 105.38988 32.237549
162.82603 105.49028 32.107147
164.5058 105.56953 32.06525
166.12553 105.7635 32.040901
145.61586 106.40297 33.653091
146.90527 106.56985 33.820557
148.82208 106.67537 33.787674
150.91084 106.87765 33.667881
152.86835 106.98669 33.546284
154.90695 107.00256 33.315891
156.89728 107.02332 33.152428
158.88521 106.9798 32.95393
160.85938 106.94124 32.697548
162.85414 106.94592 32.48217
164.91353 107.2267 32.345463
166.85037 107.29777 32.256077
168.82449 107.36258 32.147812
170.53868 107.37184 32.037758
152.91006 108.31142 33.922138
154.98045 108.4705 33.706692
157.00621 109.00784 33.724098
158.98526 109.0323 33.644081
160.95972 108.98249 33.391747
162.90282 108.96046 33.118778
164.86162 108.96581 32.865379
166.90971 108.96316 32.750973
168.79834 109.03136 32.395615
170.83344 109.17285 32.27177
172.74911 109.4296 32.282028
174.66679 109.32196 32.063778
177.7937 109.75349 32.116676
179.81898 109.75761 32.012562
157.28178 110.35609 33.83831
159.41414 110.73182 33.885963
161.06995 110.63625 33.750309
163.0649 110.90078 33.716034
165.0065 110.94855 33.518692
167.00909 110.88264 33.30986
168.94873 110.99111 33.153843
170.86931 110.99002 32.78688
172.8586 111.00143 32.625267
174.88884 111.02647 32.341934
176.87987 111.14232 32.258266
178.82741 111.31879 32.25153
180.73772 111.45119 32.156822
182.62198 111.50911 32.165974
163.30661 112.54628 33.904469
165.34369 112.49028 33.870049
166.96065 112.67902 33.695488
168.96515 112.97843 33.633839
170.9558 112.98802 33.477676
172.98035 113.00738 33.320572
174.93486 113.02583 33.039364
176.93297 112.9492 32.943253
178.91415 112.9907 32.673492
180.89981 112.98999 32.426003
182.94174 113.17685 32.409473
185.00562 113.42209 32.175663
186.88026 113.41808 32.152531
189.42865 113.78963 32.034126
167.70612 114.35799 33.910091
169.7404 114.34628 33.867355
171.00125 114.52722 33.801651
173.02892 114.74403 33.694183
175.16055 114.93979 33.657272
177.04553 115.04893 33.571957
178.98337 115.00549 33.340054
180.98767 115.01628 33.084412
182.96323 114.92601 32.878666
184.96329 114.95918 32.672421
186.96667 115.00272 32.557114
188.98889 115.18172 32.27066
190.94257 115.36213 32.170036
192.48116 115.53625 32.090858
177.27496 116.6516 33.832809
179.30258 116.78767 33.746807
181.0208 117.01147 33.64922
183.05222 116.94047 33.439163
185.04883 116.96603 33.355976
187.04826 116.92138 33.120384
189.03508 116.93595 32.854263
190.97997 116.97879 32.614853
193.00635 117.00576 32.381721
194.90977 117.19379 32.342094
196.78897 117.40193 32.164684
198.62645 117.82362 32.061623
181.15384 118.77081 33.871914
182.85695 118.36984 33.756054
185.21808 118.70053 33.713421
187.17867 118.8036 33.588123
189.07712 118.96964 33.496899
191.06339 119.00783 33.359749
192.99982 118.92711 32.987141
195.03264 118.91524 32.770306
197.01926 118.96355 32.508766
198.93446 119.09695 32.283596
201.09175 119.40551 32.239262
203.03201 119.47089 32.154961
204.97441 119.40128 32.099258
206.33554 119.3985 32.055252
185.73947 120.02074 33.651367
189.24425 120.54538 33.873348
191.05281 120.66352 33.745693
193.20808 120.83838 33.651047
195.09987 120.89725 33.44035
197.0509 120.97462 33.225487
199.06277 120.88788 32.970764
201.05338 120.93217 32.72435
203.05763 120.96331 32.52718
205.07973 121.06513 32.417675
207.03418 121.11717 32.282169
209.04744 121.52144 32.191399
210.71692 121.62273 32.077881
193.44208 122.35898 33.883804
195.33998 122.42358 33.826702
197.29214 122.67065 33.701473
199.09058 122.82607 33.52486
201.04301 122.95631 33.393414
203.1006 122.94329 33.159721
205.05455 122.90332 32.993942
207.09947 122.92625 32.766258
209.11574 123.00629 32.564613
211.07527 123.0214 32.380203
212.98529 123.30203 32.217308
214.9408 123.52251 32.114964
217.15752 123.8278 32.092377
218.36949 123.83932 32.001785
199.4429 124.77901 33.873474
201.28813 124.50306 33.71072
203.17174 124.58912 33.722813
205.07626 124.8587 33.598991
207.12047 124.89723 33.434769
209.04332 124.97573 33.283916
211.06181 124.91912 32.958065
213.07722 124.97225 32.735619
215.07004 124.9639 32.569836
217.06841 125.05389 32.412842
219.29559 125.30321 32.296494
221.18956 125.69376 32.255669
222.71194 125.52327 32.116329
205.08223 126.76899 33.945496
207.10988 126.44746 33.746021
209.20549 126.68106 33.68996
211.21147 126.8389 33.587509
213.08302 126.86235 33.356956
215.02174 126.99591 33.265915
217.12422 126.91505 32.932434
219.00484 126.89594 32.727451
221.02673 127.00134 32.630894
223.12386 127.04658 32.466793
224.95468 127.48723 32.182209
226.97824 127.65901 32.082069
228.21378 127.65167 32.065926
211.94823 128.37274 33.873791
212.90643 128.36517 33.688591
215.1563 128.68071 33.627728
217.08342 128.95689 33.533772
219.14198 128.9696 33.369251
220.97797 129.03194 33.117546
223.08162 128.94244 32.852924
225.15254 128.98381 32.683323
227.06627 128.99013 32.45393
228.87128 129.13811 32.301388
230.79353 129.26363 32.239052
232.57162 129.54874 32.073254
234.04665 129.85617 32.110023
217.18591 130.48637 33.746811
219.19978 130.46442 33.818665
221.23825 130.72743 33.626286
223.00314 130.81392 33.52832
224.91342 130.93221 33.408081
226.9416 131.03821 33.122234
229.0074 130.98265 32.977173
230.98703 130.97418 32.56216
232.93016 131.07997 32.422981
234.87611 131.19791 32.28664
236.83446 131.43619 32.28614
238.58786 131.46791 32.098259
240.06563 131.8837 32.032387
223.10188 132.24846 33.794411
225.26704 132.78 33.76202
227.01059 132.69447 33.667709
228.99242 132.81653 33.558216
230.90381 132.87274 33.26363
232.89296 132.90207 33.086384
234.87813 132.97246 32.86816
236.86629 132.97707 32.713451
238.90334 133.05321 32.464767
240.8517 133.06863 32.284431
242.67163 133.31001 32.241474
244.85518 133.66594 32.15604
246.53729 133.87961 32.068352
229.44496 134.36282 33.77702
230.9258 134.52036 33.712109
232.88681 134.76984 33.615566
234.89948 134.96909 33.562428
236.88387 135.05415 33.348763
238.90138 134.91403 33.13512
240.90312 134.95134 32.917183
242.90054 134.99225 32.684902
244.8884 135.09377 32.497196
246.85699 135.09946 32.346706
248.90808 135.412 32.214176
250.45459 135.48398 32.109932
233.21094 136.80319 33.999634
235.65996 136.42514 33.786797
237.1035 136.6075 33.758915
238.98187 136.73283 33.72121
241.00075 136.85109 33.484035
242.91415 136.90685 33.26413
244.92085 136.94072 33.060654
246.92183 136.97894 32.839283
248.93416 137.00905 32.651196
250.92052 137.12534 32.403431
252.91429 137.11359 32.314796
254.88078 137.48732 32.185623
257.00345 137.75906 32.12838
237.65532 138.00644 33.978775
239.71193 138.00143 33.935493
240.83855 138.34914 33.877766
242.90703 138.45688 33.76405
245.06044 138.74309 33.713192
246.95049 138.88202 33.465309
248.93956 138.95049 33.316231
250.97717 138.94112 33.095081
252.96342 138.99057 32.828087
254.9657 139.02853 32.608326
256.97723 139.20657 32.456497
258.78104 139.2795 32.193775
260.73563 139.74873 32.119499
262.84216 139.9005 32.157143
243.6436 140.05315 33.817535
244.27081 140.23677 33.888752
247.14301 140.24274 33.87352
249.07405 140.63911 33.728035
251.00417 140.82936 33.712296
253.00877 140.88168 33.504505
254.97635 140.96623 33.289146
256.98654 140.97668 32.98621
258.94897 141.0425 32.650501
260.98425 141.05782 32.525463
262.91809 141.192 32.295734
264.88904 141.36903 32.217255
266.80365 141.36392 32.100784
268.65796 141.9299 32.08313
250.95349 142.03537 33.890068
253.25531 142.48224 33.860546
255.2074 142.78963 33.739403
257.02097 142.80089 33.550846
259.01431 142.91969 33.384731
261.00961 142.96283 33.144039
263.0181 142.99704 32.940948
265.00378 143.04669 32.672661
267.04282 143.11571 32.465939
269.04745 143.16502 32.356743
270.81799 143.42668 32.168682
272.97681 143.53291 32.120918
257.58621 144.25665 33.842381
259.26273 144.48376 33.846855
261.13776 144.66776 33.738026
263.02695 144.91275 33.513111
265.01187 144.90802 33.331936
266.99945 145.0092 33.124214
269.03317 145.02901 32.847416
271.06158 145.0509 32.697258
273.05585 145.11607 32.508785
275.03555 145.24588 32.252533
276.94269 145.53879 32.199505
278.77689 145.21751 32.356457
261.77444 146.07674 33.826191
263.04953 146.2289 33.798004
265.186 146.54849 33.737686
267.02106 146.82338 33.676052
269.10199 146.90549 33.588261
271.09204 146.95227 33.331638
273.09348 146.97005 33.201687
275.05121 147.02916 32.892601
277.04794 147.08018 32.617565
278.55069 146.96367 32.729103
267.86081 148.0603 33.939613
269.1972 148.25514 33.948025
271.13541 148.45107 33.786686
273.15054 148.79147 33.673809
275.10333 148.94679 33.45509
277.06946 149.00307 33.232864
278.43445 148.93045 33.081974
273.51163 150.06113 33.992069
275.44476 150.24551 33.852242
277.16315 150.56497 33.760159
278.34567 150.80414 33.194954
278.47394 152.9967 33.530582
117.45364 97.423157 34.37204
118.74906 97.367523 34.170715
120.47031 97.716408 34.29129
124.48972 97.822632 34.089386
117.48429 98.937775 34.890148
118.87994 98.959328 34.749481
120.81741 99.065727 34.540134
122.83563 99.18367 34.432976
124.74605 99.256287 34.253216
126.70689 99.660599 34.214436
128.09837 99.809807 34.24868
117.3413 100.9752 35.527954
118.95762 100.94969 35.37991
120.84806 101.04766 35.094799
122.88215 100.95751 34.847618
124.89006 100.96435 34.728794
126.86234 101.03753 34.502384
128.80177 101.15858 34.351833
130.80165 101.29742 34.313698
132.70946 101.53635 34.141048
117.32286 102.24269 35.846474
118.88715 102.58215 35.773743
121.01561 102.89451 35.736435
122.89496 102.84965 35.4398
124.92912 102.94356 35.400078
126.87119 102.98785 35.155441
128.89023 102.96613 34.814686
130.88963 102.98941 34.640301
132.8002 103.04456 34.490837
134.78683 103.15684 34.310215
136.93336 103.51134 34.253288
138.58163 103.68795 34.167824
140.91797 103.84892 34.078674
121.70497 104.43404 35.829216
122.80754 104.24419 35.715721
125.00288 104.6197 35.859295
127.24554 104.84507 35.676235
128.96442 104.88561 35.593716
130.96251 105.03355 35.361996
132.90135 104.98756 35.154728
134.90233 104.97036 34.798382
136.91232 104.97865 34.677269
138.85381 105.1274 34.413033
140.85748 105.25311 34.300426
143.00185 105.51083 34.171089
144.91727 105.65935 34.109722
146.74402 105.83958 34.124149
129.07253 106.66879 35.911953
131.01212 106.68172 35.816467
133.04367 106.7905 35.71468
134.95352 106.93011 35.538456
136.93613 106.89467 35.247021
138.92587 106.93472 35.014992
140.9304 106.95308 34.859592
142.93059 106.97827 34.679737
144.88153 107.05988 34.425274
146.9341 107.28988 34.260494
149.03435 107.40353 34.25655
151.00456 107.62035 34.143902
153.21021 107.00732 34.112942
133.33665 108.28357 35.882641
135.06018 108.41889 35.816475
136.90944 108.68895 35.732841
138.97414 108.84904 35.523754
140.94066 108.88825 35.360634
142.94984 108.94508 35.239876
144.9689 108.75672 35.315964
147.01006 108.47672 35.078812
149.0889 108.76225 34.956024
150.99423 109.07075 34.740288
152.95883 109.05538 34.353176
154.95148 109.28123 34.294575
156.77501 109.35088 34.27702
158.21634 109.41121 34.210098
137.34843 110.00307 35.984497
138.81064 110.02737 35.832855
141.08551 110.25949 35.726913
142.67346 110.23569 35.809967
144.09299 110.16728 35.096951
151.80783 110.35691 35.572731
153.08351 110.84432 35.059933
154.97942 110.96951 34.719971
156.96327 111.03002 34.539856
158.88074 111.10509 34.345509
160.8752 111.33803 34.230911
162.70235 111.40558 34.092777
164.89972 111.6965 34.161217
166.89441 111.78016 34.27383
153.71051 112.38393 35.663769
155.02371 112.9003 35.410408
157.03946 112.90892 35.293106
159.04347 112.97395 34.969906
161.01376 112.95709 34.772583
162.95892 113.06286 34.500515
164.8812 113.21248 34.280037
166.92815 113.40644 34.159885
168.97539 113.572 34.307495
171.84641 113.86205 34.03471
155.63817 114.78938 35.878139
157.16418 114.68892 35.708019
159.04758 114.80938 35.592663
161.01714 114.8956 35.261475
162.99033 114.9648 35.099903
165.01233 114.9616 34.850758
166.97675 115.02676 34.655788
168.96892 115.06714 34.423183
171.00841 115.22245 34.281036
172.94022 115.61839 34.235809
174.69353 115.41505 34.110218
177.12329 114.63397 34.023209
157.40863 116.0197 35.847404
159.347 116.17918 35.789764
161.10832 116.45185 35.62635
163.06825 116.85896 35.704529
165.03355 116.94428 35.514782
167.04274 116.89575 35.270519
169.01822 116.95605 34.964882
171.03622 116.9656 34.846802
173.03937 116.9934 34.660694
175.0533 117.00924 34.519375
176.99472 117.13459 34.339764
178.81993 117.32414 34.259312
181.01776 117.39435 34.125294
182.99794 117.69797 34.199741
163.44411 118.00388 35.913822
165.14105 118.13015 35.75935
167.16692 118.60126 35.712181
169.1187 118.82386 35.64077
171.04443 118.91898 35.525333
173.01862 118.91511 35.326767
175.09198 118.90328 35.172928
177.06731 118.96367 34.866314
179.08427 118.97722 34.734509
181.01352 119.04477 34.473164
183.05083 119.15928 34.363575
184.88982 119.23364 34.203392
186.90298 119.2762 34.229942
188.54572 119.65031 34.158043
168.88972 120.24447 35.818157
171.34299 120.73826 35.885098
173.1066 120.5394 35.73444
175.11943 120.73962 35.672054
177.16896 120.87524 35.512936
179.099 120.89784 35.288277
181.04317 120.97106 34.999355
183.03558 120.96679 34.811123
185.108 120.98755 34.711716
187.07428 121.03738 34.510395
189.00612 121.08461 34.325878
191.11566 121.36312 34.305412
192.61508 121.74821 34.039406
194.54161 121.88803 34.061943
173.46445 122.00947 35.993988
177.20026 122.45263 35.733322
179.21869 122.56509 35.840004
181.23286 122.82178 35.608192
183.12051 122.87625 35.46442
185.10779 122.90405 35.344868
187.10193 122.94317 35.120953
189.07237 122.96337 34.840725
191.0918 122.97352 34.65313
192.99707 123.17878 34.572922
195.02136 123.19176 34.325325
196.89867 123.51818 34.189243
199.09239 123.62628 34.087036
179.89336 124.01456 35.971992
181.6774 124.25427 35.775246
182.96091 124.57724 35.873688
185.3038 124.76141 35.694992
187.09654 124.77435 35.663254
189.13641 124.92303 35.485851
191.07338 125.02836 35.33503
193.09247 125.0051 34.968021
195.07121 124.91919 34.83765
197.06433 125.0228 34.617661
199.05812 125.12493 34.413437
201.06612 125.41016 34.265732
203.01942 125.48573 34.199989
205.49365 125.80029 34.088509
206.41629 125.89185 34.099667
185.07207 126.24858 35.909443
187.06238 127.25739 35.919327
189.36304 126.55768 35.809536
191.33691 126.4485 35.703323
193.05728 126.65928 35.622337
195.13371 126.96131 35.493896
197.12254 126.90199 35.206322
199.16812 126.96801 34.997143
201.093 127.00728 34.772839
203.03917 127.04198 34.565964
205.09277 127.11355 34.412609
207.11136 127.14492 34.256283
209.01677 127.67683 34.284779
210.86092 127.60516 34.229572
212.85234 127.90742 34.050117
190.70702 128.04385 35.93428
194.8176 128.39012 35.842674
197.11371 128.60725 35.648598
199.1622 128.77609 35.528652
201.1102 128.92726 35.392101
202.9951 128.97557 35.216846
204.94312 128.90686 35.083084
207.02049 128.97354 34.870636
208.97354 129.02702 34.652271
210.88887 129.08484 34.420284
212.94179 129.3445 34.284355
214.93457 129.52866 34.211483
216.87051 129.70251 34.145279
218.52676 129.68341 34.162823
197.54222 130.24808 35.930176
199.21065 130.14632 35.730774
201.3808 130.5666 35.757175
203.12383 130.74889 35.687885
204.91811 130.82181 35.624001
206.83742 130.89934 35.47205
208.84625 130.92743 35.290192
210.89227 130.93506 35.062088
212.87688 131.03555 34.855488
214.89168 131.05338 34.640385
216.86555 131.21971 34.39257
218.94827 131.2269 34.23671
220.75375 131.62294 34.192783
222.67712 131.58389 34.163101
203.12627 132.86729 35.955837
207.00206 132.0954 35.897404
208.90881 132.62933 35.788029
210.88936 132.76584 35.651611
212.909 132.87177 35.470394
214.88263 132.93393 35.291412
216.91042 132.97275 35.002178
218.95384 133.01703 34.818405
220.91353 133.06418 34.631393
222.88379 133.2309 34.400154
224.78125 133.26427 34.246662
226.83023 133.55795 34.196957
228.4346 133.77756 34.087288
209.57169 134.09448 35.764168
211.26183 134.23621 35.968124
213.15472 134.49667 35.834213
214.95036 134.79668 35.722973
216.92676 134.85638 35.549122
218.84042 134.87607 35.406166
220.88757 134.96869 35.180214
222.89967 134.99594 35.003067
224.90207 135.03148 34.792587
226.87827 135.08867 34.494213
228.81636 135.20767 34.425072
230.88245 135.40518 34.225582
232.82645 135.6917 34.146832
234.95177 135.95285 34.061237
217.22203 136.24242 35.691525
219.12456 136.51871 35.789417
221.11153 136.78926 35.778709
222.92815 136.88312 35.619968
224.91537 136.94717 35.363583
226.9315 136.97183 35.198238
228.93045 137.01042 34.975536
230.93996 137.04094 34.785954
232.89723 137.11539 34.487129
234.90277 137.13596 34.339008
236.78769 137.46799 34.292171
238.68752 137.71365 34.187458
240.61549 137.74579 34.115799
221.6386 138.49139 35.871277
222.10405 138.05991 35.945026
225.00583 138.49542 35.882599
227.03659 138.69379 35.717312
228.91977 138.82484 35.502163
230.94336 138.96385 35.327274
232.9048 139.03192 34.983036
234.95122 139.03398 34.911873
236.94785 139.075 34.679779
238.96873 139.09758 34.52359
240.96335 139.26872 34.319412
242.9678 139.48405 34.257389
244.85805 139.71585 34.211948
226.97179 140.12921 35.720417
228.85153 140.16586 35.855064
231.19035 140.68619 35.83926
232.92955 140.80356 35.686195
234.98819 140.93034 35.562302
236.98175 140.97368 35.320816
238.99818 140.99986 35.150745
241.02042 141.02213 34.997345
243.00493 141.07257 34.725903
244.993 141.16498 34.421352
246.92374 141.28122 34.306736
248.90941 141.63374 34.203388
251.05215 141.77289 34.130669
252.45197 141.99313 34.025848
254.73726 141.97717 34.027321
233.12566 142.09843 35.878319
235.21426 142.34845 35.84425
237.08218 142.42218 35.782032
238.99979 142.78799 35.653008
241.01443 142.95045 35.514671
243.02248 142.98344 35.316753
245.01654 143.02679 35.07534
247.03479 143.0527 34.90731
249.01131 143.10873 34.611992
251.02753 143.13657 34.435921
252.98979 143.31894 34.338566
254.88017 143.52115 34.260048
256.61102 143.81725 34.172497
258.01773 143.1405 34.221088
239.57788 144.10443 35.876171
241.0191 144.35753 35.921738
243.02948 144.48485 35.759106
245.06494 144.75668 35.649723
247.05736 144.95963 35.514904
249.05608 144.99985 35.286713
251.05672 145.03874 35.064064
253.07964 145.06239 34.907032
255.04208 145.07263 34.605095
257.01279 145.21777 34.436333
258.91177 145.35791 34.258057
260.81693 145.47012 34.11467
245.41463 146.11232 35.885487
247.2599 146.41061 35.810314
249.07228 146.6225 35.794422
251.15128 146.80801 35.67453
253.14241 146.93301 35.523624
255.08847 147.01813 35.249889
257.08456 147.06047 35.012604
259.07556 147.10637 34.760391
261.0928 147.04935 34.55965
263.08728 147.27095 34.424614
264.97421 147.37634 34.209335
267.39719 147.60258 34.164021
269.19562 147.99792 34.179054
248.1711 148.11867 35.981895
250.6208 148.38696 35.938229
253.34131 148.37477 35.848301
255.2618 148.65202 35.734211
257.19415 148.87134 35.631229
259.08115 149.01706 35.426376
261.07608 149.02086 35.215031
263.11737 149.07979 34.973217
265.08289 149.09792 34.63583
267.06387 149.07974 34.473606
269.10843 149.16492 34.303097
271.2077 149.32103 34.187595
272.63663 149.60435 34.225605
274.00034 149.62987 34.079121
257.72272 150.12099 35.926521
259.15582 150.50253 35.872402
261.22733 150.82411 35.775669
263.13766 150.90718 35.555038
265.07791 151.02766 35.275097
267.06308 151.04716 35.143784
269.10217 151.07822 35.029633
271.02313 150.98206 34.737522
273.13 151.11844 34.565407
275.05612 151.06668 34.33078
276.90384 151.2291 34.170002
278.33017 151.47112 34.272705
263.37567 152.29111 35.829823
265.10626 152.71092 35.814381
267.04556 152.80956 35.760326
269.0556 152.9158 35.597481
271.10663 153.02065 35.358612
273.07397 153.10536 35.158962
275.02643 152.95746 34.877678
276.94467 152.97401 34.620506
278.26947 152.97345 34.664223
269.63297 154.1284 35.995033
271.20889 154.36761 35.800446
272.96191 154.89769 35.731598
274.8869 155.05 35.548748
276.96274 155.05177 35.278206
278.46994 154.90742 35.664051
275.1167 156.41187 35.881401
277.10889 156.81807 35.763149
278.03018 156.7959 35.743073
273.63733 159.82292 35.946198
275.03339 159.66093 35.727188
277.12662 159.01022 35.876938
278.20947 159.23395 35.763714
266.08737 160.66086 35.959366
269.73077 161.46648 35.92252
270.16415 161.45418 35.973457
273.11218 160.9789 35.823368
275.1088 160.92982 35.807995
276.81219 161.04317 35.496899
271.71686 162.27675 35.892616
273.11389 162.30444 35.737083
274.80743 162.33975 35.54023
276.93106 162.23802 35.345551
117.09428 98.93187 36.356457
118.1665 101.93465 36.009773
117.36975 103.29539 36.378361
118.96936 103.45564 36.276985
120.91878 103.57783 36.134827
123.19551 103.70201 36.140743
125.41113 103.89599 36.08749
117.3921 105.02115 36.884083
118.98566 105.04834 36.715679
120.9499 105.10492 36.548599
122.97256 105.17986 36.32444
124.93651 105.23023 36.342003
126.62204 105.37798 36.13678
128.99725 105.78938 36.087963
117.43789 106.87266 37.573078
119.01267 106.96128 37.292686
121.00408 106.99613 37.079185
122.99969 107.02389 36.89056
125.00925 107.02898 36.782425
126.99417 107.0761 36.525375
128.92506 107.21073 36.328892
130.85747 107.56351 36.208637
132.80359 107.56812 36.17609
117.44332 108.26398 37.895809
119.33846 108.58489 37.776718
121.16135 108.80729 37.730743
123.02477 108.87818 37.553391
125.039 108.93648 37.379417
127.03165 108.97066 37.168648
129.01907 109.01376 36.926075
131.00389 109.06107 36.668655
132.97661 109.16765 36.457775
134.96275 109.20563 36.329391
137.04779 109.56824 36.236019
138.91614 109.43126 36.107697
143.69467 109.86639 36.199295
145.53912 109.43811 36.165188
120.23569 110.06786 37.994904
123.04543 110.24674 37.867657
125.299 110.6674 37.746735
127.08823 110.7179 37.633041
128.99698 110.82674 37.525875
131.04114 110.9556 37.311501
133.03683 110.98589 37.115528
135.0351 111.0126 36.931793
137.0313 111.04298 36.73513
138.9929 111.12555 36.350601
140.97 111.22945 36.389523
142.80058 110.88546 36.55521
152.77383 111.44925 36.085388
127.65865 112.0618 37.954498
129.44209 112.10827 37.708576
131.14363 112.54847 37.756447
133.16072 112.72439 37.568111
135.11119 112.82551 37.459579
137.05023 112.96539 37.278595
139.03603 113.01128 37.026241
140.88527 112.86414 37.334671
142.0361 112.36591 37.742939
153.77988 113.14707 36.205849
154.53207 113.86964 36.260918
131.43317 114.0968 37.920815
133.11829 114.41965 37.879818
135.17249 114.5184 37.873463
137.09383 114.63331 37.769375
139.05586 114.86349 37.560184
140.57501 114.74326 37.696823
154.74678 115.0528 36.600338
156.88597 115.36001 36.140373
158.60475 115.6206 36.12674
137.84807 116.09731 37.902496
139.13861 116.32154 37.784153
153.97159 117.30995 37.347885
154.98624 116.94875 37.056519
157.10231 117.05884 36.612392
159.06319 117.18359 36.335148
161.0078 117.3991 36.181866
162.84178 117.52618 36.178314
153.78351 119.04131 37.842903
155.03894 118.89503 37.3913
157.11679 118.98313 37.149471
159.10985 119.02138 36.925678
161.07051 119.02573 36.700878
163.04938 119.1282 36.485508
165.07103 119.1164 36.329086
166.88957 119.51744 36.303276
169.12503 119.31155 36.054688
170.87666 119.93829 36.116909
153.47191 121.70847 37.919155
155.09616 120.52441 37.770561
157.21646 120.74001 37.619186
159.08295 120.88434 37.569618
161.14827 120.94473 37.384956
163.12584 121.00237 37.088272
165.11035 121.05141 36.823906
167.12833 121.06059 36.709972
169.10258 121.20609 36.507652
170.91425 121.33308 36.258289
173.09041 121.52068 36.176907
175.00473 121.78484 36.201214
176.55251 121.52472 36.147915
159.33978 122.3354 37.859432
161.18932 122.52048 37.803825
163.20203 122.80204 37.702011
165.1564 122.88522 37.577309
167.15306 122.97021 37.301086
169.14494 123.01085 37.068676
171.10234 123.05234 36.834457
173.06068 123.02411 36.691658
175.13904 123.11261 36.448452
177.12485 123.1372 36.349842
178.89824 123.55935 36.439491
180.67407 123.64343 36.313107
183.2285 123.92204 36.203518
184.63974 123.74054 36.053535
186.10399 123.89065 36.216187
163.2639 124.2309 37.889023
165.28285 124.41058 37.826889
167.25409 124.57516 37.789925
169.13991 124.81069 37.685539
171.11475 124.96053 37.430164
173.11127 124.96938 37.32156
175.01048 125.02692 37.091152
177.06528 124.97997 36.948029
178.96599 125.09818 36.675636
180.93742 125.13227 36.515533
183.15199 125.34328 36.422432
184.95474 125.53587 36.281807
186.97116 125.86223 36.221413
188.3559 125.62795 36.11845
169.97321 126.28442 37.934982
171.42355 126.54861 37.855659
172.95515 126.48506 37.731602
175.00482 126.84293 37.753914
176.92084 126.89222 37.519848
178.93573 127.00884 37.377663
181.03801 126.96846 37.093307
183.12784 127.10068 36.93679
185.04399 127.07886 36.694221
187.03693 127.12518 36.506817
188.91776 127.25541 36.285648
190.94009 127.25713 36.229362
192.81293 127.61866 36.205563
194.56477 127.66018 36.089607
177.11868 128.18571 37.893696
179.04036 128.52399 37.817284
180.9846 128.74266 37.636681
182.95068 128.79623 37.484032
184.94859 128.994 37.336124
186.91679 128.99057 37.146545
188.9048 129.06757 36.901459
190.93011 129.06105 36.790359
192.86778 129.12657 36.529984
194.90289 129.33751 36.330963
196.78816 129.24918 36.163364
198.7028 129.41675 36.084949
200.89589 129.96471 36.122398
181.62854 130.08638 37.951275
183.16229 130.60698 37.826458
185.02982 130.57144 37.792007
187.00618 130.73297 37.647377
188.91608 130.85959 37.52356
190.90927 131.00975 37.354836
192.96547 130.97786 37.219406
194.89117 131.03819 36.908443
196.82863 131.21315 36.621086
198.82318 131.08632 36.498436
200.76807 131.28281 36.288837
202.63943 131.57339 36.214729
204.43947 131.55122 36.24242
186.58527 132.43518 37.843788
189.49963 132.40309 37.737213
191.01437 132.49612 37.863956
192.89627 132.62393 37.595753
194.90395 132.92468 37.524826
196.94452 133.01144 37.371811
198.93919 132.9619 37.044586
200.85382 133.09315 36.7817
202.87321 133.06242 36.630615
204.93791 133.04292 36.478699
206.90761 133.15118 36.344387
208.78271 133.42441 36.200161
210.83821 133.78865 36.249962
212.3461 133.79478 36.05566
193.25067 134.37988 37.928185
195.00676 134.38779 37.91843
196.93634 134.70375 37.7901
198.9621 134.8311 37.657013
200.90959 134.9548 37.427666
202.90834 135.00798 37.285328
204.93863 135.01443 36.999058
206.91473 135.07407 36.88509
208.90057 135.12274 36.620956
210.91795 135.16103 36.539055
212.69699 135.34335 36.287556
214.75772 135.27567 36.225792
216.81836 135.73961 36.195343
219.66257 135.37364 36.087337
198.664 136.13245 37.863068
201.11523 136.37448 37.754631
202.94307 136.90454 37.829594
204.92546 136.80388 37.689339
206.94859 136.97256 37.522552
208.94379 137.01299 37.292423
210.9395 137.05324 37.063503
212.96512 137.05026 36.81609
214.92383 137.01595 36.5462
216.91551 137.15442 36.388668
218.81618 137.25093 36.297619
220.52205 137.44205 36.172924
223.15077 137.72772 36.155643
203.65463 138.15608 37.821587
205.01994 138.15099 37.800838
207.19783 138.40675 37.807949
209.04189 138.66957 37.795979
210.97546 138.83806 37.604424
213.01027 138.95192 37.4146
214.98953 139.01141 37.329742
216.97568 139.06012 37.065521
218.99344 139.02194 36.782406
220.98138 139.11452 36.647842
222.9817 139.09387 36.360271
224.91084 139.35011 36.298203
226.7809 139.32625 36.14502
229.18813 139.61078 36.108719
211.12564 140.34497 37.8722
212.81921 140.41653 37.808521
215.13907 140.72456 37.773354
217.04811 140.93874 37.71471
219.0072 140.99765 37.480526
221.00224 141.03912 37.246685
222.99841 141.07964 37.016991
224.9926 141.0484 36.705357
226.98196 141.07043 36.553825
228.99437 141.13463 36.391907
230.73859 141.32324 36.222183
233.31615 141.6201 36.163563
217.4969 142.2901 37.835606
219.29866 142.48399 37.872486
221.03174 142.77876 37.827118
223.03392 142.90974 37.64349
225.04779 143.00348 37.490742
227.02547 143.05882 37.198048
229.0692 143.04283 37.00692
231.0407 143.10287 36.694542
233.00304 143.05521 36.481899
234.90993 143.24664 36.339409
236.99184 143.19336 36.23225
239.09143 143.39343 36.128212
221.69966 145.37013 37.964951
223.79028 144.75836 37.901024
225.11938 144.41249 37.885906
227.07431 144.86934 37.734375
229.10294 144.89948 37.549095
231.05948 145.03313 37.401241
233.0415 145.08492 37.123604
235.04266 145.033 36.939533
237.07402 144.98875 36.697495
239.00668 145.06961 36.458729
241.05258 145.25548 36.355293
243.07175 145.33849 36.227329
245.03008 145.57352 36.102585
229.32085 146.35086 37.943691
231.00961 146.5267 37.749996
233.14972 146.90965 37.676495
235.08797 146.99094 37.47081
237.05986 147.06218 37.38905
239.0558 147.06339 37.18858
241.10107 147.04408 36.891262
243.10506 147.04163 36.672516
245.04402 147.11931 36.459946
247.01364 147.0948 36.254322
249.11493 147.39375 36.148079
250.86331 147.55414 36.147324
252.36478 147.67915 36.009148
233.83746 148.37241 37.926098
235.5625 148.33295 37.876556
237.16537 148.72658 37.836666
239.09343 148.87976 37.659424
241.09875 148.99861 37.536083
243.12927 149.06009 37.364559
245.07541 149.10365 37.202446
247.04257 148.98213 36.854126
249.16005 149.01712 36.656979
251.14719 149.06801 36.435234
252.9377 149.12592 36.298344
254.88802 149.37915 36.264809
256.65903 149.53973 36.113434
239.88937 150.17952 37.91497
241.95583 150.17133 37.901924
243.31767 150.58577 37.842525
245.14349 150.96103 37.70903
247.1219 151.00958 37.531185
249.08391 151.07417 37.348389
251.08546 151.08192 37.120472
253.10629 151.02153 36.840614
255.10075 151.02524 36.613186
257.01721 150.97649 36.428429
258.87796 151.37221 36.346336
260.50293 151.44914 36.184528
262.63568 151.68036 36.144783
247.25768 152.37013 37.85667
249.10605 152.69156 37.784733
251.07338 152.96434 37.647709
252.9702 153.03796 37.608013
254.92438 153.08528 37.350281
257.00201 152.9559 37.027
259.03806 153.09212 36.816601
261.09854 152.95485 36.508953
263.04391 153.11288 36.362846
264.83774 153.50237 36.266708
266.59131 153.53017 36.183907
268.23651 153.71378 36.055183
