# .PCD v0.7 - Point Cloud Data file format
VERSION 0.7
FIELDS x y z rgb
SIZE 4 4 4 4
TYPE F F F U
COUNT 1 1 1 1
WIDTH 1147
HEIGHT 1
VIEWPOINT 0 0 0 1 0 0 0
POINTS 1147
DATA ascii
16.958904 19.876842 -15.975044 4294967295
16.968498 22.586102 -16.254786 4294967295
16.974857 24.020205 -16.397022 4294967295
16.980701 23.224422 -16.275524 4294967295
16.981493 21.950054 -16.119867 4294967295
16.997662 20.676619 -15.89446 4294967295
17.007999 22.111752 -16.018774 4294967295
17.008177 24.182949 -16.265108 4294967295
17.019796 21.794075 -15.927285 4294967295
17.028873 18.433353 -16.226784 4294967295
17.065117 17.798275 -15.9866 4294967295
17.065371 24.348293 -16.025064 4294967295
17.066616 20.028849 -16.245911 4294967295
17.074713 22.099997 -16.456234 4294967295
17.075201 17.639502 -15.921911 4294967295
17.079594 18.91457 -16.054111 4294967295
17.082142 18.596054 -16.004543 4294967295
17.082649 19.392771 -16.097296 4294967295
17.092028 19.712093 -16.092844 4294967295
17.093971 23.216488 -16.502035 4294967295
17.098614 20.668509 -16.177059 4294967295
17.132721 20.352499 -15.984634 4294967295
17.134724 24.335356 -16.450598 4294967295
17.161303 21.470333 -15.988317 4294967295
17.162228 22.904509 -16.155176 4294967295
17.182873 22.587769 -16.023743 4294967295
17.203392 18.590096 -16.194847 4294967295
17.20723 23.54627 -16.027567 4294967295
17.240467 17.795671 -15.932119 4294967295
17.244417 20.02673 -16.180269 4294967295
17.264914 20.187592 -16.106575 4294967295
17.26532 22.099339 -16.33267 4294967295
17.271854 22.57778 -16.360106 4294967295
17.273924 19.232124 -15.95182 4294967295
17.284628 19.710989 -15.960419 4294967295
17.284929 20.667156 -16.073061 4294967295
17.289164 24.331421 -16.490728 4294967295
17.290491 18.914474 -15.838871 4294967295
17.291662 20.348974 -16.00462 4294967295
17.2945 18.755335 -15.801723 4294967295
17.299015 22.420988 -16.218344 4294967295
17.311312 21.784765 -16.086777 4294967295
17.311502 22.900101 -16.218882 4294967295
17.312208 19.872377 -15.854692 4294967295
17.312616 21.147455 -16.004873 4294967295
17.31794 20.51038 -15.904791 4294967295
17.329418 23.698439 -16.23288 4294967295
17.341446 23.85898 -16.19751 4294967295
17.345354 23.381369 -16.122866 4294967295
17.348948 22.744303 -16.03064 4294967295
17.351271 21.469452 -15.868122 4294967295
17.358826 21.948301 -15.890979 4294967295
17.361696 24.020393 -16.124998 4294967295
17.363876 18.905262 -16.245474 4294967295
17.366972 23.224131 -16.006168 4294967295
17.367287 23.064787 -15.985747 4294967295
17.416975 18.271292 -15.929598 4294967295
17.421307 20.821177 -16.213913 4294967295
17.46557 24.170525 -16.412718 4294967295
17.472061 17.796335 -15.623671 4294967295
17.486259 18.75392 -15.673558 4294967295
17.503145 24.333761 -16.262112 4294967295
17.504076 19.552364 -15.688095 4294967295
17.513844 21.785051 -15.909986 4294967295
17.519545 22.423134 -15.960217 4294967295
17.560951 19.382269 -16.149988 4294967295
17.563086 19.701086 -16.178316 4294967295
17.580181 19.542963 -16.082205 4294967295
17.596928 18.747231 -15.911695 4294967295
17.596958 19.225395 -15.968533 4294967295
17.600147 19.066227 -15.935147 4294967295
17.60371 20.182116 -16.051989 4294967295
17.606192 18.429014 -15.831911 4294967295
17.606808 21.616486 -16.208857 4294967295
17.607992 21.138575 -16.146568 4294967295
17.60836 23.52829 -16.429558 4294967295
17.610577 20.02326 -16.00202 4294967295
17.612385 20.660872 -16.069805 4294967295
17.623285 17.79232 -15.678779 4294967295
17.626141 22.574175 -16.235538 4294967295
17.628912 21.459023 -16.090181 4294967295
17.629923 20.343483 -15.952717 4294967295
17.631779 24.008522 -16.380894 4294967295
17.632107 22.893387 -16.24659 4294967295
17.64632 23.691387 -16.277388 4294967295
17.658117 20.823885 -15.882497 4294967295
17.664133 20.505526 -15.817377 4294967295
17.669186 21.940622 -15.965491 4294967295
17.670088 23.375076 -16.132277 4294967295
17.670637 21.303139 -15.882992 4294967295
17.673897 19.868504 -15.697354 4294967295
17.675932 18.101242 -16.216179 4294967295
17.67971 24.332148 -16.20277 4294967295
17.695852 22.421221 -15.902196 4294967295
17.750399 17.786907 -15.842518 4294967295
17.796347 22.253033 -16.166883 4294967295
17.7992 18.427589 -15.698469 4294967295
17.805578 24.165892 -16.352936 4294967295
17.823874 18.588614 -15.60625 4294967295
17.824551 19.70491 -15.736122 4294967295
17.860199 17.621134 -16.06493 4294967295
17.877829 23.695202 -15.970689 4294967295
17.927511 18.900362 -15.913642 4294967295
17.934994 19.379091 -15.936881 4294967295
17.936146 20.176151 -16.026558 4294967295
17.940983 20.654669 -16.061707 4294967295
17.954613 18.423807 -15.734694 4294967295
17.95746 22.409081 -16.196196 4294967295
17.959383 20.974905 -16.016836 4294967295
17.961384 18.264769 -15.68522 4294967295
17.964191 20.018837 -15.881355 4294967295
17.968279 22.569429 -16.166487 4294967295
17.970966 21.772812 -16.059566 4294967295
17.972097 19.541109 -15.788836 4294967295
17.980299 18.584892 -15.638031 4294967295
17.982502 21.295601 -15.950743 4294967295
17.988468 23.527512 -16.189453 4294967295
17.99795 23.369081 -16.127842 4294967295
17.998957 21.934649 -15.952596 4294967295
18.004608 24.325939 -16.211678 4294967295
18.005228 21.616352 -15.886431 4294967295
18.006388 24.166767 -16.184713 4294967295
18.009342 22.892023 -16.019695 4294967295
18.015013 17.936056 -16.141287 4294967295
18.037485 23.691786 -15.98795 4294967295
18.039597 18.575005 -16.106585 4294967295
18.045862 18.89414 -16.116327 4294967295
18.055851 24.01248 -15.943281 4294967295
18.0641 21.126337 -16.299755 4294967295
18.069201 21.923368 -16.371599 4294967295
18.076862 20.011885 -16.109674 4294967295
18.086472 20.33135 -16.104406 4294967295
18.098486 23.83778 -16.467407 4294967295
18.10383 21.448326 -16.159098 4294967295
18.122839 22.884233 -16.244284 4294967295
18.167591 23.526026 -16.11904 4294967295
18.167942 20.497017 -15.75713 4294967295
18.175255 22.251516 -15.932917 4294967295
18.187603 23.209188 -15.991208 4294967295
18.204927 19.368687 -16.192604 4294967295
18.236637 19.689655 -16.088106 4294967295
18.254978 23.356153 -16.441578 4294967295
18.255083 19.531567 -15.98632 4294967295
18.259972 21.603941 -16.210766 4294967295
18.261076 21.285305 -16.16791 4294967295
18.267902 20.648327 -16.061447 4294967295
18.268559 23.038826 -16.342751 4294967295
18.274494 24.154659 -16.448708 4294967295
18.275963 23.198872 -16.328465 4294967295
18.283817 18.736324 -15.762456 4294967295
18.285521 22.084265 -16.152929 4294967295
18.303049 23.679571 -16.263752 4294967295
18.304905 24.317148 -16.331203 4294967295
18.311745 21.927179 -16.016268 4294967295
18.314119 20.173588 -15.797054 4294967295
18.318306 22.24658 -16.024729 4294967295
18.346851 21.770798 -15.839718 4294967295
18.377131 23.527542 -15.912374 4294967295
18.390759 18.091759 -15.940356 4294967295
18.406778 18.252157 -15.887436 4294967295
18.408949 17.6145 -15.801876 4294967295
18.421286 22.716084 -16.352854 4294967295
18.425093 18.891071 -15.881087 4294967295
18.433199 19.369934 -15.901588 4294967295
18.437588 22.398884 -16.241899 4294967295
18.439577 24.311138 -16.460215 4294967295
18.457785 18.414762 -15.677547 4294967295
18.459219 21.125614 -15.993348 4294967295
18.464169 20.00993 -15.838485 4294967295
18.471714 20.807755 -15.899413 4294967295
18.489634 22.563026 -16.027512 4294967295
18.495306 21.447475 -15.869431 4294967295
18.505676 17.926188 -16.138908 4294967295
18.508568 19.853687 -15.620393 4294967295
18.509502 23.999649 -16.108963 4294967295
18.528883 23.363895 -15.946312 4294967295
18.530308 24.1612 -16.03466 4294967295
18.590981 19.685175 -15.965029 4294967295
18.607216 20.483521 -15.987008 4294967295
18.607647 18.410633 -15.738771 4294967295
18.609699 22.555954 -16.22208 4294967295
18.618725 18.730303 -15.727034 4294967295
18.625246 19.209188 -15.754666 4294967295
18.629555 18.252483 -15.621643 4294967295
18.631792 19.847555 -15.801136 4294967295
18.639359 18.572119 -15.615615 4294967295
18.641436 21.602318 -15.966336 4294967295
18.652063 23.038095 -16.089203 4294967295
18.655481 20.965664 -15.827651 4294967295
18.655533 23.19784 -16.092611 4294967295
18.661055 22.7201 -16.011072 4294967295
18.665579 21.444901 -15.839266 4294967295
18.674341 20.169668 -15.648417 4294967295
18.681749 22.881475 -15.937351 4294967295
18.683561 23.997705 -16.061815 4294967295
18.684566 23.519518 -16.000496 4294967295
18.694284 18.561989 -16.101845 4294967295
18.705477 19.200306 -16.127483 4294967295
18.713945 18.882063 -16.051714 4294967295
18.716778 24.160555 -15.932059 4294967295
18.737513 24.322172 -15.858191 4294967295
18.754131 17.927866 -15.758209 4294967295
18.76388 22.073879 -16.206911 4294967295
18.779648 17.769844 -15.625039 4294967295
18.783169 23.82881 -16.328815 4294967295
18.841385 24.312943 -16.125298 4294967295
18.851414 18.239513 -16.092243 4294967295
18.890541 18.879662 -15.993028 4294967295
18.906395 19.996767 -16.054649 4294967295
18.912308 21.113111 -16.16069 4294967295
18.918379 22.388735 -16.284927 4294967295
18.920345 20.635515 -16.068003 4294967295
18.926552 22.867607 -16.305164 4294967295
18.928101 22.070835 -16.203657 4294967295
18.930855 23.186756 -16.323778 4294967295
18.93343 17.606457 -15.649797 4294967295
18.941236 20.796585 -15.993571 4294967295
18.942045 20.3183 -15.933174 4294967295
18.945826 19.840185 -15.85949 4294967295
18.952616 22.710649 -16.169819 4294967295
18.952906 21.594734 -16.036066 4294967295
18.959757 20.95751 -15.929743 4294967295
18.97669 22.234564 -16.005497 4294967295
18.979933 19.204565 -15.63129 4294967295
18.980379 24.307381 -16.234997 4294967295
18.990509 23.989614 -16.151924 4294967295
18.995848 20.162846 -15.673789 4294967295
19.012848 21.440304 -15.749302 4294967295
19.018274 23.832991 -16.009001 4294967295
19.022499 17.758398 -16.001421 4294967295
19.029636 23.355724 -15.901474 4294967295
19.041399 18.71615 -16.030544 4294967295
19.053581 18.079111 -15.900452 4294967295
19.061527 18.876892 -15.959586 4294967295
19.075035 21.747494 -16.239799 4294967295
19.078732 18.399582 -15.825994 4294967295
19.08816 19.675983 -15.93529 4294967295
19.08898 20.632736 -16.045151 4294967295
19.095081 23.980598 -16.415066 4294967295
19.101309 23.662498 -16.349478 4294967295
19.1187 19.199644 -15.742157 4294967295
19.12652 22.389673 -16.085697 4294967295
19.146584 20.318201 -15.750175 4294967295
19.153551 22.073175 -15.92724 4294967295
19.179031 17.914124 -16.051359 4294967295
19.206203 24.151373 -15.93829 4294967295
19.220917 19.830015 -16.09149 4294967295
19.246298 21.10737 -16.129602 4294967295
19.254837 21.267494 -16.110439 4294967295
19.272413 22.066135 -16.126631 4294967295
19.286743 17.760843 -15.551956 4294967295
19.288893 19.037319 -15.693771 4294967295
19.288937 20.153912 -15.82602 4294967295
19.289862 22.227116 -16.067774 4294967295
19.290304 23.024328 -16.160339 4294967295
19.291746 18.399353 -15.605347 4294967295
19.292589 23.981031 -16.263575 4294967295
19.300632 22.706427 -16.076494 4294967295
19.30542 19.517033 -15.676835 4294967295
19.306011 23.504124 -16.14706 4294967295
19.307056 24.301329 -16.236927 4294967295
19.30928 22.547768 -16.019047 4294967295
19.320114 21.43236 -15.83836 4294967295
19.323664 23.665302 -16.087311 4294967295
19.324335 20.954178 -15.76279 4294967295
19.339518 22.391033 -15.865367 4294967295
19.348143 21.913271 -15.770175 4294967295
19.350542 23.349009 -15.929714 4294967295
19.363197 18.071484 -15.978156 4294967295
19.364359 23.828831 -15.924883 4294967295
19.380886 18.23201 -15.918261 4294967295
19.383923 19.188986 -16.018173 4294967295
19.389296 18.710951 -15.937515 4294967295
19.395315 24.150974 -15.824784 4294967295
19.400078 20.784575 -16.135258 4294967295
19.404861 20.306627 -16.057249 4294967295
19.422478 19.829533 -15.922073 4294967295
19.426615 21.743343 -16.130499 4294967295
19.427927 18.872931 -15.784329 4294967295
19.442259 19.51194 -15.796146 4294967295
19.447247 18.555113 -15.660439 4294967295
19.462135 20.629953 -15.839996 4294967295
19.493717 22.865551 -15.964082 4294967295
19.515867 20.953239 -15.638546 4294967295
19.520723 18.54619 -16.061579 4294967295
19.577581 21.420279 -16.14875 4294967295
19.587706 20.942759 -16.047041 4294967295
19.600176 17.912985 -15.632387 4294967295
19.603657 21.741369 -16.070578 4294967295
19.604593 18.391899 -15.669459 4294967295
19.606535 23.017166 -16.20891 4294967295
19.607508 23.336107 -16.242369 4294967295
19.615599 24.29339 -16.319717 4294967295
19.618126 21.104673 -15.930634 4294967295
19.628172 20.786472 -15.848149 4294967295
19.628904 17.755064 -15.485626 4294967295
19.647768 22.383129 -15.950004 4294967295
19.648756 23.977928 -16.134554 4294967295
19.650343 20.150038 -15.673911 4294967295
19.670631 22.704208 -15.88614 4294967295
19.67231 21.906759 -15.78417 4294967295
19.68071 17.585917 -15.964003 4294967295
19.680977 21.269312 -15.670002 4294967295
19.682051 21.588509 -15.703039 4294967295
19.686094 23.184193 -15.874091 4294967295
19.698595 19.500561 -16.111193 4294967295
19.70208 18.544029 -15.982367 4294967295
19.73982 17.908285 -15.739028 4294967295
19.74231 20.619957 -16.04917 4294967295
19.742598 19.663105 -15.934546 4294967295
19.745958 19.025328 -15.844029 4294967295
19.789831 19.18778 -15.667953 4294967295
19.797049 18.709547 -15.579168 4294967295
19.801722 21.422163 -15.879686 4294967295
19.804462 21.581903 -15.88641 4294967295
19.804642 22.857878 -16.036737 4294967295
19.80875 18.071894 -15.451525 4294967295
19.823545 23.816563 -16.066107 4294967295
19.833937 17.900955 -16.047628 4294967295
19.849068 18.380253 -16.0371 4294967295
19.858759 23.660566 -15.890867 4294967295
19.886038 24.301426 -15.845306 4294967295
19.895485 19.340145 -15.944356 4294967295
19.932301 22.213642 -16.120857 4294967295
19.933767 20.299908 -15.88776 4294967295
19.935255 20.140503 -15.862269 4294967295
19.939083 18.226198 -15.618571 4294967295
19.940012 20.61941 -15.89782 4294967295
19.945469 19.981722 -15.798052 4294967295
19.948545 20.460543 -15.841059 4294967295
19.953804 21.099039 -15.893278 4294967295
19.963594 18.546867 -15.547544 4294967295
19.965166 22.695028 -16.031702 4294967295
19.976204 21.898495 -15.888314 4294967295
19.977411 21.420015 -15.826302 4294967295
19.980074 23.334379 -16.04109 4294967295
19.982687 19.665262 -15.595072 4294967295
19.983042 21.739555 -15.839095 4294967295
19.992758 19.825565 -15.569273 4294967295
19.996799 17.738136 -16.031826 4294967295
20.002523 24.134054 -16.035925 4294967295
20.015749 20.784849 -15.580611 4294967295
20.018379 21.582987 -15.663418 4294967295
20.020857 23.65737 -15.897971 4294967295
20.027561 18.218388 -15.952039 4294967295
20.030521 18.059065 -15.920033 4294967295
20.03195 24.296579 -15.924308 4294967295
20.039295 22.38269 -15.665081 4294967295
20.052469 19.176956 -15.954864 4294967295
20.07338 22.208546 -16.220768 4294967295
20.077993 18.540516 -15.766164 4294967295
20.091381 19.658171 -15.838982 4294967295
20.096668 22.05113 -16.098703 4294967295
20.102015 23.16786 -16.207096 4294967295
20.104101 23.486958 -16.235592 4294967295
20.107346 19.021063 -15.692662 4294967295
20.117012 17.904558 -15.517575 4294967295
20.119453 19.979259 -15.7523 4294967295
20.121532 24.285931 -16.252701 4294967295
20.128067 17.585951 -15.430761 4294967295
20.136068 22.373598 -15.961853 4294967295
20.161993 22.854519 -15.903614 4294967295
20.164471 20.940083 -15.666058 4294967295
20.278112 19.01827 -15.661313 4294967295
20.278387 19.497015 -15.716732 4294967295
20.280121 19.97583 -15.765689 4294967295
20.281414 20.454586 -15.816587 4294967295
20.286472 19.65715 -15.699809 4294967295
20.289896 20.933882 -15.835653 4294967295
20.29225 17.901915 -15.46651 4294967295
20.293621 21.57234 -15.894651 4294967295
20.295471 22.689135 -16.018547 4294967295
20.295828 23.167667 -16.073565 4294967295
20.305811 18.541231 -15.481988 4294967295
20.306351 17.583435 -15.366263 4294967295
20.309793 20.297155 -15.672058 4294967295
20.310009 23.966509 -16.105131 4294967295
20.314459 20.137913 -15.632522 4294967295
20.314926 24.285984 -16.121105 4294967295
20.319521 23.64846 -16.025318 4294967295
20.322807 21.415216 -15.746579 4294967295
20.338928 22.214434 -15.769598 4294967295
20.340372 21.257074 -15.649949 4294967295
20.348063 23.33218 -15.861279 4294967295
20.353914 18.690266 -16.012472 4294967295
20.355326 17.573753 -15.874166 4294967295
20.355768 22.854231 -15.770568 4294967295
20.357962 22.056522 -15.666478 4294967295
20.385126 23.016554 -15.659519 4294967295
20.386047 18.054127 -15.794839 4294967295
20.397371 24.134888 -15.73746 4294967295
20.413719 21.406065 -16.068598 4294967295
20.419474 19.173111 -15.77905 4294967295
20.44368 18.376738 -15.577599 4294967295
20.45892 21.888412 -15.925326 4294967295
20.462008 23.643335 -16.119129 4294967295
20.46829 20.61273 -15.732965 4294967295
20.51001 20.775558 -15.567337 4294967295
20.524868 22.213282 -15.67149 4294967295
20.559553 18.370533 -15.789105 4294967295
20.562737 17.732433 -15.699581 4294967295
20.6061 23.478893 -16.186855 4294967295
20.615309 22.522762 -16.0331 4294967295
20.616287 22.841877 -16.066479 4294967295
20.618629 24.277533 -16.225769 4294967295
20.621914 19.810852 -15.683332 4294967295
20.629646 24.119173 -16.158295 4294967295
20.630322 23.640749 -16.098764 4294967295
20.643101 18.215965 -15.401027 4294967295
20.643791 18.854616 -15.47347 4294967295
20.644648 22.046741 -15.846975 4294967295
20.653297 23.164394 -15.940779 4294967295
20.665808 23.325134 -15.904396 4294967295
20.681971 21.571152 -15.625565 4294967295
20.695301 23.96627 -15.849614 4294967295
20.732878 17.889074 -15.690026 4294967295
20.739021 17.570219 -15.62519 4294967295
20.74349 18.847235 -15.756329 4294967295
20.751385 19.96476 -15.853468 4294967295
20.762625 19.646418 -15.766161 4294967295
20.76796 19.327608 -15.704906 4294967295
20.771515 21.402281 -15.9343 4294967295
20.771866 20.285393 -15.800799 4294967295
20.776609 18.530119 -15.572431 4294967295
20.78167 19.168922 -15.625535 4294967295
20.786781 21.084404 -15.829256 4294967295
20.787245 21.563135 -15.883758 4294967295
20.819675 23.640221 -15.985749 4294967295
20.830935 19.491528 -15.445849 4294967295
20.839022 21.886675 -15.693068 4294967295
20.84717 21.248869 -15.581697 4294967295
20.856092 22.207384 -15.655484 4294967295
20.867531 22.846884 -15.680456 4294967295
20.888773 24.285433 -15.756466 4294967295
20.896969 18.683735 -15.782668 4294967295
20.914707 22.035534 -16.100168 4294967295
20.936668 20.282272 -15.796144 4294967295
20.946035 23.314497 -16.112844 4294967295
20.95443 18.368055 -15.491628 4294967295
20.95635 18.847118 -15.539732 4294967295
20.957407 19.166466 -15.572785 4294967295
20.958042 19.964636 -15.664243 4294967295
20.966125 23.475954 -16.043188 4294967295
20.971189 24.274086 -16.115055 4294967295
20.972521 21.88096 -15.826613 4294967295
20.972744 17.890129 -15.354308 4294967295
20.977377 22.200542 -15.842901 4294967295
20.996111 22.680967 -15.816901 4294967295
20.99999 20.925556 -15.592481 4294967295
21.00511 20.606665 -15.532212 4294967295
21.005291 21.564516 -15.64453 4294967295
21.013462 23.16135 -15.797002 4294967295
21.024256 23.960354 -15.843678 4294967295
21.027779 21.247074 -15.507735 4294967295
21.038479 23.802174 -15.762186 4294967295
21.047794 17.562538 -15.707623 4294967295
21.049734 19.477596 -15.925153 4294967295
21.058241 18.680307 -15.793506 4294967295
21.058321 17.722729 -15.680099 4294967295
21.060658 19.318775 -15.858222 4294967295
21.068497 18.361752 -15.710665 4294967295
21.074026 17.883236 -15.629773 4294967295
21.090048 22.033422 -16.049036 4294967295
21.0979 18.523169 -15.600019 4294967295
21.10453 22.832373 -16.079449 4294967295
21.108698 20.758467 -15.816278 4294967295
21.126741 23.632135 -16.075869 4294967295
21.137135 21.079903 -15.728786 4294967295
21.140299 21.71858 -15.790213 4294967295
21.142057 19.643576 -15.537515 4294967295
21.148764 21.40007 -15.715281 4294967295
21.150585 20.442436 -15.594203 4294967295
21.160385 18.846426 -15.362562 4294967295
21.18648 17.876989 -15.855536 4294967295
21.213465 23.002054 -15.618971 4294967295
21.236687 24.281473 -15.667539 4294967295
21.238459 20.114397 -15.890551 4294967295
21.23922 23.483465 -15.562186 4294967295
21.287901 20.43725 -15.710808 4294967295
21.289062 20.916185 -15.762207 4294967295
21.290245 17.563534 -15.361367 4294967295
21.291777 18.362064 -15.448859 4294967295
21.291822 19.00075 -15.524029 4294967295
21.291861 19.160414 -15.542703 4294967295
21.295835 18.681669 -15.468691 4294967295
21.295927 23.470074 -16.033276 4294967295
21.297466 23.78932 -16.064157 4294967295
21.3046 23.151779 -15.957511 4294967295
21.304619 22.832636 -15.919776 4294967295
21.305304 20.278915 -15.615456 4294967295
21.30797 22.194586 -15.829736 4294967295
21.318041 19.960533 -15.521771 4294967295
21.324162 21.238232 -15.645559 4294967295
21.324474 24.111128 -15.983119 4294967295
21.345137 20.601234 -15.477986 4294967295
21.350294 24.273327 -15.888494 4294967295
21.361334 22.99749 -15.689349 4294967295
21.361996 21.720318 -15.53575 4294967295
21.365042 22.359238 -15.597713 4294967295
21.382248 19.471468 -15.903013 4294967295
21.38588 18.354557 -15.755285 4294967295
21.386757 22.680517 -15.539944 4294967295
21.39275 17.556841 -15.630947 4294967295
21.406563 20.43067 -15.909143 4294967295
21.406765 18.036549 -15.625859 4294967295
21.409058 20.111687 -15.860538 4294967295
21.435177 20.592424 -15.802297 4294967295
21.438725 21.55028 -15.899652 4294967295
21.470816 21.872171 -15.796389 4294967295
21.471432 19.796902 -15.548915 4294967295
21.472826 24.106546 -16.051037 4294967295
21.480692 23.7882 -15.978875 4294967295
21.491076 21.075668 -15.61329 4294967295
21.55802 18.671015 -15.756238 4294967295
21.628616 21.230045 -15.74762 4294967295
21.629341 20.751192 -15.687981 4294967295
21.631958 22.666851 -15.902311 4294967295
21.650963 23.626207 -15.931855 4294967295
21.654125 19.954697 -15.48513 4294967295
21.654961 18.996525 -15.368494 4294967295
21.658054 23.307686 -15.863132 4294967295
21.66457 24.106339 -15.928629 4294967295
21.684984 22.990959 -15.707424 4294967295
21.69235 23.151297 -15.693944 4294967295
21.699333 21.714848 -15.493919 4294967295
21.703987 18.187792 -15.777979 4294967295
21.70875 23.791487 -15.697319 4294967295
21.70912 22.035076 -15.488651 4294967295
21.710384 22.194885 -15.501933 4294967295
21.722879 18.667805 -15.751608 4294967295
21.726206 22.515686 -15.470197 4294967295
21.734678 23.474665 -15.545998 4294967295
21.742748 23.954523 -15.567083 4294967295
21.743052 19.467257 -15.757255 4294967295
21.748867 20.425385 -15.844632 4294967295
21.774948 18.511374 -15.504553 4294967295
21.774963 21.065861 -15.805532 4294967295
21.780067 17.713165 -15.387993 4294967295
21.781162 18.352057 -15.458491 4294967295
21.781637 20.268188 -15.682229 4294967295
21.781984 17.872986 -15.398416 4294967295
21.784122 19.310377 -15.558437 4294967295
21.789179 17.553946 -15.32922 4294967295
21.799601 19.630796 -15.528243 4294967295
21.807409 20.908772 -15.644557 4294967295
21.825375 21.389206 -15.622295 4294967295
21.825556 18.833961 -15.320364 4294967295
21.89819 19.942286 -15.851737 4294967295
21.910938 19.623932 -15.758319 4294967295
21.925852 21.700098 -15.937477 4294967295
21.948112 21.861582 -15.858868 4294967295
21.955061 22.341036 -15.884869 4294967295
21.959616 18.030186 -15.357084 4294967295
21.964851 18.98884 -15.447063 4294967295
21.96839 18.669626 -15.393938 4294967295
21.972908 20.107311 -15.543488 4294967295
21.976377 19.468742 -15.453048 4294967295
21.976431 20.586639 -15.584495 4294967295
21.977926 22.183407 -15.766025 4294967295
21.978596 21.065845 -15.631453 4294967295
21.980185 19.149559 -15.398751 4294967295
21.986292 24.099689 -15.955019 4294967295
22.015018 21.228441 -15.490868 4294967295
22.017563 21.548065 -15.517354 4294967295
22.021986 22.985659 -15.66728 4294967295
22.035757 22.028727 -15.494174 4294967295
22.037817 23.785528 -15.692054 4294967295
22.039564 23.306664 -15.627991 4294967295
22.047962 22.66865 -15.516022 4294967295
22.057703 23.947172 -15.623878 4294967295
22.061096 24.266886 -15.646648 4294967295
22.067675 18.981632 -15.714243 4294967295
22.083179 20.259857 -15.796833 4294967295
22.086418 20.579367 -15.820266 4294967295
22.087215 20.100512 -15.76039 4294967295
22.091541 21.697119 -15.929428 4294967295
22.09647 20.899406 -15.81392 4294967295
22.101 18.344994 -15.493284 4294967295
22.106123 17.866148 -15.414453 4294967295
22.108547 22.97543 -16.00543 4294967295
22.120113 20.422247 -15.654163 4294967295
22.128513 21.221237 -15.711444 4294967295
22.143456 18.826784 -15.364038 4294967295
22.152847 23.618069 -15.887025 4294967295
22.162251 18.029116 -15.187774 4294967295
22.1707 18.668739 -15.226079 4294967295
22.217196 22.186842 -15.436646 4294967295
22.259995 21.853985 -15.928192 4294967295
22.304831 20.260893 -15.544511 4294967295
22.306925 20.740162 -15.591755 4294967295
22.308275 18.823566 -15.360265 4294967295
22.309738 20.900078 -15.598268 4294967295
22.313868 20.101835 -15.486248 4294967295
22.315441 17.865402 -15.216119 4294967295
22.315557 18.664268 -15.309649 4294967295
22.325418 22.178886 -15.680159 4294967295
22.331448 23.13747 -15.766579 4294967295
22.332233 23.297207 -15.781937 4294967295
22.332832 19.623955 -15.347017 4294967295
22.335072 23.616795 -15.807123 4294967295
22.341482 19.305012 -15.271628 4294967295
22.355021 21.382828 -15.456945 4294967295
22.359816 22.022148 -15.511204 4294967295
22.37014 22.981375 -15.578909 4294967295
22.382288 21.225273 -15.31909 4294967295
22.39295 22.823742 -15.460555 4294967295
22.404774 17.857862 -15.541918 4294967295
22.405306 23.463856 -15.481817 4294967295
22.410097 19.774418 -15.744148 4294967295
22.423626 20.893013 -15.816619 4294967295
22.427591 19.136877 -15.592685 4294967295
22.437164 18.338903 -15.456951 4294967295
22.443727 18.978214 -15.50349 4294967295
22.443892 22.012192 -15.85971 4294967295
22.472692 21.53561 -15.677764 4294967295
22.484707 22.49473 -15.73808 4294967295
22.510738 19.941229 -15.323914 4294967295
22.516098 18.183809 -15.093719 4294967295
22.518057 20.261299 -15.329583 4294967295
22.54627 21.062328 -15.300513 4294967295
22.547146 18.65173 -15.729745 4294967295
22.550571 21.70178 -15.356938 4294967295
22.561754 17.694445 -15.553382 4294967295
22.566641 20.249649 -15.832553 4294967295
22.568048 24.259348 -15.581391 4294967295
22.573923 23.940474 -15.518207 4294967295
22.592449 19.612787 -15.644994 4294967295
22.604029 21.210461 -15.78232 4294967295
22.625626 21.69124 -15.744574 4294967295
22.643929 18.497952 -15.289142 4294967295
22.662876 23.930023 -15.845183 4294967295
22.66577 23.61097 -15.795047 4294967295
22.666336 22.173782 -15.623586 4294967295
22.667246 21.375244 -15.525717 4294967295
22.670578 22.014429 -15.58633 4294967295
22.67223 20.097603 -15.353719 4294967295
22.677849 18.979458 -15.197688 4294967295
22.687361 23.13394 -15.644702 4294967295
22.699112 22.655844 -15.537185 4294967295
22.715839 21.538961 -15.332835 4294967295
22.717089 18.169754 -15.647125 4294967295
22.719315 18.968327 -15.7313 4294967295
22.72543 18.010534 -15.592034 4294967295
22.725761 23.457016 -15.515044 4294967295
22.734598 17.691612 -15.514558 4294967295
22.752232 20.248028 -15.738193 4294967295
22.753208 18.491335 -15.527431 4294967295
22.75473 24.098856 -15.464038 4294967295
22.7778 19.45129 -15.533042 4294967295
22.778448 20.409653 -15.642873 4294967295
22.793447 20.889917 -15.633921 4294967295
22.796803 22.806467 -15.844556 4294967295
22.797533 22.167831 -15.766306 4294967295
22.81461 20.572079 -15.504279 4294967295
22.822275 20.093382 -15.414587 4294967295
22.825659 23.447847 -15.794106 4294967295
22.829031 22.969093 -15.723136 4294967295
22.852381 22.332312 -15.546472 4294967295
22.863956 23.611217 -15.646298 4294967295
22.899225 19.445179 -15.718082 4294967295
22.914387 20.883411 -15.821033 4294967295
22.918297 19.127031 -15.597631 4294967295
22.947847 19.767939 -15.54423 4294967295
22.97242 17.852179 -15.212082 4294967295
22.981991 21.208126 -15.564734 4294967295
22.988848 22.96563 -15.741349 4294967295
22.990934 24.243315 -15.882349 4294967295
22.991964 19.930794 -15.37121 4294967295
22.993204 21.84799 -15.591071 4294967295
23.000481 22.32781 -15.615748 4294967295
23.001812 18.493185 -15.159388 4294967295
23.035372 23.768612 -15.633034 4294967295
23.049793 22.012541 -15.363921 4294967295
23.060015 19.601418 -15.750573 4294967295
23.065325 18.164337 -15.558677 4294967295
23.066973 24.091215 -15.533289 4294967295
23.106833 20.722723 -15.67859 4294967295
23.110863 20.403584 -15.623571 4294967295
23.131529 18.807402 -15.34618 4294967295
23.133356 18.008499 -15.244385 4294967295
23.139648 21.523928 -15.62991 4294967295
23.145237 19.767031 -15.399256 4294967295
23.148161 17.689678 -15.142526 4294967295
23.153059 20.886009 -15.496644 4294967295
23.156588 22.643459 -15.687692 4294967295
23.164034 19.928137 -15.336396 4294967295
23.181961 19.449928 -15.202236 4294967295
23.198347 21.049318 -15.318794 4294967295
23.208185 23.287155 -15.538796 4294967295
23.213646 18.652678 -14.970739 4294967295
23.237831 18.640766 -15.577959 4294967295
23.240368 24.248886 -15.51171 4294967295
23.243895 22.171799 -15.25246 4294967295
23.279922 19.282471 -15.470392 4294967295
23.284687 18.164263 -15.318396 4294967295
23.286535 18.963346 -15.404186 4294967295
23.316324 21.841309 -15.612603 4294967295
23.322813 21.202814 -15.509448 4294967295
23.323324 19.604965 -15.319642 4294967295
23.342001 22.642273 -15.595041 4294967295
23.343782 20.08584 -15.28719 4294967295
23.356319 20.246571 -15.251577 4294967295
23.356529 23.282612 -15.60707 4294967295
23.359648 21.685146 -15.406002 4294967295
23.363976 22.963781 -15.537285 4294967295
23.368643 20.567144 -15.235658 4294967295
23.368839 21.526096 -15.347383 4294967295
23.372618 23.603653 -15.574839 4294967295
23.376747 20.887432 -15.238043 4294967295
23.379017 22.485785 -15.415809 4294967295
23.380766 19.129251 -15.014165 4294967295
23.402121 20.07506 -15.745438 4294967295
23.408634 22.328566 -15.268649 4294967295
23.415483 19.117592 -15.575062 4294967295
23.424198 19.437668 -15.5748 4294967295
23.425484 21.35449 -15.794156 4294967295
23.449507 18.32081 -15.33386 4294967295
23.452477 20.398186 -15.564773 4294967295
23.453291 18.480844 -15.336218 4294967295
23.462915 18.960863 -15.350781 4294967295
23.463385 19.600088 -15.423757 4294967295
23.474743 20.559607 -15.487061 4294967295
23.475063 22.63641 -15.729368 4294967295
23.484524 20.87991 -15.48219 4294967295
23.487446 18.003353 -15.131924 4294967295
23.503988 23.916922 -15.754049 4294967295
23.517426 19.284065 -15.15209 4294967295
23.53237 24.239208 -15.668664 4294967295
23.567093 22.804447 -15.349605 4294967295
23.574396 18.315189 -15.503499 4294967295
23.578802 22.006271 -15.205118 4294967295
23.581764 22.965609 -15.304825 4294967295
23.59412 18.635939 -15.455606 4294967295
23.651955 19.278858 -15.280272 4294967295
23.663498 20.558258 -15.380304 4294967295
23.663988 21.357313 -15.471903 4294967295
23.664948 20.398548 -15.355283 4294967295
23.665821 22.156387 -15.557684 4294967295
23.671785 20.718697 -15.363189 4294967295
23.675442 21.03861 -15.384864 4294967295
23.677402 22.317165 -15.526325 4294967295
23.678602 24.074659 -15.727243 4294967295
23.68631 20.080427 -15.225346 4294967295
23.69268 23.277224 -15.57268 4294967295
23.693048 18.9618 -15.0649 4294967295
23.694403 22.957821 -15.527749 4294967295
23.7001 20.880692 -15.259424 4294967295
23.7048 22.639166 -15.4453 4294967295
23.713041 19.762568 -15.072147 4294967295
23.719118 23.918886 -15.533305 4294967295
23.721712 21.841499 -15.278415 4294967295
23.732378 21.20293 -15.157266 4294967295
23.737085 24.240255 -15.493086 4294967295
23.739559 20.069302 -15.704743 4294967295
23.746006 18.791685 -15.527013 4294967295
23.748888 23.602148 -15.36708 4294967295
23.749012 19.111423 -15.551488 4294967295
23.785826 19.912811 -15.48602 4294967295
23.785919 19.593227 -15.448144 4294967295
23.790672 22.78883 -15.802235 4294967295
23.793034 19.274088 -15.379905 4294967295
23.817356 18.316559 -15.162282 4294967295
23.85181 23.433466 -15.613016 4294967295
23.89142 22.478228 -15.329485 4294967295
23.949594 21.826853 -15.712158 4294967295
23.964399 22.307365 -15.704423 4294967295
23.968176 20.230495 -15.444685 4294967295
23.973558 21.669071 -15.590005 4294967295
23.984467 23.746922 -15.786312 4294967295
23.989637 19.912371 -15.314557 4294967295
23.995964 22.629669 -15.605646 4294967295
23.997856 21.511261 -15.466393 4294967295
24.001423 20.552588 -15.338605 4294967295
24.004723 19.753567 -15.230679 4294967295
24.005587 18.474579 -15.077033 4294967295
24.008307 21.192455 -15.383826 4294967295
24.013599 22.471436 -15.510816 4294967295
24.016472 19.114838 -15.104993 4294967295
24.022196 20.39427 -15.230186 4294967295
24.022514 23.910376 -15.64087 4294967295
24.02899 24.390343 -15.669096 4294967295
24.032076 22.153399 -15.393619 4294967295
24.033089 19.435724 -15.070717 4294967295
24.035702 23.592072 -15.546522 4294967295
24.05509 22.954607 -15.387952 4294967295
24.059891 20.876743 -15.123667 4294967295
24.06003 23.274733 -15.404092 4294967295
24.071091 23.115915 -15.33763 4294967295
24.089396 20.863239 -15.704625 4294967295
24.094301 20.544086 -15.646037 4294967295
24.134348 20.227432 -15.43589 4294967295
24.214663 22.311708 -15.333016 4294967295
24.215897 21.192711 -15.196598 4294967295
24.22027 21.99246 -15.271389 4294967295
24.25992 19.582264 -15.527229 4294967295
24.287172 20.063587 -15.465968 4294967295
24.321634 24.220966 -15.804032 4294967295
24.322334 23.901524 -15.763612 4294967295
24.325151 20.865541 -15.395955 4294967295
24.326656 21.984461 -15.520486 4294967295
24.329237 22.464111 -15.565516 4294967295
24.329451 22.623934 -15.583306 4294967295
24.330667 20.226542 -15.297316 4294967295
24.337257 19.747383 -15.21276 4294967295
24.339844 19.907446 -15.220344 4294967295
24.340172 18.948099 -15.106576 4294967295
24.34564 23.104809 -15.569731 4294967295
24.346256 21.506582 -15.379936 4294967295
24.37311 21.188992 -15.226841 4294967295
24.381815 23.747488 -15.488846 4294967295
24.388624 23.428459 -15.422103 4294967295
24.400267 20.551432 -15.034963 4294967295
24.411764 24.389793 -15.434776 4294967295
24.417622 20.217768 -15.629717 4294967295
24.431633 23.272612 -15.218218 4294967295
24.431816 20.698177 -15.624756 4294967295
24.463017 22.618126 -15.714966 4294967295
24.468636 21.34024 -15.541168 4294967295
24.478489 23.258635 -15.723225 4294967295
24.531525 24.062681 -15.588671 4294967295
24.545759 22.46558 -15.340385 4294967295
24.568321 22.947218 -15.299482 4294967295
24.661713 18.474485 -14.373274 4294967295
24.664417 19.261114 -15.162158 4294967295
24.665844 20.860115 -15.343114 4294967295
24.666323 18.154543 -14.315944 4294967295
24.666536 24.376352 -15.751517 4294967295
24.666965 23.89703 -15.693594 4294967295
24.67379 21.819923 -15.421202 4294967295
24.68358 20.541679 -15.229474 4294967295
24.68395 22.620045 -15.471059 4294967295
24.686237 22.939936 -15.498629 4294967295
24.687576 22.140799 -15.399367 4294967295
24.697247 21.661985 -15.301706 4294967295
24.708202 23.581348 -15.47908 4294967295
24.726702 24.222544 -15.474423 4294967295
24.774345 17.987917 -14.539758 4294967295
24.77508 19.733919 -15.448353 4294967295
24.786846 20.214283 -15.453921 4294967295
24.812832 18.150196 -14.393009 4294967295
24.813892 21.015558 -15.431297 4294967295
24.81415 20.695856 -15.392802 4294967295
24.818724 19.577011 -15.242261 4294967295
24.822464 21.176085 -15.413201 4294967295
24.824112 19.897175 -15.25653 4294967295
24.842293 17.671474 -14.210113 4294967295
24.853842 22.457582 -15.428101 4294967295
24.868387 23.418053 -15.47785 4294967295
24.886457 22.300522 -15.269433 4294967295
24.89645 24.379927 -15.469614 4294967295
24.914888 20.863392 -14.979059 4294967295
24.936384 23.744278 -15.223503 4294967295
24.988312 20.373634 -15.312843 4294967295
25.007282 23.252777 -15.56792 4294967295
25.008596 19.895351 -15.169765 4294967295
25.011913 22.773655 -15.492009 4294967295
25.017757 20.215851 -15.167879 4294967295
25.018299 23.093945 -15.502016 4294967295
25.019617 21.65519 -15.328161 4294967295
25.020407 17.829041 -14.170231 4294967295
25.021326 22.134996 -15.376905 4294967295
25.023956 21.335739 -15.272168 4294967295
25.02655 23.893969 -15.560073 4294967295
25.028416 24.213833 -15.589449 4294967295
25.040491 22.456421 -15.332137 4294967295
25.053617 23.576836 -15.406707 4294967295
25.059299 20.538767 -15.027136 4294967295
25.063555 21.018972 -15.064991 4294967295
25.075258 21.979626 -15.127013 4294967295
25.080626 17.81995 -14.617604 4294967295
25.119598 18.142294 -14.487844 4294967295
25.132698 21.328175 -15.510087 4294967295
25.146225 20.529856 -15.358734 4294967295
25.151077 19.730696 -15.244509 4294967295
25.177656 22.291077 -15.429653 4294967295
25.214478 19.895006 -14.991607 4294967295
25.249699 23.576784 -15.27068 4294967295
25.264246 20.858587 -14.890615 4294967295
25.270309 22.938911 -15.10769 4294967295
25.279383 20.684225 -15.510527 4294967295
25.291931 20.045645 -15.382133 4294967295
25.292442 18.459671 -14.489232 4294967295
25.327831 18.301636 -14.318873 4294967295
25.344011 18.622896 -14.286974 4294967295
25.345297 24.206627 -15.639378 4294967295
25.347736 21.808762 -15.348845 4294967295
25.354357 23.408218 -15.507289 4294967295
25.354973 20.849813 -15.205811 4294967295
25.359718 22.929071 -15.428336 4294967295
25.377062 21.171402 -15.148672 4294967295
25.378181 22.131138 -15.255983 4294967295
25.382017 22.291393 -15.258261 4294967295
25.383211 23.251007 -15.365223 4294967295
25.387697 22.611744 -15.271323 4294967295
25.402637 17.812914 -14.646675 4294967295
25.410818 23.093616 -15.228489 4294967295
25.424461 21.4951 -14.983286 4294967295
25.429556 24.055017 -15.260446 4294967295
25.439411 18.45533 -14.564079 4294967295
25.449957 24.376921 -15.210575 4294967295
25.46228 20.202749 -15.374819 4294967295
25.465963 18.617025 -14.469139 4294967295
25.471895 21.802317 -15.520429 4294967295
25.472515 20.523289 -15.368422 4294967295
25.480839 20.044153 -15.276832 4294967295
25.503099 18.298954 -14.27277 4294967295
25.504045 22.444544 -15.457735 4294967295
25.52527 23.885408 -15.535066 4294967295
25.528051 23.565916 -15.485854 4294967295
25.549585 20.688942 -15.057731 4294967295
25.574804 20.370798 -14.912585 4294967295
25.584791 21.0116 -14.944647 4294967295
25.661253 22.760582 -15.525391 4294967295
25.669212 20.202572 -15.192782 4294967295
25.674992 22.122194 -15.392114 4294967295
25.677511 19.883232 -15.120007 4294967295
25.685335 18.456863 -14.215753 4294967295
25.685488 23.722092 -15.533939 4294967295
25.688049 22.443136 -15.373715 4294967295
25.694138 22.283739 -15.329077 4294967295
25.695507 23.403254 -15.453873 4294967295
25.699928 21.004639 -15.155014 4294967295
25.701937 20.524872 -15.090423 4294967295
25.710443 18.938976 -14.164536 4294967295
25.715651 21.805708 -15.181262 4294967295
25.71784 22.925541 -15.302592 4294967295
25.72506 22.606293 -15.234447 4294967295
25.726627 21.166679 -15.059718 4294967295
25.728052 20.686796 -14.997613 4294967295
25.739731 24.366987 -15.377169 4294967295
25.741385 17.806795 -14.604401 4294967295
25.743101 20.367868 -14.896019 4294967295
25.747894 17.647051 -14.557901 4294967295
25.756645 21.969082 -15.024975 4294967295
25.760315 24.049137 -15.252029 4294967295
25.783716 24.211395 -15.170867 4294967295
25.793507 18.610348 -14.475249 4294967295
25.807421 18.931467 -14.453222 4294967295
25.809759 18.291029 -14.368457 4294967295
25.822002 22.917051 -15.559257 4294967295
25.835548 22.758371 -15.482874 4294967295
25.845846 18.132933 -14.195642 4294967295
25.849653 22.119938 -15.348128 4294967295
25.855257 20.36088 -15.118954 4294967295
25.900696 21.164257 -15.018538 4294967295
25.917873 23.245607 -15.187966 4294967295
25.936754 24.04727 -15.200805 4294967295
25.989019 21.63496 -15.398644 4294967295
26.023006 18.290546 -14.160636 4294967295
26.024734 22.117712 -15.302509 4294967295
26.025745 18.611134 -14.186344 4294967295
26.031643 18.931913 -14.198578 4294967295
26.033136 23.557871 -15.434591 4294967295
26.036331 22.438601 -15.290436 4294967295
26.03849 20.199018 -15.020036 4294967295
26.038994 21.479023 -15.167168 4294967295
26.045996 17.811142 -14.006468 4294967295
26.047403 20.519686 -15.019396 4294967295
26.056181 20.840366 -15.01934 4294967295
26.057682 18.132305 -13.994011 4294967295
26.059916 23.720335 -15.339243 4294967295
26.071426 22.601618 -15.159667 4294967295
26.075859 21.161915 -14.972853 4294967295
26.082804 24.202404 -15.297767 4294967295
26.088425 21.803026 -14.99399 4294967295
26.099947 23.24415 -15.112869 4294967295
26.106045 21.964512 -14.937622 4294967295
26.106514 24.044748 -15.178199 4294967295
26.112259 23.085262 -15.041798 4294967295
26.137175 18.764793 -14.43158 4294967295
26.139727 19.085258 -14.458066 4294967295
26.145639 21.791103 -15.450216 4294967295
26.158737 17.804968 -14.2276 4294967295
26.165766 21.952688 -15.38325 4294967295
26.16596 22.752327 -15.475635 4294967295
26.171099 23.072615 -15.491055 4294967295
26.187511 23.393951 -15.458548 4294967295
26.193352 24.353991 -15.545546 4294967295
26.214598 21.636753 -15.138246 4294967295
26.277651 22.28207 -14.944667 4294967295
26.315273 21.468523 -15.390559 4294967295
26.324146 19.24342 -14.392206 4294967295
26.336819 19.564608 -14.375629 4294967295
26.341911 20.670755 -15.184161 4294967295
26.358772 19.085436 -14.226169 4294967295
26.361362 22.592009 -15.325211 4294967295
26.364651 20.352409 -15.050234 4294967295
26.366282 21.792561 -15.211106 4294967295
26.376287 17.964792 -14.02084 4294967295
26.380711 18.125305 -14.020696 4294967295
26.380987 24.193333 -15.428213 4294967295
26.388493 23.394272 -15.303156 4294967295
26.393209 18.286293 -13.986186 4294967295
26.39904 21.955257 -15.090569 4294967295
26.402735 21.155407 -14.981628 4294967295
26.408527 21.635979 -15.012963 4294967295
26.411421 22.436356 -15.093904 4294967295
26.417927 21.316637 -14.935724 4294967295
26.423887 23.077524 -15.115524 4294967295
26.426746 23.557821 -15.159314 4294967295
26.44249 18.116148 -14.458145 4294967295
26.463818 24.361481 -15.095078 4294967295
26.464636 18.277586 -14.382653 4294967295
26.472261 23.882191 -15.003285 4294967295
26.475382 18.918947 -14.411644 4294967295
26.498272 18.599958 -14.27699 4294967295
26.516928 19.402178 -14.29104 4294967295
26.517654 22.908104 -15.397011 4294967295
26.518778 21.148487 -15.187277 4294967295
26.526304 21.46907 -15.1926 4294967295
26.532551 19.563425 -14.243304 4294967295
26.550915 20.350763 -14.957657 4294967295
26.559422 23.871735 -15.331579 4294967295
26.578539 21.953362 -15.026829 4294967295
26.635555 19.556076 -14.505054 4294967295
26.646502 21.782303 -15.4175 4294967295
26.691477 17.797079 -14.062262 4294967295
26.700165 21.626669 -15.171375 4294967295
26.704746 21.94706 -15.189207 4294967295
26.706829 20.987101 -15.068595 4294967295
26.707792 17.637678 -13.974298 4294967295
26.708729 20.667166 -15.02327 4294967295
26.722401 18.92078 -14.061643 4294967295
26.723022 20.828279 -14.981295 4294967295
26.727898 18.760838 -14.019628 4294967295
26.730894 22.269281 -15.115629 4294967295
26.733606 22.909603 -15.178656 4294967295
26.740046 22.590124 -15.114099 4294967295
26.741125 19.242521 -14.019472 4294967295
26.744267 21.470154 -14.965768 4294967295
26.746403 17.947927 -14.546544 4294967295
26.749022 23.39105 -15.169209 4294967295
26.756966 24.191874 -15.228684 4294967295
26.769571 23.552988 -15.100745 4294967295
26.785456 18.430662 -14.436833 4294967295
26.786617 19.231604 -14.525169 4294967295
26.798702 23.075483 -14.921384 4294967295
26.805832 18.912457 -14.406359 4294967295
26.807348 18.271738 -14.325302 4294967295
26.830242 21.300783 -15.279834 4294967295
26.835686 19.555178 -14.35436 4294967295
26.844151 19.876169 -14.355776 4294967295
26.846115 23.701662 -15.491879 4294967295
26.895004 19.719383 -14.12145 4294967295
26.92518 22.588806 -15.026809 4294967295
26.942457 23.550703 -15.065423 4294967295
26.964638 24.353113 -15.064659 4294967295
26.968565 18.58865 -14.377089 4294967295
26.988567 22.257004 -15.417465 4294967295
27.013403 24.338669 -15.554332 4294967295
27.022274 23.059814 -15.367959 4294967295
27.028772 20.354998 -14.327168 4294967295
27.02927 23.860342 -15.43142 4294967295
27.035118 21.460806 -15.127496 4294967295
27.035963 22.741043 -15.272848 4294967295
27.039961 23.381399 -15.33039 4294967295
27.043739 22.42169 -15.202731 4294967295
27.045879 19.554939 -14.16144 4294967295
27.056435 22.102697 -15.111801 4294967295
27.070162 22.904083 -15.146831 4294967295
27.072968 21.623875 -14.98601 4294967295
27.081409 21.94471 -14.987546 4294967295
27.096481 23.546656 -15.11 4294967295
27.136335 19.546772 -14.475704 4294967295
27.147947 18.265759 -14.277421 4294967295
27.151587 19.067131 -14.35524 4294967295
27.152632 19.387636 -14.388099 4294967295
27.159317 18.106157 -14.210649 4294967295
27.162912 21.614746 -15.301297 4294967295
27.17642 23.215776 -15.430269 4294967295
27.184952 18.908968 -14.195385 4294967295
27.197641 20.817286 -15.06149 4294967295
27.204996 18.589628 -14.073254 4294967295
27.209181 24.338726 -15.422112 4294967295
27.2141 23.85923 -15.345527 4294967295
27.223782 18.75106 -14.012397 4294967295
27.228901 21.299877 -14.985234 4294967295
27.246634 22.26178 -15.022002 4294967295
27.259415 21.142139 -14.837678 4294967295
27.30739 19.864349 -14.485906 4294967295
27.313183 23.068081 -14.833953 4294967295
27.34532 19.225937 -14.251037 4294967295
27.359556 23.534386 -15.388807 4294967295
27.367373 23.375107 -15.337234 4294967295
27.371977 22.735451 -15.243407 4294967295
27.374531 21.135164 -15.046583 4294967295
27.374548 23.055729 -15.269755 4294967295
27.376295 21.615499 -15.09496 4294967295
27.392355 22.097 -15.082998 4294967295
27.394821 19.549711 -14.07907 4294967295
27.394844 18.748146 -13.985747 4294967295
27.396547 24.337946 -15.325734 4294967295
27.402178 23.698385 -15.227585 4294967295
27.40259 20.191439 -14.120809 4294967295
27.411221 21.298088 -14.910324 4294967295
27.413542 22.418934 -15.030793 4294967295
27.421211 22.259497 -14.979824 4294967295
27.439758 19.392324 -13.870477 4294967295
27.443689 24.182514 -15.108254 4294967295
27.463219 23.864223 -14.988654 4294967295
27.471386 19.2202 -14.414258 4294967295
27.471455 18.899748 -14.376714 4294967295
27.488169 18.42001 -14.250236 4294967295
27.505146 17.619549 -14.085358 4294967295
27.509581 19.863663 -14.327509 4294967295
27.514969 23.370481 -15.408634 4294967295
27.522923 21.450861 -15.151986 4294967295
27.524431 18.101517 -14.059815 4294967295
27.526468 19.063427 -14.163041 4294967295
27.528185 18.742949 -14.11852 4294967295
27.569504 20.974201 -14.899778 4294967295
27.573971 22.095284 -15.011172 4294967295
27.591158 21.616362 -14.8829 4294967295
27.629967 23.220905 -14.905362 4294967295
27.708738 21.449369 -15.062475 4294967295
27.716417 18.260061 -13.963608 4294967295
27.717659 18.901474 -14.032909 4294967295
27.726196 17.939907 -13.885076 4294967295
27.729918 19.864201 -14.092992 4294967295
27.733458 21.291201 -14.939776 4294967295
27.73802 23.372768 -15.162283 4294967295
27.738621 22.252251 -15.029613 4294967295
27.745871 20.185946 -14.062975 4294967295
27.747652 22.092901 -14.97298 4294967295
27.748259 24.174049 -15.212128 4294967295
27.749041 21.612665 -14.911341 4294967295
27.750809 21.132412 -14.848096 4294967295
27.751204 23.854202 -15.162555 4294967295
27.757366 19.545366 -13.93996 4294967295
27.759596 19.224792 -13.893285 4294967295
27.763208 22.894775 -15.000461 4294967295
27.768589 18.744223 -13.799438 4294967295
27.796249 20.014488 -14.526454 4294967295
27.797527 23.538349 -14.930358 4294967295
27.80098 23.218399 -14.878631 4294967295
27.832209 19.53619 -14.319123 4294967295
27.833124 17.773083 -14.110434 4294967295
27.835278 22.723492 -15.371237 4294967295
27.838484 18.574902 -14.180965 4294967295
27.855738 23.525429 -15.378077 4294967295
27.856049 19.377466 -14.200063 4294967295
27.888741 22.568073 -15.127796 4294967295
27.909353 22.890045 -15.078273 4294967295
27.919794 22.410631 -14.978603 4294967295
27.957638 24.335459 -15.04251 4294967295
27.959999 24.175575 -15.013998 4294967295
27.963505 20.972704 -14.627368 4294967295
