# .PCD v0.7 - Point Cloud Data file format
VERSION 0.7
FIELDS x y z rgb
SIZE 4 4 4 4
TYPE F F F U
COUNT 1 1 1 1
WIDTH 1147
HEIGHT 1
VIEWPOINT 0 0 0 1 0 0 0
POINTS 1147
DATA ascii
46.569118 96.88308 -17.23432 4294967295
46.576092 94.473701 -16.940363 4294967295
46.591103 95.76844 -17.027393 4294967295
46.61607 96.585739 -17.023733 4294967295
46.666492 98.221062 -17.014633 4294967295
46.689175 92.51619 -16.927725 4294967295
46.717506 97.0345 -17.322378 4294967295
46.725391 96.556099 -17.239481 4294967295
46.737808 96.723381 -17.21113 4294967295
46.741882 95.438568 -17.053099 4294967295
46.743416 95.921982 -17.100981 4294967295
46.750954 94.799629 -16.947887 4294967295
46.755917 94.31942 -16.875814 4294967295
46.770584 95.131424 -16.910547 4294967295
46.774231 94.972359 -16.879118 4294967295
46.781303 96.26326 -16.995718 4294967295
46.781567 97.550491 -17.137632 4294967295
46.783722 95.620872 -16.91526 4294967295
46.809525 97.886932 -17.069344 4294967295
46.820126 98.375198 -17.083485 4294967295
46.833538 98.864998 -17.087177 4294967295
46.839741 97.259087 -16.885489 4294967295
46.848248 92.994995 -17.01177 4294967295
46.850739 92.674461 -16.966784 4294967295
46.865234 93.968735 -17.055744 4294967295
46.866158 98.72139 -16.948004 4294967295
46.873878 96.064278 -17.255714 4294967295
46.879414 93.814957 -16.985157 4294967295
46.885372 96.71357 -17.284393 4294967295
46.916283 94.477112 -16.919498 4294967295
46.92952 96.897324 -17.138157 4294967295
46.945904 97.388496 -17.130835 4294967295
46.947487 98.837151 -17.285601 4294967295
46.98539 92.175941 -17.034433 4294967295
46.988991 92.499466 -17.056759 4294967295
47.030708 92.359108 -16.883881 4294967295
47.040173 93.329254 -16.955853 4294967295
47.063942 96.880669 -17.260292 4294967295
47.0662 93.503136 -16.877005 4294967295
47.078625 97.049156 -17.223614 4294967295
47.086304 96.248741 -17.105858 4294967295
47.090904 96.572891 -17.124475 4294967295
47.09919 95.289909 -16.950888 4294967295
47.101421 95.612885 -16.978304 4294967295
47.101639 96.095734 -17.031055 4294967295
47.102135 94.969559 -16.904238 4294967295
47.119541 98.035782 -17.178783 4294967295
47.129555 97.55835 -17.088072 4294967295
47.135353 98.204994 -17.137932 4294967295
47.16621 93.148094 -17.091164 4294967295
47.181301 92.672897 -16.981607 4294967295
47.207012 98.886543 -16.943344 4294967295
47.209656 94.295998 -17.054852 4294967295
47.218903 98.731888 -16.881351 4294967295
47.252441 94.639381 -16.931774 4294967295
47.272854 94.810631 -16.873884 4294967295
47.286308 96.909615 -17.056015 4294967295
47.305805 97.402512 -17.037241 4294967295
47.32378 98.699303 -17.113338 4294967295
47.334358 97.095474 -16.895636 4294967295
47.351547 93.800858 -17.095575 4294967295
47.386532 94.622902 -17.05508 4294967295
47.387058 96.071198 -17.213692 4294967295
47.40435 96.72361 -17.220963 4294967295
47.424904 95.607849 -17.019911 4294967295
47.444565 96.26162 -17.018415 4294967295
47.447891 96.907028 -17.077446 4294967295
47.453793 95.300682 -16.877131 4294967295
47.474377 97.886345 -17.086351 4294967295
47.486191 97.73159 -17.024744 4294967295
47.515358 97.263916 -16.863129 4294967295
47.521854 92.193443 -16.906063 4294967295
47.524513 98.234528 -16.936287 4294967295
47.530994 93.163506 -16.979248 4294967295
47.534004 98.883385 -16.972502 4294967295
47.534672 92.360657 -16.876419 4294967295
47.537102 98.72406 -16.943182 4294967295
47.57917 93.992165 -16.890009 4294967295
47.593521 94.482224 -16.890383 4294967295
47.606361 95.13253 -16.914206 4294967295
47.645443 97.405899 -17.019268 4294967295
47.66452 96.610954 -16.859444 4294967295
47.705589 93.81105 -17.02375 4294967295
47.707512 94.455688 -17.087963 4294967295
47.708427 98.243645 -16.875324 4294967295
47.719425 93.013214 -16.883366 4294967295
47.72908 94.305588 -16.990334 4294967295
47.729237 95.914871 -17.168081 4294967295
47.731903 98.899986 -16.859812 4294967295
47.744709 96.888237 -17.217823 4294967295
47.744865 94.796341 -16.985439 4294967295
47.748676 96.085724 -17.114002 4294967295
47.751919 97.052864 -17.208984 4294967295
47.762875 95.288292 -16.972309 4294967295
47.772102 97.385147 -17.169996 4294967295
47.7868 96.427147 -17.008648 4294967295
47.818127 98.374763 -17.106787 4294967295
47.827415 97.896782 -17.018944 4294967295
47.849522 98.552223 -17.008545 4294967295
47.865017 93.324562 -16.99958 4294967295
47.909416 93.829468 -16.888937 4294967295
47.963413 97.558937 -17.099466 4294967295
48.006424 96.93734 -16.869257 4294967295
48.012318 98.872185 -17.061432 4294967295
48.022076 93.15876 -17.019838 4294967295
48.034546 92.521095 -16.902468 4294967295
48.03804 98.72477 -16.948599 4294967295
48.066467 95.595009 -17.123257 4294967295
48.082253 94.798256 -16.975866 4294967295
48.087624 95.122887 -16.99169 4294967295
48.10022 95.290222 -16.963003 4294967295
48.10614 97.546547 -17.190649 4294967295
48.143517 96.439133 -16.927942 4294967295
48.146603 96.6017 -16.93438 4294967295
48.148972 97.729759 -17.050398 4294967295
48.157368 98.217041 -17.072886 4294967295
48.172966 98.869095 -17.086609 4294967295
48.179993 97.906898 -16.953743 4294967295
48.227962 93.177979 -16.877747 4294967295
48.249359 94.315475 -16.923567 4294967295
48.300629 95.951233 -16.912685 4294967295
48.321453 92.176186 -17.043425 4294967295
48.387623 98.733414 -16.894901 4294967295
48.389236 98.895287 -16.906771 4294967295
48.395088 94.948761 -17.074854 4294967295
48.402515 94.791534 -17.029673 4294967295
48.404964 93.665909 -16.895937 4294967295
48.406834 94.310776 -16.960312 4294967295
48.427334 95.769875 -17.045105 4294967295
48.430103 96.576096 -17.123962 4294967295
48.444672 97.227417 -17.141535 4294967295
48.477501 96.4394 -16.931541 4294967295
48.478424 96.922867 -16.981583 4294967295
48.496845 98.059349 -17.038433 4294967295
48.514828 98.229729 -16.990017 4294967295
48.530807 97.755013 -16.87771 4294967295
48.531105 92.518906 -16.923368 4294967295
48.537346 92.682938 -16.918201 4294967295
48.539486 98.725677 -16.95265 4294967295
48.558018 93.01506 -16.877699 4294967295
48.558437 93.820221 -16.965216 4294967295
48.566448 93.341209 -16.88228 4294967295
48.617901 95.298935 -16.906614 4294967295
48.641644 95.955017 -16.890476 4294967295
48.707676 98.565483 -16.932472 4294967295
48.732094 98.900368 -16.878263 4294967295
48.774311 94.971657 -16.911781 4294967295
48.796597 96.43203 -16.990099 4294967295
48.801765 96.11264 -16.935478 4294967295
48.829147 96.931747 -16.923843 4294967295
48.866692 98.883545 -16.999491 4294967295
48.887383 92.851753 -16.880375 4294967295
48.891087 93.658607 -16.95578 4294967295
48.923985 94.47998 -16.923916 4294967295
48.92469 94.64135 -16.939119 4294967295
48.957447 95.78495 -16.943394 4294967295
48.970139 97.240547 -17.056973 4294967295
48.97374 97.725403 -17.097137 4294967295
48.993073 96.769264 -16.919338 4294967295
49.038116 98.241905 -16.914135 4294967295
49.050041 92.688583 -16.880316 4294967295
49.059464 98.736214 -16.889153 4294967295
49.122375 95.945007 -16.970747 4294967295
49.125793 95.141571 -16.869215 4294967295
49.127163 95.625374 -16.91758 4294967295
49.130764 97.076408 -17.064524 4294967295
49.147511 97.246025 -17.020882 4294967295
49.148022 96.763214 -16.965622 4294967295
49.149185 97.568932 -17.050329 4294967295
49.168545 98.062019 -17.032677 4294967295
49.196129 92.356316 -16.923273 4294967295
49.246891 93.830414 -16.897224 4294967295
49.247124 94.635658 -16.985338 4294967295
49.345192 98.87236 -17.088373 4294967295
49.35693 98.395378 -16.991997 4294967295
49.386852 93.011932 -16.909321 4294967295
49.404743 93.181725 -16.861553 4294967295
49.405293 93.504082 -16.895123 4294967295
49.437019 95.613327 -17.01013 4294967295
49.450882 96.26445 -17.030506 4294967295
49.463825 95.304726 -16.876368 4294967295
49.486046 96.121246 -16.883928 4294967295
49.497654 96.771408 -16.912567 4294967295
49.500309 96.611694 -16.885059 4294967295
49.513817 97.585007 -16.942318 4294967295
49.532642 98.077934 -16.92675 4294967295
49.547501 92.525665 -16.881165 4294967295
49.610508 95.455612 -16.970654 4294967295
49.688416 97.105797 -16.863443 4294967295
49.696541 97.432144 -16.869284 4294967295
49.704735 98.725014 -16.981579 4294967295
49.727737 98.414818 -16.861885 4294967295
49.734409 93.340569 -16.89926 4294967295
49.747646 93.830246 -16.904186 4294967295
49.75993 94.319489 -16.912607 4294967295
49.815762 96.924538 -16.992966 4294967295
49.82254 96.444786 -16.914848 4294967295
49.831993 96.610664 -16.898087 4294967295
49.854855 97.427773 -16.903423 4294967295
49.85508 97.588974 -16.920382 4294967295
49.864811 98.077248 -16.938154 4294967295
49.902424 98.90226 -16.889614 4294967295
49.982574 95.796974 -16.871511 4294967295
50.002445 96.451393 -16.870054 4294967295
50.0168 98.874962 -17.084223 4294967295
50.036751 97.918823 -16.904774 4294967295
50.047081 98.72966 -16.955925 4294967295
50.334591 96.611649 -16.899469 4294967295
50.388836 98.411713 -16.897228 4294967295
50.458668 96.106697 -17.004997 4294967295
50.515011 97.746307 -16.977446 4294967295
50.520542 97.2658 -16.904045 4294967295
50.571117 93.01889 -16.868557 4294967295
50.604916 94.32428 -16.887627 4294967295
50.652977 97.087128 -17.014616 4294967295
50.731266 92.693253 -16.860336 4294967295
50.741806 98.744011 -16.869133 4294967295
50.742123 98.905327 -16.88574 4294967295
50.749237 93.668648 -16.901516 4294967295
50.755833 93.832985 -16.895292 4294967295
50.769653 94.161995 -16.880558 4294967295
50.821346 96.604546 -16.958944 4294967295
50.884926 98.731735 -16.958704 4294967295
50.946953 94.328117 -16.863426 4294967295
50.977581 96.599129 -17.000662 4294967295
50.989285 96.282784 -16.922686 4294967295
51.026058 98.235069 -17.002134 4294967295
51.069748 98.418724 -16.861336 4294967295
51.089462 93.671516 -16.883896 4294967295
51.271324 94.000954 -16.868103 4294967295
51.318935 95.958298 -16.908413 4294967295
51.339817 97.580292 -17.010111 4294967295
51.391582 98.251411 -16.893547 4294967295
51.399738 98.900299 -16.934946 4294967295
51.402515 98.579391 -16.889416 4294967295
51.491367 96.444466 -16.94474 4294967295
51.531578 97.270607 -16.887854 4294967295
51.707993 97.920128 -16.927698 4294967295
51.721359 98.73288 -16.968006 4294967295
52.071003 98.418617 -16.882311 4294967295
52.392982 97.928833 -16.878977 4294967295
46.164745 99.184952 -17.121229 4294967295
46.169441 99.99173 -17.193083 4294967295
46.171375 99.671074 -17.150101 4294967295
46.20916 100.17406 -17.062677 4294967295
46.233612 99.382736 -16.881975 4294967295
46.251591 100.51886 -16.940042 4294967295
46.406151 100.83431 -17.023537 4294967295
46.488209 99.340904 -17.180559 4294967295
46.509216 99.995644 -17.173737 4294967295
46.528198 100.48852 -17.156626 4294967295
46.551014 101.30533 -17.160957 4294967295
46.67786 100.15779 -17.186684 4294967295
46.724735 101.47032 -17.155117 4294967295
46.747799 99.873634 -16.890633 4294967295
46.751244 101.80666 -17.092197 4294967295
46.76358 100.84783 -16.939106 4294967295
46.765255 101.17062 -16.968603 4294967295
46.79385 101.34718 -16.880054 4294967295
46.825909 100.46968 -17.294109 4294967295
46.843922 100.31854 -17.209278 4294967295
46.851475 99.679054 -17.109768 4294967295
46.858868 100.00482 -17.117994 4294967295
46.873516 101.46078 -17.224237 4294967295
46.876835 101.62349 -17.229755 4294967295
46.888527 105.58517 -16.992401 4294967295
46.907051 105.27378 -16.887791 4294967295
46.917114 102.1283 -17.133589 4294967295
46.947674 101.01845 -16.894966 4294967295
46.96233 99.810188 -17.337547 4294967295
46.97385 99.333771 -17.241199 4294967295
46.977821 102.00074 -16.890074 4294967295
46.989521 99.503014 -17.200842 4294967295
47.061237 99.219444 -16.898687 4294967295
47.06179 100.66823 -17.057352 4294967295
47.068172 102.11996 -17.194307 4294967295
47.073658 100.35277 -16.977552 4294967295
47.076546 101.96365 -17.14537 4294967295
47.08395 101.00212 -17.010748 4294967295
47.128101 99.166451 -17.271925 4294967295
47.129974 101.51006 -16.893393 4294967295
47.141613 100.29974 -17.346693 4294967295
47.145729 99.980225 -17.295734 4294967295
47.154507 99.824059 -17.245304 4294967295
47.156208 102.32937 -16.885265 4294967295
47.170517 100.95884 -17.310797 4294967295
47.192593 101.77525 -17.318113 4294967295
47.199303 99.687141 -17.061213 4294967295
47.19978 101.29652 -17.237909 4294967295
47.217079 101.46685 -17.19158 4294967295
47.219101 102.43336 -17.291143 4294967295
47.237286 101.15601 -17.080906 4294967295
47.241959 103.25049 -17.295567 4294967295
47.265114 103.10244 -17.191839 4294967295
47.286633 102.7925 -17.076334 4294967295
47.301033 103.44429 -17.094315 4294967295
47.325939 102.65325 -16.912674 4294967295
47.339409 99.834 -17.180281 4294967295
47.393909 99.541252 -16.942526 4294967295
47.394409 99.380554 -16.922831 4294967295
47.404373 99.224876 -16.868034 4294967295
47.410503 102.1254 -17.166538 4294967295
47.421909 100.36111 -16.927965 4294967295
47.425301 103.09912 -17.218742 4294967295
47.435886 102.94406 -17.161676 4294967295
47.437363 103.42768 -17.209724 4294967295
47.444069 100.69503 -16.881516 4294967295
47.444981 101.66142 -16.985233 4294967295
47.44812 104.23832 -17.259062 4294967295
47.459896 103.76212 -17.161921 4294967295
47.466286 102.63895 -17.01334 4294967295
47.479061 100.62411 -17.372211 4294967295
47.495171 100.95457 -17.348211 4294967295
47.499798 105.07215 -17.156826 4294967295
47.517639 100.00127 -17.157997 4294967295
47.531479 102.58324 -17.392082 4294967295
47.538929 101.78285 -17.275351 4294967295
47.556786 102.11445 -17.244907 4294967295
47.56078 102.27757 -17.247948 4294967295
47.563705 102.92283 -17.308441 4294967295
47.5756 103.41216 -17.317913 4294967295
47.583679 99.55368 -16.859877 4294967295
47.589172 100.52256 -16.946592 4294967295
47.625134 101.99094 -16.974009 4294967295
47.628216 101.18764 -16.873383 4294967295
47.637547 101.67574 -16.892363 4294967295
47.639278 104.25237 -17.171396 4294967295
47.644081 99.336288 -17.238312 4294967295
47.666271 105.7162 -17.23201 4294967295
47.674606 105.55998 -17.183344 4294967295
47.708344 104.93515 -16.987154 4294967295
47.714882 99.695862 -17.011993 4294967295
47.715694 101.14487 -17.169485 4294967295
47.715942 101.78873 -17.239891 4294967295
47.716816 100.17979 -17.05834 4294967295
47.718044 104.45757 -16.897734 4294967295
47.718807 101.62936 -17.211472 4294967295
47.724728 105.10542 -16.944361 4294967295
47.737156 100.99554 -17.072268 4294967295
47.756771 102.6158 -17.178034 4294967295
47.760315 99.881104 -16.861725 4294967295
47.772373 103.10726 -17.173836 4294967295
47.772873 103.75133 -17.243294 4294967295
47.774136 102.94728 -17.149485 4294967295
47.786671 101.98833 -16.996122 4294967295
47.787365 104.88601 -17.314507 4294967295
47.79874 103.9267 -17.165483 4294967295
47.808914 104.73721 -17.217018 4294967295
47.814781 99.33857 -17.226116 4294967295
47.815815 105.7068 -17.298479 4294967295
47.846172 104.11419 -17.007946 4294967295
47.846245 100.80367 -17.270241 4294967295
47.850357 105.88743 -17.188631 4294967295
47.85231 105.56658 -17.145754 4294967295
47.890514 99.861732 -16.999651 4294967295
47.891861 103.08142 -17.351198 4294967295
47.904129 102.28352 -17.216768 4294967295
47.938431 100.53139 -16.893881 4294967295
47.963257 103.44286 -17.123102 4294967295
47.977509 105.38243 -17.284351 4294967295
48.026592 103.31696 -16.871294 4294967295
48.037724 100.33436 -17.128027 4294967295
48.038555 104.45088 -16.951944 4294967295
48.045261 102.91344 -17.385317 4294967295
48.054092 99.216232 -16.942799 4294967295
48.057194 100.50578 -17.073963 4294967295
48.060493 102.2781 -17.257826 4294967295
48.06469 104.78764 -16.891077 4294967295
48.072464 100.99693 -17.071054 4294967295
48.078419 101.48309 -17.102539 4294967295
48.091259 103.74356 -17.30463 4294967295
48.099163 104.7136 -17.382368 4294967295
48.116386 103.4356 -17.176268 4294967295
48.118492 103.11481 -17.13286 4294967295
48.118862 102.79305 -17.095848 4294967295
48.130394 101.35027 -16.892841 4294967295
48.133343 103.92795 -17.167154 4294967295
48.139278 102.48226 -16.984837 4294967295
48.158585 102.17078 -16.877916 4294967295
48.167912 104.26923 -17.075247 4294967295
48.181309 99.839279 -17.162743 4294967295
48.204391 105.57784 -17.083231 4294967295
48.216679 104.94067 -16.9666 4294967295
48.216713 102.59447 -17.335011 4294967295
48.228401 105.10832 -16.941185 4294967295
48.237 99.546928 -16.921648 4294967295
48.239521 99.387253 -16.89452 4294967295
48.261925 104.87265 -17.417681 4294967295
48.271858 101.17575 -16.9713 4294967295
48.275398 100.53356 -16.88694 4294967295
48.293537 101.9926 -16.980459 4294967295
48.338932 101.44395 -17.377165 4294967295
48.340977 100.80135 -17.298401 4294967295
48.355446 105.8913 -17.179882 4294967295
48.366409 104.60934 -16.996922 4294967295
48.370148 100.978 -17.208725 4294967295
48.374645 100.65849 -17.156525 4294967295
48.381886 105.74529 -17.064629 4294967295
48.385044 99.376114 -16.975679 4294967295
48.385849 101.14744 -17.16868 4294967295
48.390411 105.58909 -17.015385 4294967295
48.393696 102.76131 -17.317871 4294967295
48.393723 99.541725 -16.961504 4294967295
48.394882 100.18637 -17.028507 4294967295
48.399113 104.78873 -16.894205 4294967295
48.411827 101.64444 -17.126398 4294967295
48.417084 102.45222 -17.196102 4294967295
48.436359 105.36015 -17.445641 4294967295
48.439739 103.91348 -17.272934 4294967295
48.44986 102.30915 -17.057549 4294967295
48.466141 101.83496 -16.944117 4294967295
48.468964 103.1247 -17.076242 4294967295
48.470665 104.73562 -17.2481 4294967295
48.492218 102.17125 -16.883682 4294967295
48.499882 105.55701 -17.229559 4294967295
48.509853 104.27453 -17.050356 4294967295
48.516373 102.98978 -16.883801 4294967295
48.528866 103.80198 -16.926884 4294967295
48.529392 104.9296 -17.049658 4294967295
48.546833 100.01762 -17.0681 4294967295
48.553364 102.11388 -17.275551 4294967295
48.555008 103.0805 -17.376308 4294967295
48.607693 102.94852 -17.164642 4294967295
48.641689 105.70425 -17.342236 4294967295
48.641911 103.61142 -17.109962 4294967295
48.654938 102.00818 -16.883911 4294967295
48.689003 103.95961 -16.972322 4294967295
48.69154 100.48896 -17.205498 4294967295
48.693657 101.13398 -17.268919 4294967295
48.697136 100.009 -17.131508 4294967295
48.699562 104.77077 -17.022522 4294967295
48.711323 105.26052 -17.032701 4294967295
48.729088 99.703964 -16.978361 4294967295
48.742271 100.83815 -17.054527 4294967295
48.743164 102.60963 -17.247074 4294967295
48.747032 101.80677 -17.143845 4294967295
48.75787 100.20237 -16.925938 4294967295
48.773567 105.52394 -17.455664 4294967295
48.7761 103.91565 -17.268406 4294967295
48.777157 103.11126 -17.175522 4294967295
48.806404 103.61044 -17.121416 4294967295
48.807117 101.51725 -16.887302 4294967295
48.812206 102.16426 -16.939831 4294967295
48.813999 104.09771 -17.146902 4294967295
48.818027 104.58301 -17.185503 4294967295
48.825996 102.0107 -16.871311 4294967295
48.838921 102.33989 -16.859417 4294967295
48.839165 105.72198 -17.232431 4294967295
48.860401 101.29514 -17.289598 4294967295
48.875767 103.80988 -16.884256 4294967295
48.891075 102.43858 -17.301479 4294967295
48.891403 104.30183 -16.880219 4294967295
48.894264 105.431 -16.99437 4294967295
48.904358 103.73363 -17.395025 4294967295
48.926949 103.26318 -17.258698 4294967295
48.930882 100.04476 -16.888241 4294967295
48.931038 101.6553 -17.06571 4294967295
48.932819 105.93603 -16.906118 4294967295
48.957134 102.95775 -17.112247 4294967295
48.962254 101.189 -16.897627 4294967295
49.003979 102.6613 -16.904602 4294967295
49.018646 102.83041 -16.868536 4294967295
49.024033 104.76627 -17.062387 4294967295
49.035385 101.62173 -17.297861 4294967295
49.036198 99.368149 -17.04578 4294967295
49.037708 99.852013 -17.09362 4294967295
49.040627 105.41981 -17.072666 4294967295
49.054134 104.46092 -16.916267 4294967295
49.057693 103.08265 -17.376099 4294967295
49.060093 105.75291 -17.036816 4294967295
49.063984 101.31518 -17.15733 4294967295
49.076466 99.067261 -16.862335 4294967295
49.084198 100.52087 -16.994164 4294967295
49.08897 104.06577 -17.368084 4294967295
49.10004 101.49564 -17.042803 4294967295
49.103199 100.36995 -16.90662 4294967295
49.106209 101.82106 -17.055752 4294967295
49.115913 104.24172 -17.287029 4294967295
49.119343 102.79444 -17.114334 4294967295
49.119389 102.63343 -17.096371 4294967295
49.136375 104.57513 -17.247562 4294967295
49.145123 105.38509 -17.304415 4294967295
49.149933 105.22678 -17.268991 4294967295
49.164536 105.07394 -17.197643 4294967295
49.171387 102.50075 -16.887777 4294967295
49.17638 103.9532 -17.029648 4294967295
49.194218 103.31872 -16.893011 4294967295
49.201843 103.64512 -16.900637 4294967295
49.230331 99.060547 -16.912802 4294967295
49.234631 102.12251 -17.235075 4294967295
49.237148 100.99673 -17.101326 4294967295
49.242798 99.550301 -16.920477 4294967295
49.247528 102.29053 -17.205585 4294967295
49.26416 103.10469 -17.233557 4294967295
49.264183 105.61317 -16.885588 4294967295
49.275299 105.04288 -17.406126 4294967295
49.342339 102.8254 -16.911417 4294967295
49.342922 105.72493 -17.229509 4294967295
49.351437 104.92446 -17.109379 4294967295
49.364536 103.32087 -16.883448 4294967295
49.376785 100.66032 -17.168259 4294967295
49.379616 104.45693 -16.952747 4294967295
49.385307 100.02073 -17.065893 4294967295
49.387222 102.27603 -17.307846 4294967295
49.397293 99.382843 -16.950834 4294967295
49.397888 104.30598 -16.86799 4294967295
49.39883 99.544716 -16.962994 4294967295
49.410069 100.19492 -16.992975 4294967295
49.416718 103.09715 -17.288734 4294967295
49.419296 102.77653 -17.243727 4294967295
49.428135 101.65408 -17.086878 4294967295
49.432053 100.85089 -16.983599 4294967295
49.433079 103.91119 -17.31772 4294967295
49.434025 99.88546 -16.869633 4294967295
49.451111 102.14968 -17.056087 4294967295
49.452446 102.63358 -17.104555 4294967295
49.459553 101.18778 -16.918447 4294967295
49.472569 104.57719 -17.244274 4294967295
49.496014 103.78492 -17.069527 4294967295
49.51593 103.31262 -16.943247 4294967295
49.517838 103.63586 -16.971844 4294967295
49.52457 105.73363 -17.178398 4294967295
49.536423 105.41816 -17.099455 4294967295
49.548008 105.10248 -17.021484 4294967295
49.570705 102.60735 -17.285318 4294967295
49.609863 103.4339 -17.230947 4294967295
49.635696 104.09231 -17.207571 4294967295
49.654251 105.39099 -17.281927 4294967295
49.672615 104.75704 -17.14366 4294967295
49.676033 105.72532 -17.237833 4294967295
49.700535 104.45039 -17.006001 4294967295
49.706734 99.370308 -17.045391 4294967295
49.712025 100.82253 -17.186018 4294967295
49.725029 99.863136 -17.031822 4294967295
49.732445 101.63866 -17.200241 4294967295
49.748466 102.77457 -17.266081 4294967295
49.770638 100.20943 -16.900612 4294967295
49.771076 100.04856 -16.881237 4294967295
49.774044 102.4664 -17.137068 4294967295
49.779072 103.11337 -17.189775 4294967295
49.781075 100.37608 -16.880245 4294967295
49.784054 101.34428 -16.976028 4294967295
49.785404 100.53949 -16.882189 4294967295
49.790798 101.83118 -17.004721 4294967295
49.79924 102.15791 -17.00942 4294967295
49.807827 105.22286 -17.315741 4294967295
49.820816 102.97511 -17.019455 4294967295
49.827515 103.62315 -17.066082 4294967295
49.84066 105.08016 -17.178022 4294967295
49.882095 105.74771 -17.097752 4294967295
49.892838 100.6691 -17.12015 4294967295
49.906303 105.6002 -16.991547 4294967295
49.910641 104.6358 -16.869036 4294967295
49.963982 104.0899 -17.233521 4294967295
49.971012 104.73801 -17.278919 4294967295
49.993828 104.26746 -17.142349 4294967295
50.030792 103.96566 -16.97188 4294967295
50.033623 104.93393 -17.068178 4294967295
50.037876 104.61407 -17.017117 4294967295
50.054951 99.700302 -17.033823 4294967295
50.062672 105.75574 -17.051027 4294967295
50.075115 100.9996 -17.10239 4294967295
50.07766 105.1196 -16.925232 4294967295
50.078445 100.35705 -17.019159 4294967295
50.079388 101.64618 -17.15786 4294967295
50.101414 102.62447 -17.184093 4294967295
50.117641 102.15002 -17.071608 4294967295
50.125523 103.12083 -17.149458 4294967295
50.135262 102.80396 -17.078402 4294967295
50.138985 105.22211 -17.331264 4294967295
50.155884 102.00956 -16.914335 4294967295
50.15591 101.84844 -16.89646 4294967295
50.180813 103.47327 -16.983332 4294967295
50.185215 102.50884 -16.860653 4294967295
50.215923 104.29826 -16.944149 4294967295
50.259182 99.397797 -16.865063 4294967295
50.283016 105.78606 -16.859453 4294967295
50.288872 100.38023 -16.863438 4294967295
50.325634 104.42805 -17.173567 4294967295
50.339512 103.63014 -17.034197 4294967295
50.339779 103.95253 -17.068758 4294967295
50.340866 102.50294 -16.904903 4294967295
50.341278 103.14773 -16.974472 4294967295
50.366699 104.93414 -17.077255 4294967295
50.366905 104.12859 -16.98769 4294967295
50.394638 105.59423 -17.046541 4294967295
50.399769 101.47832 -17.194832 4294967295
50.403599 105.27695 -16.978382 4294967295
50.419098 100.68317 -17.035667 4294967295
50.42569 105.77277 -16.951212 4294967295
50.427097 99.72068 -16.899958 4294967295
50.437767 100.85421 -16.985439 4294967295
50.43869 99.887909 -16.875511 4294967295
50.472549 101.35615 -16.912066 4294967295
50.499706 105.55998 -17.274889 4294967295
50.500893 102.98284 -16.986492 4294967295
50.562904 99.05999 -16.9452 4294967295
50.596413 105.29168 -16.887503 4294967295
50.641781 101.03522 -16.871313 4294967295
50.649094 104.10071 -17.182041 4294967295
50.658875 101.85016 -16.897913 4294967295
50.660282 102.97897 -17.017092 4294967295
50.666866 105.23827 -17.241663 4294967295
50.668522 102.33883 -16.916107 4294967295
50.668533 102.66116 -16.951571 4294967295
50.668755 102.01663 -16.87974 4294967295
50.676888 102.18217 -16.867918 4294967295
50.701748 103.48502 -16.919569 4294967295
50.711098 105.90742 -17.151871 4294967295
50.714226 104.62002 -16.998487 4294967295
50.718529 99.537544 -17.042522 4294967295
50.719959 104.9455 -17.013157 4294967295
50.722736 103.65767 -16.861 4294967295
50.737537 101.15862 -17.150919 4294967295
50.760723 100.2042 -16.96015 4294967295
50.767792 105.61682 -16.910288 4294967295
50.774532 100.69492 -16.963211 4294967295
50.775974 101.66248 -17.064486 4294967295
50.864346 103.3217 -16.920898 4294967295
50.869797 105.09747 -17.096336 4294967295
50.881973 103.97605 -16.927872 4294967295
50.893784 103.82133 -16.867207 4294967295
50.926235 104.96759 -16.873615 4294967295
50.927208 101.00977 -17.053606 4294967295
50.974617 102.32424 -17.023449 4294967295
50.975655 104.41948 -17.250326 4294967295
50.983822 103.61835 -17.13199 4294967295
50.984142 103.9408 -17.166304 4294967295
51.002918 103.30648 -17.027193 4294967295
51.014912 102.99067 -16.94817 4294967295
51.017334 105.5704 -17.223269 4294967295
51.049931 105.74972 -17.122747 4294967295
51.051792 105.26728 -17.062773 4294967295
51.056957 99.540131 -17.031956 4294967295
51.070511 99.869492 -17.018257 4294967295
51.083462 99.231651 -16.900301 4294967295
51.121155 102.63573 -17.136131 4294967295
51.121643 101.18568 -16.974703 4294967295
51.148415 101.36108 -16.895346 4294967295
51.148777 101.52246 -16.911777 4294967295
51.16087 101.6901 -16.885664 4294967295
51.172802 104.43639 -17.14398 4294967295
51.183113 104.76437 -17.142082 4294967295
51.200573 104.2905 -17.025572 4294967295
51.246227 100.67992 -17.078228 4294967295
51.261303 99.39856 -16.881689 4294967295
51.264973 99.561653 -16.886116 4294967295
51.280106 101.02015 -16.990929 4294967295
51.292133 100.3818 -16.87639 4294967295
51.304241 102.16116 -17.027628 4294967295
51.318611 102.6524 -17.028782 4294967295
51.350716 103.63684 -17.01889 4294967295
51.359062 105.09194 -17.148266 4294967295
51.362328 103.80436 -16.994566 4294967295
51.387711 104.78542 -17.009064 4294967295
51.394344 104.62788 -16.967304 4294967295
51.407444 99.226631 -16.942514 4294967295
51.429142 105.61439 -16.947708 4294967295
51.43557 100.04718 -16.929346 4294967295
51.439503 105.94259 -16.945677 4294967295
51.440384 101.01675 -17.018309 4294967295
51.447376 100.37574 -16.922062 4294967295
51.450321 101.989 -17.088718 4294967295
51.463631 100.54549 -16.880941 4294967295
51.477642 101.19768 -16.901163 4294967295
51.497246 104.27058 -17.167097 4294967295
51.508106 103.14831 -17.0037 4294967295
51.519882 105.73345 -17.24473 4294967295
51.521515 102.83317 -16.919708 4294967295
51.55162 103.49433 -16.881691 4294967295
51.562267 103.9838 -16.89637 4294967295
51.641098 103.13013 -17.129904 4294967295
51.648899 103.61784 -17.154869 4294967295
51.649517 101.68402 -16.939924 4294967295
51.653595 102.81454 -17.049269 4294967295
51.664768 103.94882 -17.132946 4294967295
51.670025 104.27403 -17.149389 4294967295
51.685009 102.18661 -16.864775 4294967295
51.707287 105.74514 -17.174215 4294967295
51.72678 104.62756 -16.979696 4294967295
51.736336 104.95525 -16.980614 4294967295
51.762844 104.80862 -16.867075 4294967295
51.773365 100.69415 -16.992756 4294967295
51.776463 100.3734 -16.946104 4294967295
51.787193 100.86263 -16.960506 4294967295
51.812027 101.03695 -16.88851 4294967295
51.850052 102.50818 -16.910667 4294967295
51.888149 105.10836 -17.056643 4294967295
51.903076 105.60024 -17.055912 4294967295
51.940636 99.565979 -16.870913 4294967295
51.946259 105.46294 -16.88228 4294967295
51.972443 102.32323 -17.057335 4294967295
51.979687 101.03741 -16.889439 4294967295
51.991146 101.8496 -16.93668 4294967295
51.996307 103.94799 -17.148365 4294967295
52.017223 103.47577 -17.019753 4294967295
52.020931 105.08977 -17.183525 4294967295
52.028793 104.77171 -17.119743 4294967295
52.045258 103.16848 -16.883175 4294967295
52.045959 104.61993 -17.040108 4294967295
52.108215 105.46041 -16.904125 4294967295
52.16412 102.82026 -17.024803 4294967295
52.1656 104.7554 -17.231991 4294967295
52.196827 104.1277 -17.048615 4294967295
52.260181 105.77486 -16.997412 4294967295
52.29213 101.18749 -16.991589 4294967295
52.348347 103.47462 -17.037029 4294967295
52.360245 103.31982 -16.976467 4294967295
52.362888 103.80495 -17.020082 4294967295
52.373047 102.84297 -16.877235 4294967295
52.378967 104.78111 -17.06843 4294967295
52.395485 105.59634 -17.097496 4294967295
52.402058 104.63252 -16.967587 4294967295
52.417316 104.31834 -16.877224 4294967295
52.435169 99.240318 -16.868757 4294967295
52.438488 105.94265 -16.978111 4294967295
52.442509 105.13852 -16.875084 4294967295
52.52272 102.35005 -16.890083 4294967295
52.524796 102.51242 -16.900326 4294967295
52.551403 105.26804 -17.105572 4294967295
52.57729 103.99215 -16.870825 4294967295
52.610481 105.94569 -16.963917 4294967295
52.680935 102.99052 -16.996094 4294967295
52.688557 102.67209 -16.933294 4294967295
52.688805 104.76836 -17.162485 4294967295
52.745224 105.44431 -17.03055 4294967295
52.808868 100.55106 -16.874594 4294967295
52.856735 102.02776 -16.861948 4294967295
52.961094 105.79407 -16.894308 4294967295
53.059734 103.49874 -16.895781 4294967295
53.071129 104.79523 -16.996447 4294967295
46.149624 110.7885 -17.197241 4294967295
46.176353 111.18689 -17.775824 4294967295
46.188633 109.74709 -17.569244 4294967295
46.206226 111.68744 -17.717995 4294967295
46.214436 110.72755 -17.580189 4294967295
46.229774 111.38015 -17.594444 4294967295
46.231846 112.66795 -17.729635 4294967295
46.244064 112.19302 -17.630482 4294967295
46.26667 110.59823 -17.367485 4294967295
46.274006 110.11998 -17.28651 4294967295
46.280407 112.537 -17.530693 4294967295
46.293308 107.23457 -16.89263 4294967295
46.302639 108.20584 -16.965122 4294967295
46.303047 110.45926 -17.213923 4294967295
46.376175 109.43847 -17.45837 4294967295
46.382141 110.40714 -17.543306 4294967295
46.408825 111.54919 -17.568914 4294967295
46.410019 112.9974 -17.725206 4294967295
46.412743 111.87326 -17.590048 4294967295
46.423122 107.53541 -17.068907 4294967295
46.428417 112.20454 -17.567373 4294967295
46.433868 107.05882 -16.97521 4294967295
46.440559 106.5798 -16.896618 4294967295
46.468678 111.74651 -17.363787 4294967295
46.478123 107.72854 -16.881731 4294967295
46.52113 110.71275 -17.684832 4294967295
46.521168 109.74781 -17.57757 4294967295
46.526455 111.19841 -17.718575 4294967295
46.531826 109.43248 -17.502169 4294967295
46.538689 110.56251 -17.601618 4294967295
46.541954 109.92108 -17.51803 4294967295
46.570328 112.83338 -17.733812 4294967295
46.573845 110.9054 -17.506466 4294967295
46.579174 111.0695 -17.504486 4294967295
46.601685 109.15222 -17.206329 4294967295
46.602695 110.11833 -17.30975 4294967295
46.602806 110.44021 -17.345068 4294967295
46.607059 112.05167 -17.507835 4294967295
46.691818 108.9465 -17.476227 4294967295
46.703747 109.11443 -17.449709 4294967295
46.706814 110.2423 -17.56328 4294967295
46.732491 108.64877 -17.289204 4294967295
46.742527 109.94193 -17.394751 4294967295
46.749519 108.49788 -17.208 4294967295
46.761097 110.59666 -17.397108 4294967295
46.765728 106.57586 -16.933283 4294967295
46.772209 110.1206 -17.30221 4294967295
46.799572 112.55079 -17.468313 4294967295
46.803692 111.42693 -17.327997 4294967295
46.804043 110.94436 -17.273111 4294967295
46.80658 109.33637 -17.085052 4294967295
46.808994 112.07384 -17.379711 4294967295
46.809181 112.87849 -17.468292 4294967295
46.839787 109.90105 -17.655638 4294967295
46.886742 112.02026 -17.713165 4294967295
46.888371 109.28651 -17.403709 4294967295
46.888664 111.21719 -17.616808 4294967295
46.896111 108.32563 -17.267834 4294967295
46.897774 111.86613 -17.654345 4294967295
46.902004 110.90351 -17.531557 4294967295
46.9221 109.46745 -17.29623 4294967295
46.928215 112.84989 -17.648348 4294967295
46.94796 109.64375 -17.217989 4294967295
46.964378 108.84869 -17.067684 4294967295
47.006069 109.09716 -17.570656 4294967295
47.007717 110.54575 -17.7251 4294967295
47.014431 110.87144 -17.735859 4294967295
47.01791 107.978 -17.401787 4294967295
47.047474 111.53477 -17.684586 4294967295
47.061035 112.34727 -17.723442 4294967295
47.06567 111.22406 -17.581381 4294967295
47.070354 111.38776 -17.581829 4294967295
47.074657 109.78142 -17.387415 4294967295
47.075871 111.87373 -17.614885 4294967295
47.076649 110.10442 -17.415716 4294967295
47.106392 110.76591 -17.376709 4294967295
47.106426 108.19076 -17.090952 4294967295
47.109463 112.21596 -17.525919 4294967295
47.114899 108.83962 -17.130922 4294967295
47.117527 108.51923 -17.085461 4294967295
47.118153 110.4511 -17.297363 4294967295
47.120182 109.48661 -17.18273 4294967295
47.139481 111.1077 -17.28961 4294967295
47.141109 112.55711 -17.444187 4294967295
47.143047 109.01722 -17.044268 4294967295
47.163784 109.73582 -17.678082 4294967295
47.171196 108.77505 -17.543564 4294967295
47.174118 112.8992 -17.357412 4294967295
47.181355 107.8157 -17.398853 4294967295
47.196533 107.18087 -17.271156 4294967295
47.205509 107.99072 -17.327084 4294967295
47.221832 112.82689 -17.801678 4294967295
47.223591 110.73676 -17.563316 4294967295
47.226871 109.29062 -17.390598 4294967295
47.232662 108.4894 -17.279902 4294967295
47.235519 109.61758 -17.394217 4294967295
47.23896 112.19394 -17.666857 4294967295
47.253521 107.69683 -17.113289 4294967295
47.256283 107.53746 -17.085192 4294967295
47.261333 113.01199 -17.673101 4294967295
47.26815 111.4072 -17.469469 4294967295
47.297691 111.74693 -17.395643 4294967295
47.347576 106.3676 -17.242941 4294967295
47.364071 107.34274 -17.288851 4294967295
47.377861 110.40813 -17.576643 4294967295
47.384346 107.03258 -17.178024 4294967295
47.387848 111.5403 -17.664471 4294967295
47.389004 112.34533 -17.749331 4294967295
47.393147 109.77365 -17.448681 4294967295
47.408054 107.52922 -17.143675 4294967295
47.417274 112.04079 -17.608986 4294967295
47.418079 109.1447 -17.284956 4294967295
47.419189 106.73074 -17.013178 4294967295
47.425373 109.30996 -17.275776 4294967295
47.432693 110.60188 -17.391365 4294967295
47.433685 111.72894 -17.512535 4294967295
47.44368 108.51589 -17.118731 4294967295
47.451565 110.1303 -17.267942 4294967295
47.461044 108.04306 -17.000835 4294967295
47.462761 107.88304 -16.976631 4294967295
47.479256 112.56129 -17.432964 4294967295
47.479637 112.23963 -17.395884 4294967295
47.484024 107.31609 -17.464933 4294967295
47.491562 108.28582 -17.544003 4294967295
47.4949 110.31715 -17.125261 4294967295
47.495323 106.8399 -17.369598 4294967295
47.502171 111.9314 -17.276752 4294967295
47.506039 110.54655 -17.739977 4294967295
47.52142 106.21115 -17.201616 4294967295
47.533833 111.85013 -17.77972 4294967295
47.548923 112.98528 -17.848629 4294967295
47.552586 108.48248 -17.335938 4294967295
47.555595 106.39172 -17.092903 4294967295
47.569469 108.81427 -17.309113 4294967295
47.589863 110.27486 -17.394136 4294967295
47.602596 111.24811 -17.453997 4294967295
47.614227 109.32355 -17.196943 4294967295
47.635967 108.69236 -17.045115 4294967295
47.653969 106.192 -17.33103 4294967295
47.711273 109.28292 -17.457813 4294967295
47.719032 110.41394 -17.55389 4294967295
47.720909 112.6675 -17.796425 4294967295
47.726051 106.39424 -17.08219 4294967295
47.729332 109.61546 -17.426687 4294967295
47.729816 112.19029 -17.710056 4294967295
47.734692 111.87148 -17.656404 4294967295
47.735149 109.94077 -17.440834 4294967295
47.749004 106.72942 -17.032942 4294967295
47.750778 108.50139 -17.22258 4294967295
47.781872 111.57816 -17.446375 4294967295
47.790337 110.61749 -17.308125 4294967295
47.79422 112.55131 -17.507687 4294967295
47.803719 110.94745 -17.294313 4294967295
47.806442 107.47156 -17.529169 4294967295
47.818542 110.31234 -17.168182 4294967295
47.838619 106.84645 -17.33897 4294967295
47.843773 107.01036 -17.337757 4294967295
47.852123 106.37134 -17.23559 4294967295
47.873337 110.88981 -17.656221 4294967295
47.884918 107.99992 -17.292667 4294967295
47.910007 112.36003 -17.681143 4294967295
47.910046 106.24348 -17.003681 4294967295
47.915054 111.55853 -17.573433 4294967295
47.927013 107.38038 -17.065813 4294967295
47.941448 107.8718 -17.065969 4294967295
47.950226 110.131 -17.283142 4294967295
47.952805 106.17304 -17.464674 4294967295
47.961117 108.6884 -17.082453 4294967295
47.970295 109.98193 -17.191196 4294967295
47.972267 112.7198 -17.486919 4294967295
47.982784 107.79942 -17.53215 4294967295
47.993816 111.44503 -17.264774 4294967295
48.00526 110.80785 -17.151205 4294967295
48.013954 110.23125 -17.684298 4294967295
48.039143 107.9931 -17.341936 4294967295
48.047813 109.92953 -17.523737 4294967295
48.048279 107.67647 -17.272577 4294967295
48.057747 106.39398 -17.09502 4294967295
48.062294 108.9724 -17.363405 4294967295
48.072926 110.91009 -17.537973 4294967295
48.075569 108.81922 -17.296593 4294967295
48.076344 109.46356 -17.365021 4294967295
48.080414 110.10983 -17.421261 4294967295
48.088467 111.56316 -17.551886 4294967295
48.095058 108.66965 -17.206848 4294967295
48.101242 110.44415 -17.380051 4294967295
48.11779 112.06371 -17.497173 4294967295
48.120274 106.49572 -17.500423 4294967295
48.127899 108.52784 -17.067806 4294967295
48.137669 106.82754 -17.471891 4294967295
48.139782 112.55994 -17.469501 4294967295
48.145416 112.4024 -17.430901 4294967295
48.147839 107.31616 -17.487812 4294967295
48.161667 111.28525 -17.246231 4294967295
48.171989 109.26125 -17.612476 4294967295
48.177002 110.81136 -17.136187 4294967295
48.182514 112.90794 -17.347544 4294967295
48.194183 106.05505 -17.174355 4294967295
48.197273 111.78976 -17.168352 4294967295
48.204609 111.05061 -17.688101 4294967295
48.229774 111.70938 -17.666569 4294967295
48.243767 112.36151 -17.68623 4294967295
48.268841 108.03014 -17.112854 4294967295
48.270901 107.54823 -17.051802 4294967295
48.298416 109.65772 -17.182014 4294967295
48.316177 109.50716 -17.09873 4294967295
48.35886 109.75642 -17.594711 4294967295
48.367348 109.43956 -17.527849 4294967295
48.373199 111.53506 -17.737722 4294967295
48.377769 106.065 -17.115421 4294967295
48.379566 112.28285 -17.168037 4294967295
48.380531 110.25206 -17.568312 4294967295
48.383827 110.89776 -17.627388 4294967295
48.387669 112.83102 -17.826826 4294967295
48.387814 107.03683 -17.185312 4294967295
48.388714 107.68137 -17.253252 4294967295
48.392185 110.58086 -17.561014 4294967295
48.392853 106.87872 -17.148924 4294967295
48.394333 107.3626 -17.196922 4294967295
48.407604 108.49733 -17.272726 4294967295
48.410816 109.14319 -17.332136 4294967295
48.414795 108.66253 -17.264044 4294967295
48.416962 106.57046 -17.024467 4294967295
48.418442 110.11359 -17.410906 4294967295
48.419987 109.63155 -17.351795 4294967295
48.433388 108.35134 -17.159935 4294967295
48.444435 112.22176 -17.546684 4294967295
48.446274 110.45209 -17.344044 4294967295
48.461395 111.1051 -17.359604 4294967295
48.466969 110.78642 -17.303459 4294967295
48.470268 111.27142 -17.344742 4294967295
48.470779 109.98358 -17.200359 4294967295
48.477234 108.86007 -17.051874 4294967295
48.477459 112.40273 -17.442919 4294967295
48.479507 107.15508 -17.482624 4294967295
48.480343 106.67271 -17.426134 4294967295
48.493793 112.57364 -17.4006 4294967295
48.502571 106.2025 -17.290888 4294967295
48.539528 109.92613 -17.564348 4294967295
48.542355 111.79784 -17.13279 4294967295
48.546207 112.18309 -17.788921 4294967295
48.553093 111.86542 -17.728004 4294967295
48.624058 108.20463 -17.057465 4294967295
48.62558 109.49391 -17.194344 4294967295
48.652248 109.83172 -17.131851 4294967295
48.673649 110.81075 -17.159985 4294967295
48.688702 112.91338 -17.336128 4294967295
48.689617 107.01943 -17.308386 4294967295
48.691257 108.30824 -17.444752 4294967295
48.694756 108.47124 -17.449694 4294967295
48.700672 112.17632 -17.837151 4294967295
48.702301 106.06061 -17.154922 4294967295
48.710999 112.50437 -17.834793 4294967295
48.713108 107.51595 -17.275421 4294967295
48.718925 110.41702 -17.574394 4294967295
48.73056 107.36497 -17.193447 4294967295
48.732006 111.87337 -17.686457 4294967295
48.734707 110.58735 -17.534195 4294967295
48.737312 110.10598 -17.471228 4294967295
48.737713 106.88598 -17.113731 4294967295
48.738075 111.07225 -17.575203 4294967295
48.743603 109.78772 -17.412523 4294967295
48.74482 109.46645 -17.372448 4294967295
48.749779 109.14735 -17.318621 4294967295
48.780643 109.00439 -17.187365 4294967295
48.781483 111.25918 -17.433491 4294967295
48.783115 109.32792 -17.213886 4294967295
48.78558 112.87151 -17.59639 4294967295
48.792885 108.20624 -17.053322 4294967295
48.793053 108.68953 -17.106134 4294967295
48.798923 112.07465 -17.458393 4294967295
48.800552 107.72744 -16.971703 4294967295
48.80304 110.95003 -17.318684 4294967295
48.80349 109.66199 -17.174601 4294967295
48.805916 106.1861 -17.407984 4294967295
48.828987 106.68218 -17.376604 4294967295
48.832428 111.77279 -17.2997 4294967295
48.837963 110.8098 -17.17255 4294967295
48.838718 107.97557 -17.483204 4294967295
48.849976 109.10886 -17.566391 4294967295
48.855736 111.62573 -17.196264 4294967295
48.868839 112.76105 -17.272751 4294967295
48.884365 106.39173 -17.137558 4294967295
48.908474 110.91402 -17.5473 4294967295
48.961498 108.52986 -17.085661 4294967295
48.974689 112.40269 -17.464357 4294967295
49.00053 110.16351 -17.120358 4294967295
49.017971 112.75094 -17.341105 4294967295
49.018772 108.62763 -17.508724 4294967295
49.021374 106.6972 -17.285704 4294967295
49.021378 106.53618 -17.267897 4294967295
49.025326 107.8265 -17.395746 4294967295
49.035629 110.891 -17.695856 4294967295
49.045685 107.19417 -17.249857 4294967295
49.046444 107.51665 -17.28266 4294967295
49.047108 106.22874 -17.137877 4294967295
49.050102 108.16283 -17.340405 4294967295
49.055206 109.93681 -17.517359 4294967295
49.060898 107.04185 -17.176233 4294967295
49.067295 109.13892 -17.384071 4294967295
49.075405 112.52435 -17.7278 4294967295
49.077854 112.04295 -17.665482 4294967295
49.080772 110.43488 -17.476944 4294967295
49.081497 112.95055 -17.125772 4294967295
49.087612 108.82873 -17.273947 4294967295
49.088673 107.702 -17.1455 4294967295
49.089893 108.34693 -17.212208 4294967295
49.102085 112.86243 -17.665548 4294967295
49.102543 110.6088 -17.414877 4294967295
49.104668 111.41511 -17.496027 4294967295
49.127945 107.40244 -16.965784 4294967295
49.140381 109.34274 -17.133749 4294967295
49.149044 112.24683 -17.422245 4294967295
49.180428 111.94363 -17.271582 4294967295
49.182034 106.21102 -17.258003 4294967295
49.21077 111.63966 -17.124735 4294967295
49.216763 106.55283 -17.166239 4294967295
49.230846 106.88297 -17.150181 4294967295
49.250656 109.31011 -17.3444 4294967295
49.250912 111.4034 -17.574636 4294967295
49.263626 109.96185 -17.368015 4294967295
49.271206 111.0935 -17.464731 4294967295
49.285675 108.04198 -17.073732 4294967295
49.296944 108.85396 -17.121389 4294967295
49.314491 112.89072 -17.501774 4294967295
49.326313 111.77057 -17.333982 4294967295
49.345505 106.69258 -17.326748 4294967295
49.359386 107.82765 -17.400372 4294967295
49.366428 106.54345 -17.232315 4294967295
49.366936 111.63382 -17.167376 4294967295
49.375191 109.12488 -17.484722 4294967295
49.375565 112.12228 -17.189137 4294967295
49.376884 109.93085 -17.567406 4294967295
49.385273 108.16463 -17.341131 4294967295
49.385845 106.07128 -17.107832 4294967295
49.388119 112.03017 -17.757315 4294967295
49.38821 109.4545 -17.472614 4294967295
49.39048 112.3535 -17.784224 4294967295
49.39064 108.4898 -17.357037 4294967295
49.390797 111.06596 -17.640896 4294967295
49.395824 106.8823 -17.160219 4294967295
49.396549 110.10342 -17.513195 4294967295
49.407978 107.37245 -17.169062 4294967295
49.411953 106.40824 -17.047773 4294967295
49.423607 108.66998 -17.254101 4294967295
49.427578 111.57087 -17.559595 4294967295
49.434715 110.93107 -17.462378 4294967295
49.442764 110.2917 -17.361792 4294967295
49.447731 109.81147 -17.290264 4294967295
49.451336 108.84716 -17.170357 4294967295
49.452541 110.61957 -17.361567 4294967295
49.464672 112.88126 -17.566048 4294967295
49.464787 111.91519 -17.458984 4294967295
49.467041 112.23861 -17.486277 4294967295
49.472157 111.43648 -17.37867 4294967295
49.472919 109.66518 -17.180273 4294967295
49.483227 111.7652 -17.37372 4294967295
49.498478 110.80786 -17.211203 4294967295
49.501781 106.2039 -17.315145 4294967295
49.511505 112.74856 -17.376915 4294967295
49.532417 110.50574 -17.051397 4294967295
49.539726 107.19171 -17.282967 4294967295
49.554504 110.9037 -17.637688 4294967295
49.555317 107.52274 -17.261469 4294967295
49.578541 107.85821 -17.21207 4294967295
49.597248 108.03006 -17.161406 4294967295
49.671406 107.65508 -17.468 4294967295
49.676296 111.78146 -17.281239 4294967295
49.67849 107.98118 -17.477657 4294967295
49.681084 106.69446 -17.326002 4294967295
49.684486 106.53535 -17.295799 4294967295
49.694202 107.18506 -17.33136 4294967295
49.696171 106.21986 -17.217529 4294967295
49.699554 110.66753 -17.07173 4294967295
49.701214 106.38377 -17.216867 4294967295
49.713387 110.57758 -17.634386 4294967295
49.719391 112.61283 -17.212597 4294967295
49.723629 107.04079 -17.20603 4294967295
49.731289 110.26614 -17.533457 4294967295
49.740894 110.75486 -17.551655 4294967295
49.741245 108.17839 -17.266066 4294967295
49.746841 109.63114 -17.405563 4294967295
49.764099 108.8359 -17.253639 4294967295
49.767036 111.5755 -17.545002 4294967295
49.767632 109.48225 -17.311831 4294967295
49.773876 107.87501 -17.111252 4294967295
49.776714 109.1654 -17.243086 4294967295
49.782982 106.91351 -16.971273 4294967295
49.795643 108.532 -17.102802 4294967295
49.799263 112.39997 -17.516132 4294967295
49.801556 112.07925 -17.472219 4294967295
49.806988 109.02192 -17.114689 4294967295
49.814495 111.12059 -17.318335 4294967295
49.825943 110.16079 -17.16987 4294967295
49.833019 108.71478 -16.983992 4294967295
49.834583 106.20415 -17.324617 4294967295
49.859039 110.98592 -17.137842 4294967295
49.900757 111.55634 -17.669195 4294967295
49.920113 107.54137 -17.154427 4294967295
49.926289 112.95982 -17.105566 4294967295
49.944115 110.77692 -17.422174 4294967295
49.945679 112.06623 -17.558569 4294967295
49.955627 108.20621 -17.095839 4294967295
49.96291 112.88177 -17.584507 4294967295
49.970722 109.50388 -17.182907 4294967295
49.973446 110.47208 -17.279594 4294967295
49.977802 107.09092 -16.890423 4294967295
49.991329 109.67704 -17.125467 4294967295
50.004242 109.20116 -17.025002 4294967295
50.008884 106.85294 -17.371641 4294967295
50.010422 110.65501 -17.162407 4294967295
50.016739 106.05209 -17.254171 4294967295
50.018917 111.14341 -17.184721 4294967295
50.02253 112.75666 -17.349234 4294967295
50.026787 110.34238 -17.067139 4294967295
50.028786 107.18637 -17.334558 4294967295
