# .PCD v0.7 - Point Cloud Data file format
VERSION 0.7
FIELDS x y z rgb
SIZE 4 4 4 4
TYPE F F F U
COUNT 1 1 1 1
WIDTH 1094
HEIGHT 1
VIEWPOINT 0 0 0 1 0 0 0
POINTS 1094
DATA ascii
-20.991035 -9.033371 -20.766994 4294967295
-20.98918 -10.598145 -20.543344 4294967295
-20.982998 -10.129991 -20.568607 4294967295
-20.979473 -8.5662689 -20.75886 4294967295
-20.976719 -7.7847347 -20.847824 4294967295
-20.951754 -9.51019 -20.459547 4294967295
-20.948326 -11.389177 -20.183584 4294967295
-20.937119 -10.765281 -20.198902 4294967295
-20.801834 -11.07815 -20.298626 4294967295
-20.774899 -8.5791483 -20.471014 4294967295
-20.768938 -7.6413007 -20.561325 4294967295
-20.767458 -8.7370176 -20.403711 4294967295
-20.761745 -9.3641977 -20.283468 4294967295
-20.746885 -8.2711964 -20.339882 4294967295
-20.745195 -7.958447 -20.371828 4294967295
-20.702879 -11.226829 -20.644114 4294967295
-20.700895 -10.601447 -20.716562 4294967295
-20.697956 -9.6634779 -20.825455 4294967295
-20.687641 -11.073535 -20.570984 4294967295
-20.684498 -10.135403 -20.678633 4294967295
-20.677952 -10.449627 -20.595753 4294967295
-20.668951 -7.7919707 -20.900171 4294967295
-20.6639 -10.921949 -20.445236 4294967295
-20.651461 -8.1078796 -20.749626 4294967295
-20.634298 -8.8932934 -20.537537 4294967295
-20.629803 -8.4246731 -20.57329 4294967295
-20.629513 -10.302828 -20.317192 4294967295
-20.500345 -9.0496683 -20.666092 4294967295
-20.496962 -9.206769 -20.624018 4294967295
-20.491901 -10.929295 -20.359827 4294967295
-20.47891 -10.775413 -20.300724 4294967295
-20.47127 -9.8376923 -20.380606 4294967295
-20.453541 -9.9977045 -20.249895 4294967295
-20.429361 -8.5932446 -20.291191 4294967295
-20.428335 -8.9065552 -20.242487 4294967295
-20.423834 -8.4376907 -20.27824 4294967295
-20.386044 -11.079515 -20.661686 4294967295
-20.344444 -10.618551 -20.468521 4294967295
-20.343391 -9.8362465 -20.567822 4294967295
-20.32082 -8.4321117 -20.619051 4294967295
-20.308435 -10.156142 -20.309875 4294967295
-20.308254 -10.939021 -20.202908 4294967295
-20.304907 -11.252892 -20.139917 4294967295
-20.303547 -9.5308971 -20.364391 4294967295
-20.303391 -10.783433 -20.194077 4294967295
-20.302582 -10.313866 -20.2526 4294967295
-20.287525 -9.6905317 -20.2444 4294967295
-20.276247 -7.657474 -20.450048 4294967295
-20.271702 -9.3803988 -20.18915 4294967295
-20.259285 -8.1300726 -20.281954 4294967295
-20.197077 -11.090392 -20.471844 4294967295
-20.168079 -7.8096466 -20.737316 4294967295
-20.149609 -7.969347 -20.602472 4294967295
-20.081184 -7.6681714 -20.223572 4294967295
-20.068514 -10.775837 -20.696449 4294967295
-20.065369 -11.089437 -20.634855 4294967295
-20.048004 -9.9975548 -20.675964 4294967295
-20.046482 -10.310821 -20.62434 4294967295
-20.035141 -8.5918045 -20.787022 4294967295
-20.028337 -9.0624456 -20.681816 4294967295
-20.024961 -10.158573 -20.513134 4294967295
-20.011105 -10.630943 -20.364515 4294967295
-20.008814 -8.7530756 -20.604055 4294967295
-20.002161 -7.9718242 -20.668818 4294967295
-19.998543 -8.4419413 -20.583181 4294967295
-19.990168 -9.5391808 -20.383738 4294967295
-19.989874 -7.8174806 -20.61442 4294967295
-19.982788 -8.2882519 -20.507465 4294967295
-19.975622 -8.1330004 -20.48456 4294967295
-19.880569 -11.099432 -20.471415 4294967295
-19.873795 -10.47469 -20.514294 4294967295
-19.825027 -8.7621508 -20.447252 4294967295
-19.824064 -8.9188738 -20.420219 4294967295
-19.803169 -10.018926 -20.144045 4294967295
-19.801933 -9.7059364 -20.178728 4294967295
-19.724268 -10.633956 -20.546629 4294967295
-19.70612 -10.324515 -20.477575 4294967295
-19.694183 -9.2310925 -20.552164 4294967295
-19.682848 -9.702858 -20.419365 4294967295
-19.680593 -10.016419 -20.363316 4294967295
-19.675852 -10.956898 -20.207577 4294967295
-19.668808 -8.7661791 -20.459963 4294967295
-19.667973 -8.9228821 -20.433739 4294967295
-19.652977 -8.4559364 -20.40518 4294967295
-19.645292 -7.9876204 -20.421421 4294967295
-19.64283 -7.6749392 -20.448561 4294967295
-19.63026 -9.3996811 -20.139267 4294967295
-19.618498 -8.6187401 -20.172771 4294967295
-19.611319 -8.3067894 -20.171019 4294967295
-19.543861 -10.956037 -20.368792 4294967295
-19.513441 -8.1438951 -20.562326 4294967295
-19.479856 -7.6800923 -20.420162 4294967295
-19.451962 -9.0945559 -20.059563 4294967295
-19.414862 -11.111117 -20.526794 4294967295
-19.406481 -10.330133 -20.580952 4294967295
-19.403578 -10.800327 -20.499983 4294967295
-19.380758 -9.8655319 -20.487007 4294967295
-19.365646 -8.6160059 -20.563297 4294967295
-19.364853 -8.1465645 -20.621687 4294967295
-19.362427 -8.9296761 -20.501474 4294967295
-19.352444 -10.497417 -20.229635 4294967295
-19.346916 -9.2456818 -20.364555 4294967295
-19.343946 -8.776494 -20.409655 4294967295
-19.340464 -7.9942994 -20.493792 4294967295
-19.330433 -7.8394823 -20.453611 4294967295
-19.317726 -9.7210407 -20.122936 4294967295
-19.305828 -8.3135605 -20.240055 4294967295
-19.301069 -8.4710312 -20.189898 4294967295
-19.20116 -9.8740911 -20.357105 4294967295
-19.19566 -10.971479 -20.176031 4294967295
-19.189074 -7.8409147 -20.557261 4294967295
-19.183609 -10.190721 -20.207869 4294967295
-19.170628 -10.663231 -20.06543 4294967295
-19.158182 -9.2557774 -20.179199 4294967295
-19.132175 -8.633956 -20.104879 4294967295
-19.132051 -8.9473028 -20.061966 4294967295
-19.059675 -10.658236 -20.354589 4294967295
-19.058372 -10.971707 -20.304541 4294967295
-19.042885 -9.4087639 -20.420744 4294967295
-19.034538 -7.8446245 -20.580444 4294967295
-19.0338 -10.820053 -20.175877 4294967295
-19.033089 -9.5672035 -20.340021 4294967295
-19.031054 -10.037432 -20.264448 4294967295
-19.030575 -8.7847061 -20.429995 4294967295
-19.030275 -11.134071 -20.112276 4294967295
-19.017681 -8.0041027 -20.456751 4294967295
-19.012957 -9.8842926 -20.175276 4294967295
-19.012604 -10.510983 -20.088863 4294967295
-19.004475 -8.4762115 -20.313168 4294967295
-19.002398 -8.9464502 -20.237331 4294967295
-18.996553 -9.2608089 -20.159605 4294967295
-18.993908 -7.6950221 -20.354116 4294967295
-18.977884 -9.1076097 -20.066971 4294967295
-18.976213 -8.324604 -20.162123 4294967295
-18.950659 -8.1724396 -20.027584 4294967295
-18.9028 -10.349241 -20.405657 4294967295
-18.84457 -8.480875 -20.304064 4294967295
-18.830196 -9.7367458 -20.048252 4294967295
-18.805483 -8.8012152 -20.024298 4294967295
-18.725866 -10.044127 -20.334929 4294967295
-18.72085 -9.2620316 -20.409615 4294967295
-18.71508 -11.142778 -20.122187 4294967295
-18.704584 -10.674885 -20.121544 4294967295
-18.70183 -8.9523144 -20.336197 4294967295
-18.68771 -9.8948298 -20.124252 4294967295
-18.681107 -8.642808 -20.252447 4294967295
-18.679035 -9.1131344 -20.176758 4294967295
-18.678322 -9.4265966 -20.130358 4294967295
-18.676487 -8.1737175 -20.287502 4294967295
-18.672932 -9.7409735 -20.055544 4294967295
-18.667553 -8.3319292 -20.212234 4294967295
-18.661831 -10.213227 -19.925007 4294967295
-18.661142 -8.8030663 -20.110209 4294967295
-18.660686 -7.7065349 -20.254694 4294967295
-18.634098 -8.0244389 -20.051229 4294967295
-18.579649 -10.829338 -20.30373 4294967295
-18.540188 -9.5838861 -20.232601 4294967295
-18.410595 -10.992637 -20.218258 4294967295
-18.403393 -10.680759 -20.216663 4294967295
-18.401764 -10.524423 -20.227804 4294967295
-18.398302 -11.151801 -20.122818 4294967295
-18.398048 -10.368495 -20.226316 4294967295
-18.396681 -9.4288893 -20.34407 4294967295
-18.384954 -8.1780558 -20.441114 4294967295
-18.373587 -8.4932995 -20.330317 4294967295
-18.373198 -9.5899429 -20.180908 4294967295
-18.371096 -10.060386 -20.105148 4294967295
-18.361258 -10.21899 -20.02458 4294967295
-18.34763 -9.124649 -20.089174 4294967295
-18.332436 -8.3439112 -20.102278 4294967295
-18.327955 -7.7179427 -20.159218 4294967295
-18.318272 -8.6598444 -19.974524 4294967295
-18.291298 -8.037653 -19.895361 4294967295
-18.261574 -11.151905 -20.254229 4294967295
-18.18174 -9.2871475 -20.023582 4294967295
-18.052526 -10.539776 -20.032682 4294967295
-18.047026 -9.6005726 -20.125397 4294967295
-18.0375 -8.9755468 -20.151848 4294967295
-18.033529 -11.170558 -19.834049 4294967295
-18.026838 -8.8207769 -20.108496 4294967295
-18.020247 -10.075844 -19.900816 4294967295
-18.020195 -8.5085545 -20.11039 4294967295
-18.011003 -9.9208555 -19.866014 4294967295
-18.004839 -9.7652607 -19.849804 4294967295
-17.999743 -9.4526825 -19.861032 4294967295
-17.991571 -7.7299485 -20.042641 4294967295
-17.976562 -7.8892403 -19.931108 4294967295
-17.964256 -8.0481167 -19.835867 4294967295
-17.892748 -11.171478 -19.94124 4294967295
-17.888981 -9.4482327 -20.149239 4294967295
-17.883404 -7.8824363 -20.325315 4294967295
-17.880785 -10.860377 -19.911089 4294967295
-17.85466 -10.081667 -19.858534 4294967295
-17.830341 -8.9887943 -19.858856 4294967295
-17.752415 -9.9186411 -20.218546 4294967295
-17.7244 -10.707694 -19.945175 4294967295
-17.721376 -10.081287 -20.010832 4294967295
-17.720652 -10.238172 -19.985514 4294967295
-17.717045 -9.1417227 -20.110529 4294967295
-17.714928 -8.5152674 -20.181622 4294967295
-17.714565 -11.179979 -19.823111 4294967295
-17.711302 -10.867066 -19.84539 4294967295
-17.707359 -9.3002272 -20.031309 4294967295
-17.698118 -7.7346716 -20.185312 4294967295
-17.694586 -8.6755953 -20.038315 4294967295
-17.684734 -9.6179495 -19.853258 4294967295
-17.677612 -8.0516119 -20.020073 4294967295
-17.659712 -8.8386011 -19.807573 4294967295
-17.610762 -11.016718 -20.173313 4294967295
-17.580618 -9.2988081 -20.222559 4294967295
-17.572483 -9.6137314 -20.131815 4294967295
-17.537886 -10.090538 -19.861132 4294967295
-17.535534 -10.404577 -19.80509 4294967295
-17.489586 -8.0610514 -19.843416 4294967295
-17.481703 -7.7488055 -19.838001 4294967295
-17.390287 -8.5253973 -20.136614 4294967295
-17.389736 -9.6227026 -19.986769 4294967295
-17.389729 -10.093013 -19.923916 4294967295
-17.389702 -9.1524467 -20.04937 4294967295
-17.388678 -7.5854039 -20.252539 4294967295
-17.38636 -10.720826 -19.819956 4294967295
-17.382555 -8.213295 -20.132118 4294967295
-17.381363 -10.408202 -19.831861 4294967295
-17.379833 -9.4677782 -19.948315 4294967295
-17.378925 -8.0571938 -20.131277 4294967295
-17.362755 -9.0005732 -19.908697 4294967295
-17.350544 -7.7485352 -20.002981 4294967295
-17.331284 -8.6926117 -19.76186 4294967295
-17.277248 -10.558837 -20.137541 4294967295
-17.26886 -10.403739 -20.108212 4294967295
-17.260906 -11.032319 -19.976892 4294967295
-17.224136 -11.196507 -19.735687 4294967295
-17.215052 -10.100558 -19.82777 4294967295
-17.204359 -9.6321516 -19.826517 4294967295
-17.197037 -9.1630793 -19.845449 4294967295
-17.159437 -8.3856773 -19.724972 4294967295
-17.058229 -9.6342726 -19.90151 4294967295
-17.051039 -10.419715 -19.753941 4294967295
-17.050358 -10.733526 -19.708035 4294967295
-17.049995 -9.1654005 -19.915018 4294967295
-17.04257 -8.3827848 -19.97518 4294967295
-17.031794 -9.3255339 -19.785273 4294967295
-17.021795 -7.9159923 -19.913736 4294967295
-17.013565 -8.5446663 -19.78087 4294967295
-17.012959 -8.0743046 -19.839994 4294967295
-16.951775 -10.882977 -20.046124 4294967295
-16.94504 -11.04109 -19.985008 4294967295
-16.935987 -9.9454594 -20.077208 4294967295
-16.927244 -10.260668 -19.983219 4294967295
-16.920759 -9.3212509 -20.069859 4294967295
-16.893255 -9.7967196 -19.842966 4294967295
-16.884167 -8.8575211 -19.914103 4294967295
-16.882116 -7.6036072 -20.069048 4294967295
-16.844896 -8.3939714 -19.742399 4294967295
-16.761433 -11.050592 -19.836084 4294967295
-16.706703 -9.1789751 -19.76046 4294967295
-16.697012 -9.6513414 -19.640003 4294967295
-16.694244 -8.710659 -19.748869 4294967295
-16.692225 -8.2404766 -19.799511 4294967295
-16.688944 -7.9273639 -19.821743 4294967295
-16.686338 -9.4964342 -19.597273 4294967295
-16.669727 -7.7737575 -19.728117 4294967295
-16.613312 -9.9554214 -20.04508 4294967295
-16.588728 -10.430535 -19.836117 4294967295
-16.581072 -8.3934574 -20.061882 4294967295
-16.564077 -8.7100277 -19.919003 4294967295
-16.561422 -8.8673172 -19.882332 4294967295
-16.552559 -8.0847731 -19.933954 4294967295
-16.546629 -10.752469 -19.543718 4294967295
-16.541664 -10.125827 -19.597694 4294967295
-16.427082 -9.4946203 -19.943842 4294967295
-16.411423 -7.6158066 -20.101091 4294967295
-16.400299 -8.7153349 -19.888988 4294967295
-16.377134 -8.2488499 -19.813942 4294967295
-16.369133 -7.9365134 -19.808126 4294967295
-16.291872 -10.121941 -19.999977 4294967295
-16.277477 -10.752022 -19.83116 4294967295
-16.276928 -9.4975004 -19.994667 4294967295
-16.273235 -11.066569 -19.764284 4294967295
-16.263245 -10.284222 -19.809235 4294967295
-16.260166 -9.6574154 -19.874357 4294967295
-16.25559 -9.187748 -19.909754 4294967295
-16.238815 -8.7202339 -19.872766 4294967295
-16.237917 -8.0930653 -19.950829 4294967295
-16.236536 -9.9755478 -19.692427 4294967295
-16.233305 -7.7802024 -19.965164 4294967295
-16.223223 -9.0367184 -19.738539 4294967295
-16.143229 -11.065395 -19.934633 4294967295
-16.115463 -9.6592789 -19.957588 4294967295
-16.076271 -8.2547798 -19.912897 4294967295
-16.058916 -7.7871857 -19.872614 4294967295
-15.9835 -10.913287 -19.949492 4294967295
-15.964428 -10.76018 -19.857439 4294967295
-15.960953 -10.290299 -19.899342 4294967295
-15.959383 -9.663249 -19.97333 4294967295
-15.958909 -10.133843 -19.908066 4294967295
-15.95271 -8.723546 -20.058764 4294967295
-15.946302 -9.9793682 -19.8543 4294967295
-15.943786 -10.450446 -19.776936 4294967295
-15.935654 -9.1970644 -19.895412 4294967295
-15.934362 -8.0994711 -20.033516 4294967295
-15.932135 -7.6294169 -20.082792 4294967295
-15.930522 -9.0411358 -19.885876 4294967295
-15.928659 -9.5120516 -19.812387 4294967295
-15.924572 -8.8853426 -19.8715 4294967295
-15.914596 -9.8284168 -19.687529 4294967295
-15.903 -8.4185266 -19.806377 4294967295
-15.902233 -7.9480634 -19.864317 4294967295
-15.809196 -10.920864 -19.857481 4294967295
-15.745708 -10.776377 -19.503159 4294967295
-15.744073 -8.5798321 -19.784935 4294967295
-15.734295 -7.6402335 -19.852072 4294967295
-15.701047 -7.8026409 -19.63493 4294967295
-15.692099 -7.9610701 -19.561268 4294967295
-15.646322 -10.298731 -19.916464 4294967295
-15.642949 -11.083733 -19.792582 4294967295
-15.6198 -9.6762371 -19.843193 4294967295
-15.616549 -9.5199594 -19.84482 4294967295
-15.616051 -9.2063112 -19.883472 4294967295
-15.615857 -8.1084118 -20.027899 4294967295
-15.61574 -9.990756 -19.777649 4294967295
-15.611646 -10.619147 -19.670292 4294967295
-15.603835 -10.463731 -19.645018 4294967295
-15.584469 -8.4274902 -19.80122 4294967295
-15.572828 -8.5864019 -19.711769 4294967295
-15.566094 -10.784932 -19.380745 4294967295
-15.541016 -8.9058533 -19.482546 4294967295
-15.533045 -8.2793884 -19.518785 4294967295
-15.478398 -9.9912186 -19.904194 4294967295
-15.437326 -8.2730083 -19.890945 4294967295
-15.413801 -10.317227 -19.482122 4294967295
-15.400324 -10.162798 -19.423538 4294967295
-15.398995 -9.5351343 -19.498901 4294967295
-15.396187 -9.0647516 -19.54475 4294967295
-15.300539 -11.097679 -19.646727 4294967295
-15.295814 -8.7450352 -19.93054 4294967295
-15.293658 -10.471293 -19.68936 4294967295
-15.28945 -10.785972 -19.623049 4294967295
-15.279785 -10.160063 -19.649315 4294967295
-15.276819 -8.9052544 -19.79809 4294967295
-15.275842 -9.8469305 -19.667681 4294967295
-15.266403 -8.4363642 -19.79917 4294967295
-15.263084 -9.3784618 -19.654993 4294967295
-15.260611 -10.320639 -19.515766 4294967295
-15.259149 -7.6531129 -19.860394 4294967295
-15.249726 -8.1253881 -19.74268 4294967295
-15.24664 -8.596694 -19.662205 4294967295
-15.139753 -9.2196054 -19.884596 4294967295
-15.12451 -7.6535039 -20.002686 4294967295
-15.102452 -10.168018 -19.540981 4294967295
-15.077138 -9.0738411 -19.537729 4294967295
-15.033518 -8.1394482 -19.406298 4294967295
-14.966493 -11.109947 -19.551142 4294967295
-14.962509 -9.5411863 -19.73531 4294967295
-14.959975 -7.9725633 -19.927942 4294967295
-14.936732 -8.2902899 -19.750214 4294967295
-14.92959 -8.7623415 -19.64609 4294967295
-14.928223 -9.8613901 -19.492777 4294967295
-14.926481 -10.332713 -19.420284 4294967295
-14.925893 -10.960898 -19.333792 4294967295
-14.924483 -8.1354284 -19.699169 4294967295
-14.9235 -10.647311 -19.36128 4294967295
-14.918829 -10.177144 -19.396177 4294967295
-14.910703 -7.6668873 -19.680664 4294967295
-14.905274 -9.0805712 -19.462032 4294967295
-14.897715 -9.238925 -19.396952 4294967295
-14.886337 -7.8278689 -19.517113 4294967295
-14.884023 -8.6132698 -19.39974 4294967295
-14.839581 -10.79434 -19.78006 4294967295
-14.816349 -10.327983 -19.706238 4294967295
-14.788017 -10.019378 -19.581839 4294967295
-14.774451 -9.0800238 -19.626879 4294967295
-14.768883 -9.2379856 -19.573534 4294967295
-14.740043 -8.3011026 -19.529202 4294967295
-14.665215 -10.487953 -19.730982 4294967295
-14.651703 -10.647488 -19.631258 4294967295
-14.643498 -9.7072706 -19.707653 4294967295
-14.639278 -10.806858 -19.537884 4294967295
-14.62928 -10.180805 -19.562353 4294967295
-14.625957 -8.1409655 -19.812382 4294967295
-14.619644 -8.7698088 -19.692591 4294967295
-14.61921 -9.2407751 -19.627871 4294967295
-14.616202 -7.671804 -19.817562 4294967295
-14.611519 -10.341146 -19.43778 4294967295
-14.611391 -8.3003635 -19.706539 4294967295
-14.60594 -9.086154 -19.571037 4294967295
-14.597181 -8.930707 -19.540573 4294967295
-14.596821 -9.8728256 -19.414061 4294967295
-14.579903 -9.4048185 -19.37738 4294967295
-14.571611 -7.8360939 -19.536278 4294967295
-14.555036 -8.4669552 -19.356472 4294967295
-14.433166 -8.7790155 -19.532007 4294967295
-14.418053 -9.7238827 -19.319466 4294967295
-14.310846 -7.9923573 -19.849348 4294967295
-14.296725 -9.7214766 -19.539335 4294967295
-14.295507 -10.506802 -19.428692 4294967295
-14.292829 -10.821394 -19.371658 4294967295
-14.282517 -10.980445 -19.290834 4294967295
-14.274997 -10.039525 -19.371269 4294967295
-14.271996 -10.354197 -19.312361 4294967295
-14.264838 -8.785059 -19.477758 4294967295
-14.26013 -8.4718237 -19.491747 4294967295
-14.253672 -9.1010866 -19.371267 4294967295
-14.23934 -9.4177685 -19.246315 4294967295
-14.208879 -7.6951466 -19.296722 4294967295
-14.097447 -10.675806 -19.180782 4294967295
-14.095231 -7.6921148 -19.561195 4294967295
-14.081975 -7.8513093 -19.463388 4294967295
-14.013827 -10.822931 -19.598783 4294967295
-13.99934 -10.197657 -19.5973 4294967295
-13.991977 -9.2570219 -19.678589 4294967295
-13.990888 -10.670305 -19.486137 4294967295
-13.983153 -10.985877 -19.399817 4294967295
-13.982452 -9.5727234 -19.581888 4294967295
-13.980518 -8.1601562 -19.75676 4294967295
-13.973299 -10.045467 -19.466654 4294967295
-13.962033 -8.7912693 -19.566658 4294967295
-13.957947 -9.1060286 -19.501549 4294967295
-13.957406 -9.4201975 -19.457043 4294967295
-13.939075 -8.638196 -19.45397 4294967295
-13.934731 -8.324851 -19.470098 4294967295
-13.932249 -9.7388668 -19.269484 4294967295
-13.931707 -10.367363 -19.183567 4294967295
-13.925714 -7.6981959 -19.500463 4294967295
-13.921492 -7.855926 -19.455256 4294967295
-13.8342 -10.360313 -19.541098 4294967295
-13.8215 -8.3215342 -19.73609 4294967295
-13.670649 -10.522701 -19.494318 4294967295
-13.669316 -10.208871 -19.527912 4294967295
-13.650379 -8.6419954 -19.624771 4294967295
-13.643104 -8.9573011 -19.541315 4294967295
-13.637796 -9.4293776 -19.448589 4294967295
-13.633322 -11.001066 -19.216026 4294967295
-13.622357 -8.3326902 -19.503786 4294967295
-13.619382 -8.8043642 -19.424566 4294967295
-13.617682 -9.7471523 -19.290737 4294967295
-13.594816 -7.7090187 -19.426924 4294967295
-13.506269 -9.4289217 -19.608086 4294967295
-13.494494 -8.959918 -19.60191 4294967295
-13.470324 -10.692104 -19.234941 4294967295
-13.468503 -11.006699 -19.183096 4294967295
-13.465867 -8.1796131 -19.539572 4294967295
-13.434978 -10.541655 -19.051085 4294967295
-13.343926 -10.847489 -19.403505 4294967295
-13.32656 -11.007918 -19.282524 4294967295
-13.317984 -10.381117 -19.315535 4294967295
-13.306289 -9.9119616 -19.309895 4294967295
-13.305603 -9.2836981 -19.388489 4294967295
-13.299495 -10.541704 -19.188076 4294967295
-13.289663 -8.9723024 -19.337704 4294967295
-13.280114 -8.0313616 -19.406395 4294967295
-13.278439 -8.3458223 -19.355442 4294967295
-13.259086 -8.8204708 -19.181747 4294967295
-13.219503 -7.7270203 -19.097712 4294967295
-13.16853 -10.226721 -19.392067 4294967295
-13.14676 -8.0315065 -19.555243 4294967295
-13.127987 -9.9199352 -19.199457 4294967295
-13.109412 -8.6661339 -19.257381 4294967295
-13.090288 -7.7265453 -19.270895 4294967295
-13.07958 -8.5140524 -19.105986 4294967295
-13.002127 -10.861037 -19.267786 4294967295
-12.994658 -11.019604 -19.204144 4294967295
-12.991196 -7.8782601 -19.59647 4294967295
-12.98913 -9.9207191 -19.316612 4294967295
-12.988533 -8.1928148 -19.539919 4294967295
-12.975757 -9.6088877 -19.280825 4294967295
-12.971822 -9.4524612 -19.278782 4294967295
-12.949517 -8.0421715 -19.335903 4294967295
-12.933427 -7.5734196 -19.30512 4294967295
-12.929218 -8.9884787 -19.095297 4294967295
-12.841112 -9.1376925 -19.483829 4294967295
-12.824584 -10.240456 -19.244564 4294967295
-12.817748 -10.713198 -19.143423 4294967295
-12.810993 -10.085805 -19.187004 4294967295
-12.800667 -9.6162014 -19.189438 4294967295
-12.797403 -8.8310337 -19.273708 4294967295
-12.781368 -9.4624701 -19.099072 4294967295
-12.767186 -8.2075291 -19.182407 4294967295
-12.759918 -8.0515633 -19.161238 4294967295
-12.758423 -7.7374787 -19.193863 4294967295
-12.683002 -10.87024 -19.263443 4294967295
-12.661902 -10.559916 -19.183441 4294967295
-12.654774 -7.7328968 -19.513149 4294967295
-12.654677 -8.5184078 -19.409653 4294967295
-12.645264 -8.6771221 -19.335016 4294967295
-12.63865 -9.9355192 -19.13228 4294967295
-12.628632 -9.622961 -19.115952 4294967295
-12.613811 -9.4684067 -19.051447 4294967295
-12.61097 -8.9973192 -19.096933 4294967295
-12.599923 -8.3704453 -19.11591 4294967295
-12.593428 -8.0571489 -19.119825 4294967295
-12.540648 -10.714445 -19.380674 4294967295
-12.538355 -9.7722178 -19.49098 4294967295
-12.529751 -10.087991 -19.400492 4294967295
-12.495631 -8.9941778 -19.348902 4294967295
-12.481416 -10.41121 -19.082148 4294967295
-12.474426 -8.054945 -19.350821 4294967295
-12.429147 -8.691206 -19.008921 4294967295
-12.398192 -7.7529626 -18.955038 4294967295
-12.356053 -10.252279 -19.29693 4294967295
-12.33795 -9.3126383 -19.316677 4294967295
-12.32993 -9.156888 -19.291336 4294967295
-12.326303 -10.572149 -19.08543 4294967295
-12.321926 -9.7869806 -19.163227 4294967295
-12.299973 -8.3761702 -19.2227 4294967295
-12.295424 -8.0625792 -19.237812 4294967295
-12.290347 -8.2205896 -19.188175 4294967295
-12.285109 -7.9070859 -19.199341 4294967295
-12.28038 -7.750669 -19.192856 4294967295
-12.274814 -10.896338 -18.749397 4294967295
-12.261163 -9.4833612 -18.856483 4294967295
-12.209165 -10.725952 -19.305897 4294967295
-12.196673 -9.4710808 -19.398907 4294967295
-12.191944 -9.7862053 -19.330759 4294967295
-12.168662 -10.261955 -19.135971 4294967295
-12.166912 -10.105079 -19.14653 4294967295
-12.164824 -8.6908684 -19.31962 4294967295
-12.150126 -7.7503881 -19.35895 4294967295
-12.136862 -9.3244228 -19.077534 4294967295
-12.125813 -10.584359 -18.849831 4294967295
-12.123037 -10.427607 -18.854527 4294967295
-12.111535 -8.5426617 -19.035587 4294967295
-12.021545 -9.9498596 -19.246607 4294967295
-11.991898 -9.4835758 -19.138996 4294967295
-11.983322 -8.8562536 -19.172249 4294967295
-11.978108 -7.5996485 -19.306875 4294967295
-11.971105 -8.2295113 -19.184713 4294967295
-11.969412 -9.1730738 -19.051743 4294967295
-11.957901 -10.747766 -18.780462 4294967295
-11.957058 -7.9174013 -19.145653 4294967295
-11.946225 -10.278049 -18.775478 4294967295
-11.857832 -9.3264227 -19.303524 4294967295
-11.846768 -8.3853168 -19.363665 4294967295
-11.837628 -9.9587936 -19.106215 4294967295
-11.831141 -10.274432 -19.028158 4294967295
-11.825428 -8.0744915 -19.283117 4294967295
-11.82238 -9.6470699 -19.060373 4294967295
-11.79639 -7.7647967 -19.158718 4294967295
-11.78984 -10.124707 -18.813238 4294967295
-11.681459 -8.7050886 -19.288464 4294967295
-11.654248 -10.124882 -18.948843 4294967295
-11.653242 -10.754175 -18.860985 4294967295
-11.650946 -10.911899 -18.827377 4294967295
-11.6508 -9.6537151 -18.990807 4294967295
-11.64856 -10.440475 -18.875393 4294967295
-11.645641 -8.5538979 -19.105154 4294967295
-11.645298 -9.4974289 -18.980021 4294967295
-11.629865 -8.8710527 -18.974308 4294967295
-11.626134 -9.8153849 -18.829872 4294967295
-11.610862 -7.6161208 -19.030428 4294967295
-11.610398 -9.3462591 -18.801914 4294967295
-11.598876 -8.0898495 -18.900631 4294967295
-11.580065 -7.935607 -18.814129 4294967295
-11.468999 -8.2466946 -19.04812 4294967295
-11.41229 -7.7840261 -18.787479 4294967295
-11.356832 -8.5577536 -19.275232 4294967295
-11.343514 -8.4027576 -19.220167 4294967295
-11.335556 -10.763025 -18.867424 4294967295
-11.319676 -7.77774 -19.166925 4294967295
-11.318729 -10.60885 -18.792416 4294967295
-11.316923 -7.9354167 -19.130802 4294967295
-11.301641 -10.926716 -18.654377 4294967295
-11.296912 -8.2531862 -18.976255 4294967295
-11.279874 -8.8852282 -18.797529 4294967295
-11.214084 -9.8170424 -19.205532 4294967295
-11.211408 -10.603715 -19.087915 4294967295
-11.207644 -8.8748817 -19.291956 4294967295
-11.195814 -9.5058069 -19.142971 4294967295
-11.183333 -8.2500877 -19.236166 4294967295
-11.168765 -9.9824057 -18.928194 4294967295
-11.155892 -8.7263794 -19.019211 4294967295
-11.154333 -9.0412016 -18.969383 4294967295
-11.153776 -9.6704769 -18.884241 4294967295
-11.128934 -10.46163 -18.640928 4294967295
-11.115893 -8.4184523 -18.833574 4294967295
-11.056237 -10.292962 -19.152771 4294967295
-10.974476 -8.105299 -18.976862 4294967295
-10.974321 -9.0491638 -18.853065 4294967295
-10.961172 -7.7928448 -18.942574 4294967295
-10.959738 -8.5796499 -18.832018 4294967295
-10.938973 -7.6390505 -18.837486 4294967295
-10.93773 -8.2686052 -18.748489 4294967295
-10.890845 -10.770358 -19.057486 4294967295
-10.867863 -9.5163507 -19.091345 4294967295
-10.848299 -8.8906307 -19.062679 4294967295
-10.838055 -10.308169 -18.820536 4294967295
-10.831204 -9.6800814 -18.863724 4294967295
-10.828353 -8.7367029 -18.970461 4294967295
-10.821319 -8.265976 -18.992138 4294967295
-10.818346 -10.62649 -18.66819 4294967295
-10.797777 -10.000727 -18.633867 4294967295
-10.788213 -8.1140461 -18.825594 4294967295
-10.725756 -9.6750498 -19.168713 4294967295
-10.690277 -10.310552 -18.886673 4294967295
-10.656117 -9.215271 -18.837162 4294967295
-10.644643 -9.8467016 -18.690548 4294967295
-10.642006 -8.4309607 -18.859875 4294967295
-10.641348 -10.476842 -18.590071 4294967295
-10.639265 -9.3755312 -18.721607 4294967295
-10.627865 -8.1185884 -18.821037 4294967295
-10.608427 -7.8069973 -18.752335 4294967295
-10.546333 -10.469553 -18.953857 4294967295
-10.543175 -10.784776 -18.895157 4294967295
-10.531559 -9.5283356 -18.993292 4294967295
-10.528317 -10.15818 -18.89323 4294967295
-10.525995 -8.9000902 -19.043737 4294967295
-10.511141 -7.801507 -19.103191 4294967295
-10.500183 -10.00588 -18.755148 4294967295
-10.498932 -8.1180525 -18.993526 4294967295
-10.486637 -8.2773676 -18.903824 4294967295
-10.484797 -8.5923452 -18.852554 4294967295
-10.394547 -9.8434658 -19.078934 4294967295
-10.363528 -8.5904369 -19.067907 4294967295
-10.362803 -10.793185 -18.777683 4294967295
-10.334354 -9.0673037 -18.842476 4294967295
-10.298086 -8.1291332 -18.761124 4294967295
-10.266079 -7.819469 -18.621998 4294967295
-10.23944 -9.8471823 -19.103533 4294967295
-10.202052 -8.437892 -19.077299 4294967295
-10.196566 -8.9107399 -18.985209 4294967295
-10.196542 -10.169482 -18.82165 4294967295
-10.189829 -10.800211 -18.702206 4294967295
-10.189166 -9.6987133 -18.841503 4294967295
-10.188782 -9.3840742 -18.880198 4294967295
-10.188433 -8.754776 -18.959949 4294967295
-10.183102 -10.32928 -18.725702 4294967295
-10.166393 -9.2305593 -18.774853 4294967295
-10.148819 -9.076169 -18.696564 4294967295
-10.110738 -8.2954445 -18.584841 4294967295
-10.067388 -10.483194 -18.95142 4294967295
-10.047776 -9.7000151 -18.943459 4294967295
-10.034073 -8.1290731 -19.070726 4294967295
-10.020802 -7.6592445 -19.057537 4294967295
-9.9749641 -8.7682056 -18.657526 4294967295
-9.9557695 -8.2991056 -18.611143 4294967295
-9.8989792 -10.01729 -18.962906 4294967295
-9.8982439 -9.5454187 -19.019991 4294967295
-9.8892107 -8.9176664 -19.050993 4294967295
-9.8765402 -9.2344809 -18.939215 4294967295
-9.8714647 -9.7074337 -18.849569 4294967295
-9.8703985 -8.6061401 -18.986431 4294967295
-9.8648386 -10.180752 -18.751223 4294967295
-9.8566723 -9.0804987 -18.848331 4294967295
-9.8514299 -10.49799 -18.635277 4294967295
-9.8506594 -7.6652927 -18.998302 4294967295
-9.8473997 -10.813589 -18.571865 4294967295
-9.8385153 -8.7687893 -18.787445 4294967295
-9.8333855 -10.658726 -18.513754 4294967295
-9.8299065 -9.3998594 -18.657578 4294967295
-9.8182001 -8.1425447 -18.755304 4294967295
-9.8107033 -7.8289447 -18.754147 4294967295
-9.7370577 -10.651651 -18.868099 4294967295
-9.7002239 -8.4549665 -18.947556 4294967295
-9.6564999 -10.508935 -18.437769 4294967295
-9.6322479 -9.5683527 -18.42454 4294967295
-9.5661974 -9.0845604 -19.0089 4294967295
-9.5631962 -8.7703791 -19.032896 4294967295
-9.5628052 -10.344083 -18.826899 4294967295
-9.5561695 -10.817492 -18.728672 4294967295
-9.521553 -9.4069271 -18.718771 4294967295
-9.5200195 -9.8794718 -18.649035 4294967295
-9.5165396 -7.8337831 -18.89463 4294967295
-9.5035858 -8.4654427 -18.740749 4294967295
-9.486496 -10.200343 -18.420967 4294967295
-9.4862614 -7.9959774 -18.705166 4294967295
-9.404418 -9.404108 -18.955963 4294967295
-9.383399 -9.5651102 -18.818354 4294967295
-9.3699436 -8.4656296 -18.88592 4294967295
-9.3486977 -9.0987902 -18.685928 4294967295
-9.3009872 -8.319396 -18.521757 4294967295
-9.2872477 -7.6916704 -18.526678 4294967295
-9.2321377 -9.4107523 -18.885422 4294967295
-9.2167416 -8.7837849 -18.881115 4294967295
-9.208148 -10.044593 -18.670343 4294967295
-9.1994333 -10.51852 -18.560692 4294967295
-9.1973619 -10.67637 -18.528784 4294967295
-9.1894741 -8.1586199 -18.810715 4294967295
-9.186264 -9.5760689 -18.609543 4294967295
-9.1843185 -10.206288 -18.517231 4294967295
-9.1776142 -8.6328239 -18.683577 4294967295
-9.1684532 -8.4768763 -18.652933 4294967295
-9.1606531 -8.950552 -18.548384 4294967295
-9.160327 -9.2655687 -18.505821 4294967295
-9.1592636 -10.368277 -18.357279 4294967295
-9.155118 -9.108963 -18.497183 4294967295
-9.1420107 -7.6938052 -18.607538 4294967295
-9.1135206 -7.8557515 -18.428534 4294967295
-9.0618801 -10.676485 -18.663593 4294967295
-9.0387344 -9.4210043 -18.697678 4294967295
-8.9812965 -9.5883617 -18.357851 4294967295
-8.9589939 -8.3318768 -18.396744 4294967295
-8.8889465 -10.053572 -18.671417 4294967295
-8.8889332 -8.6366634 -18.854414 4294967295
-8.8499556 -10.53301 -18.393782 4294967295
-8.8485212 -8.4858198 -18.650349 4294967295
-8.8432379 -8.8016329 -18.580318 4294967295
-8.8346767 -7.85817 -18.654863 4294967295
-8.8337078 -9.5907459 -18.425642 4294967295
-8.8321581 -9.275979 -18.457739 4294967295
-8.8226709 -9.1200647 -18.425404 4294967295
-8.8137779 -9.9092846 -18.274239 4294967295
-8.7346087 -10.529517 -18.64027 4294967295
-8.7278166 -9.2710629 -18.765245 4294967295
-8.7164927 -9.1155252 -18.722782 4294967295
-8.6746006 -10.85547 -18.266701 4294967295
-8.5869284 -10.216963 -18.747673 4294967295
-8.575984 -9.5890818 -18.768326 4294967295
-8.5622015 -9.1190758 -18.752953 4294967295
-8.5460072 -9.9092236 -18.561657 4294967295
-8.5395126 -9.2803669 -18.606983 4294967295
-8.527503 -7.865046 -18.723391 4294967295
-8.521369 -10.543696 -18.343876 4294967295
-8.5141287 -8.3396034 -18.588369 4294967295
-8.4923496 -10.076175 -18.244135 4294967295
-8.487422 -8.1863661 -18.460827 4294967295
-8.4801598 -10.708741 -18.095263 4294967295
-8.4781322 -7.7152448 -18.470387 4294967295
-8.4636002 -8.0326023 -18.34927 4294967295
-8.3595276 -9.6033096 -18.454624 4294967295
-8.3556528 -8.9738598 -18.514462 4294967295
-8.3513689 -7.7145205 -18.65329 4294967295
-8.342 -9.4487648 -18.378008 4294967295
-8.2615833 -10.227036 -18.71521 4294967295
-8.2434931 -9.9152536 -18.65589 4294967295
-8.2315788 -9.4448376 -18.650988 4294967295
-8.2217407 -9.7615299 -18.556053 4294967295
-8.2045183 -10.079594 -18.420324 4294967295
-8.1990871 -8.6627445 -18.573074 4294967295
-8.1895695 -8.5067739 -18.540827 4294967295
-8.1878691 -7.8769932 -18.612656 4294967295
-8.1745367 -8.3516655 -18.478132 4294967295
-8.1615534 -8.8264351 -18.345522 4294967295
-8.1557131 -10.403411 -18.110138 4294967295
-8.1493626 -7.725451 -18.420383 4294967295
-8.1463776 -8.0410376 -18.363283 4294967295
-8.144208 -10.563108 -18.026272 4294967295
-8.051239 -9.6103382 -18.517408 4294967295
-8.024538 -7.7244334 -18.613693 4294967295
-8.0177631 -9.458498 -18.353096 4294967295
-8.0154047 -10.24684 -18.238594 4294967295
-7.9168763 -9.7679729 -18.637453 4294967295
-7.9043169 -10.400277 -18.487164 4294967295
-7.8956809 -9.4565649 -18.561285 4294967295
-7.8887115 -8.5126104 -18.644587 4294967295
-7.8884749 -10.087976 -18.440475 4294967295
-7.8860283 -7.7255402 -18.731203 4294967295
-7.8858247 -8.0405588 -18.689528 4294967295
-7.8840551 -9.6160841 -18.476984 4294967295
-7.8779025 -8.9869471 -18.524233 4294967295
-7.8503971 -9.3066635 -18.332205 4294967295
-7.8470006 -8.8344851 -18.374363 4294967295
-7.8120084 -7.57938 -18.344023 4294967295
-7.8055844 -8.6836519 -18.166618 4294967295
-7.7620254 -10.244157 -18.604 4294967295
-7.7614079 -10.559319 -18.560072 4294967295
-7.7215066 -8.9908352 -18.543327 4294967295
-7.6793094 -8.209877 -18.412687 4294967295
-7.6625109 -10.734722 -17.995823 4294967295
-7.6006227 -10.091423 -18.615662 4294967295
-7.5854678 -8.9913597 -18.674227 4294967295
-7.5781417 -8.8350477 -18.654255 4294967295
-7.5662246 -8.206893 -18.669851 4294967295
-7.5617127 -9.7830782 -18.442493 4294967295
-7.5578079 -10.414092 -18.339996 4294967295
-7.5561557 -9.4688873 -18.452499 4294967295
-7.5453281 -7.7375817 -18.61591 4294967295
-7.5414648 -9.1562052 -18.412354 4294967295
-7.5396061 -9.9444866 -18.300823 4294967295
-7.5347681 -8.3694334 -18.476898 4294967295
-7.3743896 -10.58043 -18.190844 4294967295
-7.3622875 -8.5334625 -18.387802 4294967295
-7.3615704 -10.267418 -18.161051 4294967295
-7.3573408 -8.0614738 -18.421444 4294967295
-7.3426042 -7.7485757 -18.381166 4294967295
-7.3292565 -8.6964178 -18.186451 4294967295
-7.2522774 -9.9478674 -18.479134 4294967295
-7.2331223 -9.7935839 -18.394476 4294967295
-7.2279825 -8.3762207 -18.548483 4294967295
-7.2245007 -9.1646662 -18.428226 4294967295
-7.22227 -10.741204 -18.213581 4294967295
-7.2135205 -10.58513 -18.185904 4294967295
-7.2048817 -8.0647221 -18.462498 4294967295
-7.2029009 -8.8530254 -18.350445 4294967295
-7.1940088 -8.6968584 -18.322002 4294967295
-7.1859937 -9.3287115 -18.197134 4294967295
-7.1857615 -9.4864016 -18.175613 4294967295
-7.1809039 -8.2260933 -18.310995 4294967295
-7.1779041 -10.433798 -18.011082 4294967295
-7.1746683 -7.7542067 -18.337595 4294967295
-7.1323643 -7.9183865 -18.085773 4294967295
-7.0472231 -7.5960398 -18.535784 4294967295
-7.0287247 -10.121051 -18.110912 4294967295
-7.0003242 -9.1798 -18.077047 4294967295
-6.9829135 -7.7634892 -18.164024 4294967295
-6.9766722 -8.2374983 -18.069185 4294967295
-6.8985143 -9.8051062 -18.31419 4294967295
-6.897378 -10.43587 -18.227095 4294967295
-6.879921 -10.754318 -18.091297 4294967295
-6.8730578 -8.7059174 -18.316748 4294967295
-6.8726535 -9.1789064 -18.253868 4294967295
-6.8705978 -9.3369007 -18.22242 4294967295
-6.8557057 -9.4970694 -18.120876 4294967295
-6.8544064 -7.9206939 -18.31604 4294967295
-6.854393 -9.0242624 -18.174391 4294967295
-6.8499632 -8.2366753 -18.251337 4294967295
-6.8467288 -10.129394 -17.990934 4294967295
-6.8357649 -10.289032 -17.910826 4294967295
-6.834126 -8.3968449 -18.144651 4294967295
-6.8249035 -8.5560036 -18.074074 4294967295
-6.7951789 -7.7721434 -18.012968 4294967295
-6.73282 -9.9682341 -18.262903 4294967295
-6.7221813 -7.6056132 -18.508043 4294967295
-6.5885296 -9.6547718 -18.388964 4294967295
-6.5884271 -10.127691 -18.32781 4294967295
-6.5875039 -9.1820822 -18.443968 4294967295
-6.557209 -10.448491 -18.117392 4294967295
-6.5571189 -8.3988857 -18.37953 4294967295
-6.5537038 -7.7689157 -18.441732 4294967295
-6.5509853 -8.5575018 -18.325937 4294967295
-6.5448575 -10.608383 -18.029913 4294967295
-6.5412679 -9.8204794 -18.111401 4294967295
-6.5333996 -8.8756628 -18.189791 4294967295
-6.5264206 -9.5075922 -18.070965 4294967295
-6.5122952 -7.932929 -18.196129 4294967295
-6.4767718 -8.0961447 -17.982548 4294967295
-6.4360905 -10.288518 -18.349388 4294967295
-6.3558416 -8.4098549 -18.155338 4294967295
-6.347239 -10.619593 -17.825764 4294967295
-6.2546563 -10.296784 -18.233101 4294967295
-6.2488647 -10.455485 -18.181467 4294967295
-6.2460022 -8.563983 -18.40807 4294967295
-6.2396507 -9.037961 -18.313053 4294967295
-6.2264724 -9.5131779 -18.180956 4294967295
-6.2188244 -8.4106445 -18.280703 4294967295
-6.2075276 -9.6740789 -18.057899 4294967295
-6.1480803 -8.1063042 -17.937035 4294967295
-6.0753574 -9.989253 -18.169144 4294967295
-6.0750718 -10.620152 -18.086903 4294967295
-6.0739932 -9.2010221 -18.2626 4294967295
-6.0475225 -8.1014767 -18.260281 4294967295
-6.0434818 -9.0483313 -18.117338 4294967295
-6.0277181 -8.7354374 -18.072224 4294967295
-6.0236764 -7.6320472 -18.191536 4294967295
-6.016675 -8.4217291 -18.052708 4294967295
-5.9100986 -9.2061262 -18.242033 4294967295
-32.140274 -2.0104151 -22.550016 4294967295
-32.131626 -1.2341471 -22.601103 4294967295
-32.048325 -6.3586779 -22.378036 4294967295
-32.042671 -5.5820422 -22.449932 4294967295
-32.042282 -2.9391394 -22.825274 4294967295
-32.036278 -5.1165829 -22.47217 4294967295
-32.032127 -1.6972674 -22.932518 4294967295
-31.981047 -0.77103758 -22.710825 4294967295
-31.940311 -7.2869859 -22.583233 4294967295
-31.936287 -6.8212833 -22.621929 4294967295
-31.905664 -7.4491568 -22.320225 4294967295
-31.904408 -6.3606167 -22.467093 4294967295
-31.904305 -2.9405744 -22.955187 4294967295
-31.89843 -6.9838638 -22.336651 4294967295
-31.896667 -4.0296521 -22.746656 4294967295
-31.89662 -3.5633419 -22.812977 4294967295
-31.893091 -5.1185217 -22.566282 4294967295
-31.891888 -1.6991963 -23.046669 4294967295
-31.887415 -5.4304867 -22.482395 4294967295
-31.88562 -5.5863132 -22.447704 4294967295
-31.873865 -4.3441558 -22.543871 4294967295
-31.869715 -2.7900355 -22.737272 4294967295
-31.869244 -3.4119458 -22.645115 4294967295
-31.865761 -1.0809273 -22.954197 4294967295
-31.863218 -1.3920399 -22.892126 4294967295
-31.856493 -2.3255007 -22.712154 4294967295
-31.848078 -2.6375871 -22.609287 4294967295
-31.847744 -3.1041031 -22.540297 4294967295
-31.84683 -4.659524 -22.311663 4294967295
-31.846128 -3.2598398 -22.506855 4294967295
-31.843994 -0.7727139 -22.847593 4294967295
-31.828527 -2.0182822 -22.562487 4294967295
-31.825785 -2.4851587 -22.47677 4294967295
-31.815195 -0.46517429 -22.692205 4294967295
-31.813185 -6.9747629 -22.83263 4294967295
-31.811569 -7.4414067 -22.754829 4294967295
-31.79954 -0.62244803 -22.561361 4294967295
-31.788794 -6.0465617 -22.796629 4294967295
-31.773882 -6.6711221 -22.604408 4294967295
-31.768633 -5.1173525 -22.790014 4294967295
-31.765526 -5.428781 -22.724066 4294967295
-31.72994 -4.6572738 -22.588352 4294967295
-31.729033 -4.3464379 -22.626474 4294967295
-31.727781 -6.5240192 -22.306868 4294967295
-31.71085 -1.550931 -22.900066 4294967295
-31.709671 -4.0384617 -22.536671 4294967295
-31.692118 -0.46531379 -22.925682 4294967295
-31.67115 -1.8669149 -22.580629 4294967295
-31.649509 -0.93663383 -22.563961 4294967295
-31.587124 -6.0587382 -22.485064 4294967295
-31.567564 -6.9956713 -22.216465 4294967295
-31.561825 -3.4192858 -22.687164 4294967295
-31.561104 -5.9077578 -22.327124 4294967295
-31.560362 -3.5749819 -22.654856 4294967295
-31.559002 -4.1971755 -22.556696 4294967295
-31.558178 -4.5083365 -22.506617 4294967295
-31.556458 -1.2438453 -22.960577 4294967295
-31.556252 -2.0209675 -22.848259 4294967295
-31.551914 -3.7317383 -22.574228 4294967295
-31.550987 -5.1316652 -22.368076 4294967295
-31.544109 -2.3334816 -22.719912 4294967295
-31.541924 -1.7119414 -22.793524 4294967295
-31.54068 -2.6448996 -22.651817 4294967295
-31.539793 -1.0904558 -22.867523 4294967295
-31.535105 -0.46932411 -22.923811 4294967295
-31.530407 -3.1128497 -22.514185 4294967295
-31.521769 -2.4919982 -22.543192 4294967295
-31.520468 -3.2698138 -22.423231 4294967295
-31.508541 -1.8717124 -22.540468 4294967295
-31.50176 -1.5615561 -22.537956 4294967295
-31.492962 -1.4071406 -22.499304 4294967295
-31.477379 -7.298511 -22.632648 4294967295
-31.467262 -0.63257778 -22.432562 4294967295
-31.461708 -6.990447 -22.568659 4294967295
-31.460621 -6.835135 -22.583315 4294967295
-31.436338 -5.1288748 -22.659357 4294967295
-31.430677 -6.3740048 -22.442871 4294967295
-31.428873 -4.508141 -22.696444 4294967295
-31.425127 -5.2862468 -22.559723 4294967295
-31.416348 -4.0436463 -22.676414 4294967295
-31.414886 -7.466001 -22.178463 4294967295
-31.41309 -4.6661592 -22.565233 4294967295
-31.391121 -5.6031046 -22.280394 4294967295
-31.377186 -1.2506179 -22.804983 4294967295
-31.362652 -0.47508779 -22.815493 4294967295
-31.358025 -3.8970191 -22.295742 4294967295
-31.334135 -3.2782001 -22.219473 4294967295
-31.294895 -6.0634699 -22.632019 4294967295
-31.281975 -6.687901 -22.45426 4294967295
-31.280104 -5.5995035 -22.596424 4294967295
-31.27594 -5.2891827 -22.612013 4294967295
-31.247089 -6.5386715 -22.235723 4294967295
-31.229568 -4.0523953 -22.469448 4294967295
-31.228165 -3.4304671 -22.548403 4294967295
-31.226801 -2.4976089 -22.671915 4294967295
-31.223518 -1.8761088 -22.737894 4294967295
-31.22324 -4.3644891 -22.381498 4294967295
-31.218716 -2.1877072 -22.660492 4294967295
-31.216053 -4.9879813 -22.243279 4294967295
-31.214655 -3.121361 -22.499575 4294967295
-31.211262 -1.4112275 -22.719872 4294967295
-31.210968 -1.7222348 -22.673546 4294967295
-31.20768 -3.5890293 -22.385014 4294967295
-31.202211 -4.6790061 -22.192154 4294967295
-31.201429 -2.3455265 -22.51919 4294967295
-31.182981 -0.48166469 -22.657921 4294967295
-31.180405 -2.0372269 -22.418602 4294967295
-31.172068 -1.2605386 -22.471943 4294967295
-31.162588 -0.63951111 -22.495258 4294967295
-31.154345 -1.5738593 -22.305479 4294967295
-31.145313 -0.95264268 -22.331905 4294967295
-31.126537 -6.8474827 -22.441389 4294967295
-31.12249 -7.4705472 -22.324938 4294967295
-31.111677 -6.6946378 -22.361168 4294967295
-31.096741 -7.0085902 -22.214008 4294967295
-31.077188 -4.5225196 -22.433672 4294967295
-31.068022 -6.0800271 -22.149099 4294967295
-31.066626 -6.2359114 -22.117334 4294967295
-31.066196 -5.3022323 -22.247274 4294967295
-31.048702 -0.79402441 -22.768921 4294967295
-31.048302 -5.6165118 -22.079758 4294967295
-31.044174 -2.5051911 -22.494274 4294967295
-31.036283 -3.9065139 -22.240679 4294967295
-30.950455 -6.0773735 -22.419409 4294967295
-30.948092 -6.2333679 -22.381029 4294967295
-30.9314 -5.9251127 -22.310534 4294967295
-30.926647 -3.5924525 -22.609722 4294967295
-30.921541 -6.7049818 -22.132113 4294967295
-30.921518 -5.6156058 -22.286869 4294967295
-30.899899 -5.3080106 -22.182514 4294967295
-30.894104 -4.9977045 -22.186956 4294967295
-30.893652 -2.9750531 -22.471518 4294967295
-30.891321 -3.2865152 -22.411249 4294967295
-30.888403 -3.7536948 -22.32482 4294967295
-30.886642 -0.95412308 -22.710928 4294967295
-30.885103 -3.9097912 -22.28002 4294967295
-30.882317 -2.6655073 -22.437902 4294967295
-30.879387 -4.5331655 -22.152214 4294967295
-30.878876 -1.7326553 -22.547009 4294967295
-30.865356 -4.0684199 -22.122204 4294967295
-30.863678 -1.2679217 -22.509003 4294967295
-30.863005 -2.0458114 -22.393747 4294967295
-30.858307 -2.3576033 -22.317228 4294967295
-30.857086 -3.1358254 -22.198193 4294967295
-30.846697 -2.5147765 -22.215345 4294967295
-30.842316 -0.80380112 -22.428694 4294967295
-30.820816 -0.49511459 -22.325321 4294967295
-30.810612 -7.0120444 -22.403381 4294967295
-30.805201 -7.3242469 -22.322012 4294967295
-30.789736 -6.2378855 -22.370623 4294967295
-30.788849 -7.1717062 -22.231884 4294967295
-30.766384 -6.3976512 -22.18825 4294967295
-30.761175 -3.2867758 -22.594679 4294967295
-30.755146 -5.6214414 -22.221697 4294967295
-30.752565 -5.155005 -22.270334 4294967295
-30.752302 -4.6882229 -22.33486 4294967295
-30.750809 -6.0891137 -22.125595 4294967295
-30.75001 -4.3773923 -22.363352 4294967295
-30.748796 -5.3112521 -22.222353 4294967295
-30.748508 -6.8678761 -21.999207 4294967295
-30.735193 -1.2684851 -22.703833 4294967295
-30.731665 -1.8910004 -22.591234 4294967295
-30.703188 -0.49465451 -22.594957 4294967295
-30.702677 -3.7621326 -22.127127 4294967295
-30.697376 -2.8290632 -22.223475 4294967295
-30.660933 -6.7038584 -22.496557 4294967295
-30.657459 -1.1223067 -22.193071 4294967295
-30.634369 -5.9306912 -22.425005 4294967295
-30.575436 -1.7394295 -22.617821 4294967295
-30.558479 -4.2313018 -22.148264 4294967295
-30.557896 -4.5427117 -22.100071 4294967295
-30.552301 -3.7652881 -22.172268 4294967295
-30.551548 -2.5203967 -22.343884 4294967295
-30.540564 -3.4557147 -22.136097 4294967295
-30.539524 -2.8332815 -22.217375 4294967295
-30.538834 -2.2108788 -22.301041 4294967295
-30.538486 -2.0553138 -22.320765 4294967295
-30.536549 -1.2775804 -22.417969 4294967295
-30.531849 -0.65583348 -22.474167 4294967295
-30.527336 -1.4343011 -22.332827 4294967295
-30.516867 -7.3280673 -22.495602 4294967295
-30.504375 -0.81460011 -22.264101 4294967295
-30.500462 -1.593266 -22.126812 4294967295
-30.498434 -0.97092551 -22.20134 4294967295
-30.486986 -6.0888662 -22.467768 4294967295
-30.484272 -7.0229573 -22.316771 4294967295
-30.472927 -7.1806979 -22.217098 4294967295
-30.461138 -6.4046431 -22.24684 4294967295
-30.454184 -6.8728538 -22.133036 4294967295
-30.451771 -4.5388813 -22.447691 4294967295
-30.446577 -4.2285218 -22.456329 4294967295
-30.444241 -3.9177196 -22.484501 4294967295
-30.442944 -5.3183432 -22.276964 4294967295
-30.442369 -6.5636573 -22.096395 4294967295
-30.439316 -2.6739719 -22.627398 4294967295
-30.436436 -5.0081553 -22.276627 4294967295
-30.43375 -2.2081151 -22.655561 4294967295
-30.428747 -5.9433579 -22.091568 4294967295
-30.427288 -1.8978933 -22.655535 4294967295
-30.425306 -3.6093657 -22.399229 4294967295
-30.423441 -1.1207715 -22.739582 4294967295
-30.409712 -3.4560392 -22.314716 4294967295
-30.407875 -3.300688 -22.324244 4294967295
-30.40333 -2.8344977 -22.359409 4294967295
-30.365595 -2.5283945 -22.1457 4294967295
-30.33604 -0.5086351 -22.230879 4294967295
-30.321629 -6.5614243 -22.343622 4294967295
-30.278219 -5.6351542 -22.179619 4294967295
-30.270126 -6.2592659 -22.036104 4294967295
-30.263144 -5.1706724 -22.142916 4294967295
-30.256048 -0.97050881 -22.690033 4294967295
-30.250851 -4.0829964 -22.21347 4294967295
-30.21916 -2.219764 -22.262016 4294967295
-30.214624 -1.7534521 -22.297268 4294967295
-30.205404 -0.50965202 -22.410877 4294967295
-30.194294 -1.9116852 -22.136549 4294967295
-30.189878 -0.82266033 -22.260889 4294967295
-30.172298 -7.3424711 -22.285015 4294967295
-30.171652 -6.8756895 -22.346727 4294967295
-30.151371 -4.7006998 -22.517044 4294967295
-30.145029 -7.5032845 -22.077074 4294967295
-30.138874 -5.9476876 -22.255577 4294967295
-30.136543 -4.8586626 -22.393986 4294967295
-30.135752 -5.4812908 -22.300432 4294967295
-30.134365 -7.0381947 -22.070518 4294967295
-30.127577 -6.1053057 -22.156538 4294967295
-30.125483 -3.6155653 -22.494934 4294967295
-30.123394 -6.5731006 -22.061886 4294967295
-30.120996 -6.2621388 -22.089642 4294967295
-30.11202 -5.1739168 -22.182817 4294967295
-30.108952 -2.6844044 -22.514576 4294967295
-30.10235 -4.241508 -22.249199 4294967295
-30.100658 -0.97433621 -22.700483 4294967295
-30.099945 -3.930583 -22.276909 4294967295
-30.096786 -2.8416684 -22.409687 4294967295
-30.091469 -6.4230747 -21.866344 4294967295
-30.088709 -0.66464698 -22.6632 4294967295
-30.083641 -3.777364 -22.187902 4294967295
-30.082767 -5.6458836 -21.917322 4294967295
-30.082241 -1.9099873 -22.442881 4294967295
-30.069683 -1.1335663 -22.467592 4294967295
-30.06809 -3.156956 -22.170176 4294967295
-30.045998 -2.3816268 -22.129971 4294967295
-30.031343 -1.4494644 -22.162498 4294967295
-30.003847 -6.41503 -22.338655 4294967295
-29.983652 -5.6403365 -22.311382 4294967295
-29.95429 -7.513989 -21.847216 4294967295
-29.948635 -3.1557567 -22.425615 4294967295
-29.936537 -4.2470226 -22.189163 4294967295
