# .PCD v0.7 - Point Cloud Data file format
VERSION 0.7
FIELDS x y z
SIZE 4 4 4
TYPE F F F
COUNT 1 1 1
WIDTH 1558
HEIGHT 1
VIEWPOINT 0 0 0 1 0 0 0
POINTS 1558
DATA ascii
135.07263 45.060253 10.583549
137.05818 45.053196 10.45925
139.03127 45.290485 10.388024
141.01135 45.413628 10.253339
143.32811 45.338657 10.106964
123.12527 46.280476 11.83469
124.95494 46.21167 11.900862
127.24736 46.373066 11.746791
129.18512 46.850574 11.687574
131.10844 46.990467 11.599834
133.13417 47.007389 11.422924
135.10248 47.060936 11.113854
137.10989 47.016163 11.007502
139.11432 47.074783 10.816286
141.10927 47.034271 10.559446
143.02248 47.091019 10.375716
144.86856 47.310947 10.343575
147.02046 47.397045 10.236476
149.18185 47.777946 10.237056
152.73265 47.89854 10.142036
131.34137 48.530704 11.924385
133.42465 48.737122 11.688278
135.14981 48.877186 11.680714
137.11473 48.971256 11.569614
139.09019 49.016998 11.403335
141.06221 49.082363 11.191285
143.08727 49.038528 11.002075
145.1162 49.077377 10.765863
147.10883 48.994675 10.640091
149.00168 49.114182 10.438821
151.15715 49.235394 10.384921
153.15746 49.372616 10.209711
154.98798 49.757221 10.344087
157.72488 49.898838 10.168909
135.09262 51.050251 11.955929
137.26929 50.648674 11.753794
139.09273 50.571453 11.759139
141.14076 50.929985 11.69658
143.12233 51.005405 11.565721
145.11501 51.025318 11.383884
147.0871 50.982304 11.241484
149.0799 50.990452 10.967402
151.10165 51.024227 10.771577
153.03622 51.059578 10.525104
155.03099 51.055676 10.434335
157.10507 51.254913 10.23379
158.76164 51.424328 10.233987
160.96539 51.52718 10.161031
162.27243 51.969772 10.029806
139.49446 52.225285 11.94487
141.75426 52.502872 11.815804
143.52681 52.329468 11.869158
145.17799 52.743114 11.738983
147.10632 52.971813 11.645785
149.12206 52.980976 11.492633
151.09464 52.968651 11.364211
153.08339 52.99527 11.250854
155.06973 53.022926 11.010661
157.08365 53.044716 10.774313
159.07422 53.072002 10.572678
161.00278 53.089348 10.361839
162.94232 53.377548 10.335817
165.30231 53.567078 10.119028
166.459 53.970383 10.104987
146.90576 54.177906 11.940943
149.32054 54.160049 11.838165
151.15881 54.849648 11.816447
153.14168 54.908905 11.536852
155.09778 55.006905 11.478268
157.09206 55.026894 11.29725
159.09547 55.032471 11.155544
161.06015 55.040302 10.747919
163.07584 55.089355 10.746866
164.99651 55.035828 10.430654
167.04909 55.457169 10.376416
169.05627 55.454517 10.24031
171.03189 55.708851 10.228803
172.82555 55.526073 10.099847
151.28024 56.191628 11.960488
153.89621 56.174782 11.84391
155.272 56.938866 11.651581
157.3196 56.803741 11.722621
159.13135 56.912575 11.60841
161.09892 56.988441 11.488917
163.05775 57.013348 11.296772
165.01637 57.031025 10.992902
167.05078 57.103867 10.793837
169.04324 57.042984 10.576091
171.00786 57.163082 10.430229
173.02307 57.18734 10.365451
174.90128 57.485378 10.24034
176.94173 57.532612 10.163844
178.67387 57.808819 10.074294
159.59351 58.352833 11.915321
161.23489 58.634323 11.8338
163.18036 58.735596 11.658256
165.15099 58.859806 11.60696
167.07616 59.010624 11.387781
169.05617 59.055309 11.139038
171.06476 59.056488 11.011379
173.01239 59.024349 10.742229
175.0634 59.089584 10.6703
177.05099 59.124332 10.449238
179.02281 59.155605 10.402171
180.7899 59.407619 10.21558
183.03708 59.604137 10.138428
185.12518 59.286087 10.091661
163.58409 60.326309 11.872665
165.27039 60.499882 11.876503
167.25423 60.73394 11.816147
169.15868 60.937698 11.742021
171.0984 60.917892 11.63371
173.13399 60.93079 11.331551
175.08075 61.007687 11.234105
177.06775 61.042919 11.011753
179.06924 61.057758 10.846766
181.04306 61.027378 10.619142
183.03696 61.088291 10.562779
185.0446 61.178028 10.327811
186.98167 61.465706 10.233024
188.82388 61.621666 10.0893
190.43764 61.505207 10.081214
169.46184 62.290478 11.940701
171.02954 62.38792 11.919136
173.14896 62.703121 11.795337
175.06441 62.898247 11.718768
177.09987 62.987381 11.497497
179.08673 62.966282 11.336057
181.0865 62.992523 11.24063
183.1013 62.989574 11.126304
185.06471 63.035728 10.73409
187.05673 63.088791 10.600669
189.09387 63.135548 10.443648
190.84973 63.256256 10.317722
193.03265 63.55463 10.22488
195.15746 63.847752 10.054664
196.30722 63.891445 10.163973
175.85098 64.553635 11.930023
177.08833 64.476028 11.672393
179.0488 64.459145 11.788095
181.08752 64.834763 11.717203
183.12088 64.808418 11.510743
185.09286 64.960213 11.418444
187.0835 64.99173 11.20707
189.08359 65.010933 11.030937
191.07108 65.047386 10.805537
193.05847 65.08429 10.578922
195.03444 65.163956 10.388745
196.94168 65.461334 10.24736
198.78772 65.53714 10.146167
201.09404 65.80246 10.157701
181.23268 66.465042 11.878324
183.33557 66.284706 11.663157
185.19901 66.685005 11.780405
187.22282 66.769958 11.738785
189.09956 66.780479 11.557843
191.09967 66.947639 11.419722
193.05161 67.030685 11.060653
195.05017 67.052673 10.876989
197.03395 67.094109 10.637598
199.00977 67.140633 10.435111
201.04108 67.180397 10.314532
203.17714 67.25515 10.254787
204.923 67.667877 10.135537
206.6832 67.816254 10.111525
185.01584 68.167183 11.917212
188.7661 68.260788 11.915067
191.19397 68.648575 11.746832
193.06866 68.839653 11.604056
195.08191 68.948219 11.503924
197.06641 68.988731 11.267252
199.05606 69.022644 11.0495
201.04442 69.058701 10.825958
203.06165 69.05925 10.705017
205.04926 69.096619 10.477264
207.04434 69.249496 10.382477
208.85165 69.467018 10.291547
210.93602 69.720848 10.155099
191.8419 70.130051 11.9398
192.93129 70.541229 11.905592
195.41867 70.568871 11.802681
197.11269 70.715492 11.735424
199.10802 70.902519 11.617488
201.06744 70.932472 11.413781
203.02657 71.027534 11.225337
205.03488 70.961784 11.102041
207.08301 71.012627 10.927569
209.07072 71.050392 10.698872
211.07912 71.064125 10.540494
213.11401 71.119041 10.362417
215.11444 71.342628 10.259691
216.78833 71.453941 10.161699
218.86937 71.610138 10.133042
220.3924 71.050514 10.03536
197.86177 72.098755 11.995745
199.38824 72.380928 11.902366
201.17348 72.661385 11.829134
203.03506 72.862366 11.689711
205.08861 72.811134 11.620216
207.09575 72.930557 11.489974
209.05766 72.998718 11.172186
211.08592 72.988869 11.084053
213.07567 73.02462 10.861529
215.06708 73.031792 10.578862
217.08934 73.057777 10.529254
219.04643 73.22094 10.368753
221.02628 73.346001 10.279253
222.91502 73.293068 10.18787
225.15326 73.283653 10.015835
203.4473 74.108513 11.955895
205.18889 74.181702 11.846252
207.23082 74.533958 11.723392
209.27991 74.733856 11.749218
211.06133 74.841431 11.624434
213.07928 74.952057 11.395409
215.08766 74.966507 11.236312
217.11299 74.962288 11.132598
219.10567 74.995651 10.917459
221.08833 75.040253 10.669115
223.08623 75.06813 10.470006
224.99452 75.263809 10.305069
226.91339 75.459259 10.225099
228.58305 75.493736 10.140952
231.19168 75.448563 10.128139
209.26123 76.087631 11.996116
211.84933 76.710114 11.873016
213.16977 76.562851 11.862012
215.2218 76.671165 11.719493
217.13237 76.782532 11.626055
219.1125 76.918427 11.465681
221.08928 76.982353 11.261033
223.04813 77.003403 11.032685
225.09203 77.017349 10.824484
227.06999 77.099251 10.569575
229.0589 77.103447 10.390465
231.07646 77.429138 10.191124
232.97279 77.32605 10.126362
235.28589 77.541054 10.145683
237.58684 77.859535 10.1135
217.14183 78.504814 11.866354
219.09639 78.730949 11.765296
221.15506 78.737274 11.732837
223.14502 78.867699 11.596511
225.15976 78.863182 11.380318
227.06975 78.995895 11.089924
229.02937 79.028816 10.878261
231.0369 79.03376 10.750458
233.07693 79.067703 10.531442
235.0755 79.09626 10.331172
237.01715 79.219955 10.272537
239.06677 79.42099 10.239364
240.76915 79.465706 10.167805
242.38335 79.860367 10.156828
221.23616 80.115768 11.847522
223.01253 80.446335 11.861583
225.1637 80.680847 11.719201
227.11908 80.859718 11.578518
229.08598 80.932549 11.479978
231.09464 80.950012 11.314287
233.10854 80.962502 11.163404
235.01176 80.966209 10.876566
237.02209 81.056396 10.79948
239.09467 81.058907 10.531826
241.02583 81.134666 10.367085
243.11317 81.258598 10.305863
245.09698 81.525734 10.197701
246.72588 81.135506 10.086793
248.9859 81.882065 10.035151
225.84067 82.095284 11.957853
227.01381 82.331299 11.811018
229.04292 82.422478 11.741512
231.08691 82.703835 11.697796
233.13422 82.865639 11.650034
235.06886 82.906189 11.365516
237.04395 82.958458 11.209615
239.07428 82.973648 11.15528
241.06921 82.972588 10.889343
243.04071 83.060692 10.772164
245.07448 83.028946 10.551804
247.09674 83.112167 10.340254
248.94884 83.265427 10.223944
250.94797 83.552559 10.246273
252.66785 83.591774 10.175152
254.43768 83.455894 10.065342
229.75006 84.550255 11.928993
230.12141 84.969421 11.90723
232.99174 84.256371 11.852915
235.09859 84.468964 11.773212
237.08504 84.676041 11.710085
239.10217 84.747726 11.720999
241.032 84.896568 11.48602
242.9734 84.926468 11.343659
245.02654 84.939987 11.189324
247.11063 84.963211 11.002691
249.097 85.049782 10.732072
251.11165 85.081306 10.523028
253.09409 85.164024 10.34481
254.87067 85.422775 10.213599
256.84824 85.482643 10.158167
259.60571 85.875282 10.093266
260.99527 85.049843 10.305417
239.33058 86.227631 11.842415
241.13133 86.68811 11.894329
243.04297 86.699104 11.696108
245.05843 86.856598 11.686146
247.09286 86.874954 11.482738
249.07878 86.943047 11.206631
251.08212 86.987701 11.063691
253.11008 87.019745 10.801528
255.07265 87.020531 10.582578
256.95737 87.223785 10.453542
258.95618 87.346046 10.312117
260.78397 86.856796 10.716627
243.0452 88.284668 11.978361
245.7175 88.059906 11.885669
247.02509 88.40799 11.873736
249.14743 88.708015 11.743365
251.14865 88.724297 11.613195
253.12828 88.880646 11.436174
255.08287 88.950317 11.160451
257.03452 88.981522 10.959188
259.06702 89.058228 10.762152
260.46521 89.09584 10.631483
251.32178 90.187798 11.920064
253.24797 90.503326 11.699804
255.05833 90.804924 11.73561
257.02811 90.940216 11.494781
259.06793 90.949829 11.302464
260.47165 91.097504 11.120335
253.00874 92.109978 11.922277
254.26802 92.073883 11.974096
257.08978 92.325851 11.822819
259.19342 92.566391 11.746435
260.55771 92.931023 11.576699
260.66681 94.089615 11.878513
97.443581 35.103561 12.266631
98.068253 35.751671 12.023143
97.256104 37.027065 12.436085
98.761223 37.175747 12.285496
100.94838 37.483601 12.214726
102.47822 37.684895 12.255632
97.279831 38.924419 12.92067
98.848686 38.986168 12.78853
100.83239 38.959942 12.473942
102.84888 39.237167 12.309181
104.67731 39.353958 12.210194
106.8474 39.501598 12.158127
97.385376 40.95731 13.526346
98.943695 41.005146 13.296718
100.88951 40.981007 13.030619
102.87336 40.968628 12.820289
104.84908 40.929504 12.542571
106.75555 41.041988 12.400481
108.66599 41.2551 12.255469
110.67126 41.336979 12.104266
112.79001 41.584137 12.164961
115.23962 41.299877 12.002642
117.25307 41.659698 12.046251
97.403595 43.079884 13.920971
99.015282 42.810741 13.766045
100.93213 42.971912 13.598786
102.91399 43.000141 13.393361
104.87521 42.893528 13.112176
106.9068 43.028427 12.950706
108.84892 42.888672 12.733166
110.83087 43.001644 12.528836
112.86085 43.079212 12.40568
114.74699 43.078312 12.218121
116.74627 43.322708 12.19238
118.60207 43.752308 12.061178
120.41422 43.720798 12.0263
101.01113 44.62413 13.869521
103.11521 44.827156 13.718926
104.92065 44.877419 13.590835
106.91833 44.944771 13.466506
108.84297 44.980789 13.301525
110.81818 45.026936 13.147264
112.85731 45.026035 13.01648
114.84252 44.919556 12.686201
117.00731 44.925045 12.527061
118.91224 45.108875 12.426165
120.96621 45.055862 12.199352
122.65395 45.220394 12.140902
124.41062 45.696991 12.17585
103.69757 46.373154 13.993038
105.01659 46.53096 13.863857
106.99923 46.591232 13.763552
108.99597 46.800781 13.709503
110.98986 46.97538 13.667306
112.84602 47.146378 13.47452
114.92112 47.001194 13.290616
116.81851 47.041561 13.058513
118.88715 46.982788 12.891808
120.8892 46.918686 12.679994
122.8848 47.053768 12.544099
125.02822 47.142319 12.350051
126.90551 47.11301 12.249891
128.70041 47.381737 12.257812
131.99637 47.697956 12.026173
108.45125 48.036255 13.782616
110.26588 48.382988 13.876925
113.07837 48.468475 13.848022
114.89758 48.793251 13.77164
116.84389 49.003403 13.642818
118.8713 49.025917 13.513235
120.92373 48.974743 13.355271
122.9404 49.00148 13.088348
124.86192 48.991001 12.994952
126.86414 49.032421 12.756004
128.95129 48.917568 12.467184
130.94637 49.06493 12.318286
132.80348 49.145874 12.16629
135.09891 49.466331 12.105279
138.07179 49.919601 12.53438
115.22272 50.035564 13.681598
117.43861 50.974186 13.873202
119.18239 50.480564 13.836125
120.88592 50.638878 13.742114
122.90059 50.892174 13.623558
124.89754 51.031521 13.553903
126.98602 51.03231 13.268076
128.98016 51.006718 13.067972
130.97763 50.976276 12.795804
133.12601 50.95179 12.61016
135.10356 50.980244 12.379901
137.05084 51.110451 12.28207
139.19926 51.369564 12.176715
140.96353 51.705231 12.114454
123.49045 52.364441 13.747468
124.91989 52.826538 13.811451
126.89951 52.771179 13.798221
128.85829 52.930241 13.65427
131.06372 52.972393 13.344934
133.19377 53.047848 13.210818
135.15402 52.949898 12.922291
137.07803 52.950722 12.798289
139.01064 52.924458 12.48125
141.01018 53.017445 12.394708
143.0549 53.058723 12.229021
145.00693 53.443192 12.186676
147.17442 53.663975 12.172792
148.77367 53.672298 12.048674
127.42283 54.520645 13.982914
128.72861 54.508839 13.815783
130.78783 54.586658 13.7559
132.96335 54.954559 13.698956
135.00905 55.022308 13.541532
137.09555 55.008717 13.321921
139.12943 54.982128 13.18097
141.14049 54.943745 12.969172
143.06813 54.945705 12.842518
145.07269 54.98827 12.593561
147.06531 55.016102 12.449654
148.90303 55.021057 12.300787
150.79813 55.095692 12.360559
152.76709 55.579079 12.157881
133.9951 56.337067 13.819851
135.08647 56.718143 13.869781
136.91487 56.747715 13.757878
139.11122 56.91539 13.659527
141.07443 57.021378 13.487384
143.05109 57.062897 13.34849
144.98477 57.073418 13.237681
147.05989 57.003025 12.975793
149.11511 56.987873 12.741036
151.02553 57.040512 12.675817
153.09059 56.944752 12.408383
154.91826 56.997631 12.349388
156.62311 57.13047 12.234562
158.89012 57.399952 12.057854
139.44975 58.451771 13.880198
141.37656 58.629745 13.755911
143.27893 58.712879 13.810978
145.1179 58.760185 13.595461
146.95844 59.061832 13.588696
148.98305 59.060699 13.434541
151.01128 59.079849 13.198884
152.95407 58.970024 12.995661
154.98293 59.001354 12.889435
157.03154 58.993916 12.655326
159.04482 59.066574 12.475086
160.89894 59.208652 12.247771
162.87627 59.323181 12.201149
164.75438 59.650623 12.117306
145.77673 60.495064 13.890632
147.07359 60.562801 13.8759
149.15578 60.846813 13.764874
151.09891 60.943035 13.733164
152.99542 60.997421 13.67291
155.01601 61.163277 13.371534
157.06326 61.008095 13.254587
159.09584 61.084789 12.909607
161.15167 61.054668 12.668945
163.03778 61.058338 12.503772
165.03082 61.126492 12.388947
166.80371 61.347607 12.220065
168.61293 60.988571 12.087573
171.15231 61.647125 12.065319
172.3633 61.64024 12.011005
149.16043 62.289516 13.988535
151.99095 62.247646 13.936337
153.39127 62.709862 13.736331
155.12384 62.702465 13.652676
157.05066 62.913761 13.679698
159.01514 63.086979 13.524945
161.11093 63.068401 13.321045
163.17645 63.038212 13.038884
165.21494 63.062969 12.843782
167.1459 63.043499 12.653464
169.0459 63.055927 12.470334
171.18719 63.172901 12.410952
173.01038 63.456799 12.320995
175.34142 63.44651 12.10776
176.50519 62.634144 12.549072
178.79726 63.59 12.094084
157.94513 65.076523 13.938978
159.45265 64.731522 13.779007
161.10651 64.809975 13.706641
163.09291 65.014343 13.575191
165.06171 65.025642 13.393276
167.03009 65.10096 13.275269
169.09505 65.107452 13.043279
171.04549 65.065872 12.832656
173.06712 64.958839 12.636467
175.07547 64.979385 12.419734
177.00945 65.122978 12.307983
179.06912 65.372459 12.326509
180.96649 65.110245 12.150379
182.78792 65.582474 12.203546
163.65373 66.746536 13.953873
165.40837 66.857841 13.831833
167.11154 66.82357 13.625109
169.13354 66.944809 13.561152
171.18025 67.064697 13.396823
173.112 66.967972 13.192786
175.05275 67.076004 13.103576
177.11502 67.016563 12.875396
179.11163 67.159668 12.657749
181.06665 67.033745 12.486348
183.04416 67.148979 12.355989
184.93678 67.187027 12.131653
186.8811 67.660065 12.194251
189.09326 67.674591 12.191883
190.59952 67.778786 12.106298
167.90324 69.082367 13.956953
169.36565 68.597237 13.88145
171.1347 68.849419 13.790568
173.21111 68.86293 13.7936
175.24709 68.984627 13.585709
177.15923 69.065964 13.458743
179.11824 69.060699 13.255177
181.02838 69.093834 13.04895
183.0062 69.07019 12.9578
185.05916 68.960709 12.656324
187.08105 69.071159 12.479095
189.05763 69.217758 12.358406
191.04272 69.245773 12.181857
193.24854 69.714432 12.151373
173.53908 70.23127 13.963095
175.5365 70.637566 13.889539
177.19626 70.467194 13.798099
179.21759 70.78257 13.743496
181.13544 70.987137 13.573956
183.17438 71.035545 13.511194
185.0941 70.900597 13.150935
187.05397 71.0849 13.092826
189.14964 71.120499 12.764528
191.07484 71.101013 12.604077
193.07239 71.061325 12.419916
194.88995 71.167953 12.284756
196.99625 71.586121 12.139564
198.33092 71.629608 12.111374
201.175 71.605835 12.016279
178.28798 72.664795 13.957201
181.46126 72.850876 13.845326
183.41104 72.553665 13.86659
185.05391 72.936798 13.678551
187.0197 72.989021 13.685266
189.01599 72.928734 13.476041
191.09352 73.050636 13.229234
193.1716 73.043182 12.940898
195.14571 72.933975 12.677382
197.05183 73.031288 12.518288
199.03743 73.181511 12.414386
201.05038 73.31086 12.323245
203.24191 73.217438 12.115621
205.16345 73.599998 12.120308
208.38632 73.997269 12.005871
185.51196 74.23938 13.861519
186.75143 74.198059 13.914768
189.14473 74.89978 13.858423
190.98712 74.809479 13.629122
193.10909 74.958275 13.581642
195.14183 74.926163 13.25633
197.12372 75.030609 13.090512
199.04546 75.156647 12.955027
201.05656 75.044327 12.70097
203.08391 75.02626 12.498074
205.02922 75.141327 12.314453
207.02043 75.238441 12.373447
208.80502 75.317848 12.170051
211.17966 75.778198 12.187229
212.05376 75.509499 12.313984
191.72572 76.212631 13.892675
193.2695 76.514977 13.878896
195.24986 76.780769 13.733039
197.05069 76.983253 13.685134
199.084 76.949829 13.398557
201.09547 77.048439 13.326105
203.12062 77.0634 13.065248
205.15952 76.993698 12.898104
207.15764 77.044518 12.6473
209.06218 76.977562 12.496861
211.07198 76.979065 12.352527
212.99026 77.203537 12.301088
214.79004 77.265213 12.149178
217.07867 77.397621 12.043217
218.99059 77.98774 12.058992
197.75566 78.893913 13.910291
199.28207 78.495316 13.802999
201.11046 78.766586 13.769233
203.17555 79.00042 13.650016
205.10162 79.027946 13.462239
207.12611 78.99633 13.3508
209.15512 78.980209 13.087891
211.07896 79.058174 12.85706
213.11137 79.005661 12.670309
215.07994 78.974014 12.525899
216.97211 79.213982 12.453833
219.04964 79.422173 12.356907
220.93542 79.187401 12.136857
222.36708 79.601013 12.076794
224.57161 79.681305 12.137554
197.41234 80.272011 13.990089
201.23279 80.476852 13.79178
203.15099 80.499229 13.831777
205.14111 80.437294 13.858789
207.17027 80.707954 13.683195
209.16455 80.989548 13.648851
211.09535 81.049561 13.467753
213.15932 81.038704 13.336774
215.06322 80.994102 13.06917
217.09389 81.054688 13.01648
219.1151 81.124092 12.791011
221.12997 81.066887 12.517335
223.11528 81.147232 12.382163
225.04225 81.301842 12.186195
226.79341 81.559464 12.266612
207.45876 82.632668 13.909435
208.30695 82.200508 13.903906
211.33249 82.784126 13.877395
213.39702 82.708595 13.781773
215.17294 82.941711 13.709976
217.10693 82.996346 13.552175
219.04265 83.017204 13.330379
221.00029 82.968651 13.186599
223.00203 83.023994 12.996405
224.99049 83.087517 12.632638
227.13261 83.170517 12.456985
229.09308 83.403358 12.422704
231.05927 83.486069 12.128765
232.9431 83.039589 12.109845
235.23297 83.369064 12.047518
236.83272 83.969994 12.048843
213.85291 84.251823 13.734148
215.52017 84.582001 13.921536
217.07803 84.676933 13.777914
219.16475 84.837326 13.710742
220.9975 84.899536 13.703225
222.98541 84.984863 13.419433
225.07367 84.970749 13.155263
227.08461 85.113472 12.989033
229.08127 85.127296 12.733312
231.1391 84.94429 12.517742
233.01663 85.249878 12.437766
234.99222 85.373116 12.417086
236.93906 85.411774 12.303702
238.9516 85.572151 12.169467
240.83632 85.693077 12.126953
219.45068 86.373749 13.777728
221.47655 87.012154 13.855312
223.25182 86.711754 13.794221
225.05754 86.812134 13.678415
227.05452 86.871269 13.560542
229.03632 87.043083 13.406914
231.08838 86.988098 13.169719
233.06195 87.085297 12.943245
234.99644 87.133675 12.84999
237.03481 87.010696 12.615502
239.09486 87.122559 12.392445
241.08786 87.252762 12.303991
243.08775 87.386017 12.233504
245.00133 87.281738 12.11627
247.25691 87.949005 12.157803
227.58032 88.781555 13.88757
229.12102 88.729515 13.749478
230.91757 88.750671 13.691444
232.91864 88.907478 13.591914
234.90564 89.011284 13.37716
237.05348 88.955536 13.17463
239.07506 89.028656 12.949946
241.07068 89.055046 12.805032
242.89975 89.082542 12.663914
244.90109 89.054604 12.416279
246.83377 89.204384 12.330395
248.79077 89.426186 12.295572
250.82321 89.650101 12.151344
252.4986 89.528198 12.185785
231.50064 90.384575 13.901171
233.18213 90.635605 13.811177
235.20897 90.712852 13.706363
237.28874 90.788017 13.604014
239.16797 90.964005 13.534342
241.02138 91.013588 13.394579
242.95438 91.063217 13.132869
244.99171 90.997238 13.03132
247.04457 91.027748 12.782979
249.05182 91.092743 12.617682
251.00429 91.18969 12.4195
252.93034 91.081833 12.249331
255.35429 91.566231 12.20901
257.23117 91.970024 12.157532
237.71906 92.179276 13.85017
239.17212 92.301468 13.920749
241.01373 92.773895 13.782106
243.11232 92.798424 13.729736
244.89613 92.924026 13.609354
246.95605 93.095726 13.433026
248.98337 92.970589 13.147457
251.05168 93.082535 12.93714
253.10545 93.008598 12.718874
255.0381 93.016113 12.493524
257.01404 93.175461 12.384906
258.81329 93.397697 12.241323
260.26892 93.402321 12.235372
245.22815 94.540146 13.931273
247.33243 94.821678 13.785561
249.06828 94.887253 13.759885
250.98108 94.982445 13.55505
252.96289 94.946861 13.227384
254.94543 95.097862 13.137465
257.04034 95.016571 12.858479
259.17239 95.109306 12.56018
260.51257 95.19928 12.354319
247.52307 96.154091 13.992798
249.51309 96.959518 13.985319
250.98869 96.477104 13.783093
253.16545 96.676483 13.70331
255.16179 96.916008 13.665193
257.06241 97.025787 13.442969
259.086 97.029358 13.220379
260.55106 97.086372 13.008118
251.43202 98.595459 13.988304
253.89577 98.381432 13.885434
255.14508 98.35582 13.909054
257.30081 98.725349 13.797997
259.09851 98.813683 13.683788
260.27719 98.566734 13.64508
259.39087 100.1638 13.918663
96.978874 41.836246 14.047019
97.335678 43.070511 14.265496
98.814323 43.554642 14.170656
100.828 43.844208 14.118047
97.383545 45.009655 14.640718
98.964813 45.045464 14.441481
100.89973 45.333553 14.28071
102.77178 45.159744 14.171731
104.965 45.791973 14.330852
106.56449 45.585152 14.210827
97.457756 46.846729 15.332114
98.998672 46.943275 15.052986
100.98337 46.966156 14.862641
102.92403 47.051243 14.602676
104.88281 47.095039 14.361527
106.85204 47.36375 14.269422
108.82674 47.599766 14.221918
110.42918 47.733452 14.188013
97.425667 48.815029 15.660226
99.06945 48.847164 15.544385
100.99449 48.924061 15.311777
102.98004 48.944176 15.129385
104.94615 49.014782 14.810598
106.93492 49.027916 14.646856
108.92209 49.046055 14.469874
110.96996 49.113087 14.356721
112.84899 49.256214 14.253678
114.81707 49.537224 14.167043
117.17802 49.429016 14.053162
96.974174 50.6138 15.587707
99.072235 50.459103 15.877553
101.13761 50.801842 15.785177
102.99464 50.890602 15.606839
105.01697 50.940922 15.474111
106.92443 51.003696 15.180119
108.90649 51.042488 15.071653
110.93314 50.985126 14.840948
112.92947 50.983101 14.719093
114.91312 51.012081 14.513144
116.85223 51.041603 14.358972
118.82018 51.185349 14.254064
120.79105 51.502941 14.149959
122.30129 51.313454 14.088351
124.95322 51.692535 14.33697
126.1165 51.770596 14.047987
103.52604 52.344879 15.848099
104.86091 52.725555 15.882092
107.04845 52.717056 15.702068
109.07864 52.940395 15.571512
110.96429 52.887081 15.439639
112.94015 52.942863 15.295818
114.95162 52.94257 15.16925
116.93166 52.934868 14.929688
118.91051 52.975624 14.691736
120.90012 52.992752 14.518349
122.84789 53.040295 14.416791
124.84167 53.176315 14.274561
126.87813 53.424072 14.120047
129.10854 53.656147 14.217819
130.93758 53.697281 14.282568
107.23354 54.620716 15.956021
111.06977 54.454178 15.78613
113.02644 54.795105 15.696221
114.95116 54.914898 15.684021
116.97705 54.884155 15.533045
118.97964 54.945808 15.361599
120.94012 54.874443 15.174774
122.90043 54.955631 14.82558
124.91231 55.00489 14.698257
126.81977 55.042725 14.631949
128.90163 55.144958 14.393204
130.96515 55.398396 14.265787
132.63887 55.353935 14.116197
134.87666 55.786747 14.11981
112.95096 56.459885 15.975651
115.62171 56.435955 15.876222
116.95597 56.54047 15.838862
119.05206 56.77319 15.754703
120.97028 56.943264 15.614263
122.99038 56.948498 15.54783
124.93317 56.927616 15.341165
126.90717 56.989784 15.171545
128.88161 56.965145 14.88925
130.88583 56.942028 14.691895
132.87128 56.971512 14.485392
134.76814 57.243774 14.231851
136.71681 57.343002 14.193215
138.78864 57.48642 14.306601
119.29797 58.513184 15.75045
120.72269 58.257317 15.788527
123.05263 58.526119 15.823277
124.9051 58.716621 15.691864
127.05132 58.937511 15.630906
128.92104 58.993824 15.479403
130.9304 58.969383 15.321538
132.8644 59.003304 14.987047
134.86581 58.943119 14.767622
136.85277 58.970024 14.568895
138.81317 59.032894 14.425809
140.82603 59.084541 14.284212
142.70651 59.292355 14.172929
144.65009 59.530651 14.147299
146.04085 59.796223 14.058319
125.12224 60.210171 15.970171
127.33887 60.368786 15.984074
129.01926 60.700619 15.838017
130.9987 60.715248 15.75046
132.90067 60.887234 15.533564
134.88614 60.862408 15.318328
136.87659 60.969391 15.159229
138.86029 61.002491 14.943367
140.83994 60.973324 14.776448
142.85298 60.937096 14.617304
144.80742 60.997074 14.426833
146.90007 61.183697 14.300598
148.81969 61.307278 14.292492
150.54024 61.474766 14.120298
152.43243 61.789455 14.011629
154.09995 60.904312 14.0224
131.29059 62.028988 15.824588
133.36313 62.512367 15.7646
134.93842 62.579567 15.732472
136.92314 62.872913 15.647834
138.95332 62.897709 15.604719
140.88963 62.940773 15.42003
142.85602 62.903008 15.175811
144.88771 62.968903 14.982988
146.85875 62.967037 14.75419
148.86832 63.041283 14.59981
150.897 62.99268 14.429617
152.85085 63.060627 14.380519
154.84407 63.286163 14.247192
156.59843 63.204498 14.062986
158.08078 63.689991 14.279295
136.88229 64.001297 15.880358
139.35013 64.729263 15.821286
140.83685 64.811104 15.807051
142.98053 64.697327 15.634348
144.9303 64.798279 15.588642
146.88669 64.980194 15.38346
148.86566 64.932556 15.280598
150.89665 64.926559 15.043873
152.91081 65.070236 14.810034
154.8976 64.934006 14.678083
156.88535 65.004204 14.401752
158.9277 65.047127 14.442378
160.78629 65.387878 14.226449
162.56438 65.614845 14.141708
164.85365 65.724701 14.094191
140.01706 66.466202 15.876341
142.84631 66.416893 15.851507
144.76624 66.186508 15.671419
146.82822 66.67366 15.715788
148.96275 66.702965 15.728086
150.88451 66.858185 15.609533
152.85597 67.045753 15.451452
154.88956 67.003479 15.16012
157.0593 66.980537 15.013023
158.95694 66.974831 14.86652
160.89035 67.004013 14.554955
162.88812 66.973343 14.373163
164.65504 67.198769 14.318806
167.05461 67.394249 14.138745
168.83582 67.530525 14.127796
170.24365 67.529533 14.047131
146.81638 68.036301 15.805428
148.22661 68.02224 15.763186
151.3356 68.451111 15.803981
153.19202 68.699959 15.746593
155.1209 68.836464 15.656275
157.00227 68.979935 15.524055
158.90736 69.001854 15.41578
160.86497 69.04731 15.212397
162.87666 68.937386 14.947682
164.84421 68.965652 14.625245
166.87891 68.963501 14.467337
168.94894 69.060883 14.313571
171.00742 69.288582 14.252961
172.7571 69.451241 14.180673
174.55128 69.478584 14.053527
152.00938 70.009216 15.885225
155.66422 70.323776 15.985758
157.0759 70.585785 15.749612
158.92607 70.968094 15.833335
161.02003 71.021797 15.663587
162.94823 71.040909 15.512386
164.92836 70.998817 15.268641
166.8925 70.882263 14.965538
168.98291 71.060768 14.808606
171.04578 71.054016 14.629204
172.99931 70.875984 14.372077
174.96722 71.020424 14.39397
177.10463 71.329239 14.245036
178.90623 71.390572 14.1139
180.24094 71.69342 14.231751
163.03651 72.478432 15.819627
164.95712 72.803726 15.730746
166.85551 72.968712 15.598855
168.8521 73.029533 15.492936
170.83917 73.031197 15.289777
172.9541 72.966125 15.058247
174.97794 72.974442 14.901544
176.99869 72.985992 14.717772
179.03664 72.946518 14.470016
180.79889 73.179436 14.271035
182.87831 73.0914 14.303803
184.71706 73.511108 14.200701
186.05923 73.079819 14.154201
188.75087 73.655342 14.167111
164.8067 74.345383 15.999571
166.80284 74.685982 15.913104
169.12701 74.43885 15.786318
171.01172 74.874619 15.736423
172.91454 75.024597 15.665247
175.04044 75.09697 15.505129
177.0274 75.061745 15.233395
178.99345 74.990311 15.095942
180.97823 75.034843 14.958881
182.87227 75.036812 14.801951
184.81609 75.027008 14.579041
186.92973 74.985153 14.32061
188.73285 75.218109 14.212043
191.02086 75.3741 14.139241
192.85223 75.546455 14.149658
194.5062 75.624649 14.243294
175.21768 76.491997 15.770436
177.17641 76.85186 15.756529
178.95703 76.896004 15.592174
180.85245 77.069107 15.534416
182.94656 77.06842 15.417866
184.92705 77.012032 15.113404
186.92404 76.994125 14.93788
188.87492 76.958206 14.700703
190.9454 77.041893 14.564054
193.00662 77.194183 14.331632
194.90862 77.197105 14.296118
196.54712 77.18116 14.080953
198.42249 77.577354 14.048068
179.48798 78.443901 15.782587
181.32008 78.705597 15.841813
182.79568 78.838379 15.753934
184.7939 78.999413 15.584822
186.87367 78.991463 15.458004
188.94302 78.976006 15.271123
190.9034 79.11602 15.084486
192.92726 79.018608 14.827398
195.02466 78.908737 14.540561
197.05219 78.940414 14.405375
199.00681 79.285271 14.265269
200.94066 79.212448 14.186405
202.23038 79.284859 14.1784
204.09689 78.45372 14.046631
206.11943 79.224396 14.147036
183.14185 80.758774 15.871359
185.67558 80.63224 15.863123
187.29893 80.791168 15.828683
189.06897 80.927544 15.749906
191.09961 81.018364 15.599414
193.05237 80.972771 15.38535
195.06723 80.97197 15.175879
197.09872 80.923431 14.986033
199.03738 80.947052 14.755201
200.92363 81.031433 14.558699
202.79475 81.102654 14.466787
204.916 81.235588 14.425567
206.87881 81.512688 14.329712
208.55566 81.236755 14.279424
210.92609 81.980385 14.445873
185.51796 82.355026 15.983671
189.25952 82.761894 15.814125
191.64012 82.254402 15.961166
193.17134 82.766525 15.672285
195.12398 82.889763 15.653837
197.10059 82.888252 15.479896
199.09688 82.964149 15.321112
201.03593 83.00721 15.165166
203.00401 82.994469 14.987576
205.0771 83.031921 14.756712
207.03738 82.992142 14.574102
208.94228 83.002449 14.338837
210.79025 83.030586 14.291207
212.87843 83.102852 14.258026
214.58276 83.141609 14.110504
216.0538 83.283752 14.022711
219.34492 83.997894 14.233345
195.82933 84.45034 15.846858
197.27307 84.771805 15.76604
199.09261 84.639671 15.732063
201.07191 84.857941 15.596253
202.91356 85.076828 15.521251
204.98782 85.027451 15.365206
207.04324 85.055893 15.151171
209.02644 84.912704 14.943187
211.10173 85.045593 14.774919
213.05667 85.033516 14.561689
214.85321 84.983398 14.452892
216.90221 85.250504 14.302059
218.9548 85.283981 14.162855
220.92371 85.391998 14.37725
222.04001 85.689011 14.039795
201.13217 86.339935 15.755774
203.27385 86.880608 15.819997
204.86185 86.768631 15.853917
207.13808 86.908882 15.579012
209.0677 86.956024 15.47583
211.03812 87.019569 15.342429
213.0108 87.13871 15.1354
214.97052 87.066032 14.920519
216.95671 87.029846 14.781207
218.90637 87.064072 14.608472
221.00333 86.993828 14.362641
222.76135 87.198128 14.276633
224.94691 87.292397 14.25749
226.56267 87.686195 14.101631
230.14973 87.610695 14.151434
209.27614 88.909576 15.848825
211.18323 88.779778 15.701614
213.13902 88.919907 15.747941
214.8857 89.025993 15.613403
216.83748 89.070381 15.343756
219.00999 89.066078 15.249914
220.92877 89.031685 14.93413
222.97977 89.036903 14.779803
224.94128 88.949471 14.509682
226.78281 88.961418 14.328609
228.8952 89.284615 14.216242
230.95534 89.420929 14.117424
232.66605 89.656601 14.166025
235.3306 89.629303 14.113544
213.53613 90.32225 15.720156
215.27824 90.453392 15.879786
216.92896 90.550827 15.815786
219.10159 90.881241 15.721403
221.00108 91.045845 15.520999
223.06549 91.008514 15.365119
224.97823 90.990616 15.065892
226.88402 90.999512 14.87956
228.95149 90.976059 14.567404
231.063 90.871582 14.375548
232.93887 91.160164 14.309164
234.84593 91.273987 14.3243
236.64667 91.334396 14.238917
238.24707 91.484962 14.043382
221.25684 92.546097 15.839572
223.23335 92.752174 15.635382
225.04477 92.956856 15.620724
226.9465 93.124062 15.519192
228.97969 92.978477 15.190162
230.97447 92.996063 15.056302
232.90126 92.941048 14.82416
234.93854 93.070213 14.703535
236.91016 92.977173 14.523698
238.89714 93.081284 14.387797
240.87662 93.378845 14.268435
242.71251 93.152802 14.199748
245.71483 93.643631 14.109558
225.77341 94.278458 15.786959
226.90836 94.353775 15.824106
229.08585 94.832649 15.811658
230.96147 94.952148 15.615832
232.98019 94.984741 15.469711
234.94954 95.124352 15.336379
236.98351 95.029648 15.029648
238.9823 94.912064 14.838714
240.95065 94.987602 14.599552
243.04199 94.952011 14.418768
244.8969 95.127525 14.349584
246.60902 95.191315 14.253185
248.92061 95.608643 14.347647
250.94618 95.359222 14.149502
235.16577 96.644119 15.756026
237.0843 96.836609 15.613173
238.98099 97.076607 15.458201
240.9225 97.025993 15.155792
242.89114 97.015335 15.023882
244.89194 97.00209 14.868406
247.0358 97.043747 14.6426
248.98102 97.05442 14.473083
250.81429 97.143837 14.308131
252.65834 97.322144 14.23894
254.5302 97.221931 14.247467
237.71849 99.290359 15.826176
239.1812 98.675491 15.85089
240.99768 98.875778 15.618803
242.93167 98.985947 15.627178
244.89464 99.060844 15.490992
246.88007 99.026726 15.225495
248.9736 99.080704 14.976501
250.97513 99.071335 14.885829
252.90265 98.996826 14.638284
254.94617 99.080673 14.421082
256.79266 99.083435 14.280329
258.61487 99.401848 14.069658
260.13348 99.610367 14.344608
237.81155 100.73601 15.852818
240.30606 100.68043 15.919401
243.0376 100.40143 15.792114
245.05469 100.55391 15.731795
247.05635 100.78701 15.747692
248.9559 101.12449 15.5934
250.87981 101.05196 15.435689
252.93861 101.05065 15.16562
255.0191 101.02477 14.992557
256.91113 100.92245 14.676842
258.96313 100.99516 14.448956
260.09799 101.3685 14.736151
249.0563 102.33199 15.732537
251.13135 102.76964 15.77989
253.00746 102.75008 15.614408
254.93051 103.01206 15.535967
256.98199 103.00002 15.264541
258.98471 103.01488 15.03214
260.06525 103.12341 15.135269
253.34724 104.85254 15.936351
255.41246 104.69837 15.893468
257.15396 104.76578 15.787398
259.05807 104.93457 15.539166
260.04645 105.05786 15.627829
259.30634 106.38731 15.849719
260.35675 107.43877 15.990551
259.7778 109.82448 14.906067
260.3978 109.46043 15.43361
260.4942 110.33939 15.97681
97.473724 49.620132 16.186365
98.668671 49.410156 16.064856
100.46021 49.9473 16.029013
97.283066 51.159019 16.722584
99.043213 51.223221 16.33193
100.81796 51.68298 16.231539
102.83806 51.970695 16.144802
104.63583 51.96207 16.054466
97.437286 52.951508 17.029518
99.081726 53.082428 16.823427
101.07507 53.031174 16.578861
102.96069 53.207302 16.338934
105.11732 53.35746 16.221598
106.92829 53.499859 16.198246
108.87141 53.766815 16.187328
97.513962 54.943409 17.465029
99.104759 55.007393 17.355366
101.08032 55.051346 17.108606
103.09061 55.039288 16.880035
105.06129 55.013893 16.701115
106.98396 55.059845 16.419357
108.9987 55.106483 16.321911
110.95566 55.283646 16.210255
113.05718 55.352165 16.174551
114.91693 55.608883 16.162628
117.00739 55.919144 16.052326
97.524109 56.165001 17.765528
99.13015 56.616829 17.847477
101.24523 56.829704 17.625813
103.09415 56.979546 17.505501
105.07408 57.012814 17.288898
107.06391 57.014099 17.024242
109.03669 57.073872 16.870556
111.0122 56.996632 16.700764
112.95744 57.067131 16.462809
114.95345 57.164795 16.40214
116.98293 57.229534 16.295565
118.7431 57.368107 16.196856
120.3916 57.716789 16.141401
122.2097 57.871288 16.189735
96.529259 59.473263 16.826429
101.40834 58.544312 17.963692
103.19121 58.672649 17.857969
105.16224 58.691227 17.738111
107.12959 58.897202 17.5993
109.05769 58.998989 17.399887
111.04802 59.008858 17.249397
113.0535 58.985004 17.193239
115.03729 59.01273 16.992393
117.01332 59.057899 16.742422
118.96146 59.139755 16.546486
121.02964 59.115005 16.432777
122.91083 59.311352 16.227692
124.98246 59.457977 16.19537
126.68333 59.610229 16.259045
128.97897 59.894886 16.029655
103.86511 60.210728 17.874411
105.48347 60.348202 17.984707
107.13681 60.300617 17.818596
109.3019 60.803303 17.776575
111.12996 60.611309 17.791359
113.07527 60.81741 17.713785
115.06723 60.915783 17.585255
117.02818 60.993736 17.242277
119.02954 60.983345 17.149744
121.01002 61.01931 16.925863
123.00981 61.014996 16.815908
124.96891 61.094448 16.569479
126.94309 61.14444 16.305798
128.94717 61.243687 16.268742
130.61964 61.43359 16.210857
132.95578 61.706642 16.042255
111.84089 62.174789 17.800869
113.15266 62.238419 17.841217
115.49632 62.68277 17.78516
117.15669 62.628139 17.76598
119.10027 62.843361 17.642561
121.04505 62.910507 17.552107
123.02493 62.947811 17.324755
125.01127 62.972149 17.134132
127.00847 62.975357 17.004038
128.98224 63.026283 16.737511
130.9691 63.051571 16.544289
132.84494 63.169308 16.256802
134.88525 63.457741 16.259043
136.77676 63.743633 16.143934
138.47533 63.635948 16.230612
140.14659 63.888157 16.010658
115.01332 64.184341 17.88949
119.23514 64.214485 17.852993
121.10427 64.217072 17.885695
123.16528 64.682632 17.786461
125.05888 64.80455 17.717894
127.05537 64.876564 17.499613
129.00102 64.949081 17.274101
130.98334 64.982666 17.057455
132.95685 65.03334 16.791603
134.93306 65.07869 16.541023
136.93893 65.06955 16.447428
138.86433 65.125252 16.344852
141.14691 65.580109 16.208397
142.90144 65.585075 16.184574
145.19971 65.750137 16.016617
125.28067 66.235191 17.841085
127.07812 66.563477 17.79981
129.08853 66.67144 17.775106
131.02885 66.916878 17.557207
132.98492 66.936745 17.382814
134.97812 66.95031 17.224464
136.9588 66.987732 16.997053
138.9476 67.010696 16.811255
140.97408 67.059212 16.651484
142.92201 67.096596 16.425854
144.94005 67.106056 16.390051
147.04626 67.226418 16.226482
149.05984 67.423004 16.09919
150.54536 67.70092 16.157516
152.76196 67.619469 16.058922
130.86792 68.210701 17.887648
132.98717 68.660233 17.780634
135.03618 68.662842 17.686604
136.9908 68.845329 17.496962
138.96939 68.924591 17.37221
140.98582 69.012138 17.271189
142.95486 68.958282 17.037779
144.94649 68.996407 16.951399
146.92987 69.012634 16.642952
148.91998 69.036232 16.455904
150.83856 69.163704 16.321421
152.90828 69.07843 16.226902
154.6945 69.349602 16.185324
156.39775 69.441994 16.060808
159.0408 69.284546 16.37159
133.76059 70.500885 17.990978
135.56946 70.484146 17.935032
137.22603 70.298691 17.889572
139.06235 70.612953 17.793966
141.00526 70.922287 17.637941
142.95874 70.86969 17.502546
144.99913 71.010696 17.453304
146.94742 70.932144 17.187994
148.95515 70.925957 17.089314
150.95512 70.934196 16.948128
152.9333 70.978416 16.700842
154.88579 71.090515 16.503708
156.76826 71.148376 16.366405
158.89885 71.37468 16.174873
160.50945 71.315445 16.090424
162.09785 71.861282 16.04311
141.74333 72.876366 17.958805
142.95522 72.175827 17.785448
144.95177 72.726105 17.765862
147.04262 72.616356 17.732437
149.04169 72.762802 17.591375
150.93336 72.911461 17.467903
152.93735 72.918251 17.186085
154.95905 72.996323 17.087366
156.93233 72.94519 16.874252
158.90906 72.991989 16.619532
160.89384 73.026405 16.401417
162.83337 73.238281 16.317638
164.69394 73.476608 16.218679
166.8728 73.871758 16.042334
168.13449 73.595619 16.168314
147.3345 74.071358 17.830416
148.84439 74.400002 17.860397
151.20131 74.558998 17.793777
152.96753 74.518196 17.724058
155.00296 74.912743 17.596895
156.9912 74.953728 17.429745
158.94357 75.007507 17.281488
160.91856 74.931686 16.98908
162.93475 74.973663 16.697836
164.91014 75.070869 16.505203
166.87401 75.177643 16.372269
168.86612 75.212601 16.286272
170.91347 75.4459 16.132231
172.88315 75.451904 16.001705
153.34244 76.218414 17.974167
154.927 76.554672 17.863432
156.85342 76.738579 17.833065
159.03639 76.858192 17.789427
160.91054 76.922516 17.513268
162.97293 76.972908 17.320217
164.92986 76.929916 17.066
166.91145 76.987816 16.924879
168.90135 76.948578 16.78409
170.88077 76.991943 16.539675
172.88106 77.006096 16.383163
174.78221 77.174042 16.275486
176.6499 77.323006 16.163328
178.69749 77.61129 16.129171
181.72356 77.796539 16.034019
157.68694 78.07135 17.830915
158.61372 78.602821 17.861814
161.1855 78.428032 17.825945
163.08089 78.784935 17.726542
164.99599 78.846718 17.613325
166.88835 78.901817 17.445412
168.8969 78.894203 17.248566
170.89948 78.904228 17.105484
172.88625 78.93718 16.892977
174.91197 79.010101 16.653963
176.92639 78.950562 16.677223
178.80763 79.079445 16.416815
180.88293 79.13443 16.267872
183.02365 79.315582 16.164558
185.05681 79.63504 16.215927
186.94714 79.364571 16.081902
165.48483 80.44146 17.835815
166.98679 80.350632 17.709564
169.04994 80.63092 17.597078
170.92471 80.872658 17.551641
172.93356 80.953682 17.550652
174.9547 80.82917 17.307081
176.92342 81.01236 17.108519
178.88931 80.960976 16.930008
180.93269 80.95182 16.744993
182.92458 80.989456 16.524378
184.81902 81.076607 16.401812
186.86537 81.154297 16.30682
188.90918 81.195564 16.21928
190.7242 81.302116 16.149523
192.0862 81.81472 16.001251
169.65067 82.258453 17.811544
170.96051 82.418747 17.892437
172.76373 82.494019 17.848698
174.94725 82.708084 17.684586
176.97903 82.781639 17.611269
178.87979 83.019775 17.541811
180.92055 82.892036 17.325859
182.84845 82.96595 17.128777
184.86362 82.951004 17.036179
186.86716 82.97377 16.744026
188.85733 82.991096 16.543371
190.92802 83.053841 16.392591
192.78773 83.159248 16.393948
195.00024 83.501305 16.181614
196.97034 83.696159 16.402029
174.47398 84.000114 17.987457
176.77722 84.109238 17.847757
179.01799 84.578522 17.820894
180.88008 84.601501 17.75975
183.00647 84.778397 17.64143
184.90776 84.914429 17.449781
186.92285 84.969742 17.297417
188.8838 84.98568 17.159117
190.88609 84.958946 16.862684
192.83243 85.01162 16.732265
194.84917 85.017967 16.573492
196.94186 85.178551 16.388042
198.89397 85.296867 16.20039
200.62585 85.560165 16.134308
203.37038 84.541557 16.02989
204.15289 85.343498 16.099993
181.21921 86.055862 17.728844
183.26819 86.395592 17.866827
185.11487 86.325401 17.725107
186.99315 86.633224 17.626774
188.94579 86.916336 17.615116
190.86147 86.923584 17.467598
193.04315 86.964073 17.362761
194.91302 87.010559 17.166323
196.93886 86.986824 16.889879
198.96474 86.91626 16.544855
200.97072 87.007355 16.543274
202.85312 87.139221 16.379736
204.97897 87.11377 16.280611
206.54517 87.24025 16.19331
208.50676 87.634399 16.121283
189.15211 88.49968 17.76763
191.32309 88.428558 17.613186
193.03438 88.869911 17.713932
194.98195 88.985184 17.547432
196.95993 88.963921 17.38336
198.98174 88.995102 17.25631
200.98055 88.940414 16.942923
202.91833 89.099167 16.884523
204.91716 89.003487 16.579815
207.0202 88.970772 16.435802
208.71495 89.064217 16.183542
210.89069 89.197479 16.254705
212.52809 89.447884 16.092379
214.50174 89.383041 16.005053
193.60739 90.32563 17.765938
195.4429 90.879257 17.902779
196.96808 90.682915 17.601597
198.91989 90.861824 17.653448
200.81729 90.858353 17.487303
202.92368 91.044106 17.36837
205.03178 90.952957 17.260447
206.95338 90.906395 17.052479
208.91765 90.877251 16.815878
210.95822 90.954498 16.673288
212.8463 90.965195 16.377554
214.79204 91.095268 16.328125
216.89963 91.245613 16.272291
218.63336 91.363091 16.139532
220.56332 91.321083 16.175734
222.18896 91.701004 16.214102
196.30064 92.499802 17.669415
199.606 92.408714 17.796427
201.04889 92.642876 17.637253
203.12805 92.542244 17.745749
204.98601 92.890198 17.665869
207.00456 92.765907 17.496048
208.95428 92.883415 17.327095
210.94241 92.915146 17.221806
212.94891 93.003036 17.0835
214.85883 92.913361 16.880238
216.89508 92.964828 16.606636
218.89566 92.911804 16.519464
220.83891 93.107681 16.324469
222.77765 93.268272 16.176863
224.88647 93.382545 16.035408
203.16116 94.421173 17.842981
205.97765 94.046379 17.562477
206.94963 94.912659 17.860016
208.85915 94.510658 17.748058
211.06509 94.685211 17.668474
212.88109 94.946068 17.647903
214.94856 94.937325 17.47427
216.85538 95.051422 17.246672
218.89648 94.981506 17.136631
220.89812 94.946297 16.836475
222.88147 94.949989 16.523478
224.87807 94.993164 16.389587
226.9698 95.177834 16.265459
228.75844 95.508942 16.443029
230.76799 95.581451 16.431587
232.24704 95.824265 16.550217
213.36435 96.344147 17.850328
214.96191 96.738472 17.842644
216.85452 96.850372 17.721687
218.93718 97.042847 17.669506
220.91306 97.023026 17.409451
222.88155 97.051628 17.215502
224.83012 96.732124 17.007338
226.73691 96.33905 16.848459
228.35271 96.114136 17.400053
231.17152 96.071381 17.169361
233.13841 96.325233 16.919735
235.0007 97.152489 16.848742
236.65088 97.422142 16.212978
217.80009 98.386475 17.754269
218.94336 98.547913 17.853649
221.09122 98.79454 17.896725
222.75534 98.71743 17.513739
237.19034 98.642311 16.674891
238.74988 99.277779 16.318792
240.86548 99.260818 16.16024
243.08546 99.210548 16.064121
221.31898 100.8829 17.566881
237.66518 100.11238 16.564243
239.12328 100.85564 16.792784
240.86087 101.00382 16.585224
242.84013 101.02942 16.342567
244.7908 101.25785 16.280767
246.7468 101.4538 16.206242
248.7122 101.06222 16.094902
220.04785 102.99303 17.502226
239.34494 102.84144 16.918221
241.02219 103.05559 17.196898
242.88536 102.96828 16.860477
244.91858 102.96605 16.71789
246.86079 102.93353 16.419699
248.82791 103.22412 16.326281
250.81473 103.19083 16.202642
252.84639 103.34658 16.141287
254.11902 103.75591 16.102045
239.90691 105.08852 17.190315
241.15085 104.79443 17.762615
242.9265 105.06091 17.474634
244.86378 105.05733 17.320883
246.87628 104.99847 17.049314
248.85086 104.95286 16.806786
