# 3D Systems, Inc.
# New Model
VERSION 0.7
FIELDS x y z x_normal y_normal z_normal
SIZE 4 4 4 4 4 4 
TYPE F F F F F F
COUNT 1 1 1 1 1 1 
WIDTH 810
HEIGHT 1
VIEWPOINT 0 0 0 1 0 0 0
POINTS 810
DATA ascii
135.5992300 33.5559430 -18.4543460 0.00000 0.00000 0.00000
135.6073500 43.7639920 -18.2018390 0.00000 0.00000 0.00000
135.6143500 44.1039350 -18.2064610 0.00000 0.00000 0.00000
135.6176300 34.2351610 -18.4530930 0.00000 0.00000 0.00000
135.6269700 33.2186970 -18.3676740 0.00000 0.00000 0.00000
135.6395000 37.2876660 -18.5914590 0.00000 0.00000 0.00000
135.6678800 36.6118700 -18.4821300 0.00000 0.00000 0.00000
135.6794700 38.3078580 -18.5603750 0.00000 0.00000 0.00000
135.6847700 36.2741010 -18.4211120 0.00000 0.00000 0.00000
135.6853600 37.9693260 -18.5252780 0.00000 0.00000 0.00000
135.7003500 38.6486050 -18.5321730 0.00000 0.00000 0.00000
135.7219200 38.9894640 -18.5023370 0.00000 0.00000 0.00000
135.7291300 40.0072100 -18.5486770 0.00000 0.00000 0.00000
135.7338400 37.6341780 -18.3896730 0.00000 0.00000 0.00000
135.7452400 40.3476910 -18.5317190 0.00000 0.00000 0.00000
135.7754200 39.6722260 -18.4182210 0.00000 0.00000 0.00000
135.7943000 30.8298320 -18.6906190 0.00000 0.00000 0.00000
135.7972000 41.0305940 -18.4512880 0.00000 0.00000 0.00000
135.8240500 31.5092830 -18.6625790 0.00000 0.00000 0.00000
135.8335400 32.1876490 -18.6824490 0.00000 0.00000 0.00000
135.8486900 31.1717300 -18.5833150 0.00000 0.00000 0.00000
135.8574700 32.5280000 -18.6470530 0.00000 0.00000 0.00000
135.8596300 34.2227330 -18.7474000 0.00000 0.00000 0.00000
135.8639800 32.8673400 -18.6527770 0.00000 0.00000 0.00000
135.8656000 34.5620380 -18.7544250 0.00000 0.00000 0.00000
135.8677500 41.3763240 -18.3057840 0.00000 0.00000 0.00000
135.8837100 33.2075120 -18.6272700 0.00000 0.00000 0.00000
135.8875300 33.5467110 -18.6393780 0.00000 0.00000 0.00000
135.8892700 41.7175600 -18.2760770 0.00000 0.00000 0.00000
135.8972200 34.9031300 -18.7009740 0.00000 0.00000 0.00000
135.9055200 43.0759540 -18.3222620 0.00000 0.00000 0.00000
135.9077800 33.8869860 -18.6127470 0.00000 0.00000 0.00000
135.9088600 42.0586470 -18.2510070 0.00000 0.00000 0.00000
135.9350700 36.6006050 -18.7171380 0.00000 0.00000 0.00000
135.9370600 35.2448880 -18.6280360 0.00000 0.00000 0.00000
135.9419600 44.0973210 -18.2996600 0.00000 0.00000 0.00000
135.9539500 36.2630620 -18.6515010 0.00000 0.00000 0.00000
135.9600400 43.7599490 -18.2358280 0.00000 0.00000 0.00000
135.9601300 35.9245260 -18.6158450 0.00000 0.00000 0.00000
135.9697700 43.4216840 -18.1916920 0.00000 0.00000 0.00000
135.9732100 42.4041670 -18.1201950 0.00000 0.00000 0.00000
135.9807600 38.6380120 -18.7360040 0.00000 0.00000 0.00000
135.9829100 37.6212460 -18.6675970 0.00000 0.00000 0.00000
136.0037800 42.7464980 -18.0691050 0.00000 0.00000 0.00000
136.0083500 35.5890050 -18.4809720 0.00000 0.00000 0.00000
136.0100600 37.2843780 -18.5824810 0.00000 0.00000 0.00000
136.0158800 37.9629020 -18.6109470 0.00000 0.00000 0.00000
136.0159300 36.9457970 -18.5474990 0.00000 0.00000 0.00000
136.0422800 38.9821970 -18.6120070 0.00000 0.00000 0.00000
136.0659500 39.6623340 -18.5984170 0.00000 0.00000 0.00000
136.0850100 39.3249130 -18.5323870 0.00000 0.00000 0.00000
136.1047100 40.3439220 -18.5492120 0.00000 0.00000 0.00000
136.1452300 41.3649790 -18.5169930 0.00000 0.00000 0.00000
136.1456800 40.0084650 -18.4314730 0.00000 0.00000 0.00000
136.1735100 31.8427310 -18.7242700 0.00000 0.00000 0.00000
136.1795000 33.1988030 -18.7944360 0.00000 0.00000 0.00000
136.1989300 31.1662560 -18.6221180 0.00000 0.00000 0.00000
136.2037500 32.5224190 -18.6951750 0.00000 0.00000 0.00000
136.2073800 41.0316010 -18.3493650 0.00000 0.00000 0.00000
136.2088800 34.2174870 -18.7885270 0.00000 0.00000 0.00000
136.2114000 33.5397680 -18.7404210 0.00000 0.00000 0.00000
136.2204400 32.8624080 -18.6769030 0.00000 0.00000 0.00000
136.2266800 31.5068040 -18.5778080 0.00000 0.00000 0.00000
136.2318900 42.3907850 -18.3760760 0.00000 0.00000 0.00000
136.2445400 35.5757330 -18.7889180 0.00000 0.00000 0.00000
136.2474800 32.1860390 -18.5710320 0.00000 0.00000 0.00000
136.2528700 34.5594140 -18.7060070 0.00000 0.00000 0.00000
136.2543600 41.7144850 -18.2808170 0.00000 0.00000 0.00000
136.2573100 33.8817250 -18.6533240 0.00000 0.00000 0.00000
136.2657600 34.8992880 -18.6967200 0.00000 0.00000 0.00000
136.2723500 36.2556990 -18.7655430 0.00000 0.00000 0.00000
136.2865600 37.6126790 -18.8164810 0.00000 0.00000 0.00000
136.2883300 37.2738420 -18.7912120 0.00000 0.00000 0.00000
136.2902200 35.2400090 -18.6601600 0.00000 0.00000 0.00000
136.3199600 36.9373090 -18.6956100 0.00000 0.00000 0.00000
136.3242300 37.9546850 -18.7488290 0.00000 0.00000 0.00000
136.3626700 36.6015170 -18.5738600 0.00000 0.00000 0.00000
136.4018600 39.3173410 -18.6504230 0.00000 0.00000 0.00000
136.4559200 38.6436770 -18.4808940 0.00000 0.00000 0.00000
136.4770500 30.8178620 -18.8097590 0.00000 0.00000 0.00000
136.4802200 40.3415870 -18.5291420 0.00000 0.00000 0.00000
136.4804700 39.6632800 -18.4863260 0.00000 0.00000 0.00000
136.4825400 40.0026360 -18.5025710 0.00000 0.00000 0.00000
136.4857500 33.8685340 -18.9790170 0.00000 0.00000 0.00000
136.4937600 31.4966530 -18.8126300 0.00000 0.00000 0.00000
136.5171400 34.5484160 -18.9473500 0.00000 0.00000 0.00000
136.5294500 34.2103230 -18.8973030 0.00000 0.00000 0.00000
136.5350600 31.1599920 -18.6943110 0.00000 0.00000 0.00000
136.5350800 32.1769560 -18.7575150 0.00000 0.00000 0.00000
136.5409500 41.0255050 -18.4283200 0.00000 0.00000 0.00000
136.5463300 35.9061240 -18.9629840 0.00000 0.00000 0.00000
136.5493600 33.5337300 -18.8082680 0.00000 0.00000 0.00000
136.5506600 33.1948360 -18.7841320 0.00000 0.00000 0.00000
136.5533100 32.8560180 -18.7568420 0.00000 0.00000 0.00000
136.5594800 36.2460170 -18.9531380 0.00000 0.00000 0.00000
136.5640700 31.8396490 -18.6682240 0.00000 0.00000 0.00000
136.5687400 32.5179630 -18.6993850 0.00000 0.00000 0.00000
136.5742600 40.6893160 -18.3288350 0.00000 0.00000 0.00000
136.6084600 36.5886500 -18.8590200 0.00000 0.00000 0.00000
136.6105800 37.2667660 -18.8961660 0.00000 0.00000 0.00000
136.6113700 34.8938450 -18.7466870 0.00000 0.00000 0.00000
136.6208800 36.9285810 -18.8508680 0.00000 0.00000 0.00000
136.6326100 35.2343600 -18.7178230 0.00000 0.00000 0.00000
136.6438100 38.2863770 -18.8812640 0.00000 0.00000 0.00000
136.6637400 38.6270260 -18.8555070 0.00000 0.00000 0.00000
136.6838500 38.9677430 -18.8292470 0.00000 0.00000 0.00000
136.7213000 39.3099860 -18.7623020 0.00000 0.00000 0.00000
136.7288200 39.9887850 -18.7867580 0.00000 0.00000 0.00000
136.7516600 40.3298990 -18.7541920 0.00000 0.00000 0.00000
136.7991600 39.6558420 -18.6003270 0.00000 0.00000 0.00000
136.8023800 31.4888550 -18.9494060 0.00000 0.00000 0.00000
136.8060900 31.1501370 -18.9196240 0.00000 0.00000 0.00000
136.8087500 32.8448640 -19.0187210 0.00000 0.00000 0.00000
136.8090400 33.8615570 -19.0812950 0.00000 0.00000 0.00000
136.8160600 32.1674920 -18.9593910 0.00000 0.00000 0.00000
136.8284600 33.1850010 -18.9934580 0.00000 0.00000 0.00000
136.8555800 35.2203030 -19.0561770 0.00000 0.00000 0.00000
136.8692900 34.2044450 -18.9607520 0.00000 0.00000 0.00000
136.8696300 33.5265580 -18.9177910 0.00000 0.00000 0.00000
136.8730500 31.8318480 -18.8043980 0.00000 0.00000 0.00000
136.8936800 34.8840180 -18.9455740 0.00000 0.00000 0.00000
136.9646800 41.0277330 -18.2954690 0.00000 0.00000 0.00000
136.9924300 38.6204640 -18.9454670 0.00000 0.00000 0.00000
137.0016500 37.9431610 -18.8816830 0.00000 0.00000 0.00000
137.0222600 38.9620060 -18.8964750 0.00000 0.00000 0.00000
137.0301200 37.6063730 -18.7937180 0.00000 0.00000 0.00000
137.0986500 39.3076060 -18.7381880 0.00000 0.00000 0.00000
137.1124300 32.1589320 -19.1248250 0.00000 0.00000 0.00000
137.1271500 40.3275490 -18.7344950 0.00000 0.00000 0.00000
137.1356800 31.4824500 -19.0281310 0.00000 0.00000 0.00000
137.1417200 30.8049070 -18.9717980 0.00000 0.00000 0.00000
137.1417800 33.1773990 -19.1191580 0.00000 0.00000 0.00000
137.1440900 31.8218610 -19.0294630 0.00000 0.00000 0.00000
137.1470600 32.4998970 -19.0646320 0.00000 0.00000 0.00000
137.1557000 35.5505640 -19.2339340 0.00000 0.00000 0.00000
137.1561400 39.6517490 -18.6242620 0.00000 0.00000 0.00000
137.1660300 35.8901860 -19.2307550 0.00000 0.00000 0.00000
137.1790900 31.1459060 -18.9051630 0.00000 0.00000 0.00000
137.1799000 39.9930460 -18.5895540 0.00000 0.00000 0.00000
137.1821400 34.5357020 -19.1087280 0.00000 0.00000 0.00000
137.1910700 33.8584140 -19.0456220 0.00000 0.00000 0.00000
137.1928700 34.8753660 -19.1045840 0.00000 0.00000 0.00000
137.2130000 33.5208630 -18.9730640 0.00000 0.00000 0.00000
137.2202100 35.2162280 -19.0615040 0.00000 0.00000 0.00000
137.2272300 36.5725520 -19.1293050 0.00000 0.00000 0.00000
137.2446000 34.2009240 -18.9410800 0.00000 0.00000 0.00000
137.2488600 36.2352070 -19.0574910 0.00000 0.00000 0.00000
137.2762500 37.2542500 -19.0564800 0.00000 0.00000 0.00000
137.3030400 37.9343830 -19.0357420 0.00000 0.00000 0.00000
137.3509500 38.2773170 -18.9444430 0.00000 0.00000 0.00000
137.3514100 36.9210240 -18.8590680 0.00000 0.00000 0.00000
137.4210400 31.8122290 -19.2403790 0.00000 0.00000 0.00000
137.4211300 38.9613650 -18.8219970 0.00000 0.00000 0.00000
137.4233700 38.6224020 -18.7956540 0.00000 0.00000 0.00000
137.4441800 31.4746570 -19.1650620 0.00000 0.00000 0.00000
137.4712800 32.1540570 -19.1436790 0.00000 0.00000 0.00000
137.4818000 33.1714740 -19.1822090 0.00000 0.00000 0.00000
137.4846800 39.3059460 -18.6940350 0.00000 0.00000 0.00000
137.4848800 30.7990060 -19.0275080 0.00000 0.00000 0.00000
137.4888500 33.5108450 -19.1867540 0.00000 0.00000 0.00000
137.4922000 32.8331910 -19.1367440 0.00000 0.00000 0.00000
137.5108600 33.8512040 -19.1562060 0.00000 0.00000 0.00000
137.5212600 32.4959790 -19.0476040 0.00000 0.00000 0.00000
137.5435600 34.8702740 -19.1427080 0.00000 0.00000 0.00000
137.5446900 39.9896620 -18.5954780 0.00000 0.00000 0.00000
137.5601500 36.2273250 -19.1881200 0.00000 0.00000 0.00000
137.5782800 37.2455940 -19.2088340 0.00000 0.00000 0.00000
137.5783700 35.8896870 -19.1243820 0.00000 0.00000 0.00000
137.5833900 34.5339970 -19.0283580 0.00000 0.00000 0.00000
137.5881000 35.2123640 -19.0594710 0.00000 0.00000 0.00000
137.6036500 36.5695650 -19.1072540 0.00000 0.00000 0.00000
137.6735500 36.9139210 -18.9645610 0.00000 0.00000 0.00000
137.6851700 37.9321060 -19.0005840 0.00000 0.00000 0.00000
137.7502300 31.4667170 -19.3076170 0.00000 0.00000 0.00000
137.7560300 32.4837000 -19.3572010 0.00000 0.00000 0.00000
137.7592500 30.7894170 -19.2444080 0.00000 0.00000 0.00000
137.7692300 32.1455960 -19.3052540 0.00000 0.00000 0.00000
137.7846800 38.6185380 -18.8095590 0.00000 0.00000 0.00000
137.7858300 31.1297800 -19.2032450 0.00000 0.00000 0.00000
137.7988300 31.8083920 -19.2149390 0.00000 0.00000 0.00000
137.8076000 33.1646610 -19.2786160 0.00000 0.00000 0.00000
137.8246500 33.5046650 -19.2597470 0.00000 0.00000 0.00000
137.8286000 34.8606530 -19.3347110 0.00000 0.00000 0.00000
137.8291600 34.1828350 -19.2912480 0.00000 0.00000 0.00000
137.8394600 35.8781700 -19.3724520 0.00000 0.00000 0.00000
137.8406100 33.8446430 -19.2434810 0.00000 0.00000 0.00000
137.8473700 32.8281590 -19.1644940 0.00000 0.00000 0.00000
137.8568600 34.5236400 -19.2475050 0.00000 0.00000 0.00000
137.8576000 35.5405460 -19.3089470 0.00000 0.00000 0.00000
137.8661000 35.2022020 -19.2679480 0.00000 0.00000 0.00000
137.9505500 36.2252920 -19.1335930 0.00000 0.00000 0.00000
137.9723800 36.5659830 -19.1035730 0.00000 0.00000 0.00000
138.0584900 37.9291150 -18.9863910 0.00000 0.00000 0.00000
138.0776800 32.8155020 -19.4842010 0.00000 0.00000 0.00000
138.0808900 30.7823640 -19.3505130 0.00000 0.00000 0.00000
138.0897800 38.2708170 -18.9342160 0.00000 0.00000 0.00000
138.0938400 34.5108340 -19.5516240 0.00000 0.00000 0.00000
138.1046000 33.4949340 -19.4633460 0.00000 0.00000 0.00000
138.1106600 33.1564180 -19.4281620 0.00000 0.00000 0.00000
138.1133700 32.1398470 -19.3587250 0.00000 0.00000 0.00000
138.1311600 31.1240180 -19.2540070 0.00000 0.00000 0.00000
138.1426100 31.4636230 -19.2482910 0.00000 0.00000 0.00000
138.1556400 34.1760670 -19.3861980 0.00000 0.00000 0.00000
138.1770200 35.5332870 -19.4203740 0.00000 0.00000 0.00000
138.1860700 35.1949810 -19.3781990 0.00000 0.00000 0.00000
138.2071500 34.8574680 -19.3078690 0.00000 0.00000 0.00000
138.2098800 36.2135700 -19.3856580 0.00000 0.00000 0.00000
138.2144000 35.8749310 -19.3540880 0.00000 0.00000 0.00000
138.2693900 37.2350580 -19.3097690 0.00000 0.00000 0.00000
138.2792400 36.5577390 -19.2447050 0.00000 0.00000 0.00000
138.2993300 36.8983190 -19.2188070 0.00000 0.00000 0.00000
138.3546400 30.7727530 -19.5683120 0.00000 0.00000 0.00000
138.3558000 31.1116580 -19.5866180 0.00000 0.00000 0.00000
138.3773000 37.9217380 -19.0998000 0.00000 0.00000 0.00000
138.3812900 32.1296390 -19.5902250 0.00000 0.00000 0.00000
138.3862900 37.5832940 -19.0577300 0.00000 0.00000 0.00000
138.4164000 34.1649510 -19.6344450 0.00000 0.00000 0.00000
138.4165800 33.4872400 -19.5919510 0.00000 0.00000 0.00000
138.4211300 31.4541510 -19.4551620 0.00000 0.00000 0.00000
138.4354400 35.1828190 -19.6531140 0.00000 0.00000 0.00000
138.4380300 34.5052640 -19.6049230 0.00000 0.00000 0.00000
138.4621300 32.8122670 -19.4435840 0.00000 0.00000 0.00000
138.4660800 31.7956370 -19.3712620 0.00000 0.00000 0.00000
138.4725300 36.2021100 -19.6296100 0.00000 0.00000 0.00000
138.4727300 34.8465190 -19.5450170 0.00000 0.00000 0.00000
138.4823500 33.1524660 -19.4173970 0.00000 0.00000 0.00000
138.5026200 33.8316800 -19.4121800 0.00000 0.00000 0.00000
138.5157900 35.8663520 -19.5077040 0.00000 0.00000 0.00000
138.5216700 36.5446700 -19.5360450 0.00000 0.00000 0.00000
138.5813300 37.5661700 -19.4599530 0.00000 0.00000 0.00000
138.5962700 36.8893050 -19.3829960 0.00000 0.00000 0.00000
138.6149100 37.2297780 -19.3605520 0.00000 0.00000 0.00000
138.6379100 37.9096980 -19.3489800 0.00000 0.00000 0.00000
138.7208900 31.1069830 -19.5912320 0.00000 0.00000 0.00000
138.7272300 32.4628750 -19.6604790 0.00000 0.00000 0.00000
138.7328600 31.4465350 -19.5843350 0.00000 0.00000 0.00000
138.7461900 30.7694360 -19.5112130 0.00000 0.00000 0.00000
138.7466000 34.4972920 -19.7415330 0.00000 0.00000 0.00000
138.7482500 34.1585460 -19.7166250 0.00000 0.00000 0.00000
138.7552600 31.7867180 -19.5531270 0.00000 0.00000 0.00000
138.7735700 33.1434900 -19.5945170 0.00000 0.00000 0.00000
138.7756700 33.8214490 -19.6317100 0.00000 0.00000 0.00000
138.7779800 32.8048360 -19.5632310 0.00000 0.00000 0.00000
138.7852600 35.1776960 -19.6934030 0.00000 0.00000 0.00000
138.8125800 34.8406720 -19.6087210 0.00000 0.00000 0.00000
138.8174900 35.8578000 -19.6603980 0.00000 0.00000 0.00000
138.8287200 33.4859050 -19.4870200 0.00000 0.00000 0.00000
138.8968400 36.2025530 -19.4964810 0.00000 0.00000 0.00000
138.9241800 36.8826520 -19.4748820 0.00000 0.00000 0.00000
138.9405100 37.2229460 -19.4579070 0.00000 0.00000 0.00000
138.9990400 37.5665970 -19.3425580 0.00000 0.00000 0.00000
139.0229600 32.4542660 -19.8267900 0.00000 0.00000 0.00000
139.0319200 30.7604680 -19.7008990 0.00000 0.00000 0.00000
139.0425900 32.1165700 -19.7600990 0.00000 0.00000 0.00000
139.0827200 31.1021160 -19.6036550 0.00000 0.00000 0.00000
139.0846100 35.5079080 -19.8723950 0.00000 0.00000 0.00000
139.0958100 31.7807290 -19.6151940 0.00000 0.00000 0.00000
139.1053000 37.9142040 -19.1160370 0.00000 0.00000 0.00000
139.1085400 33.4761700 -19.6906340 0.00000 0.00000 0.00000
139.1095100 35.1707800 -19.7934780 0.00000 0.00000 0.00000
139.1386400 33.8170390 -19.6415690 0.00000 0.00000 0.00000
139.1402900 34.4950490 -19.6797810 0.00000 0.00000 0.00000
139.1418500 34.8340990 -19.6971970 0.00000 0.00000 0.00000
139.2196800 36.8735390 -19.6421340 0.00000 0.00000 0.00000
139.2251900 35.8569110 -19.5662650 0.00000 0.00000 0.00000
139.2451900 37.2145040 -19.6038630 0.00000 0.00000 0.00000
139.2788500 36.5389560 -19.4834460 0.00000 0.00000 0.00000
139.3428800 37.5611950 -19.3976040 0.00000 0.00000 0.00000
139.3532300 33.1253930 -19.9546070 0.00000 0.00000 0.00000
139.3561400 32.1090390 -19.8848500 0.00000 0.00000 0.00000
139.3764600 31.0935460 -19.7746070 0.00000 0.00000 0.00000
139.3846100 31.7717990 -19.7976420 0.00000 0.00000 0.00000
139.3985600 32.4504130 -19.8072610 0.00000 0.00000 0.00000
139.4184400 31.4347800 -19.6980250 0.00000 0.00000 0.00000
139.4370100 34.1473690 -19.8228800 0.00000 0.00000 0.00000
139.4447000 33.8089490 -19.7839930 0.00000 0.00000 0.00000
139.4536700 34.4874040 -19.8051760 0.00000 0.00000 0.00000
139.4570900 33.4707950 -19.7342210 0.00000 0.00000 0.00000
139.4594100 37.9096370 -19.1475110 0.00000 0.00000 0.00000
139.4635500 32.7932550 -19.6771830 0.00000 0.00000 0.00000
139.4750100 34.8277890 -19.7765900 0.00000 0.00000 0.00000
139.4959700 36.5240290 -19.8329370 0.00000 0.00000 0.00000
139.6049700 36.8712390 -19.6006600 0.00000 0.00000 0.00000
139.6482500 32.1002620 -20.0592590 0.00000 0.00000 0.00000
139.6564800 30.7453840 -19.9562030 0.00000 0.00000 0.00000
139.6575500 37.2143710 -19.4995570 0.00000 0.00000 0.00000
139.6713600 33.7957420 -20.1106030 0.00000 0.00000 0.00000
139.7260700 34.4770090 -20.0255890 0.00000 0.00000 0.00000
139.7278400 31.4270400 -19.8324850 0.00000 0.00000 0.00000
139.7279700 34.8160020 -20.0422100 0.00000 0.00000 0.00000
139.7403100 32.4445380 -19.8665700 0.00000 0.00000 0.00000
139.7496500 31.7672060 -19.8028850 0.00000 0.00000 0.00000
139.7544300 31.0895540 -19.7497900 0.00000 0.00000 0.00000
139.7594800 34.1403350 -19.9270730 0.00000 0.00000 0.00000
139.7597500 33.1235770 -19.8634530 0.00000 0.00000 0.00000
139.7817800 33.4639020 -19.8332940 0.00000 0.00000 0.00000
139.7825800 36.1754040 -19.9994110 0.00000 0.00000 0.00000
139.8061800 35.1602970 -19.8816340 0.00000 0.00000 0.00000
139.8438900 37.9074780 -19.1086670 0.00000 0.00000 0.00000
139.8867600 36.5220720 -19.7786710 0.00000 0.00000 0.00000
139.9158300 35.8460880 -19.6692220 0.00000 0.00000 0.00000
139.9294900 37.2034030 -19.7215920 0.00000 0.00000 0.00000
139.9515500 30.7369290 -20.1236630 0.00000 0.00000 0.00000
140.0055100 32.7729720 -20.1245040 0.00000 0.00000 0.00000
140.0102500 32.4344060 -20.0924950 0.00000 0.00000 0.00000
140.0297400 36.8719250 -19.4679450 0.00000 0.00000 0.00000
140.0413200 34.4694980 -20.1463910 0.00000 0.00000 0.00000
140.0519600 31.7590450 -19.9538040 0.00000 0.00000 0.00000
140.0559100 32.0981900 -19.9656330 0.00000 0.00000 0.00000
140.0649900 33.1154900 -20.0076030 0.00000 0.00000 0.00000
140.0785200 33.7941700 -20.0181920 0.00000 0.00000 0.00000
140.0881800 34.1337090 -20.0167790 0.00000 0.00000 0.00000
140.0981000 33.4564820 -19.9518050 0.00000 0.00000 0.00000
140.1075100 34.8128590 -20.0139560 0.00000 0.00000 0.00000
140.1576500 36.5111690 -20.0026890 0.00000 0.00000 0.00000
140.1755700 35.1565130 -19.8771920 0.00000 0.00000 0.00000
140.1848000 36.1741870 -19.9188440 0.00000 0.00000 0.00000
140.2157300 37.1935420 -19.9101260 0.00000 0.00000 0.00000
140.2962300 31.0699410 -20.1970350 0.00000 0.00000 0.00000
140.3320800 34.4603540 -20.3238110 0.00000 0.00000 0.00000
140.3359200 32.0887180 -20.1681000 0.00000 0.00000 0.00000
140.3376200 33.1053890 -20.2270810 0.00000 0.00000 0.00000
140.3407300 36.8639790 -19.5994930 0.00000 0.00000 0.00000
140.3421000 37.5424420 -19.6383400 0.00000 0.00000 0.00000
140.3463000 32.7670630 -20.1860070 0.00000 0.00000 0.00000
140.3476400 31.7505130 -20.1199840 0.00000 0.00000 0.00000
140.3547400 33.4453120 -20.2084270 0.00000 0.00000 0.00000
140.3635600 30.7346630 -20.0201890 0.00000 0.00000 0.00000
140.3761900 32.4299660 -20.0958480 0.00000 0.00000 0.00000
140.3773300 33.7856220 -20.1770920 0.00000 0.00000 0.00000
140.3962100 34.8035280 -20.1963560 0.00000 0.00000 0.00000
140.4390700 35.1453780 -20.1181510 0.00000 0.00000 0.00000
140.4442700 34.1288830 -20.0430950 0.00000 0.00000 0.00000
140.4583100 36.1635590 -20.1365850 0.00000 0.00000 0.00000
140.4689300 35.8253780 -20.0910030 0.00000 0.00000 0.00000
140.5951700 36.8517610 -19.8618450 0.00000 0.00000 0.00000
140.6046900 33.0949590 -20.4590820 0.00000 0.00000 0.00000
140.6180700 31.0629060 -20.3023700 0.00000 0.00000 0.00000
140.6435400 36.5162470 -19.7289390 0.00000 0.00000 0.00000
140.6621700 31.4041730 -20.2213940 0.00000 0.00000 0.00000
140.6654100 34.7928770 -20.4235670 0.00000 0.00000 0.00000
140.6679400 32.4211310 -20.2709690 0.00000 0.00000 0.00000
140.6689900 33.7766190 -20.3523690 0.00000 0.00000 0.00000
140.6961400 32.7616960 -20.2267360 0.00000 0.00000 0.00000
140.7041900 32.0843510 -20.1661660 0.00000 0.00000 0.00000
140.7049100 30.7286550 -20.0806410 0.00000 0.00000 0.00000
140.7190400 34.4576260 -20.2786180 0.00000 0.00000 0.00000
140.7255600 34.1191560 -20.2426240 0.00000 0.00000 0.00000
140.7257200 35.4747470 -20.3261150 0.00000 0.00000 0.00000
140.7467300 37.5417750 -19.5531100 0.00000 0.00000 0.00000
140.7514500 36.1543690 -20.3086030 0.00000 0.00000 0.00000
140.7609400 37.2035870 -19.4992370 0.00000 0.00000 0.00000
140.7788700 35.1395380 -20.1822950 0.00000 0.00000 0.00000
140.7822000 35.8176730 -20.2165550 0.00000 0.00000 0.00000
140.8314400 36.4991950 -20.1447490 0.00000 0.00000 0.00000
140.9057200 36.8437920 -19.9940280 0.00000 0.00000 0.00000
140.9164900 31.0546090 -20.4617960 0.00000 0.00000 0.00000
140.9199500 31.3935990 -20.4746860 0.00000 0.00000 0.00000
140.9298600 37.1847230 -19.9592320 0.00000 0.00000 0.00000
140.9416800 32.0724330 -20.4664550 0.00000 0.00000 0.00000
140.9527600 33.0895200 -20.5037990 0.00000 0.00000 0.00000
140.9691600 32.4128610 -20.4239770 0.00000 0.00000 0.00000
140.9705000 34.1070670 -20.5257050 0.00000 0.00000 0.00000
140.9867200 31.7361640 -20.3415030 0.00000 0.00000 0.00000
140.9947200 33.7698020 -20.4488160 0.00000 0.00000 0.00000
141.0223100 30.7213820 -20.1964320 0.00000 0.00000 0.00000
141.0408200 33.4338460 -20.3214530 0.00000 0.00000 0.00000
141.0779900 35.1308820 -20.3404540 0.00000 0.00000 0.00000
141.0889000 34.4537430 -20.2733610 0.00000 0.00000 0.00000
141.1082800 35.4719310 -20.2915150 0.00000 0.00000 0.00000
141.1165800 34.7945710 -20.2304460 0.00000 0.00000 0.00000
141.2178300 35.8187180 -20.0596490 0.00000 0.00000 0.00000
141.2187000 36.8360060 -20.1205770 0.00000 0.00000 0.00000
141.2271100 31.7245240 -20.6347660 0.00000 0.00000 0.00000
141.2395600 36.1593860 -20.0304930 0.00000 0.00000 0.00000
141.2477000 31.3868850 -20.5663910 0.00000 0.00000 0.00000
141.2499700 33.0809590 -20.6658460 0.00000 0.00000 0.00000
141.2646300 30.7101570 -20.4853860 0.00000 0.00000 0.00000
141.2796800 33.4215890 -20.6183110 0.00000 0.00000 0.00000
141.2916000 32.7446820 -20.5489200 0.00000 0.00000 0.00000
141.3188900 32.4074550 -20.4650520 0.00000 0.00000 0.00000
141.3227500 34.1019860 -20.5609210 0.00000 0.00000 0.00000
141.3782500 34.4445110 -20.4539180 0.00000 0.00000 0.00000
141.3872200 33.7672580 -20.3913380 0.00000 0.00000 0.00000
141.3897700 37.1881710 -19.7467610 0.00000 0.00000 0.00000
141.3971100 35.4625210 -20.4733160 0.00000 0.00000 0.00000
141.4176900 34.7860790 -20.3839280 0.00000 0.00000 0.00000
141.4285000 36.1426120 -20.4428650 0.00000 0.00000 0.00000
141.5531500 31.3789460 -20.7092740 0.00000 0.00000 0.00000
141.5867300 33.7523840 -20.7785470 0.00000 0.00000 0.00000
141.5879100 32.3973010 -20.6920990 0.00000 0.00000 0.00000
141.5894200 34.4300990 -20.8142550 0.00000 0.00000 0.00000
141.5907300 36.4935380 -20.0899930 0.00000 0.00000 0.00000
141.5981400 36.8332250 -20.0938400 0.00000 0.00000 0.00000
141.6066300 32.7372210 -20.6699730 0.00000 0.00000 0.00000
141.6281600 30.7053110 -20.4946920 0.00000 0.00000 0.00000
141.6402000 34.7722890 -20.7183110 0.00000 0.00000 0.00000
141.6602900 33.4182050 -20.5883270 0.00000 0.00000 0.00000
141.6610100 34.0959890 -20.6284830 0.00000 0.00000 0.00000
141.6762500 33.0803070 -20.5306000 0.00000 0.00000 0.00000
141.6900500 35.1145360 -20.6244490 0.00000 0.00000 0.00000
141.6905100 35.7923160 -20.6653480 0.00000 0.00000 0.00000
141.7062100 36.1323170 -20.6501580 0.00000 0.00000 0.00000
141.7290200 35.4561420 -20.5557730 0.00000 0.00000 0.00000
141.7371400 37.1829870 -19.7944740 0.00000 0.00000 0.00000
141.8017700 36.4782490 -20.4511430 0.00000 0.00000 0.00000
141.8474100 31.7091390 -20.8988400 0.00000 0.00000 0.00000
141.8683500 31.0327740 -20.8088530 0.00000 0.00000 0.00000
141.9117400 30.6962700 -20.6880590 0.00000 0.00000 0.00000
141.9170500 32.0518680 -20.7596470 0.00000 0.00000 0.00000
141.9244400 34.4239120 -20.8891740 0.00000 0.00000 0.00000
141.9288600 32.7301940 -20.7743470 0.00000 0.00000 0.00000
141.9290800 36.8267940 -20.1791250 0.00000 0.00000 0.00000
141.9373900 34.7635500 -20.8803460 0.00000 0.00000 0.00000
141.9472400 34.0866090 -20.8158070 0.00000 0.00000 0.00000
141.9580100 32.3930850 -20.6863920 0.00000 0.00000 0.00000
141.9770700 35.1050640 -20.8100930 0.00000 0.00000 0.00000
141.9780900 33.0720210 -20.6821290 0.00000 0.00000 0.00000
141.9818300 37.1699560 -20.0787110 0.00000 0.00000 0.00000
141.9856600 33.4113620 -20.6856210 0.00000 0.00000 0.00000
141.9857500 33.7502400 -20.7063540 0.00000 0.00000 0.00000
141.9941600 35.7839320 -20.8126450 0.00000 0.00000 0.00000
142.0357700 36.1257860 -20.7379550 0.00000 0.00000 0.00000
142.0469200 35.4487840 -20.6704330 0.00000 0.00000 0.00000
142.1294900 36.8105660 -20.5644380 0.00000 0.00000 0.00000
142.1985200 31.3649710 -20.9157540 0.00000 0.00000 0.00000
142.2014000 32.7201920 -20.9928440 0.00000 0.00000 0.00000
142.2110600 31.7044450 -20.9078710 0.00000 0.00000 0.00000
142.2202800 31.0273530 -20.8449210 0.00000 0.00000 0.00000
142.2243200 33.3991170 -20.9820370 0.00000 0.00000 0.00000
142.2307400 30.6890910 -20.7999270 0.00000 0.00000 0.00000
142.2701100 34.4184190 -20.9396740 0.00000 0.00000 0.00000
142.2707200 35.0960580 -20.9801640 0.00000 0.00000 0.00000
142.2757100 33.0634800 -20.8431530 0.00000 0.00000 0.00000
142.2993300 34.0815090 -20.8516850 0.00000 0.00000 0.00000
142.3050500 34.7595790 -20.8804110 0.00000 0.00000 0.00000
142.3088500 35.4375150 -20.9135300 0.00000 0.00000 0.00000
142.3871800 36.4597470 -20.7965620 0.00000 0.00000 0.00000
142.4989000 31.3567620 -21.0700990 0.00000 0.00000 0.00000
142.5237700 32.3744320 -21.0757980 0.00000 0.00000 0.00000
142.5442400 30.6816220 -20.9243430 0.00000 0.00000 0.00000
142.5598600 34.0704730 -21.0976200 0.00000 0.00000 0.00000
142.5746000 31.0220600 -20.8755970 0.00000 0.00000 0.00000
142.5901200 35.0888210 -21.0910110 0.00000 0.00000 0.00000
142.6063200 33.0569610 -20.9283430 0.00000 0.00000 0.00000
142.6090200 34.4124790 -21.0058360 0.00000 0.00000 0.00000
142.6626900 34.7549100 -20.9037000 0.00000 0.00000 0.00000
142.7167100 35.7753680 -20.8426930 0.00000 0.00000 0.00000
142.7289000 36.4541130 -20.8565730 0.00000 0.00000 0.00000
142.7864700 36.1193390 -20.7036510 0.00000 0.00000 0.00000
142.8066400 32.7038120 -21.2910920 0.00000 0.00000 0.00000
142.8384600 30.6731470 -21.0928230 0.00000 0.00000 0.00000
142.8430800 31.3509500 -21.1240180 0.00000 0.00000 0.00000
142.9067100 32.3709490 -21.0410290 0.00000 0.00000 0.00000
142.9078200 32.0321850 -21.0176090 0.00000 0.00000 0.00000
142.9161800 34.0656430 -21.1238780 0.00000 0.00000 0.00000
142.9195100 33.0493810 -21.0535510 0.00000 0.00000 0.00000
142.9216000 33.7271690 -21.0905490 0.00000 0.00000 0.00000
142.9238700 31.0164890 -20.9180620 0.00000 0.00000 0.00000
142.9268600 34.4051480 -21.1203480 0.00000 0.00000 0.00000
142.9271700 34.7439880 -21.1405010 0.00000 0.00000 0.00000
142.9636100 33.3909530 -20.9734800 0.00000 0.00000 0.00000
142.9639300 35.4241520 -21.0982210 0.00000 0.00000 0.00000
143.0605900 36.4477390 -20.9396690 0.00000 0.00000 0.00000
143.0634900 35.0921130 -20.8493820 0.00000 0.00000 0.00000
143.0746200 36.1098100 -20.8866440 0.00000 0.00000 0.00000
143.0773300 36.7879410 -20.9222430 0.00000 0.00000 0.00000
143.1509700 33.3755530 -21.3863910 0.00000 0.00000 0.00000
143.1552600 32.3596340 -21.3139440 0.00000 0.00000 0.00000
143.1555800 32.6983870 -21.3340950 0.00000 0.00000 0.00000
143.1620000 33.7149580 -21.3820690 0.00000 0.00000 0.00000
143.1687900 30.6665690 -21.1784950 0.00000 0.00000 0.00000
143.2184900 31.0079990 -21.0857640 0.00000 0.00000 0.00000
143.2231800 32.0247690 -21.1376840 0.00000 0.00000 0.00000
143.2372400 31.6867220 -21.0846020 0.00000 0.00000 0.00000
143.2412400 33.0423200 -21.1591110 0.00000 0.00000 0.00000
143.2554500 34.0597040 -21.1893160 0.00000 0.00000 0.00000
143.2561600 34.3985710 -21.2085800 0.00000 0.00000 0.00000
143.2644500 34.7379530 -21.2105640 0.00000 0.00000 0.00000
143.2707700 35.0772090 -21.2169930 0.00000 0.00000 0.00000
143.3064000 35.7573700 -21.1773720 0.00000 0.00000 0.00000
143.3230100 36.4362950 -21.1811830 0.00000 0.00000 0.00000
143.4108100 36.1037450 -20.9595700 0.00000 0.00000 0.00000
143.4283100 30.9950030 -21.4468290 0.00000 0.00000 0.00000
143.4495500 36.7845880 -20.9128170 0.00000 0.00000 0.00000
143.4726100 32.6910590 -21.4500900 0.00000 0.00000 0.00000
143.4740000 37.1254540 -20.8778590 0.00000 0.00000 0.00000
143.4776600 31.3363900 -21.3550090 0.00000 0.00000 0.00000
143.4794000 32.3527300 -21.4137330 0.00000 0.00000 0.00000
143.5165900 33.7099760 -21.4123230 0.00000 0.00000 0.00000
143.5280000 33.0331420 -21.3445000 0.00000 0.00000 0.00000
143.5444000 30.6623330 -21.1608070 0.00000 0.00000 0.00000
143.5576600 33.3737600 -21.2976550 0.00000 0.00000 0.00000
143.5664500 35.7459220 -21.4238510 0.00000 0.00000 0.00000
143.5732300 32.0193250 -21.1785390 0.00000 0.00000 0.00000
143.5784000 35.0691640 -21.3547920 0.00000 0.00000 0.00000
143.5858200 34.3920170 -21.2960820 0.00000 0.00000 0.00000
143.6070900 34.7322730 -21.2683680 0.00000 0.00000 0.00000
143.6168100 35.4106370 -21.2879850 0.00000 0.00000 0.00000
143.6890700 36.4324380 -21.1856860 0.00000 0.00000 0.00000
143.6949800 36.0939450 -21.1512890 0.00000 0.00000 0.00000
143.7535900 30.6494560 -21.5230830 0.00000 0.00000 0.00000
143.8006700 31.6681750 -21.4782770 0.00000 0.00000 0.00000
143.8044000 30.9908640 -21.4280700 0.00000 0.00000 0.00000
143.8047800 31.3296450 -21.4480550 0.00000 0.00000 0.00000
143.8439200 32.3481670 -21.4214320 0.00000 0.00000 0.00000
143.8605800 33.0267410 -21.4251840 0.00000 0.00000 0.00000
143.8717500 37.1240810 -20.8104820 0.00000 0.00000 0.00000
143.8867300 33.7059710 -21.4072780 0.00000 0.00000 0.00000
143.8933100 34.0452040 -21.4132060 0.00000 0.00000 0.00000
143.9012900 35.0621640 -21.4576470 0.00000 0.00000 0.00000
143.9098800 36.4179690 -21.5215640 0.00000 0.00000 0.00000
143.9103100 33.3686070 -21.3326760 0.00000 0.00000 0.00000
143.9186900 35.7409970 -21.4597740 0.00000 0.00000 0.00000
143.9669600 34.3888470 -21.2661480 0.00000 0.00000 0.00000
143.9828900 36.7621770 -21.3760530 0.00000 0.00000 0.00000
143.9873800 34.7291110 -21.2404670 0.00000 0.00000 0.00000
143.9959600 35.4075320 -21.2627390 0.00000 0.00000 0.00000
143.9968300 36.0854150 -21.3024980 0.00000 0.00000 0.00000
144.0163900 37.1035800 -21.3205780 0.00000 0.00000 0.00000
144.0815000 31.6588590 -21.6767250 0.00000 0.00000 0.00000
144.1105800 33.6927340 -21.7357670 0.00000 0.00000 0.00000
144.1383100 30.6456950 -21.4847600 0.00000 0.00000 0.00000
144.1409300 37.4520420 -21.0575500 0.00000 0.00000 0.00000
144.1413600 32.3397060 -21.5821550 0.00000 0.00000 0.00000
144.1499000 31.3238750 -21.5000970 0.00000 0.00000 0.00000
144.1541900 30.9853170 -21.4694180 0.00000 0.00000 0.00000
144.1859700 32.0034870 -21.4596920 0.00000 0.00000 0.00000
144.1982000 34.7146190 -21.5988310 0.00000 0.00000 0.00000
144.2125900 34.0379790 -21.5242710 0.00000 0.00000 0.00000
144.2151300 32.6828310 -21.4349840 0.00000 0.00000 0.00000
144.2225600 35.7326510 -21.6059280 0.00000 0.00000 0.00000
144.2414700 35.0563390 -21.5211980 0.00000 0.00000 0.00000
144.2427400 35.3952520 -21.5391600 0.00000 0.00000 0.00000
144.2507000 33.3626940 -21.3957790 0.00000 0.00000 0.00000
144.2941900 36.0765760 -21.4637510 0.00000 0.00000 0.00000
144.3082600 36.4164700 -21.4525930 0.00000 0.00000 0.00000
144.3965600 37.1008760 -21.2933670 0.00000 0.00000 0.00000
144.4126300 36.7630840 -21.2358650 0.00000 0.00000 0.00000
144.4453900 33.6865080 -21.8111400 0.00000 0.00000 0.00000
144.4531900 30.9770760 -21.6265350 0.00000 0.00000 0.00000
144.4580200 30.6385500 -21.5946830 0.00000 0.00000 0.00000
144.4596600 34.7035370 -21.8413450 0.00000 0.00000 0.00000
144.4604000 32.3325120 -21.6935940 0.00000 0.00000 0.00000
144.4649700 33.0102690 -21.7249570 0.00000 0.00000 0.00000
144.4732200 35.0431560 -21.8313600 0.00000 0.00000 0.00000
144.4773900 37.4460450 -21.1302360 0.00000 0.00000 0.00000
144.4823000 31.9949930 -21.6229400 0.00000 0.00000 0.00000
144.4889800 32.6729390 -21.6494080 0.00000 0.00000 0.00000
144.5011300 35.7225340 -21.8095870 0.00000 0.00000 0.00000
144.5307800 33.3530650 -21.5960940 0.00000 0.00000 0.00000
144.5398900 35.3864710 -21.7006030 0.00000 0.00000 0.00000
144.5791300 34.3726390 -21.5487730 0.00000 0.00000 0.00000
144.6299400 36.0704800 -21.5375630 0.00000 0.00000 0.00000
144.6516400 36.7498470 -21.5299820 0.00000 0.00000 0.00000
144.6737800 36.4125520 -21.4587780 0.00000 0.00000 0.00000
144.7114100 37.0932430 -21.4150010 0.00000 0.00000 0.00000
144.7289700 37.4335560 -21.3959220 0.00000 0.00000 0.00000
144.7494400 33.6783370 -21.9565770 0.00000 0.00000 0.00000
144.7641100 31.9856890 -21.8189490 0.00000 0.00000 0.00000
144.7657000 34.0180550 -21.9404640 0.00000 0.00000 0.00000
144.7810700 31.3091300 -21.7387220 0.00000 0.00000 0.00000
144.7819200 31.6479420 -21.7576350 0.00000 0.00000 0.00000
144.7876400 33.0032770 -21.8280620 0.00000 0.00000 0.00000
144.8091600 34.3595850 -21.8626270 0.00000 0.00000 0.00000
144.8244300 32.6667020 -21.7236330 0.00000 0.00000 0.00000
144.8245700 30.6338390 -21.5982130 0.00000 0.00000 0.00000
144.8414300 33.3453220 -21.7267780 0.00000 0.00000 0.00000
144.8422100 35.7168120 -21.8709950 0.00000 0.00000 0.00000
144.8524500 35.0399820 -21.8060670 0.00000 0.00000 0.00000
144.8525200 36.3950610 -21.8892630 0.00000 0.00000 0.00000
144.8576200 35.3791120 -21.8151510 0.00000 0.00000 0.00000
144.8679000 34.7022210 -21.7500480 0.00000 0.00000 0.00000
144.9372100 36.0623510 -21.6761970 0.00000 0.00000 0.00000
145.0462000 37.4260900 -21.5121560 0.00000 0.00000 0.00000
145.0863000 37.0901260 -21.4002650 0.00000 0.00000 0.00000
145.0887500 31.9788110 -21.9176140 0.00000 0.00000 0.00000
145.0889600 30.6238480 -21.8337500 0.00000 0.00000 0.00000
145.1050600 32.9959600 -21.9431500 0.00000 0.00000 0.00000
145.1180700 34.0129590 -21.9761660 0.00000 0.00000 0.00000
145.1212500 31.3030910 -21.8021970 0.00000 0.00000 0.00000
145.1297500 32.3199120 -21.8454510 0.00000 0.00000 0.00000
145.1331300 30.9649310 -21.7543870 0.00000 0.00000 0.00000
145.1546800 33.3377380 -21.8514350 0.00000 0.00000 0.00000
145.1550900 31.6437440 -21.7462880 0.00000 0.00000 0.00000
145.1611000 36.0482790 -22.0036540 0.00000 0.00000 0.00000
145.1738600 34.3553160 -21.8705250 0.00000 0.00000 0.00000
145.1827900 36.7273480 -21.9961810 0.00000 0.00000 0.00000
145.1935400 32.6624410 -21.7215770 0.00000 0.00000 0.00000
145.1975700 35.0344890 -21.8584440 0.00000 0.00000 0.00000
145.3727600 31.6309570 -22.0874710 0.00000 0.00000 0.00000
145.3838000 31.9702680 -22.0832790 0.00000 0.00000 0.00000
145.3918500 37.0817910 -21.5430340 0.00000 0.00000 0.00000
145.4051200 30.9552760 -21.9724660 0.00000 0.00000 0.00000
145.4221600 32.3111720 -22.0172020 0.00000 0.00000 0.00000
145.4313500 35.6988530 -22.2047420 0.00000 0.00000 0.00000
145.4318100 33.3279420 -22.0578610 0.00000 0.00000 0.00000
145.4363700 35.0218120 -22.1516900 0.00000 0.00000 0.00000
145.4588500 30.6192930 -21.8298800 0.00000 0.00000 0.00000
145.4629700 32.6523020 -21.9456230 0.00000 0.00000 0.00000
145.4675400 33.6689070 -21.9977530 0.00000 0.00000 0.00000
145.4686400 37.7657550 -21.4106100 0.00000 0.00000 0.00000
145.4938800 34.0093460 -21.9589520 0.00000 0.00000 0.00000
145.4965500 32.9931030 -21.8903410 0.00000 0.00000 0.00000
145.5037700 34.3487780 -21.9574130 0.00000 0.00000 0.00000
145.5044300 35.3651890 -22.0184230 0.00000 0.00000 0.00000
145.5416100 36.7230000 -22.0176090 0.00000 0.00000 0.00000
145.5890200 36.0487630 -21.8685700 0.00000 0.00000 0.00000
145.6109900 37.0669940 -21.8813270 0.00000 0.00000 0.00000
145.6165900 37.4062920 -21.8895150 0.00000 0.00000 0.00000
145.6963300 30.9466320 -22.1467840 0.00000 0.00000 0.00000
145.6986200 32.3015170 -22.2248950 0.00000 0.00000 0.00000
145.7197700 30.6091350 -22.0729060 0.00000 0.00000 0.00000
145.7544900 31.6272320 -22.0567990 0.00000 0.00000 0.00000
145.7562100 35.0146180 -22.2612000 0.00000 0.00000 0.00000
145.7581900 34.6760520 -22.2358840 0.00000 0.00000 0.00000
145.7619800 37.7564200 -21.5812070 0.00000 0.00000 0.00000
145.7628900 32.6439740 -22.1003340 0.00000 0.00000 0.00000
145.7705100 36.3703840 -22.3121760 0.00000 0.00000 0.00000
145.7754400 33.6609800 -22.1344220 0.00000 0.00000 0.00000
145.7815400 32.9838450 -22.0789490 0.00000 0.00000 0.00000
145.7824600 36.0325430 -22.2643300 0.00000 0.00000 0.00000
145.7846100 34.3390580 -22.1553330 0.00000 0.00000 0.00000
145.7904400 31.9680120 -21.9962980 0.00000 0.00000 0.00000
145.7943100 33.3233870 -22.0708920 0.00000 0.00000 0.00000
145.8049300 35.6954080 -22.1926610 0.00000 0.00000 0.00000
145.8473800 34.0043070 -21.9925160 0.00000 0.00000 0.00000
145.9025000 35.3633580 -21.9511930 0.00000 0.00000 0.00000
145.9711200 30.5984970 -22.3371180 0.00000 0.00000 0.00000
145.9800000 37.0634270 -21.8801040 0.00000 0.00000 0.00000
145.9835100 30.9377920 -22.3299480 0.00000 0.00000 0.00000
146.0040600 37.4041860 -21.8465580 0.00000 0.00000 0.00000
146.0369100 31.6180270 -22.2509420 0.00000 0.00000 0.00000
146.0496500 32.2961650 -22.2637540 0.00000 0.00000 0.00000
146.0518000 38.0858380 -21.7803040 0.00000 0.00000 0.00000
146.0535400 35.0059050 -22.4215490 0.00000 0.00000 0.00000
146.0839400 31.9593750 -22.1655040 0.00000 0.00000 0.00000
146.1001100 35.6864740 -22.3580250 0.00000 0.00000 0.00000
146.1015200 32.6379130 -22.1674230 0.00000 0.00000 0.00000
146.1023600 33.3154910 -22.2071570 0.00000 0.00000 0.00000
146.1174800 36.0264130 -22.3395770 0.00000 0.00000 0.00000
146.1207600 31.2838250 -22.0406340 0.00000 0.00000 0.00000
146.1209400 32.9778440 -22.1443690 0.00000 0.00000 0.00000
146.1271800 34.6721080 -22.2343790 0.00000 0.00000 0.00000
146.1419100 35.3506280 -22.2427670 0.00000 0.00000 0.00000
146.1665800 33.9970820 -22.1036800 0.00000 0.00000 0.00000
146.1882300 37.3866230 -22.2631090 0.00000 0.00000 0.00000
146.2074300 36.3716280 -22.1572700 0.00000 0.00000 0.00000
146.2675900 36.7148740 -22.0422130 0.00000 0.00000 0.00000
146.2681400 37.0538100 -22.0618080 0.00000 0.00000 0.00000
146.2950700 30.9302330 -22.4578630 0.00000 0.00000 0.00000
146.2982600 37.7338980 -22.0354400 0.00000 0.00000 0.00000
146.3895000 31.6126840 -22.2864480 0.00000 0.00000 0.00000
146.3935900 31.2741550 -22.2564160 0.00000 0.00000 0.00000
146.3969600 33.3067860 -22.3736400 0.00000 0.00000 0.00000
146.3986500 38.0806850 -21.8295800 0.00000 0.00000 0.00000
146.4085200 32.2912520 -22.2851090 0.00000 0.00000 0.00000
146.4126400 32.9689940 -22.3174860 0.00000 0.00000 0.00000
146.4146400 34.3240590 -22.3962170 0.00000 0.00000 0.00000
146.4456900 38.4234500 -21.7442040 0.00000 0.00000 0.00000
146.4484900 33.6487080 -22.2782340 0.00000 0.00000 0.00000
146.4548300 36.3591800 -22.4304240 0.00000 0.00000 0.00000
146.4564100 32.6328090 -22.1979580 0.00000 0.00000 0.00000
146.4732400 35.3442080 -22.3264520 0.00000 0.00000 0.00000
146.4754200 36.6994130 -22.4048600 0.00000 0.00000 0.00000
146.4807100 33.9895290 -22.2263660 0.00000 0.00000 0.00000
146.5072000 35.0077130 -22.2290100 0.00000 0.00000 0.00000
146.5527200 36.0273820 -22.1888730 0.00000 0.00000 0.00000
146.5884900 37.0466000 -22.1706410 0.00000 0.00000 0.00000
146.5984500 30.9222490 -22.6041950 0.00000 0.00000 0.00000
146.6050100 37.7256320 -22.1750680 0.00000 0.00000 0.00000
146.6168200 31.6004750 -22.6043620 0.00000 0.00000 0.00000
146.6454500 30.5860330 -22.4774820 0.00000 0.00000 0.00000
146.6612500 31.9415860 -22.5250800 0.00000 0.00000 0.00000
146.6616200 38.0689540 -22.0681860 0.00000 0.00000 0.00000
146.6648400 38.4081570 -22.0817740 0.00000 0.00000 0.00000
146.6799600 32.2813260 -22.5037100 0.00000 0.00000 0.00000
146.7105400 35.3313640 -22.6220360 0.00000 0.00000 0.00000
146.7126300 32.9606440 -22.4717060 0.00000 0.00000 0.00000
146.7227300 34.3161130 -22.5321790 0.00000 0.00000 0.00000
146.7274500 34.6551250 -22.5423830 0.00000 0.00000 0.00000
146.7469000 33.9789430 -22.4569320 0.00000 0.00000 0.00000
146.7651400 32.6249960 -22.3325920 0.00000 0.00000 0.00000
146.7722600 36.0130540 -22.5246240 0.00000 0.00000 0.00000
146.7727700 35.6743580 -22.5026820 0.00000 0.00000 0.00000
146.7750200 37.0294230 -22.5807930 0.00000 0.00000 0.00000
146.7843600 38.7567630 -21.8330570 0.00000 0.00000 0.00000
146.7844700 33.3037410 -22.3306500 0.00000 0.00000 0.00000
146.7879300 37.3691180 -22.5725250 0.00000 0.00000 0.00000
146.8025700 33.6436610 -22.3106960 0.00000 0.00000 0.00000
146.8102700 36.3545230 -22.4598030 0.00000 0.00000 0.00000
146.8416700 35.0014880 -22.3058090 0.00000 0.00000 0.00000
146.8869800 38.0542950 -22.3910790 0.00000 0.00000 0.00000
146.9505500 31.5941050 -22.6823270 0.00000 0.00000 0.00000
146.9556300 31.2557300 -22.6501140 0.00000 0.00000 0.00000
146.9600700 38.3989300 -22.2473370 0.00000 0.00000 0.00000
146.9764100 31.9341850 -22.6448990 0.00000 0.00000 0.00000
146.9812900 30.9184190 -22.5715580 0.00000 0.00000 0.00000
146.9963100 32.2739790 -22.6209580 0.00000 0.00000 0.00000
146.9963800 30.5804980 -22.5168150 0.00000 0.00000 0.00000
147.0052300 33.9678690 -22.7048170 0.00000 0.00000 0.00000
147.0168900 33.6299290 -22.6577720 0.00000 0.00000 0.00000
147.0240200 35.3237300 -22.7457390 0.00000 0.00000 0.00000
147.0411500 32.6152760 -22.5407920 0.00000 0.00000 0.00000
147.0468800 33.2930680 -22.5695710 0.00000 0.00000 0.00000
147.0598300 34.9874730 -22.6443440 0.00000 0.00000 0.00000
147.0746600 39.0861320 -22.0309490 0.00000 0.00000 0.00000
147.1025200 36.3453180 -22.6314850 0.00000 0.00000 0.00000
147.1134600 36.6848450 -22.6277140 0.00000 0.00000 0.00000
147.1165600 35.6688160 -22.5583500 0.00000 0.00000 0.00000
147.1198600 36.0078050 -22.5717010 0.00000 0.00000 0.00000
147.1251500 37.3631970 -22.6430210 0.00000 0.00000 0.00000
147.1304300 37.0248450 -22.6103570 0.00000 0.00000 0.00000
147.1345800 38.0414050 -22.6633780 0.00000 0.00000 0.00000
147.1991100 37.7076190 -22.4974940 0.00000 0.00000 0.00000
147.2428900 38.3887250 -22.4406130 0.00000 0.00000 0.00000
147.2569700 32.2634580 -22.8631900 0.00000 0.00000 0.00000
147.2584200 39.7454450 -22.4888780 0.00000 0.00000 0.00000
147.2850000 32.9423220 -22.8417530 0.00000 0.00000 0.00000
147.2947800 33.6201590 -22.8613680 0.00000 0.00000 0.00000
147.3022300 33.2819860 -22.8238200 0.00000 0.00000 0.00000
147.3271500 34.2994770 -22.8302310 0.00000 0.00000 0.00000
147.3337400 30.9129960 -22.6075900 0.00000 0.00000 0.00000
147.3839100 36.3353350 -22.8273910 0.00000 0.00000 0.00000
147.3846400 39.0780330 -22.1634600 0.00000 0.00000 0.00000
147.3898600 39.4174880 -22.1725650 0.00000 0.00000 0.00000
147.4023300 35.6592410 -22.7444420 0.00000 0.00000 0.00000
147.4094200 37.0145800 -22.8116530 0.00000 0.00000 0.00000
147.4319200 36.0000420 -22.6987900 0.00000 0.00000 0.00000
147.4409300 37.6943780 -22.7825050 0.00000 0.00000 0.00000
147.4881900 38.7143250 -22.7386990 0.00000 0.00000 0.00000
147.5498200 30.9004630 -22.9498210 0.00000 0.00000 0.00000
147.6014100 39.4012180 -22.5260930 0.00000 0.00000 0.00000
147.6144000 39.7412030 -22.5176720 0.00000 0.00000 0.00000
147.6228900 31.5816140 -22.8273830 0.00000 0.00000 0.00000
147.6420400 32.2600330 -22.8259470 0.00000 0.00000 0.00000
147.6464200 33.2763020 -22.8784500 0.00000 0.00000 0.00000
147.6720700 39.0680960 -22.3466000 0.00000 0.00000 0.00000
147.6866900 31.2463460 -22.6633910 0.00000 0.00000 0.00000
147.6916700 31.9241160 -22.6937940 0.00000 0.00000 0.00000
147.7060400 35.3122290 -22.8693390 0.00000 0.00000 0.00000
147.7186000 36.3291850 -22.9035510 0.00000 0.00000 0.00000
147.7257400 36.6684040 -22.9082550 0.00000 0.00000 0.00000
147.7294600 32.9425700 -22.6712990 0.00000 0.00000 0.00000
147.7343400 34.6366730 -22.7642730 0.00000 0.00000 0.00000
147.7376600 35.9918370 -22.8399600 0.00000 0.00000 0.00000
147.7517900 35.6540870 -22.7874870 0.00000 0.00000 0.00000
147.7567000 34.9769060 -22.7349090 0.00000 0.00000 0.00000
147.7583800 33.9606820 -22.6687450 0.00000 0.00000 0.00000
147.7779700 37.3497160 -22.8326400 0.00000 0.00000 0.00000
147.7869300 40.0948100 -22.1510850 0.00000 0.00000 0.00000
147.7890000 37.0117870 -22.7871250 0.00000 0.00000 0.00000
147.8096900 38.3684350 -22.8238140 0.00000 0.00000 0.00000
147.8190500 38.0303920 -22.7821240 0.00000 0.00000 0.00000
147.8764300 37.6960070 -22.6326180 0.00000 0.00000 0.00000
147.8839100 39.7296750 -22.7405970 0.00000 0.00000 0.00000
147.8850600 39.3909420 -22.7171960 0.00000 0.00000 0.00000
147.9123200 30.8955650 -22.9632230 0.00000 0.00000 0.00000
147.9229700 39.0551910 -22.6114120 0.00000 0.00000 0.00000
147.9250300 33.2666440 -23.0801010 0.00000 0.00000 0.00000
147.9291700 38.7167930 -22.5766660 0.00000 0.00000 0.00000
147.9309100 32.2511250 -23.0046460 0.00000 0.00000 0.00000
147.9677000 32.5918960 -22.9429400 0.00000 0.00000 0.00000
147.9713600 31.9147400 -22.8932320 0.00000 0.00000 0.00000
147.9786700 32.9312130 -22.9391670 0.00000 0.00000 0.00000
147.9887700 33.9478650 -22.9788190 0.00000 0.00000 0.00000
147.9981800 31.5775030 -22.8122900 0.00000 0.00000 0.00000
148.0035700 33.6101000 -22.9248890 0.00000 0.00000 0.00000
148.0038800 40.0787320 -22.4922900 0.00000 0.00000 0.00000
148.0141100 34.2881580 -22.9427700 0.00000 0.00000 0.00000
148.0173300 36.3204650 -23.0601880 0.00000 0.00000 0.00000
148.0183300 34.9658240 -22.9749150 0.00000 0.00000 0.00000
148.0247800 36.6596680 -23.0642760 0.00000 0.00000 0.00000
148.0331400 40.4202230 -22.4474680 0.00000 0.00000 0.00000
148.0536200 35.6456380 -22.9373510 0.00000 0.00000 0.00000
148.0580600 34.6297340 -22.8650840 0.00000 0.00000 0.00000
148.0706800 37.3404390 -23.0029850 0.00000 0.00000 0.00000
148.0998400 37.6813740 -22.9584870 0.00000 0.00000 0.00000
148.1019300 35.9877510 -22.8499110 0.00000 0.00000 0.00000
148.1034700 38.0203970 -22.9710460 0.00000 0.00000 0.00000
148.1039100 40.7654270 -22.3095530 0.00000 0.00000 0.00000
148.1474500 39.0401500 -22.9349120 0.00000 0.00000 0.00000
148.1561700 39.3796350 -22.9361500 0.00000 0.00000 0.00000
148.1590700 37.0082740 -22.7842500 0.00000 0.00000 0.00000
148.1763300 38.7036900 -22.8494550 0.00000 0.00000 0.00000
148.2086200 31.9030060 -23.1873800 0.00000 0.00000 0.00000
148.2132400 38.3677940 -22.7459830 0.00000 0.00000 0.00000
148.2273100 40.4020690 -22.8391510 0.00000 0.00000 0.00000
148.2505800 40.0652050 -22.7663250 0.00000 0.00000 0.00000
148.2533300 32.5827560 -23.1288130 0.00000 0.00000 0.00000
148.2654300 31.2288460 -23.0186750 0.00000 0.00000 0.00000
148.2869900 32.9233740 -23.0741880 0.00000 0.00000 0.00000
148.2886700 39.7295150 -22.6602210 0.00000 0.00000 0.00000
148.2934600 33.6010820 -23.1012800 0.00000 0.00000 0.00000
148.2957300 34.2785300 -23.1376760 0.00000 0.00000 0.00000
148.3053000 31.5696700 -22.9501880 0.00000 0.00000 0.00000
148.3126200 35.9728740 -23.2036880 0.00000 0.00000 0.00000
148.3136300 33.9410130 -23.0768550 0.00000 0.00000 0.00000
148.3257000 41.0884700 -22.6604310 0.00000 0.00000 0.00000
148.3277300 35.6352730 -23.1491470 0.00000 0.00000 0.00000
148.3550600 36.9918790 -23.1710110 0.00000 0.00000 0.00000
148.3642700 38.0085680 -23.2126870 0.00000 0.00000 0.00000
148.3643200 40.7529030 -22.5531520 0.00000 0.00000 0.00000
148.3764600 37.6708340 -23.1646650 0.00000 0.00000 0.00000
148.3778700 34.9612850 -22.9954090 0.00000 0.00000 0.00000
148.3877400 34.6231880 -22.9525390 0.00000 0.00000 0.00000
148.3993500 37.3338740 -23.0926800 0.00000 0.00000 0.00000
148.4100300 35.3021930 -22.9441700 0.00000 0.00000 0.00000
148.4209100 39.3678250 -23.1690940 0.00000 0.00000 0.00000
148.4220600 36.3193280 -22.9795670 0.00000 0.00000 0.00000
