# .PCD v0.7 - Point Cloud Data file format
VERSION 0.7
FIELDS x y z
SIZE 4 4 4
TYPE F F F
COUNT 1 1 1
WIDTH 1541
HEIGHT 1
VIEWPOINT 0 0 0 1 0 0 0
POINTS 1541
DATA ascii
45.760868 -17.175013 14.019495
47.253395 -17.246168 13.756611
48.580498 -17.311005 13.696081
50.111183 -17.032993 13.645419
51.401012 -17.540756 13.518639
38.552067 -16.044277 14.938338
40.088799 -15.491447 14.88337
41.34676 -15.703327 14.754711
42.752777 -15.775909 14.432014
44.26931 -15.799273 14.258555
45.764149 -15.713288 13.937336
47.173004 -15.755745 13.740887
48.593967 -15.902447 13.659204
50.47385 -15.754072 13.657413
38.452106 -14.13333 14.984879
40.125546 -14.146589 14.828721
41.312531 -14.223947 14.677893
42.703773 -14.260566 14.420975
44.242279 -14.294399 14.192815
45.734417 -14.222717 13.887514
47.118752 -14.268018 13.735565
48.603539 -14.266376 13.624361
38.564251 -12.810995 14.8552
39.969669 -12.63509 14.848791
41.304287 -12.700882 14.645972
42.744301 -12.782096 14.406187
44.274956 -12.797501 14.083831
45.741219 -12.711009 13.887175
47.061005 -12.756986 13.681352
48.670364 -12.788335 13.631625
37.172817 -10.944351 14.914528
38.374832 -11.109284 14.863229
39.825623 -11.144706 14.773472
41.280521 -11.283336 14.618332
42.793434 -11.280144 14.277035
44.276836 -11.252771 14.012335
45.724133 -11.212188 13.723777
46.953419 -11.211536 13.651069
48.50452 -11.162428 13.602011
49.610256 -11.99454 13.537231
36.698647 -9.9351177 14.935157
38.546883 -9.8078566 14.855166
39.800812 -9.6630907 14.788738
41.248451 -9.7595558 14.554946
42.752586 -9.8025408 14.235199
44.262459 -9.7348127 13.937819
45.736736 -9.8078079 13.731397
47.057503 -9.8887777 13.658336
48.733757 -9.9238968 13.587047
36.657562 -8.5653343 14.942506
38.427158 -8.2167158 14.800285
39.867516 -8.1874962 14.709595
41.271233 -8.2345781 14.472876
42.735928 -8.2936726 14.087496
44.236031 -8.2384129 13.900274
45.627335 -8.2593956 13.70921
46.944942 -8.4239359 13.559232
48.783386 -8.3927584 13.54181
35.79174 -6.5914316 14.978628
36.796707 -6.8133788 14.867948
38.411682 -6.7058706 14.767432
39.81855 -6.6666636 14.699406
41.265896 -6.7584863 14.361453
42.738094 -6.785193 14.025526
44.16914 -6.7354898 13.813339
45.599033 -6.841608 13.643188
46.941788 -6.9821692 13.572563
48.214417 -7.4614873 13.547041
35.820496 -5.1558738 14.913674
36.696659 -5.0960221 14.82026
38.260536 -5.1692176 14.766039
39.780605 -5.2102804 14.632523
41.20644 -5.2613726 14.277286
42.703281 -5.3109531 13.966896
44.194763 -5.2067738 13.795858
45.670277 -5.3278184 13.61939
46.944424 -5.1447635 13.55636
34.369328 -3.0703421 14.972136
35.498802 -3.783782 14.892105
36.735081 -3.7814267 14.828214
38.34647 -3.7679231 14.692083
39.777199 -3.7276676 14.609832
41.24588 -3.7550881 14.275551
42.757183 -3.7761841 13.949559
44.18631 -3.6707225 13.732689
45.638573 -3.7531538 13.594538
35.347805 -2.3374178 14.884605
36.735107 -2.2771587 14.812698
38.309231 -2.1962988 14.660604
39.745525 -2.1775424 14.582053
41.257275 -2.2688756 14.153391
42.734173 -2.3118863 13.854975
44.143627 -2.2149737 13.68399
45.524429 -2.1693614 13.634665
34.216202 -0.37884879 14.852831
35.289738 -0.64392442 14.865051
36.840164 -0.79329193 14.739751
38.295349 -0.69125003 14.646979
39.772514 -0.7479471 14.499776
41.240192 -0.76893771 14.048586
42.703777 -0.80844879 13.818725
44.255592 -0.75514948 13.673831
45.56778 -0.51234108 13.60909
34.206482 0.91347146 14.905674
35.307896 0.66354382 14.842347
36.70602 0.69896781 14.768734
38.252232 0.82282233 14.541769
39.76609 0.74567187 14.400154
41.231125 0.71050107 14.006489
42.677845 0.77455628 13.81
44.111446 0.818847 13.658839
45.373875 0.26661253 13.533401
32.758987 2.609067 14.966114
34.178146 2.0324874 14.85
35.33083 2.2921593 14.814167
36.747753 2.2769501 14.727286
38.266178 2.3039978 14.55026
39.737785 2.2470427 14.341899
41.198769 2.1887283 13.987618
42.617947 2.1921275 13.77871
44.067013 2.2239428 13.613882
-8.399807 4.0588274 14.77446
32.863007 3.104984 14.984511
33.90247 3.7949324 14.839121
35.338215 3.7233748 14.801853
36.730804 3.7620604 14.611055
38.253849 3.8003545 14.445212
39.743397 3.7333152 14.235187
41.204311 3.7625828 13.887825
42.585033 3.7314703 13.738157
44.092999 3.6972721 13.621655
-7.9963365 5.0484228 14.772384
32.696438 5.4277549 14.875829
34.012581 5.3516369 14.793863
35.32935 5.2214389 14.745445
36.770073 5.2557883 14.578449
38.238388 5.3071718 14.426652
39.718044 5.2427793 14.128044
41.210423 5.1502204 13.877243
42.615135 5.2694521 13.65545
44.092754 5.2924705 13.629355
32.584381 6.9248223 14.902863
34.013332 6.8436742 14.799652
35.376137 6.7687159 14.703796
36.7351 6.7651725 14.542358
38.247013 6.7852588 14.271418
39.738216 6.7065248 14.068686
41.145809 6.7075319 13.853765
42.55669 6.6595488 13.680733
43.767971 6.7406387 13.591727
-8.0258026 8.2353153 14.747993
32.569157 8.4787321 14.842721
33.879536 8.2021399 14.708137
35.274807 8.2196999 14.654237
36.757156 8.3207407 14.454527
38.255096 8.2644777 14.219696
39.75787 8.2043076 14.047898
41.121635 8.2009802 13.782741
42.540398 8.2105513 13.623349
43.748039 8.4583445 13.523497
-7.9003162 10.147345 14.708648
30.777859 9.6852875 14.92927
32.337406 9.8197241 14.899445
33.765114 9.7218552 14.752736
35.236523 9.714406 14.651407
36.754429 9.783432 14.456357
38.230217 9.7766628 14.197602
39.730804 9.730607 13.976209
41.151909 9.6819801 13.722794
42.588818 9.932457 13.616025
-8.1091185 11.369326 14.588625
31.074541 11.384847 14.966713
32.487843 11.433304 14.867003
33.829281 11.251267 14.68068
35.275883 11.207999 14.56418
36.772243 11.296379 14.384783
38.254711 11.254541 14.114641
39.774551 11.228694 13.972698
41.153042 11.11849 13.729556
42.456291 11.536722 13.646746
-8.097086 12.47488 14.516057
30.740505 12.935513 14.864912
32.414959 12.811255 14.803706
33.77557 12.688437 14.640339
35.251301 12.740645 14.483203
36.763226 12.794046 14.275312
38.227627 12.728447 14.04195
39.752193 12.710107 13.944978
40.945778 12.714803 13.703907
42.186932 12.678254 13.586828
-7.9607434 14.393586 14.442392
29.640314 14.481965 14.954083
30.942511 14.364732 14.860991
32.393269 14.211957 14.735122
33.787701 14.230848 14.619611
35.245811 14.285457 14.405889
36.751789 14.289346 14.20764
38.245781 14.212257 13.963861
39.671227 14.226913 13.850921
40.97047 14.078058 13.634735
-8.1899815 15.803259 14.26894
29.378279 15.785599 14.932411
30.849125 15.725625 14.847719
32.342846 15.769929 14.727962
33.740898 15.746739 14.553571
35.211853 15.754558 14.311594
36.733341 15.787675 14.082962
38.190556 15.765305 13.858302
39.752251 15.660716 13.719467
40.902176 15.688381 13.658497
42.114849 15.985244 13.56913
-8.0677347 17.142366 14.026159
29.522657 17.389078 14.840789
30.780005 17.307608 14.761292
32.34037 17.200363 14.712599
33.765987 17.245422 14.494606
35.256058 17.271582 14.262993
36.75256 17.262297 13.989914
38.162937 17.203354 13.776362
39.644333 17.106676 13.744667
40.875416 17.132126 13.590795
42.296932 16.646219 13.530889
-8.0867014 19.156157 13.781047
29.341064 18.785423 14.904074
30.830879 18.740034 14.765239
32.271816 18.71603 14.636479
33.768551 18.745907 14.387454
35.239655 18.801115 14.205791
36.745754 18.736773 13.965474
38.1572 18.777983 13.786437
39.579342 18.663893 13.746375
40.987206 18.576857 13.615906
-7.8973584 20.441006 14.01542
29.661032 20.375889 14.864756
30.792688 20.258049 14.719395
32.343376 20.252958 14.577942
33.787045 20.28042 14.353191
35.306664 20.298693 14.129547
36.721878 20.272352 13.86971
38.173363 20.176382 13.779925
39.564877 20.196495 13.661287
40.929783 20.419178 13.57074
-7.9589071 21.252193 14.080153
27.827002 21.622978 14.972095
29.429399 21.761255 14.804883
30.727255 21.675951 14.693591
32.274563 21.732899 14.505839
33.767784 21.787731 14.272398
35.245861 21.776709 13.980794
36.732086 21.768316 13.755583
38.046413 21.666058 13.817185
39.449215 21.769274 13.608232
40.590477 21.675331 13.594782
28.002449 23.700096 14.892373
29.462494 23.305576 14.764837
30.760851 23.228374 14.67965
32.241512 23.238546 14.490202
33.756611 23.304676 14.218619
35.234497 23.295479 13.943768
36.750988 23.241297 13.801075
38.07589 23.158812 13.721339
39.707577 23.179695 13.631711
27.859575 24.771057 14.873872
29.424212 24.822206 14.755274
30.750074 24.720404 14.615681
32.242481 24.717934 14.461145
33.747295 24.791767 14.102117
35.261482 24.748449 13.872022
36.708881 24.752216 13.769747
37.907536 24.752668 13.682514
39.658497 24.701025 13.586732
27.945391 26.324972 14.845024
29.416321 26.27807 14.724443
30.782959 26.230814 14.589446
32.303696 26.236921 14.369361
33.729607 26.260874 14.008739
35.215523 26.221792 13.812741
36.698875 26.172329 13.726814
37.969036 26.221989 13.657616
39.780018 26.09977 13.557753
26.20677 28.117744 14.929048
27.846252 27.900763 14.836417
29.282747 27.773319 14.680194
30.76877 27.724401 14.462679
32.272312 27.78694 14.28349
33.748108 27.773003 13.940054
35.264835 27.712879 13.737098
36.690411 27.750528 13.704326
37.933353 27.781738 13.613225
39.586723 28.184906 13.550924
26.320192 29.200457 14.90548
27.835871 29.257862 14.788036
29.305386 29.260233 14.659668
30.772808 29.231266 14.379286
32.245926 29.275898 14.17743
33.708797 29.285276 13.955171
35.216316 29.257387 13.741153
36.651016 29.132816 13.681486
37.860989 29.188576 13.618956
39.407986 29.312126 13.54981
-8.1127558 31.058655 13.578135
25.16011 30.732367 14.939387
26.493078 30.703955 14.911171
27.783409 30.804106 14.771004
29.280359 30.677973 14.610673
30.730076 30.729992 14.26742
32.262764 30.805197 14.062088
33.719219 30.736324 13.861156
35.241535 30.660669 13.691325
36.721489 30.712111 13.655659
37.894447 30.711084 13.635354
39.642437 30.182796 13.526628
24.987646 32.560379 14.934517
26.356201 32.379143 14.888982
27.833181 32.208626 14.756577
29.299044 32.230057 14.552666
30.759621 32.25507 14.277067
32.253929 32.296566 14.012598
33.665653 32.275517 13.772611
35.225414 32.245338 13.708567
36.583759 32.285133 13.604694
37.841228 32.065548 13.595064
-8.0011768 34.499386 13.70947
23.952562 33.295181 14.990801
25.115694 33.685707 14.924643
26.425219 33.864773 14.831416
27.838551 33.721462 14.685928
29.257484 33.726482 14.520282
30.760912 33.761024 14.147995
32.294762 33.783298 13.982957
33.693962 33.713299 13.72641
35.218967 33.763893 13.659302
36.497517 33.500965 13.608173
37.806389 33.95636 13.563263
-7.9915099 34.826786 13.716309
23.588463 35.537216 14.953558
24.969519 35.328682 14.930678
26.350296 35.260273 14.814169
27.822786 35.274956 14.591055
29.251856 35.193352 14.394804
30.763134 35.290604 14.081294
32.269096 35.3083 13.936519
33.581341 35.230682 13.714221
35.285446 35.230797 13.567315
37.072464 35.129089 13.549339
37.627918 35.165783 13.552773
-8.2025986 37.387802 13.685769
23.69421 36.776062 14.884872
24.983826 36.671345 14.827579
26.249117 36.762806 14.735949
27.767214 36.738457 14.58807
29.243559 36.669445 14.404819
30.721039 36.796986 14.081931
32.207253 36.753933 13.896854
33.599628 36.755825 13.69937
34.996151 36.70435 13.593525
36.58831 36.214577 13.521749
-8.251956 37.821182 13.649076
23.424734 38.47295 14.891581
24.805904 38.166672 14.8519
26.310438 38.246429 14.682123
27.735474 38.226517 14.57894
29.239384 38.204609 14.299641
30.714838 38.271286 13.9602
32.221794 38.193928 13.832922
33.691093 38.106129 13.767914
35.23753 38.133179 13.607875
36.145981 38.385761 13.531156
22.123096 40.281174 14.944219
23.456188 40.142075 14.890156
24.886414 39.865582 14.79135
26.327803 39.739697 14.693356
27.767849 39.741611 14.445323
29.30118 39.77964 14.213906
30.734035 39.763672 13.860888
32.180943 39.798782 13.784261
33.674049 39.719273 13.634171
34.826023 39.564545 13.552897
36.172195 39.384121 13.51342
22.152328 41.386944 14.930862
23.580292 41.221142 14.79745
24.901546 41.229622 14.755385
26.26177 41.221474 14.6666
27.724417 41.216919 14.470744
29.257191 41.274273 14.13819
30.736246 41.315163 13.862904
32.15815 41.229942 13.748301
33.439823 41.119606 13.616283
35.037224 40.978809 13.545576
22.114044 42.910542 14.939121
23.39887 42.780926 14.863761
24.757702 42.796749 14.763678
26.225742 42.731735 14.56923
27.736698 42.72044 14.326528
29.229061 42.744698 14.088438
30.693754 42.712788 13.760777
32.210503 42.731392 13.68082
33.428841 42.807457 13.609746
22.020334 44.481903 14.918063
23.332651 44.353531 14.823333
24.792372 44.274357 14.731755
26.221354 44.202271 14.562404
27.74375 44.244289 14.246585
29.260895 44.247883 14.006528
30.74432 44.245026 13.742302
32.257549 44.209 13.681182
33.294262 44.045052 13.694105
-3.6292 46.295181 14.905756
21.96875 45.849876 14.884999
23.350912 45.749428 14.765153
24.777256 45.750202 14.682648
26.272257 45.706909 14.525508
27.745766 45.759357 14.213984
29.249371 45.781651 13.955127
30.787493 45.695396 13.738544
32.094383 45.736412 13.734155
33.656811 45.794537 13.563325
-3.3968759 46.875732 14.969313
20.338095 46.894466 14.956133
21.911621 47.319118 14.838754
23.373386 47.120892 14.735559
24.780611 47.195015 14.63199
26.235336 47.204304 14.439512
27.743483 47.23872 14.086862
29.229492 47.294121 13.877583
30.633945 47.220451 13.703484
32.102692 47.115654 13.648795
33.333736 46.571072 13.534225
-3.4747574 48.845585 14.932229
-2.8054228 49.010864 14.962839
20.684919 49.007252 14.91492
21.874281 48.807709 14.800896
23.293913 48.693504 14.679919
24.77227 48.719837 14.540087
26.230055 48.67976 14.364831
27.712942 48.761631 14.088956
29.179541 48.780872 13.778296
30.731621 48.797356 13.639478
31.92701 48.641956 13.628804
33.208576 48.071674 13.53245
-3.3963339 50.351681 14.894825
20.512526 50.434952 14.877808
21.751966 50.176441 14.787651
23.27972 50.235619 14.674496
24.770113 50.215511 14.494046
26.230778 50.181797 14.298221
27.686884 50.263786 14.000894
29.169958 50.276138 13.797673
30.708452 50.164452 13.588444
32.093338 50.218891 13.571784
-3.4889913 52.131252 14.891806
-2.7720478 51.738678 14.928316
19.348974 51.200729 14.931544
20.310213 51.826832 14.821666
21.870979 51.682579 14.774401
23.303301 51.708599 14.704659
24.757973 51.715496 14.450037
26.213434 51.687176 14.238539
27.667486 51.795559 14.035796
29.166687 51.862072 13.805608
30.705925 51.677662 13.637563
32.192986 51.910049 13.538241
-3.4970074 53.419083 14.817957
-2.7619693 52.956524 14.927193
18.838696 53.421852 14.97554
20.483347 53.255066 14.842107
21.806162 53.243408 14.712669
23.293308 53.211494 14.593821
24.717239 53.238621 14.357542
26.230581 53.233868 14.092453
27.712742 53.309032 13.888205
29.191151 53.291748 13.70027
30.628681 53.25309 13.596501
32.090191 53.161461 13.543995
-3.4304974 54.708439 14.729666
-2.7463839 54.950989 14.826812
17.50511 55.247101 14.939843
19.096838 54.775703 14.897711
20.388968 54.749802 14.775128
21.861372 54.762726 14.723632
23.298529 54.740566 14.543575
24.77293 54.72337 14.383212
26.25408 54.784325 14.071235
27.665817 54.774555 13.88921
29.109362 54.856091 13.718541
30.374832 54.866394 13.611874
31.951479 54.40942 13.516282
-3.4940202 56.155632 14.765
-2.7996676 56.3479 14.82531
17.382349 56.743752 14.952921
18.875837 56.604321 14.877465
20.337709 56.367638 14.757378
21.814745 56.250134 14.641929
23.253653 56.173283 14.505489
24.735382 56.232807 14.291727
26.230236 56.277901 14.059988
27.646481 56.254723 13.781246
29.01898 56.285542 13.625092
30.587912 56.708443 13.561332
-3.5023959 57.603123 14.702531
-2.6984704 57.862099 14.77628
17.404514 57.737259 14.922934
18.967463 57.821964 14.89549
20.290102 57.661266 14.782041
21.785137 57.734642 14.586836
23.257765 57.761944 14.38307
24.744932 57.769295 14.158447
26.207052 57.775452 13.942749
27.686872 57.665852 13.763563
29.147411 57.783966 13.601268
30.762619 57.244877 13.512972
-3.458765 59.115063 14.74302
-2.7538624 59.048615 14.915784
17.518295 59.43148 14.914795
18.918684 59.250282 14.866879
20.282175 59.188782 14.715557
21.748148 59.211517 14.500861
23.26302 59.298191 14.275559
24.78089 59.281155 14.074758
26.21636 59.256195 13.854723
27.619089 59.239742 13.71176
29.195066 58.874489 13.634924
17.462481 60.784 14.919658
18.913052 60.788696 14.789648
20.265366 60.721272 14.645083
21.74869 60.683952 14.422477
23.280048 60.768387 14.241723
24.707951 60.753704 13.947936
26.223108 60.787231 13.817674
27.465525 60.663094 13.689909
28.981506 60.900253 13.570442
17.48114 62.132088 14.879617
18.897776 62.262089 14.743137
20.258488 62.25341 14.653683
21.768021 62.231895 14.363699
23.248112 62.265797 14.232314
24.730751 62.300938 13.98473
26.192558 62.254883 13.773909
27.509062 62.162315 13.684347
28.984369 62.017204 13.59207
30.42981 62.920448 13.545786
31.812687 62.936985 13.654375
17.433582 63.823933 14.83471
18.780914 63.769188 14.765763
20.33639 63.739208 14.605865
21.721697 63.777134 14.342478
23.256426 63.768654 14.12654
24.758059 63.706448 13.846496
26.203875 63.80357 13.73152
27.805799 63.944691 13.826718
29.31525 63.858875 13.779897
30.746098 63.825626 13.634422
32.167736 63.697384 13.621025
17.417412 65.173569 14.819027
18.803858 65.165314 14.717568
20.309052 65.212784 14.573989
21.739059 65.272377 14.248921
23.26259 65.241142 14.072696
24.69256 65.279259 13.855835
26.273726 65.33152 14.045144
27.739618 65.219902 13.933035
29.246744 65.246918 13.807926
30.598776 65.125237 13.671608
32.241699 65.017921 13.585933
16.326393 67.249832 14.902988
17.477583 66.724503 14.827509
18.778269 66.742271 14.66817
20.241169 66.746872 14.462369
21.747002 66.75666 14.16629
23.226225 66.732391 13.981728
24.787712 66.769516 14.113904
26.247757 66.758499 14.096558
27.709692 66.717346 13.906235
29.229733 66.789764 13.715711
30.448668 66.74295 13.628716
32.021378 66.268753 13.573713
15.922882 68.345238 14.889707
17.357882 68.206985 14.703606
18.80386 68.256523 14.608157
20.259317 68.211449 14.417745
21.759682 68.277763 14.05834
23.244284 68.294991 14.051092
24.768219 68.266052 14.259407
26.228785 68.245392 14.006636
27.666355 68.247208 13.824071
29.061512 68.148537 13.708217
16.279196 69.750244 14.94327
17.387949 69.722633 14.729886
18.792093 69.781036 14.580769
20.270945 69.766327 14.316794
21.759472 69.794235 14.021238
23.299597 69.78347 14.25958
24.725113 69.799965 14.076216
26.247005 69.769051 13.924082
27.576548 69.64328 13.768172
28.74823 69.254547 13.52837
14.436279 71.524895 14.920527
15.786946 71.25634 14.899797
17.360041 71.206734 14.66466
18.750578 71.248901 14.545542
20.237333 71.29406 14.275683
21.730156 71.266777 14.001264
23.347002 71.326546 14.397197
24.74143 71.24791 14.056945
26.222128 71.244423 13.877236
27.247629 71.181046 13.821635
13.491067 73.191597 14.992949
14.717159 72.770271 14.891953
15.837622 72.655663 14.872128
17.337614 72.752655 14.664379
18.780556 72.735695 14.499015
20.238884 72.769707 14.16131
21.666708 72.714424 14.027704
23.245434 72.763817 14.387954
24.731365 72.724426 14.059357
26.104998 72.783981 13.799958
27.113136 72.693192 13.722435
14.394006 74.146248 14.900472
15.854764 74.13031 14.859452
17.288073 74.23716 14.596977
18.754341 74.2547 14.416182
20.241941 74.26088 14.135897
21.653231 74.259003 13.923171
23.247118 74.251022 14.29925
24.741854 74.232239 13.956361
26.151945 74.318344 13.798997
27.022717 73.672546 13.563864
13.282206 75.90593 14.908579
14.394541 75.966133 14.927492
15.986038 75.72979 14.78746
17.345299 75.745132 14.545976
18.76532 75.786995 14.340717
20.215467 75.742027 14.031349
21.706999 75.699928 13.889465
23.320032 75.804161 14.290339
24.753838 75.781807 13.916563
26.198666 75.704338 13.726566
27.11861 75.618401 13.742654
12.905828 76.834267 14.908184
14.231923 77.27301 14.899057
15.77006 77.281891 14.817713
17.275467 77.238914 14.566981
18.772642 77.295326 14.184991
20.301821 77.268524 14.038699
21.739836 77.212975 13.805482
23.329952 77.265587 14.153186
24.732876 77.240837 13.885229
26.140223 77.176422 13.729989
27.138035 77.270088 13.60944
12.817131 78.875832 14.898077
14.461828 78.938431 14.846228
15.875788 78.77095 14.771174
17.318848 78.776756 14.46849
18.760305 78.76609 14.207507
20.263914 78.758568 13.910179
21.692497 78.728256 13.796617
23.370525 78.672058 13.955957
24.701208 78.758698 13.844131
26.064335 78.567688 13.696886
27.442526 78.889839 13.622814
13.054467 80.352097 14.8549
14.294592 80.286011 14.788942
15.878918 80.235504 14.70957
17.286179 80.280823 14.477434
18.767481 80.280914 14.121803
20.228121 80.168091 13.910507
21.743895 80.198715 13.738509
23.217585 80.226318 13.642426
24.730228 80.137749 13.870927
26.063395 80.257721 13.71636
27.450445 80.169395 13.630313
11.060269 82.152145 14.993183
12.94529 81.847099 14.859311
14.221103 81.808067 14.790477
15.800217 81.796471 14.699478
17.246992 81.763062 14.383048
18.730827 81.764503 14.053432
20.165033 81.717766 13.841496
21.777536 81.656403 13.661068
23.120031 81.684486 13.567801
25.071589 81.458778 13.828292
26.17708 81.71933 13.720865
27.548359 81.59053 13.57842
11.42596 83.808273 14.915083
13.018914 83.305786 14.860285
14.302293 83.334129 14.771752
15.790626 83.261848 14.591133
17.291937 83.254303 14.259768
18.730986 83.246872 13.96564
20.193819 83.242882 13.795984
21.586632 83.268394 13.64302
23.421072 83.09903 13.624157
26.352518 82.936569 13.673976
27.180708 83.054512 13.545952
11.115196 84.393402 14.956103
12.913931 84.782066 14.803334
14.33103 84.698029 14.802284
15.819797 84.780769 14.605882
17.213951 84.739586 14.177831
18.742664 84.755653 13.910891
20.176773 84.806564 13.810234
21.857475 84.758072 13.675327
23.183327 84.726341 13.608507
11.297043 86.240517 14.938899
12.968533 86.348114 14.729445
14.271917 86.281784 14.691174
15.786659 86.275948 14.609197
17.226316 86.256378 14.220371
18.709034 86.230927 13.872845
20.215643 86.149841 13.80477
21.485937 86.3032 13.613364
22.747347 85.785057 13.53125
11.369735 87.835709 14.913037
12.981575 87.801735 14.747143
14.241882 87.780495 14.616071
15.733007 87.800354 14.492129
17.229614 87.738503 14.101672
18.648697 87.669594 13.843655
20.067909 87.714394 13.7286
21.478437 87.671997 13.575522
10.231673 89.280464 14.881339
11.165552 89.406624 14.854628
12.895921 89.326981 14.71672
14.280507 89.256706 14.619567
15.734282 89.253578 14.432776
17.221844 89.257278 14.110701
18.686859 89.285477 13.840151
20.121649 89.174538 13.688681
21.730215 89.038239 13.599442
22.565083 89.233376 13.529984
9.8232708 90.456451 14.982592
11.399383 90.769318 14.824947
12.908756 90.809052 14.69429
14.245934 90.791344 14.588726
15.742149 90.752617 14.347259
17.177706 90.715431 14.024193
18.711149 90.763527 13.814218
20.030361 90.804352 13.709679
21.64917 90.609879 13.601237
8.988471 92.269882 14.948317
10.011475 92.364799 14.925666
11.335372 92.395103 14.8086
12.806483 92.316299 14.635651
14.283376 92.290764 14.492635
15.75472 92.25721 14.356735
17.184765 92.247589 13.952789
18.780956 92.180359 13.759016
20.136736 92.123779 13.701822
21.152805 92.316803 13.615403
8.5254498 93.840248 14.923923
9.9907265 93.76506 14.834146
11.283681 93.867447 14.765912
12.800431 93.775642 14.575931
14.27509 93.738808 14.427928
15.754025 93.751038 14.27231
17.155346 93.699593 13.907027
18.684134 93.70433 13.730083
19.988852 93.577301 13.711541
21.153549 93.052216 13.517527
8.4126539 95.160316 14.946616
9.913868 95.262451 14.885549
11.274999 95.352859 14.779073
12.759007 95.267319 14.639362
14.25136 95.241241 14.461921
15.75226 95.234032 14.223932
17.180483 95.21701 13.831523
18.694754 95.166176 13.678509
20.084585 95.049431 13.623943
8.4788237 96.631798 14.861918
9.6765356 96.912506 14.832745
11.293336 96.777679 14.72722
12.771224 96.789726 14.52036
14.245067 96.744118 14.348333
15.736657 96.723106 14.17687
17.161381 96.677322 13.869546
18.650537 96.717888 13.675288
20.324827 96.562622 13.611111
8.441432 98.358238 14.856229
9.7956705 98.193802 14.760524
11.302017 98.265472 14.710773
12.775132 98.285416 14.552601
14.209829 98.23571 14.256393
15.724235 98.236885 14.061565
17.144844 98.219803 13.817924
18.672899 98.258858 13.649203
8.5236721 99.790276 14.794729
9.8201303 99.745148 14.801816
11.314081 99.718285 14.656199
12.716745 99.758751 14.376271
14.255063 99.744019 14.218898
15.753857 99.766113 13.934109
17.11937 99.614265 13.766328
18.656822 99.688034 13.619636
19.868902 99.557266 13.581845
7.2279458 101.34098 14.932426
8.4229937 101.27521 14.787884
9.7804604 101.27112 14.777579
11.246326 101.31731 14.618788
12.780586 101.21687 14.308224
14.219787 101.22505 14.10931
15.726922 101.26714 13.929444
17.012917 101.17341 13.72718
18.468224 101.28535 13.622079
6.8554392 102.94053 14.850433
8.3885212 102.8104 14.741987
9.7367573 102.74791 14.762564
11.231997 102.76235 14.600982
12.753486 102.74365 14.3187
14.260855 102.72641 14.103159
15.740001 102.71603 13.933757
16.995037 102.61004 13.744274
18.58725 102.66833 13.638377
19.727314 102.05273 13.531252
5.6348038 104.14185 14.934464
6.8058019 104.35641 14.91533
8.3827095 104.29328 14.717566
9.7506762 104.2522 14.671223
11.275914 104.24258 14.497533
12.747652 104.22485 14.2279
14.250586 104.25622 13.984585
15.689435 104.23038 13.869944
16.9636 104.09598 13.733712
19.358902 104.04821 13.512614
5.3522162 106.02397 14.935364
6.9290538 105.8308 14.91349
8.3915586 105.77992 14.724064
9.7734241 105.71282 14.619188
11.239704 105.78357 14.486946
12.733708 105.77624 14.193192
14.22581 105.74504 13.958422
15.698869 105.73293 13.818317
16.884298 105.66271 13.630729
5.3427649 107.21983 14.967288
7.0083203 106.99513 14.783971
8.4323196 107.23455 14.685449
9.7713223 107.25139 14.622554
11.22351 107.26492 14.430107
12.738129 107.27448 14.059172
14.175931 107.23846 13.888122
15.679658 107.28224 13.799211
17.039705 107.15362 13.71351
18.3559 107.12485 13.536186
5.6701288 108.28693 14.970514
6.9925585 108.38268 14.881854
8.2184772 108.40612 14.755825
9.8549862 108.39491 14.638583
11.274317 108.40472 14.385395
12.742193 108.40107 14.1718
14.29861 108.40159 13.826061
15.65834 108.39359 13.796837
17.02861 108.39214 13.633908
41.265797 -53.202229 16.442581
42.735973 -53.143559 16.355364
44.407349 -53.096298 16.180077
45.810856 -53.105984 15.967189
47.242481 -53.173046 15.648454
48.787457 -53.130981 15.511917
50.27261 -53.190598 15.314521
51.841225 -53.08345 15.18918
53.208961 -53.005791 15.152637
41.356281 -51.552582 16.461395
42.775703 -51.811996 16.314096
44.290955 -51.748764 16.169098
45.751209 -51.717705 15.993086
47.240093 -51.789558 15.70656
48.715389 -51.688625 15.470837
50.244217 -51.718594 15.2771
51.798088 -51.808399 15.173159
52.976864 -51.854294 15.110428
41.220657 -50.551197 16.413504
42.80687 -50.270847 16.248711
44.270138 -50.227581 16.096333
45.753258 -50.24308 15.835704
47.241119 -50.261883 15.557797
48.706253 -50.205555 15.430101
50.21188 -50.280613 15.304163
51.60133 -50.27866 15.14264
53.318592 -50.367168 15.113081
41.395142 -48.745071 16.35281
42.851727 -48.810875 16.204823
44.267941 -48.692913 16.056587
45.770107 -48.732922 15.783431
47.217854 -48.798035 15.541319
48.659977 -48.706627 15.394942
50.175552 -48.753345 15.224932
51.790203 -48.847565 15.112452
52.849274 -49.206474 15.099842
40.330673 -46.78598 16.396675
41.381756 -47.184158 16.292694
42.832443 -47.300861 16.183262
44.289463 -47.193752 15.986269
45.779617 -47.249908 15.650797
47.227066 -47.277302 15.379696
48.616695 -47.180477 15.310563
50.171406 -47.234093 15.170879
51.701366 -47.277332 15.070513
39.89439 -45.65836 16.419758
41.316616 -45.910595 16.31284
42.782505 -45.757668 16.154982
44.224396 -45.703339 15.871937
45.7673 -45.748604 15.587934
47.259155 -45.789539 15.332545
48.607731 -45.686619 15.281246
50.20533 -45.863838 15.131033
51.345837 -45.153587 15.090362
38.893284 -44.325317 16.474752
40.01149 -44.073967 16.41748
41.315044 -44.286762 16.266781
42.757622 -44.257996 16.061852
44.281563 -44.239479 15.879985
45.763546 -44.293297 15.494449
47.153076 -44.227608 15.28126
48.631298 -44.268677 15.25351
50.284264 -44.228302 15.118337
51.158634 -44.976631 15.008805
38.43177 -42.234383 16.408632
40.056782 -42.597065 16.333597
41.312572 -42.702984 16.16964
42.767807 -42.787182 16.003708
44.303196 -42.71394 15.705396
45.767719 -42.815739 15.432353
47.183121 -42.786171 15.252193
48.558205 -42.723564 15.198771
50.166599 -42.777874 15.087941
38.510391 -41.369755 16.446997
40.000946 -41.065464 16.334181
41.336308 -41.295639 16.155994
42.721409 -41.270935 15.874749
44.216522 -41.207413 15.673747
45.73 -41.273689 15.405267
47.111931 -41.271839 15.263019
48.417904 -41.283447 15.141602
50.091766 -41.112953 15.047225
38.394974 -39.637665 16.352468
39.879318 -39.771721 16.288984
41.251404 -39.768543 16.097738
42.730804 -39.758022 15.808147
44.231083 -39.744484 15.550699
45.711987 -39.797436 15.327414
46.9851 -39.858681 15.239421
48.419479 -39.506031 15.134065
38.305962 -38.300125 16.411907
39.959877 -38.249317 16.312548
41.266693 -38.279987 16.13208
42.711243 -38.27861 15.745257
44.198677 -38.256252 15.502252
45.728497 -38.366123 15.297814
47.024269 -38.354195 15.150275
48.451328 -38.307148 15.120481
36.913273 -36.660065 16.450535
38.381695 -36.621803 16.360247
39.901516 -36.711853 16.254967
41.215908 -36.790867 15.946048
42.764481 -36.728725 15.718232
44.275265 -36.7575 15.439418
45.716473 -36.837101 15.262649
46.941246 -36.701988 15.111005
48.438789 -36.625893 15.145737
36.779152 -35.063972 16.394041
38.349113 -35.082081 16.333363
39.899975 -35.246563 16.220755
41.213276 -35.316128 15.908282
42.722572 -35.206566 15.588795
44.245262 -35.241142 15.348271
45.627449 -35.323391 15.264965
46.979221 -35.508244 15.1008
48.735443 -35.910625 15.126557
34.964111 -33.56979 16.428583
36.711887 -33.75423 16.404028
38.456371 -33.584747 16.319601
39.742172 -33.735817 16.171135
41.246754 -33.78907 15.837657
42.722878 -33.673 15.546202
44.201439 -33.7785 15.31654
45.578964 -33.795456 15.208934
47.234657 -33.77359 15.020793
48.269127 -33.89761 15.062123
35.473118 -32.06562 16.374104
36.874222 -32.33247 16.377172
38.267376 -32.162502 16.213766
39.793339 -32.249222 16.086428
41.196354 -32.294067 15.772123
42.690796 -32.221973 15.492489
44.186974 -32.284901 15.264359
45.586452 -32.290905 15.171447
46.614784 -32.672302 15.140299
35.492527 -30.830343 16.391638
36.838318 -30.753056 16.3216
38.274651 -30.660519 16.178492
39.778404 -30.749369 16.03035
41.191917 -30.780308 15.702656
42.690346 -30.703505 15.404873
44.184116 -30.746099 15.21694
45.709091 -30.80113 15.105497
46.99411 -30.525913 15.01521
34.207729 -29.071665 16.416225
35.274456 -28.972494 16.365641
36.817741 -29.261087 16.262486
38.285664 -29.242317 16.172129
39.78455 -29.292986 15.987475
41.207298 -29.284813 15.5866
42.705902 -29.16544 15.348781
44.171768 -29.26861 15.231708
45.813843 -29.557119 15.061851
33.949329 -27.53866 16.380533
35.391239 -27.744518 16.368061
36.778461 -27.716637 16.267088
38.26173 -27.681118 16.118053
39.732777 -27.77581 15.935179
41.215355 -27.785221 15.606856
42.635498 -27.703424 15.310452
44.125786 -27.923162 15.156864
45.449043 -28.061356 15.094549
34.052044 -26.147144 16.365847
35.317566 -26.144867 16.305489
36.751644 -26.1294 16.250175
38.214211 -26.20632 16.009136
39.769314 -26.29594 15.875627
41.238857 -26.258879 15.44254
42.655159 -26.22777 15.189444
44.10186 -26.322742 15.149984
32.864052 -24.635927 16.440548
33.909592 -24.802423 16.371628
35.28793 -24.791626 16.307058
36.783463 -24.679531 16.206717
38.258011 -24.737709 15.921333
39.771801 -24.803442 15.78334
41.219337 -24.742411 15.386667
42.638783 -24.836208 15.224205
43.940365 -24.846037 15.1359
32.418068 -22.716297 16.459768
34.076611 -23.104008 16.259405
35.355045 -23.273945 16.255871
36.775162 -23.183212 16.10331
38.27243 -23.256283 15.922445
39.73954 -23.297529 15.705425
41.168221 -23.271772 15.360154
42.596191 -23.276011 15.196353
43.980125 -23.275902 15.043327
31.217733 -21.35096 16.464668
32.694386 -21.897522 16.385347
33.948723 -21.778233 16.299164
35.278515 -21.717592 16.171671
36.7845 -21.714861 16.059217
38.221844 -21.748386 15.786264
39.738331 -21.797695 15.570224
41.143044 -21.724798 15.312277
42.493076 -21.76853 15.118702
43.637051 -21.935568 15.098056
31.490692 -19.704294 16.452726
32.480389 -20.189924 16.347452
33.9184 -20.288673 16.293659
35.275082 -20.224712 16.136503
36.731659 -20.212004 15.961765
38.236244 -20.273138 15.720031
39.742554 -20.274717 15.577164
41.114357 -20.19355 15.264716
42.527599 -20.215446 15.090241
43.741329 -20.665459 15.127536
30.833994 -19.10313 16.465059
32.524368 -18.709936 16.39274
33.827946 -18.829519 16.299576
35.253429 -18.740351 16.151566
36.742172 -18.728075 16.004549
38.211388 -18.764149 15.713394
39.752819 -18.784786 15.484232
41.130878 -18.71172 15.235762
42.425884 -18.704039 15.085759
31.114975 -17.009428 16.379446
32.386963 -17.361839 16.354528
33.817131 -17.280134 16.153107
35.258373 -17.235426 16.042404
36.699989 -17.203646 15.811007
38.215763 -17.275494 15.597341
39.738121 -17.307068 15.46936
41.055237 -17.271233 15.240962
42.307415 -16.908794 15.069623
29.902758 -15.514075 16.361017
30.768414 -15.680837 16.409708
32.418419 -15.732901 16.29944
33.789932 -15.79097 16.15517
35.224968 -15.700466 15.955915
36.718342 -15.731704 15.756443
38.208794 -15.760166 15.497482
39.713509 -15.785629 15.38525
40.95409 -15.729151 15.192389
42.284336 -15.855873 15.073143
29.792463 -13.936998 16.412397
31.000883 -14.125517 16.362473
32.426708 -14.143981 16.291651
33.787453 -14.284755 16.113792
35.23674 -14.20797 15.890643
36.742264 -14.253294 15.664217
38.250542 -14.287917 15.493031
39.630699 -14.281927 15.337815
40.978718 -14.310284 15.159779
42.038193 -14.574482 15.066385
29.719381 -12.844808 16.380487
30.958502 -12.710715 16.342455
32.330059 -12.824544 16.246078
33.753971 -12.790776 16.044195
35.238968 -12.708184 15.800889
36.734097 -12.764985 15.621726
38.224255 -12.774236 15.377778
39.555313 -12.820772 15.28054
40.745964 -12.860113 15.147182
42.075302 -12.914573 15.005638
29.641047 -11.067943 16.334146
30.717537 -11.1895 16.320217
32.266304 -11.313447 16.182011
33.763668 -11.282962 15.985356
35.268532 -11.206102 15.750049
36.742592 -11.261516 15.488848
38.205185 -11.382408 15.299041
39.632565 -11.296956 15.224534
40.85146 -11.048847 15.115007
29.498123 -9.6563292 16.347052
30.828411 -9.7268572 16.273607
32.308575 -9.8204613 16.145187
33.795883 -9.7201548 15.888481
35.320816 -9.7003279 15.639197
36.773022 -9.7755346 15.464142
38.129284 -9.8152981 15.324463
39.673744 -9.6709909 15.182816
40.752487 -9.4830322 15.162649
28.351391 -8.0983219 16.373695
29.50738 -8.1745558 16.346485
30.782568 -8.2366781 16.203581
32.268761 -8.2834387 16.068722
33.747314 -8.2166576 15.809071
35.261547 -8.2187843 15.621147
36.728611 -8.2678127 15.433582
38.177425 -8.2906637 15.256892
39.535263 -8.2866936 15.164208
40.606346 -8.2181025 15.030554
28.112896 -7.0142741 16.404802
29.561699 -6.6426768 16.264946
30.761194 -6.7636819 16.141275
32.266029 -6.7767625 16.040064
33.72868 -6.7307854 15.71615
35.234798 -6.7358985 15.484131
36.736473 -6.7704892 15.335804
38.06004 -6.8229747 15.231002
39.408054 -6.8370233 15.116966
40.735764 -6.8916683 15.042275
28.15806 -4.9256907 16.313974
29.435804 -5.2339935 16.310093
30.803915 -5.2266231 16.1157
32.289169 -5.3180666 15.957554
33.779709 -5.1811738 15.717672
35.25737 -5.2413607 15.442728
36.732487 -5.3027945 15.272858
38.115261 -5.4021201 15.19543
39.456696 -5.1643634 15.091156
27.857456 -3.5272067 16.42424
29.403618 -3.7129683 16.231409
30.737988 -3.7971504 16.0758
32.269848 -3.7793741 15.867216
33.740299 -3.7078903 15.513913
35.222504 -3.734256 15.374559
36.762444 -3.7991977 15.238449
38.031254 -3.6591539 15.138084
39.549946 -3.6824489 15.056263
26.543589 -2.3321946 16.467752
27.871675 -2.237092 16.334675
29.339636 -2.1452584 16.232389
30.799994 -2.2778492 16.043756
32.260948 -2.2639287 15.806727
33.75169 -2.2141311 15.528982
35.245155 -2.2591908 15.310955
36.817245 -2.3133106 15.201737
37.826778 -2.3746045 15.17977
39.592587 -2.602802 15.126292
25.643757 -0.48676726 16.479891
27.913147 -0.73331106 16.329824
29.333765 -0.7116887 16.17248
30.776142 -0.78753394 15.927299
32.270092 -0.73388863 15.669319
33.710609 -0.76136845 15.42025
35.264927 -0.82487506 15.261911
36.590084 -0.75256723 15.178634
37.801434 -0.90187961 15.145569
39.13459 -0.61543787 15.021955
26.144556 1.1150717 16.428984
27.887486 0.83373326 16.291807
29.313152 0.74525815 16.125616
30.764278 0.70926237 15.892663
32.236797 0.77854729 15.626912
33.702969 0.7464416 15.410481
35.240101 0.79452777 15.211934
36.697884 0.6150437 15.144825
37.756916 0.61421537 15.160114
-8.2846813 2.467793 15.383469
23.871824 2.3719115 16.479408
24.360117 1.698182 16.489334
26.317217 2.5230703 16.413294
27.798649 2.3055971 16.240736
29.230328 2.2533693 16.061428
30.723543 2.1804683 15.777369
32.231647 2.2823579 15.565852
33.737595 2.2620118 15.332225
35.250118 2.2078173 15.194352
36.88419 1.8852541 15.096095
37.869648 2.2169702 15.10811
-8.3022251 3.8265738 15.188856
23.91544 3.8615689 16.478769
25.185175 4.0807714 16.468128
26.299019 3.7971733 16.354876
27.835167 3.8014338 16.2523
29.299398 3.7461696 15.991536
30.807255 3.7412422 15.724636
32.277927 3.8089793 15.492576
33.731579 3.7597508 15.289287
35.149704 3.7082491 15.181648
36.655586 3.660053 15.043592
37.994106 3.76355 15.0331
-8.0219326 5.0911136 15.145392
24.946196 5.2492108 16.374685
26.248238 5.387135 16.300592
27.787741 5.2438555 16.151773
29.252714 5.2248812 15.915769
30.735575 5.2648544 15.561397
32.207966 5.3077073 15.436159
33.677933 5.1946378 15.238594
35.097179 5.1361513 15.163898
36.58828 5.2633896 15.01399
37.684643 4.9891686 15.005873
23.697569 6.7231584 16.447435
24.945738 6.965858 16.399088
26.333725 6.7720675 16.335243
27.753691 6.7681465 16.115637
29.30171 6.6858182 15.903692
30.717834 6.7697749 15.543701
32.184616 6.7507887 15.439127
33.583702 6.6572399 15.236889
35.080082 6.5495319 15.174337
23.530739 8.8360147 16.363487
24.932312 8.2236681 16.388697
26.163486 8.2971535 16.257517
27.771126 8.2575865 16.111645
29.280916 8.1843987 15.772413
30.725155 8.2898531 15.517448
32.236137 8.2553959 15.344574
33.585743 8.2758389 15.184732
35.30455 7.8711514 15.094011
36.363308 8.0673628 15.019002
-8.0701523 10.413841 15.123327
22.23284 9.6964197 16.482439
23.632563 9.9599285 16.422482
24.886675 9.8200426 16.324661
26.268457 9.78368 16.199375
27.769012 9.7413616 16.028561
29.297098 9.7147627 15.751348
30.749794 9.8006868 15.420569
32.222755 9.7436066 15.27252
33.513535 9.7200146 15.138238
35.317432 9.6282339 15.088867
-8.0795584 10.627582 15.032677
22.110815 11.437724 16.462042
23.57403 11.427148 16.407913
24.776693 11.265451 16.294079
26.317263 11.254601 16.200432
27.767424 11.203313 15.908875
29.291405 11.224324 15.672275
30.783955 11.324986 15.409154
32.259117 11.206137 15.267635
33.531479 11.152184 15.171202
34.793819 10.538097 15.016066
-8.5257149 12.214877 15.053817
22.231039 12.966385 16.421528
23.399178 12.797637 16.344616
24.802986 12.79193 16.262793
26.298389 12.771238 16.134983
27.733133 12.709088 15.805133
29.267412 12.744013 15.603765
30.735783 12.755413 15.327557
32.114311 12.712773 15.196467
33.63377 12.830637 15.117915
22.048409 13.988016 16.435158
23.388 14.427378 16.31724
24.75816 14.292371 16.239637
26.242105 14.282494 16.049561
27.717512 14.187688 15.776415
29.183744 14.278089 15.51075
30.663967 14.237246 15.304278
32.145447 14.258479 15.185318
33.616314 13.94592 15.110599
34.566139 14.035656 15.041918
20.71973 15.887009 16.439075
21.871819 15.878001 16.360317
23.327845 15.958546 16.255489
24.780014 15.818481 16.205065
26.232944 15.723778 16.003359
27.795736 15.706856 15.745889
29.273304 15.79856 15.481703
30.669691 15.789143 15.238345
32.132851 15.657539 15.159349
33.228539 15.560806 15.120164
20.608297 17.84462 16.439901
21.840219 17.194431 16.333483
23.36339 17.305941 16.294422
24.764866 17.25704 16.139654
26.241659 17.22986 15.944165
27.753595 17.231884 15.628176
29.206865 17.241819 15.463784
30.704933 17.255583 15.204161
31.967152 17.304504 15.127238
33.468658 16.925354 15.061366
20.627327 18.763149 16.403593
21.964094 18.89678 16.334568
23.333195 18.769096 16.279472
24.805523 18.75099 16.034439
26.253836 18.701717 15.828258
27.752178 18.768978 15.531756
29.241644 18.777845 15.310279
30.606426 18.733273 15.159702
31.97464 18.630125 15.109143
33.006672 18.389328 15.07602
20.594019 20.285906 16.368896
21.771027 20.466423 16.316418
23.307457 20.275671 16.180763
24.790352 20.234272 16.000051
26.254908 20.222378 15.837418
27.756142 20.277765 15.539085
29.137602 20.261467 15.293357
30.735388 20.219379 15.143231
31.899582 20.00355 15.069783
19.364721 21.345894 16.446373
20.488115 21.634319 16.324282
21.770845 21.727585 16.260452
23.257202 21.802914 16.147024
24.762503 21.726255 15.95028
26.248775 21.72891 15.70132
27.73144 21.76148 15.453065
29.162169 21.795368 15.254302
30.768021 21.857347 15.101765
31.963982 21.733175 15.08716
-3.2642219 23.467979 16.397779
-2.5819769 23.32078 16.390743
19.146526 23.369246 16.410662
20.406271 23.344088 16.389639
21.757591 23.309645 16.196266
23.277073 23.274672 16.111752
24.737097 23.224295 15.93815
26.222641 23.225569 15.601284
27.710705 23.242786 15.395424
29.167801 23.209951 15.220421
30.511602 23.120646 15.119123
-3.3659329 24.403889 16.460785
-2.5431521 24.147661 16.487564
19.07523 24.994205 16.397478
20.469738 24.831732 16.309275
21.80105 24.758612 16.203482
23.262705 24.728163 16.028906
24.745932 24.716278 15.831922
26.243944 24.738752 15.636191
27.671631 24.778561 15.378362
29.100193 24.675724 15.19071
30.621483 24.460779 15.165563
31.923977 24.892563 15.053236
75.317741 25.393877 16.465075
78.40448 25.012594 16.48999
-3.4434938 26.101143 16.346907
-2.798795 26.418488 16.409132
17.324333 26.183584 16.474249
18.801184 26.188875 16.435545
20.437098 26.305315 16.210217
21.769569 26.295013 16.111416
23.276598 26.238634 15.949775
24.711994 26.170139 15.732185
26.234579 26.282846 15.55375
27.622005 26.266745 15.285675
28.996635 26.214106 15.201367
30.268448 25.916475 15.098497
74.950111 25.564001 16.394812
76.026505 26.115158 16.389679
76.748917 26.516582 16.396856
78.245399 25.904697 16.446404
-3.4459879 27.967848 16.323721
-2.7690361 28.015469 16.30337
18.960026 27.84487 16.349987
20.2724 27.794668 16.26055
21.753962 27.759375 16.109814
23.263092 27.720005 15.91144
24.772141 27.710999 15.698415
26.233219 27.733141 15.411629
27.702076 27.728176 15.34657
29.113806 27.615881 15.164693
30.230944 27.744402 15.065776
-3.5118728 29.383444 16.313492
-2.6532135 29.343489 16.298727
17.616262 29.552601 16.403528
18.831928 29.320539 16.303839
20.292852 29.307409 16.250839
21.741564 29.24568 16.028967
23.222769 29.252228 15.785742
24.766842 29.203743 15.585279
26.199097 29.272692 15.360048
27.575994 29.287441 15.19123
28.924391 29.057442 15.110297
-3.3892925 30.626804 16.18568
-2.6786678 30.65464 16.24342
17.610786 30.751652 16.414625
18.867662 30.860239 16.33847
20.306551 30.763578 16.166574
21.754353 30.743982 15.939906
23.271141 30.687908 15.767578
24.72777 30.753183 15.521578
26.235079 30.7684 15.301625
27.617256 30.720125 15.172755
29.075422 30.968998 15.098488
-3.3892384 32.273251 16.228781
-2.7775292 32.367226 16.25272
17.638311 32.369827 16.322794
18.814161 32.340271 16.300722
20.330687 32.270123 16.139822
21.778849 32.216316 15.90105
23.270901 32.232944 15.673953
24.720882 32.284012 15.460784
26.215059 32.2463 15.280966
27.528515 32.390823 15.211151
28.915817 32.023861 15.132576
-3.4865162 33.669243 16.201269
-2.74665 33.763447 16.216312
16.382338 34.319347 16.482122
17.454832 33.76506 16.335884
18.822628 33.828075 16.279903
20.330057 33.747021 16.098301
21.770111 33.73204 15.820786
23.226662 33.709038 15.577337
24.684156 33.797863 15.4071
26.100246 33.740417 15.24937
27.532305 33.770569 15.159053
28.752409 33.543198 15.070765
-3.4149969 35.268536 16.142147
-2.7151501 35.298008 16.215534
16.246971 35.973591 16.41033
17.420174 35.352211 16.287212
18.767828 35.260319 16.234388
20.27265 35.223057 16.040462
21.744242 35.213871 15.760801
23.256874 35.252518 15.482289
24.705326 35.281418 15.361056
26.157873 35.287933 15.247678
27.480776 35.190968 15.118687
28.570034 34.584461 15.063849
-3.4716377 36.81242 16.04043
-2.5817361 36.70916 16.173634
16.185858 36.393349 16.464466
17.357904 36.782982 16.286911
18.744146 36.778767 16.193136
20.23583 36.7379 15.899419
21.742228 36.718891 15.620959
23.23592 36.770512 15.441263
24.716465 36.827759 15.334476
26.121286 36.740791 15.182179
27.428713 36.285362 15.130422
-3.4626606 38.269245 15.995839
-2.6549325 38.229832 16.059704
16.028667 38.159119 16.447247
17.408195 38.231651 16.268991
18.774532 38.265194 16.10824
20.266823 38.226013 15.921954
21.743368 38.191174 15.582845
23.225462 38.192429 15.420302
24.708096 38.328304 15.291295
26.060564 38.298893 15.113336
-3.3620641 39.738384 16.034767
-2.6191349 39.816292 16.098341
14.352905 39.645229 16.488062
15.944943 39.395649 16.42902
17.400698 39.82449 16.218004
18.75429 39.724045 16.021076
20.229702 39.746643 15.837553
21.718426 39.729748 15.579226
23.158815 39.757904 15.349307
24.628708 39.668362 15.261483
25.865911 39.738186 15.109033
27.116467 39.83902 15.061325
-3.4517169 41.157024 15.773668
-2.6581328 41.303169 15.940229
14.304973 41.258537 16.439421
15.918115 41.274624 16.412134
17.388302 41.330631 16.166439
18.770185 41.234333 16.027843
20.242065 41.19936 15.727384
21.739492 41.263245 15.422959
23.228565 41.300434 15.310554
24.607279 41.269669 15.203073
26.071236 41.244228 15.120815
27.583187 41.415871 15.047737
-3.4475417 42.806835 15.673991
-2.5836902 42.859009 16.025734
14.471855 43.122574 16.424032
15.839296 42.76947 16.398312
17.332563 42.807526 16.147707
18.740198 42.731644 16.003107
20.262911 42.724304 15.721783
21.711294 42.734234 15.388385
23.183941 42.786785 15.291735
24.690935 42.699814 15.148657
25.807755 42.535725 15.03053
-3.4676545 44.285114 15.733636
-2.6138294 44.248245 15.740398
12.809474 44.627724 16.450092
14.441201 44.314484 16.422762
15.846469 44.265831 16.309959
17.337553 44.202755 16.115255
18.763401 44.254005 15.911948
20.234154 44.213188 15.617546
21.713146 44.240238 15.355301
23.210468 44.227364 15.21123
24.689465 44.143276 15.132438
26.655973 44.583092 15.025037
-3.4677031 45.73568 15.564059
-2.7042098 45.689808 15.603386
13.152576 45.938953 16.303585
14.396617 46.014065 16.406572
15.913227 45.787975 16.265278
17.347492 45.735851 16.086233
18.762121 45.700783 15.842801
20.24403 45.737648 15.536473
21.71999 45.757759 15.301829
23.183931 45.764156 15.220916
24.707344 45.67041 15.118961
25.516987 45.430462 15.117964
-3.4820566 47.320004 15.435875
-2.6090972 47.314095 15.576182
13.144351 47.271393 16.355646
14.284754 47.440357 16.319315
15.753567 47.297024 16.238674
17.270252 47.244751 16.01943
18.781466 47.191463 15.749969
20.223719 47.302002 15.426912
21.709673 47.271828 15.235404
23.162617 47.340549 15.144819
24.463091 47.221073 15.117738
-3.5159948 48.761814 15.395906
-2.5749505 48.726555 15.571462
12.954054 48.879715 16.389513
14.317161 48.801876 16.301258
