# 3D Systems, Inc.
# New Model
VERSION 0.7
FIELDS x y z x_normal y_normal z_normal
SIZE 4 4 4 4 4 4 
TYPE F F F F F F
COUNT 1 1 1 1 1 1 
WIDTH 824
HEIGHT 1
VIEWPOINT 0 0 0 1 0 0 0
POINTS 824
DATA ascii
28.7952540 65.5404590 -17.6757410 0.00000 0.00000 0.00000
28.7964340 64.7425460 -17.5785940 0.00000 0.00000 0.00000
28.7990190 66.8190460 -17.8075980 0.00000 0.00000 0.00000
28.8067820 66.6623610 -17.7568470 0.00000 0.00000 0.00000
28.8144650 64.9088670 -17.5219710 0.00000 0.00000 0.00000
28.8175430 65.0696950 -17.5275990 0.00000 0.00000 0.00000
28.8245090 66.3497620 -17.6461730 0.00000 0.00000 0.00000
28.8252980 65.7113420 -17.5691050 0.00000 0.00000 0.00000
28.9068950 64.7214580 -17.8049930 0.00000 0.00000 0.00000
28.9110470 65.2018660 -17.8430190 0.00000 0.00000 0.00000
28.9110890 65.0422590 -17.8244170 0.00000 0.00000 0.00000
28.9123740 67.1175770 -18.0586430 0.00000 0.00000 0.00000
28.9221920 64.8867190 -17.7598000 0.00000 0.00000 0.00000
28.9288040 65.3680800 -17.7876030 0.00000 0.00000 0.00000
28.9324050 66.4868160 -17.9016550 0.00000 0.00000 0.00000
28.9577880 66.0174870 -17.7408100 0.00000 0.00000 0.00000
28.9583110 66.1773380 -17.7570710 0.00000 0.00000 0.00000
28.9623580 66.3385090 -17.7586690 0.00000 0.00000 0.00000
28.9696040 65.8622510 -17.6732290 0.00000 0.00000 0.00000
28.9876650 66.6674120 -17.6903150 0.00000 0.00000 0.00000
29.0066200 66.8342970 -17.6299380 0.00000 0.00000 0.00000
29.0133650 65.7189180 -17.4728090 0.00000 0.00000 0.00000
29.0191310 66.9987640 -17.5963610 0.00000 0.00000 0.00000
29.0819610 65.8415450 -17.8915140 0.00000 0.00000 0.00000
29.0966400 65.3681030 -17.7752530 0.00000 0.00000 0.00000
29.1055360 66.3292850 -17.8488640 0.00000 0.00000 0.00000
29.1061250 65.2119600 -17.7174240 0.00000 0.00000 0.00000
29.1111930 64.8944850 -17.6595020 0.00000 0.00000 0.00000
29.1154980 64.7363820 -17.6231820 0.00000 0.00000 0.00000
29.1195010 65.5362470 -17.6987130 0.00000 0.00000 0.00000
29.1240430 66.8152160 -17.8272710 0.00000 0.00000 0.00000
29.1267850 65.6986310 -17.6868860 0.00000 0.00000 0.00000
29.1303710 66.6579670 -17.7825640 0.00000 0.00000 0.00000
29.1361050 66.5004810 -17.7403200 0.00000 0.00000 0.00000
29.1597960 64.5928880 -17.4206910 0.00000 0.00000 0.00000
29.1936800 67.1611330 -17.5749190 0.00000 0.00000 0.00000
29.2000180 67.0038380 -17.5301610 0.00000 0.00000 0.00000
29.2560080 64.7263410 -17.7244470 0.00000 0.00000 0.00000
29.2572350 67.1213840 -17.9956400 0.00000 0.00000 0.00000
29.2806340 66.6513980 -17.8433210 0.00000 0.00000 0.00000
29.2864530 65.2165680 -17.6533720 0.00000 0.00000 0.00000
29.2952590 65.0601200 -17.5984020 0.00000 0.00000 0.00000
29.2961710 64.5813290 -17.5393240 0.00000 0.00000 0.00000
29.2974800 65.5400310 -17.6444660 0.00000 0.00000 0.00000
29.3024010 66.9789810 -17.7898560 0.00000 0.00000 0.00000
29.3038430 66.3408360 -17.7101880 0.00000 0.00000 0.00000
29.3126070 64.9067840 -17.5079710 0.00000 0.00000 0.00000
29.3235070 65.8691250 -17.5733150 0.00000 0.00000 0.00000
29.3367600 65.3948820 -17.4630320 0.00000 0.00000 0.00000
29.3457700 65.7177050 -17.4625090 0.00000 0.00000 0.00000
29.3566090 66.2009810 -17.4728260 0.00000 0.00000 0.00000
29.3646450 66.0442500 -17.4210550 0.00000 0.00000 0.00000
29.3769590 66.8476410 -17.4621180 0.00000 0.00000 0.00000
29.4461520 65.5329210 -17.7118820 0.00000 0.00000 0.00000
29.4536290 64.5774770 -17.5703620 0.00000 0.00000 0.00000
29.4571460 66.6547700 -17.7952250 0.00000 0.00000 0.00000
29.4587270 66.1763380 -17.7334290 0.00000 0.00000 0.00000
29.4624690 66.4971080 -17.7547470 0.00000 0.00000 0.00000
29.4707720 65.3823390 -17.5914100 0.00000 0.00000 0.00000
29.4710880 65.0630260 -17.5532490 0.00000 0.00000 0.00000
29.4771730 65.2249910 -17.5464530 0.00000 0.00000 0.00000
29.4790590 67.1421130 -17.7596530 0.00000 0.00000 0.00000
29.4850200 65.7070620 -17.5691950 0.00000 0.00000 0.00000
29.4870220 66.9854660 -17.7082460 0.00000 0.00000 0.00000
29.4932040 66.8281170 -17.6642090 0.00000 0.00000 0.00000
29.5068660 64.7566600 -17.3680730 0.00000 0.00000 0.00000
29.5196650 65.8797070 -17.4440140 0.00000 0.00000 0.00000
29.5260700 66.3613590 -17.4727380 0.00000 0.00000 0.00000
29.5668750 64.7171860 -17.8028930 0.00000 0.00000 0.00000
29.5825960 64.8826070 -17.7562030 0.00000 0.00000 0.00000
29.6310960 65.5392610 -17.6290260 0.00000 0.00000 0.00000
29.6321260 65.6993480 -17.6431710 0.00000 0.00000 0.00000
29.6469590 66.5034410 -17.6738200 0.00000 0.00000 0.00000
29.6484810 66.0248790 -17.6122860 0.00000 0.00000 0.00000
29.6581780 67.1465150 -17.7010270 0.00000 0.00000 0.00000
29.6758880 66.8338170 -17.5908950 0.00000 0.00000 0.00000
29.6779690 65.8761440 -17.4717850 0.00000 0.00000 0.00000
29.6920490 66.6801910 -17.5055730 0.00000 0.00000 0.00000
29.7033670 66.2051700 -17.4034690 0.00000 0.00000 0.00000
29.7268070 67.0129010 -17.3985270 0.00000 0.00000 0.00000
29.7422120 65.0392380 -17.7965640 0.00000 0.00000 0.00000
29.7537460 65.3628390 -17.7856640 0.00000 0.00000 0.00000
29.7810400 65.6923220 -17.7095870 0.00000 0.00000 0.00000
29.8121760 66.3427890 -17.6544440 0.00000 0.00000 0.00000
29.8136920 64.9057160 -17.4824810 0.00000 0.00000 0.00000
29.8204170 64.7484130 -17.4362490 0.00000 0.00000 0.00000
29.8220580 66.9853820 -17.6871950 0.00000 0.00000 0.00000
29.8296260 65.8701100 -17.5270460 0.00000 0.00000 0.00000
29.8357770 66.5113910 -17.5752450 0.00000 0.00000 0.00000
29.8374690 65.2339710 -17.4209560 0.00000 0.00000 0.00000
29.8416770 66.6733550 -17.5692580 0.00000 0.00000 0.00000
29.8518310 67.1564330 -17.5824890 0.00000 0.00000 0.00000
29.9276640 66.6425170 -17.8957410 0.00000 0.00000 0.00000
29.9300440 65.8450240 -17.7939400 0.00000 0.00000 0.00000
29.9358520 65.6874850 -17.7515490 0.00000 0.00000 0.00000
29.9501040 64.7344210 -17.5822560 0.00000 0.00000 0.00000
29.9558240 66.3337400 -17.7426300 0.00000 0.00000 0.00000
29.9675480 66.8172680 -17.7493880 0.00000 0.00000 0.00000
29.9685000 65.2203750 -17.5614550 0.00000 0.00000 0.00000
29.9735850 66.5001220 -17.6876620 0.00000 0.00000 0.00000
29.9811060 64.9054870 -17.4725590 0.00000 0.00000 0.00000
29.9855610 65.5461650 -17.5277770 0.00000 0.00000 0.00000
29.9906310 66.0273060 -17.5620380 0.00000 0.00000 0.00000
30.0199530 66.9968490 -17.5513320 0.00000 0.00000 0.00000
30.0367340 66.2042920 -17.3899960 0.00000 0.00000 0.00000
30.0955180 65.0456160 -17.6998790 0.00000 0.00000 0.00000
30.1131380 66.1701200 -17.7559070 0.00000 0.00000 0.00000
30.1275370 65.5365750 -17.6229170 0.00000 0.00000 0.00000
30.1299820 65.6972120 -17.6312200 0.00000 0.00000 0.00000
30.1599600 66.3473660 -17.5810970 0.00000 0.00000 0.00000
30.1628040 64.9104610 -17.4037650 0.00000 0.00000 0.00000
30.1667980 67.1486890 -17.6448520 0.00000 0.00000 0.00000
30.1713030 65.8722990 -17.4790950 0.00000 0.00000 0.00000
30.1748410 66.6724700 -17.5564840 0.00000 0.00000 0.00000
30.1748920 66.9920120 -17.5930630 0.00000 0.00000 0.00000
30.1761040 65.2349240 -17.3856810 0.00000 0.00000 0.00000
30.1766150 65.3949050 -17.4019700 0.00000 0.00000 0.00000
30.1783810 64.7563400 -17.3210660 0.00000 0.00000 0.00000
30.1797370 66.0352170 -17.4626880 0.00000 0.00000 0.00000
30.1830620 66.8353420 -17.5409620 0.00000 0.00000 0.00000
30.1949520 66.5202640 -17.4551070 0.00000 0.00000 0.00000
30.2701570 65.5272290 -17.7152600 0.00000 0.00000 0.00000
30.2765220 66.1684720 -17.7625640 0.00000 0.00000 0.00000
30.3155270 66.5025330 -17.6385590 0.00000 0.00000 0.00000
30.3291090 66.6673890 -17.6009670 0.00000 0.00000 0.00000
30.3308770 66.8278120 -17.6120700 0.00000 0.00000 0.00000
30.3370720 65.0725170 -17.3842160 0.00000 0.00000 0.00000
30.3417660 65.3938520 -17.4016510 0.00000 0.00000 0.00000
30.3539620 66.0375670 -17.4249610 0.00000 0.00000 0.00000
30.3574540 65.7192540 -17.3737700 0.00000 0.00000 0.00000
30.3606110 66.9988170 -17.5079120 0.00000 0.00000 0.00000
30.3801120 65.8874740 -17.2987690 0.00000 0.00000 0.00000
30.4083140 64.7176900 -17.7339500 0.00000 0.00000 0.00000
30.4085410 64.8774950 -17.7513980 0.00000 0.00000 0.00000
30.4286960 66.3223420 -17.8338070 0.00000 0.00000 0.00000
30.4289530 66.9612350 -17.9062440 0.00000 0.00000 0.00000
30.4328350 66.1641770 -17.7983860 0.00000 0.00000 0.00000
30.4511830 65.5320590 -17.6493110 0.00000 0.00000 0.00000
30.4748360 65.2212220 -17.5151330 0.00000 0.00000 0.00000
30.4835320 66.0233080 -17.5712550 0.00000 0.00000 0.00000
30.4967630 65.7086490 -17.4800010 0.00000 0.00000 0.00000
30.5039730 65.3917080 -17.4135300 0.00000 0.00000 0.00000
30.5043070 67.1494900 -17.6143970 0.00000 0.00000 0.00000
30.5277310 65.8799210 -17.3708690 0.00000 0.00000 0.00000
30.5382790 66.8427580 -17.4377690 0.00000 0.00000 0.00000
30.5506650 66.6875990 -17.3683870 0.00000 0.00000 0.00000
30.6047440 65.6864930 -17.7149260 0.00000 0.00000 0.00000
30.6222440 66.0124660 -17.6796860 0.00000 0.00000 0.00000
30.6268100 67.1323620 -17.7895160 0.00000 0.00000 0.00000
30.6335430 64.8982240 -17.5045600 0.00000 0.00000 0.00000
30.6371540 65.3788990 -17.5448510 0.00000 0.00000 0.00000
30.6396220 66.6579670 -17.6817090 0.00000 0.00000 0.00000
30.6444030 66.9792710 -17.6987970 0.00000 0.00000 0.00000
30.6450610 64.7426070 -17.4387890 0.00000 0.00000 0.00000
30.6543560 64.5861660 -17.3821680 0.00000 0.00000 0.00000
30.6593490 65.5468520 -17.4719240 0.00000 0.00000 0.00000
30.6600890 65.8667220 -17.5056460 0.00000 0.00000 0.00000
30.6687130 65.0708470 -17.3782600 0.00000 0.00000 0.00000
30.6718160 66.5102620 -17.5309300 0.00000 0.00000 0.00000
30.6844860 66.8346100 -17.5155740 0.00000 0.00000 0.00000
30.7119670 66.3654630 -17.3474100 0.00000 0.00000 0.00000
30.7204090 65.2495880 -17.1839750 0.00000 0.00000 0.00000
30.7311780 66.2127760 -17.2500080 0.00000 0.00000 0.00000
30.7837180 64.8916930 -17.5658320 0.00000 0.00000 0.00000
30.7965700 66.6538930 -17.7150960 0.00000 0.00000 0.00000
30.8014160 65.3775100 -17.5482230 0.00000 0.00000 0.00000
30.8017180 66.0167540 -17.6204760 0.00000 0.00000 0.00000
30.8159870 65.2230450 -17.4699750 0.00000 0.00000 0.00000
30.8162960 64.7437130 -17.4135800 0.00000 0.00000 0.00000
30.8415990 65.7119060 -17.4198630 0.00000 0.00000 0.00000
30.8481330 66.1937940 -17.4481430 0.00000 0.00000 0.00000
30.8490120 65.5548020 -17.3710210 0.00000 0.00000 0.00000
30.8512400 65.8752900 -17.3986260 0.00000 0.00000 0.00000
30.8566340 66.5166020 -17.4499700 0.00000 0.00000 0.00000
30.8737530 67.0025100 -17.4347630 0.00000 0.00000 0.00000
30.8803020 65.0866850 -17.1873040 0.00000 0.00000 0.00000
30.8863490 67.1670990 -17.4013980 0.00000 0.00000 0.00000
30.8869530 66.3680880 -17.3070300 0.00000 0.00000 0.00000
30.8961720 66.8511120 -17.3242910 0.00000 0.00000 0.00000
30.9210740 64.7207490 -17.6612930 0.00000 0.00000 0.00000
30.9711890 65.0585250 -17.4923040 0.00000 0.00000 0.00000
30.9778860 66.6589510 -17.6484780 0.00000 0.00000 0.00000
30.9816090 66.5005570 -17.6148360 0.00000 0.00000 0.00000
30.9891190 66.8229520 -17.6207470 0.00000 0.00000 0.00000
30.9961280 65.3872760 -17.4266700 0.00000 0.00000 0.00000
31.0037560 67.1480480 -17.5974060 0.00000 0.00000 0.00000
31.0083890 65.5516050 -17.3947220 0.00000 0.00000 0.00000
31.0117340 66.1921690 -17.4544700 0.00000 0.00000 0.00000
31.0156330 65.7141110 -17.3833580 0.00000 0.00000 0.00000
31.0257020 64.5987550 -17.2134020 0.00000 0.00000 0.00000
31.0381110 65.2427750 -17.2359710 0.00000 0.00000 0.00000
31.0506690 64.9275740 -17.1476650 0.00000 0.00000 0.00000
31.0528700 67.0067520 -17.3775010 0.00000 0.00000 0.00000
31.0947630 66.4801330 -17.8278680 0.00000 0.00000 0.00000
31.1110740 65.2080310 -17.6141450 0.00000 0.00000 0.00000
31.1254480 64.7338490 -17.5001240 0.00000 0.00000 0.00000
31.1319890 66.0146640 -17.6201920 0.00000 0.00000 0.00000
31.1353760 65.3767090 -17.5328670 0.00000 0.00000 0.00000
31.1386260 65.0582660 -17.4828110 0.00000 0.00000 0.00000
31.1395320 64.8987730 -17.4607320 0.00000 0.00000 0.00000
31.1400570 67.1361620 -17.7156090 0.00000 0.00000 0.00000
31.1553210 66.3429260 -17.5612560 0.00000 0.00000 0.00000
31.1631490 65.5467070 -17.4373530 0.00000 0.00000 0.00000
31.1726230 65.7100300 -17.4168740 0.00000 0.00000 0.00000
31.1859110 65.8747710 -17.3807560 0.00000 0.00000 0.00000
31.2235660 64.6094130 -17.0793910 0.00000 0.00000 0.00000
31.2363910 66.6928790 -17.2656420 0.00000 0.00000 0.00000
31.2686730 66.8019030 -17.8284030 0.00000 0.00000 0.00000
31.2691900 66.0032880 -17.7345500 0.00000 0.00000 0.00000
31.2878460 65.6905980 -17.6214470 0.00000 0.00000 0.00000
31.2880880 66.1700590 -17.6755070 0.00000 0.00000 0.00000
31.2933560 65.3730090 -17.5621680 0.00000 0.00000 0.00000
31.2952380 65.2138820 -17.5361020 0.00000 0.00000 0.00000
31.3132550 64.7409210 -17.4072300 0.00000 0.00000 0.00000
31.3233910 66.6626050 -17.5859910 0.00000 0.00000 0.00000
31.3476600 66.3519970 -17.4499030 0.00000 0.00000 0.00000
31.3691900 64.9210360 -17.1964700 0.00000 0.00000 0.00000
31.3762870 65.5632100 -17.2408640 0.00000 0.00000 0.00000
31.3857560 67.1655350 -17.3856980 0.00000 0.00000 0.00000
31.4208930 65.5179670 -17.7343690 0.00000 0.00000 0.00000
31.4610390 64.8933640 -17.4967250 0.00000 0.00000 0.00000
31.4702170 66.0154950 -17.5876200 0.00000 0.00000 0.00000
31.4851680 64.7422410 -17.3796390 0.00000 0.00000 0.00000
31.5052760 66.3481370 -17.4809000 0.00000 0.00000 0.00000
31.5222700 65.8748400 -17.3563190 0.00000 0.00000 0.00000
31.5384830 66.8400960 -17.4001160 0.00000 0.00000 0.00000
31.6010320 64.7233350 -17.5812680 0.00000 0.00000 0.00000
31.6029430 64.8838420 -17.5917970 0.00000 0.00000 0.00000
31.6293930 64.5737080 -17.4469970 0.00000 0.00000 0.00000
31.6303020 66.3321990 -17.6450520 0.00000 0.00000 0.00000
31.6311400 67.1315230 -17.7333110 0.00000 0.00000 0.00000
31.6400680 66.1759950 -17.5868050 0.00000 0.00000 0.00000
31.6528700 66.0208890 -17.5161480 0.00000 0.00000 0.00000
31.6606330 65.5441820 -17.4293920 0.00000 0.00000 0.00000
31.6635000 65.0656130 -17.3626350 0.00000 0.00000 0.00000
31.7039360 66.9990310 -17.4175550 0.00000 0.00000 0.00000
31.7065790 66.6802670 -17.3700640 0.00000 0.00000 0.00000
31.7167280 66.5241550 -17.3102470 0.00000 0.00000 0.00000
31.7175660 65.7249220 -17.2150710 0.00000 0.00000 0.00000
31.7240260 65.8872150 -17.2070220 0.00000 0.00000 0.00000
31.7284430 65.4090420 -17.1339130 0.00000 0.00000 0.00000
31.7340700 66.8504330 -17.2760830 0.00000 0.00000 0.00000
31.7659820 65.2016070 -17.6371140 0.00000 0.00000 0.00000
31.7877180 66.0086520 -17.6400490 0.00000 0.00000 0.00000
31.7905040 66.6489330 -17.7020030 0.00000 0.00000 0.00000
31.8092400 66.1764140 -17.5705240 0.00000 0.00000 0.00000
31.8185600 65.7003020 -17.4774740 0.00000 0.00000 0.00000
31.8211670 66.5005190 -17.5585160 0.00000 0.00000 0.00000
31.8307090 64.7454530 -17.3178200 0.00000 0.00000 0.00000
31.8362260 66.8258210 -17.5337260 0.00000 0.00000 0.00000
31.8402750 64.5889890 -17.2604180 0.00000 0.00000 0.00000
31.8523240 65.8725590 -17.3579850 0.00000 0.00000 0.00000
31.8582150 66.3544010 -17.3889580 0.00000 0.00000 0.00000
31.8607270 66.9948580 -17.4520550 0.00000 0.00000 0.00000
31.8704170 64.9196850 -17.1740490 0.00000 0.00000 0.00000
31.8868660 65.5653920 -17.1802790 0.00000 0.00000 0.00000
31.8895850 67.1655730 -17.3526150 0.00000 0.00000 0.00000
31.9404010 65.0440370 -17.5810450 0.00000 0.00000 0.00000
31.9452500 65.2056270 -17.5795990 0.00000 0.00000 0.00000
31.9522510 66.9662480 -17.7526400 0.00000 0.00000 0.00000
31.9587550 66.6490480 -17.6894760 0.00000 0.00000 0.00000
31.9750310 65.5361630 -17.4948140 0.00000 0.00000 0.00000
31.9810260 65.8580860 -17.5070320 0.00000 0.00000 0.00000
31.9887330 66.5003590 -17.5489230 0.00000 0.00000 0.00000
31.9903760 67.1403580 -17.6155380 0.00000 0.00000 0.00000
32.0014880 64.7463230 -17.2952270 0.00000 0.00000 0.00000
32.0077320 66.8271480 -17.5081250 0.00000 0.00000 0.00000
32.0270420 65.3952260 -17.2643660 0.00000 0.00000 0.00000
32.0272520 66.3547590 -17.3735310 0.00000 0.00000 0.00000
32.0358700 64.5987470 -17.1366600 0.00000 0.00000 0.00000
32.0437890 66.2009580 -17.2877810 0.00000 0.00000 0.00000
32.0529330 64.9247890 -17.1037540 0.00000 0.00000 0.00000
32.0683590 65.7301790 -17.1325680 0.00000 0.00000 0.00000
32.1043660 65.6818310 -17.6593460 0.00000 0.00000 0.00000
32.1219560 66.0079500 -17.6243270 0.00000 0.00000 0.00000
32.1371540 64.7345730 -17.4158150 0.00000 0.00000 0.00000
32.1537630 66.6591110 -17.5680680 0.00000 0.00000 0.00000
32.1548120 65.3805010 -17.4171980 0.00000 0.00000 0.00000
32.1593740 65.2222670 -17.3802720 0.00000 0.00000 0.00000
32.1638410 65.0639800 -17.3437540 0.00000 0.00000 0.00000
32.1660310 66.3439180 -17.4814610 0.00000 0.00000 0.00000
32.1750260 64.9081040 -17.2798460 0.00000 0.00000 0.00000
32.1777420 67.1476590 -17.5253790 0.00000 0.00000 0.00000
32.1885260 66.1923290 -17.3715060 0.00000 0.00000 0.00000
32.1899260 66.9923400 -17.4574340 0.00000 0.00000 0.00000
32.1967280 65.8755190 -17.3014320 0.00000 0.00000 0.00000
32.1970670 65.5557940 -17.2633950 0.00000 0.00000 0.00000
32.2083440 66.5194850 -17.3274500 0.00000 0.00000 0.00000
32.2146640 66.8416670 -17.3383660 0.00000 0.00000 0.00000
32.2525860 64.6160350 -16.9271720 0.00000 0.00000 0.00000
32.2879750 65.3677600 -17.5477940 0.00000 0.00000 0.00000
32.2882160 64.8882370 -17.4918710 0.00000 0.00000 0.00000
32.2957080 66.4895780 -17.6445640 0.00000 0.00000 0.00000
32.3267820 65.7016530 -17.4265230 0.00000 0.00000 0.00000
32.3308830 65.5432430 -17.3915250 0.00000 0.00000 0.00000
32.3313980 66.3429180 -17.4810370 0.00000 0.00000 0.00000
32.3471790 67.1482160 -17.5084190 0.00000 0.00000 0.00000
32.3539280 64.7519450 -17.2061080 0.00000 0.00000 0.00000
32.3632510 66.8344190 -17.4063950 0.00000 0.00000 0.00000
32.3694570 65.2373960 -17.1978890 0.00000 0.00000 0.00000
32.3720930 66.6777950 -17.3520980 0.00000 0.00000 0.00000
32.3728260 65.8784100 -17.2575070 0.00000 0.00000 0.00000
32.3806270 66.2011570 -17.2624190 0.00000 0.00000 0.00000
32.4481960 64.6257250 -16.8041100 0.00000 0.00000 0.00000
32.4517560 66.0056000 -17.6269780 0.00000 0.00000 0.00000
32.4591870 64.8891830 -17.4685900 0.00000 0.00000 0.00000
32.4655420 65.5310290 -17.5160100 0.00000 0.00000 0.00000
32.4809110 66.4959340 -17.5634140 0.00000 0.00000 0.00000
32.4819720 65.8567890 -17.4858590 0.00000 0.00000 0.00000
32.5063820 66.1855470 -17.4232750 0.00000 0.00000 0.00000
32.5078580 66.9855960 -17.5088420 0.00000 0.00000 0.00000
32.5090680 66.8261490 -17.4856110 0.00000 0.00000 0.00000
32.5114780 66.6671450 -17.4575040 0.00000 0.00000 0.00000
32.5145910 65.0690540 -17.2616650 0.00000 0.00000 0.00000
32.5160710 64.7496870 -17.2190040 0.00000 0.00000 0.00000
32.5232510 64.5923000 -17.1714990 0.00000 0.00000 0.00000
32.5562250 66.3638380 -17.2390120 0.00000 0.00000 0.00000
32.5627630 67.1660230 -17.3040390 0.00000 0.00000 0.00000
32.6229670 66.0067210 -17.6027770 0.00000 0.00000 0.00000
32.6397970 65.3733060 -17.4612010 0.00000 0.00000 0.00000
32.6465910 65.5356750 -17.4519330 0.00000 0.00000 0.00000
32.6559070 65.8588870 -17.4507290 0.00000 0.00000 0.00000
32.6611140 64.9012370 -17.3197020 0.00000 0.00000 0.00000
32.6637920 66.8211980 -17.5285490 0.00000 0.00000 0.00000
32.6712880 67.1437840 -17.5347330 0.00000 0.00000 0.00000
32.6735760 66.3451080 -17.4339100 0.00000 0.00000 0.00000
32.6750260 65.0661850 -17.2815230 0.00000 0.00000 0.00000
32.6777110 66.9862750 -17.4903560 0.00000 0.00000 0.00000
32.6864970 65.7101210 -17.3082120 0.00000 0.00000 0.00000
32.6898460 66.6709590 -17.4044720 0.00000 0.00000 0.00000
32.6899760 65.2315290 -17.2391410 0.00000 0.00000 0.00000
32.7247090 64.7640760 -17.0431370 0.00000 0.00000 0.00000
32.7359350 64.6080700 -16.9792180 0.00000 0.00000 0.00000
32.8045650 65.0522000 -17.4267290 0.00000 0.00000 0.00000
32.8061940 66.8116760 -17.6214390 0.00000 0.00000 0.00000
32.8125380 66.0145570 -17.5042170 0.00000 0.00000 0.00000
32.8295020 65.7009200 -17.3988080 0.00000 0.00000 0.00000
32.8303570 67.1404420 -17.5600530 0.00000 0.00000 0.00000
32.8402900 65.2250060 -17.3001290 0.00000 0.00000 0.00000
32.8469960 65.8672260 -17.3461550 0.00000 0.00000 0.00000
32.8485070 65.5478820 -17.3034110 0.00000 0.00000 0.00000
32.8553960 66.6700060 -17.4036120 0.00000 0.00000 0.00000
32.8658520 65.3942030 -17.2147520 0.00000 0.00000 0.00000
32.8730550 66.9964450 -17.3686070 0.00000 0.00000 0.00000
32.8893890 64.7626950 -17.0460240 0.00000 0.00000 0.00000
32.8906290 66.5230790 -17.2424220 0.00000 0.00000 0.00000
32.9112430 66.2106930 -17.1222020 0.00000 0.00000 0.00000
32.9210510 64.9340670 -16.9358920 0.00000 0.00000 0.00000
32.9619790 64.6285710 -16.7332170 0.00000 0.00000 0.00000
32.9625740 66.8073500 -17.6575620 0.00000 0.00000 0.00000
33.0188870 64.9087300 -17.2098330 0.00000 0.00000 0.00000
33.0231780 66.3499830 -17.3571780 0.00000 0.00000 0.00000
33.0302660 65.7127230 -17.2552550 0.00000 0.00000 0.00000
33.0353130 64.7546160 -17.1249680 0.00000 0.00000 0.00000
33.0390820 65.2359620 -17.1646230 0.00000 0.00000 0.00000
33.0407980 65.5565640 -17.1942790 0.00000 0.00000 0.00000
33.0417520 66.0368650 -17.2453230 0.00000 0.00000 0.00000
33.0541950 65.8814160 -17.1766070 0.00000 0.00000 0.00000
33.0620000 67.1641690 -17.2914140 0.00000 0.00000 0.00000
33.0755310 67.0092240 -17.2183020 0.00000 0.00000 0.00000
33.0814130 65.0911790 -16.9747850 0.00000 0.00000 0.00000
33.0876690 65.4135130 -16.9860550 0.00000 0.00000 0.00000
33.1228180 66.4846880 -17.6414640 0.00000 0.00000 0.00000
33.1579780 67.1373060 -17.5723400 0.00000 0.00000 0.00000
33.1752010 66.8238530 -17.4660740 0.00000 0.00000 0.00000
33.2020070 65.8739400 -17.2478370 0.00000 0.00000 0.00000
33.2152520 66.3587420 -17.2491230 0.00000 0.00000 0.00000
33.2202800 67.0005340 -17.3019560 0.00000 0.00000 0.00000
33.2208560 64.9207080 -17.0617390 0.00000 0.00000 0.00000
33.2213060 66.2009740 -17.2063310 0.00000 0.00000 0.00000
33.2230870 66.6816100 -17.2540130 0.00000 0.00000 0.00000
33.2240680 65.5619510 -17.1219580 0.00000 0.00000 0.00000
33.2340550 65.0854720 -17.0266150 0.00000 0.00000 0.00000
33.2358170 65.4061810 -17.0560910 0.00000 0.00000 0.00000
33.2370680 65.2465970 -17.0327300 0.00000 0.00000 0.00000
33.2647970 65.7367550 -16.9754100 0.00000 0.00000 0.00000
33.3007660 64.7892000 -16.7199670 0.00000 0.00000 0.00000
33.3161090 65.8542100 -17.4552570 0.00000 0.00000 0.00000
33.3226240 66.6562650 -17.5203300 0.00000 0.00000 0.00000
33.3240780 65.3772510 -17.3681760 0.00000 0.00000 0.00000
33.3313370 66.8194200 -17.5033950 0.00000 0.00000 0.00000
33.3351100 65.0612790 -17.2870030 0.00000 0.00000 0.00000
33.3471530 65.5455550 -17.2931690 0.00000 0.00000 0.00000
33.3694190 66.5135570 -17.3129010 0.00000 0.00000 0.00000
33.3894810 67.1609120 -17.3049640 0.00000 0.00000 0.00000
33.3901670 66.3611830 -17.2107260 0.00000 0.00000 0.00000
33.3938790 64.7622600 -17.0127720 0.00000 0.00000 0.00000
33.3955500 66.0431290 -17.1523910 0.00000 0.00000 0.00000
33.4179610 65.2510450 -16.9703030 0.00000 0.00000 0.00000
33.4194790 67.0120540 -17.1654070 0.00000 0.00000 0.00000
33.4319920 64.6157610 -16.8403590 0.00000 0.00000 0.00000
33.4336170 64.9365160 -16.8703940 0.00000 0.00000 0.00000
33.4807660 66.4926450 -17.5312400 0.00000 0.00000 0.00000
33.4894490 67.1355740 -17.5692840 0.00000 0.00000 0.00000
33.5012510 66.1802600 -17.4119610 0.00000 0.00000 0.00000
33.5098230 65.2235030 -17.2676510 0.00000 0.00000 0.00000
33.5114940 65.3840940 -17.2791820 0.00000 0.00000 0.00000
33.5156480 64.9055860 -17.2075480 0.00000 0.00000 0.00000
33.5165980 66.0258870 -17.3317130 0.00000 0.00000 0.00000
33.5280110 66.3500210 -17.3221800 0.00000 0.00000 0.00000
33.5435220 65.5556560 -17.1681140 0.00000 0.00000 0.00000
33.5520740 65.8787990 -17.1701530 0.00000 0.00000 0.00000
33.5574650 67.0008540 -17.2763810 0.00000 0.00000 0.00000
33.5726170 66.8464510 -17.1969300 0.00000 0.00000 0.00000
33.5765650 66.6878810 -17.1626890 0.00000 0.00000 0.00000
33.5976520 65.0949710 -16.8946110 0.00000 0.00000 0.00000
33.6032710 64.7767870 -16.8353200 0.00000 0.00000 0.00000
33.6260300 64.6247630 -16.7250860 0.00000 0.00000 0.00000
33.6331020 67.1265030 -17.6569100 0.00000 0.00000 0.00000
33.6478390 66.0123830 -17.4695990 0.00000 0.00000 0.00000
33.6612210 66.9769970 -17.5252480 0.00000 0.00000 0.00000
33.6731610 66.1815800 -17.3857210 0.00000 0.00000 0.00000
33.6876980 66.5068590 -17.3636280 0.00000 0.00000 0.00000
33.6889610 65.5473480 -17.2488750 0.00000 0.00000 0.00000
33.6987110 66.3509060 -17.3009240 0.00000 0.00000 0.00000
33.7125280 65.3958210 -17.1355020 0.00000 0.00000 0.00000
33.7205960 65.7188030 -17.1395260 0.00000 0.00000 0.00000
33.7381550 66.6854170 -17.1783850 0.00000 0.00000 0.00000
33.7464790 65.8882370 -17.0533830 0.00000 0.00000 0.00000
33.7587930 64.6120070 -16.8573990 0.00000 0.00000 0.00000
33.8090290 64.9501270 -16.6912800 0.00000 0.00000 0.00000
33.8097380 67.1296690 -17.6115400 0.00000 0.00000 0.00000
33.8104900 66.3302380 -17.5172040 0.00000 0.00000 0.00000
33.8190650 65.3735430 -17.3730350 0.00000 0.00000 0.00000
33.8253250 66.6555860 -17.4939500 0.00000 0.00000 0.00000
33.8315810 65.0580370 -17.2860490 0.00000 0.00000 0.00000
33.8411940 66.8213960 -17.4482800 0.00000 0.00000 0.00000
33.8470380 64.9035420 -17.2054810 0.00000 0.00000 0.00000
33.8491210 64.7442630 -17.1787990 0.00000 0.00000 0.00000
33.8509480 65.5450130 -17.2628170 0.00000 0.00000 0.00000
33.8611260 65.8687210 -17.2583500 0.00000 0.00000 0.00000
33.8686030 66.9915010 -17.3561210 0.00000 0.00000 0.00000
33.8759880 66.0341420 -17.2167240 0.00000 0.00000 0.00000
33.8927610 65.2399750 -17.0577450 0.00000 0.00000 0.00000
33.9078220 66.5258790 -17.1432820 0.00000 0.00000 0.00000
33.9082790 66.2059400 -17.1048870 0.00000 0.00000 0.00000
33.9610630 64.6238940 -16.7093070 0.00000 0.00000 0.00000
33.9885640 66.4937900 -17.4844880 0.00000 0.00000 0.00000
33.9896280 66.0142520 -17.4254130 0.00000 0.00000 0.00000
34.0059850 65.7001880 -17.3230480 0.00000 0.00000 0.00000
34.0286030 65.5483250 -17.2137260 0.00000 0.00000 0.00000
34.0337680 67.1503830 -17.3755950 0.00000 0.00000 0.00000
34.0419690 65.3930890 -17.1416490 0.00000 0.00000 0.00000
34.0445900 65.8741680 -17.1859130 0.00000 0.00000 0.00000
34.0453870 66.1945420 -17.2192310 0.00000 0.00000 0.00000
34.0636020 64.9206240 -16.9997200 0.00000 0.00000 0.00000
34.0639610 67.0015340 -17.2358090 0.00000 0.00000 0.00000
34.0878520 65.2494660 -16.9386520 0.00000 0.00000 0.00000
34.1069180 64.6157760 -16.7887570 0.00000 0.00000 0.00000
34.1243480 65.1023860 -16.7734410 0.00000 0.00000 0.00000
34.1559640 67.1333540 -17.5496080 0.00000 0.00000 0.00000
34.1643600 66.6565250 -17.4610960 0.00000 0.00000 0.00000
34.1733280 66.3398210 -17.3885250 0.00000 0.00000 0.00000
34.1816330 66.0228270 -17.3186170 0.00000 0.00000 0.00000
34.1848750 66.9840620 -17.4151130 0.00000 0.00000 0.00000
34.1960560 65.0678020 -17.1510280 0.00000 0.00000 0.00000
34.1966170 65.3881000 -17.1853050 0.00000 0.00000 0.00000
34.2048490 64.5907290 -17.0608690 0.00000 0.00000 0.00000
34.2219280 66.8376920 -17.2478960 0.00000 0.00000 0.00000
34.2228810 65.7176670 -17.1162170 0.00000 0.00000 0.00000
34.2284010 66.1998600 -17.1488150 0.00000 0.00000 0.00000
34.2695620 65.8946150 -16.9467720 0.00000 0.00000 0.00000
34.2921260 64.9419020 -16.7463760 0.00000 0.00000 0.00000
34.3054310 64.7864610 -16.6745800 0.00000 0.00000 0.00000
34.3378490 66.6584400 -17.4288520 0.00000 0.00000 0.00000
34.3526950 66.1838150 -17.3144700 0.00000 0.00000 0.00000
34.3572080 65.8653790 -17.2598360 0.00000 0.00000 0.00000
34.3642310 67.1481780 -17.3776510 0.00000 0.00000 0.00000
34.3756830 65.3918690 -17.1308480 0.00000 0.00000 0.00000
34.3807140 66.9942320 -17.2932030 0.00000 0.00000 0.00000
34.3817560 64.9137950 -17.0516610 0.00000 0.00000 0.00000
34.4051480 65.5625230 -17.0307410 0.00000 0.00000 0.00000
34.4061550 66.8435440 -17.1727790 0.00000 0.00000 0.00000
34.4076270 65.7235110 -17.0390450 0.00000 0.00000 0.00000
34.4570050 65.1006930 -16.7676160 0.00000 0.00000 0.00000
34.4746670 64.7866130 -16.6600990 0.00000 0.00000 0.00000
34.4959300 66.0146560 -17.3855990 0.00000 0.00000 0.00000
34.5139240 66.5012590 -17.3681410 0.00000 0.00000 0.00000
34.5256920 67.1456760 -17.3939040 0.00000 0.00000 0.00000
34.5336190 66.9885710 -17.3438490 0.00000 0.00000 0.00000
34.5415610 65.3908920 -17.1294820 0.00000 0.00000 0.00000
34.5522350 66.3551860 -17.1961670 0.00000 0.00000 0.00000
34.5549510 66.1960980 -17.1670270 0.00000 0.00000 0.00000
34.5593910 64.7568590 -16.9849110 0.00000 0.00000 0.00000
34.5768200 65.7237400 -17.0244980 0.00000 0.00000 0.00000
34.5816000 65.0849760 -16.9322910 0.00000 0.00000 0.00000
34.6213260 65.8999100 -16.8641720 0.00000 0.00000 0.00000
34.6390990 65.2656250 -16.7197930 0.00000 0.00000 0.00000
34.6545260 64.9507290 -16.6213550 0.00000 0.00000 0.00000
34.6647260 66.1748120 -17.3906230 0.00000 0.00000 0.00000
34.6836550 65.8615880 -17.2782690 0.00000 0.00000 0.00000
34.6868320 66.8229900 -17.3749830 0.00000 0.00000 0.00000
34.6977580 65.2263790 -17.1487600 0.00000 0.00000 0.00000
34.6980710 67.1471940 -17.3664300 0.00000 0.00000 0.00000
34.7016370 65.5479200 -17.1696970 0.00000 0.00000 0.00000
34.7027630 65.7084050 -17.1834370 0.00000 0.00000 0.00000
34.7172360 65.0732190 -17.0524250 0.00000 0.00000 0.00000
34.7222670 66.6759190 -17.2147240 0.00000 0.00000 0.00000
34.7588420 66.5291820 -17.0498960 0.00000 0.00000 0.00000
34.7599870 64.7681120 -16.8445190 0.00000 0.00000 0.00000
34.8122410 64.6263660 -16.6167490 0.00000 0.00000 0.00000
34.8252260 66.4919890 -17.4471910 0.00000 0.00000 0.00000
34.8309100 67.1341320 -17.4973490 0.00000 0.00000 0.00000
34.8317910 66.0142820 -17.3661940 0.00000 0.00000 0.00000
34.8459400 66.8196110 -17.4007280 0.00000 0.00000 0.00000
34.8584440 65.3836210 -17.1865230 0.00000 0.00000 0.00000
34.8759920 66.1903310 -17.2074510 0.00000 0.00000 0.00000
34.8897900 65.5549240 -17.0792410 0.00000 0.00000 0.00000
34.9099500 67.0031660 -17.1627040 0.00000 0.00000 0.00000
34.9408950 65.7333910 -16.8928450 0.00000 0.00000 0.00000
34.9631230 64.7802280 -16.6943130 0.00000 0.00000 0.00000
34.9856070 64.9483870 -16.6225340 0.00000 0.00000 0.00000
34.9956550 66.9728160 -17.4822560 0.00000 0.00000 0.00000
35.0220110 67.1425400 -17.3950840 0.00000 0.00000 0.00000
35.0226100 65.7021940 -17.2286220 0.00000 0.00000 0.00000
35.0240440 65.8627850 -17.2411160 0.00000 0.00000 0.00000
35.0346300 66.1867680 -17.2352370 0.00000 0.00000 0.00000
35.0365410 66.8277590 -17.3005100 0.00000 0.00000 0.00000
35.0472340 66.5115050 -17.2212850 0.00000 0.00000 0.00000
35.0637930 66.3574300 -17.1368290 0.00000 0.00000 0.00000
35.0690230 64.9181670 -16.9517560 0.00000 0.00000 0.00000
35.0735780 65.4002080 -16.9882580 0.00000 0.00000 0.00000
35.0754390 66.6818850 -17.1267240 0.00000 0.00000 0.00000
35.0871090 66.0456160 -17.0071050 0.00000 0.00000 0.00000
35.0889550 65.2455370 -16.9085100 0.00000 0.00000 0.00000
35.1122970 64.7732770 -16.7603930 0.00000 0.00000 0.00000
35.1181110 65.5762790 -16.8283600 0.00000 0.00000 0.00000
35.1249730 65.0981520 -16.7461800 0.00000 0.00000 0.00000
35.1740340 66.3363040 -17.3580840 0.00000 0.00000 0.00000
35.1767460 67.1375500 -17.4383660 0.00000 0.00000 0.00000
35.1896440 66.6621020 -17.3321690 0.00000 0.00000 0.00000
35.2054210 66.8279340 -17.2873670 0.00000 0.00000 0.00000
35.2074810 66.0282360 -17.1879940 0.00000 0.00000 0.00000
35.2096900 65.3885960 -17.1062550 0.00000 0.00000 0.00000
35.2380750 65.2385640 -16.9745880 0.00000 0.00000 0.00000
35.2413520 66.2005770 -17.0709040 0.00000 0.00000 0.00000
35.2485080 65.0821080 -16.9146630 0.00000 0.00000 0.00000
35.2545510 66.5256350 -17.0546280 0.00000 0.00000 0.00000
35.2597010 64.7657090 -16.8334540 0.00000 0.00000 0.00000
35.2923930 64.6170120 -16.6845530 0.00000 0.00000 0.00000
35.3422850 64.9550700 -16.5216540 0.00000 0.00000 0.00000
35.3471370 67.1383060 -17.4191360 0.00000 0.00000 0.00000
35.3529890 66.3401030 -17.3047050 0.00000 0.00000 0.00000
35.3695110 66.0258790 -17.2023120 0.00000 0.00000 0.00000
35.3766440 66.6688690 -17.2467380 0.00000 0.00000 0.00000
35.3896790 65.8730160 -17.1035900 0.00000 0.00000 0.00000
35.3914340 66.5141370 -17.1694930 0.00000 0.00000 0.00000
35.3991810 66.8371960 -17.1750050 0.00000 0.00000 0.00000
35.4138790 65.0808870 -16.9158460 0.00000 0.00000 0.00000
35.4201470 67.0049900 -17.1095640 0.00000 0.00000 0.00000
35.4202540 65.5636670 -16.9450930 0.00000 0.00000 0.00000
35.4232980 66.2054060 -17.0058650 0.00000 0.00000 0.00000
35.4466170 64.7720570 -16.7486860 0.00000 0.00000 0.00000
35.4507330 64.9337230 -16.7504980 0.00000 0.00000 0.00000
35.4661450 65.4198300 -16.7436810 0.00000 0.00000 0.00000
35.4674340 64.6191480 -16.6473370 0.00000 0.00000 0.00000
35.4695210 65.2608110 -16.7119620 0.00000 0.00000 0.00000
35.5238380 67.1413730 -17.3748570 0.00000 0.00000 0.00000
35.5398980 66.5068660 -17.2379950 0.00000 0.00000 0.00000
35.5418930 65.7070010 -17.1389540 0.00000 0.00000 0.00000
35.5491490 66.1899800 -17.1646730 0.00000 0.00000 0.00000
35.5766720 66.3600620 -17.0731700 0.00000 0.00000 0.00000
35.5905150 65.2438430 -16.8903980 0.00000 0.00000 0.00000
35.5920520 65.5647580 -16.9207270 0.00000 0.00000 0.00000
35.5951920 67.0074010 -17.0722120 0.00000 0.00000 0.00000
35.5953790 65.4057540 -16.8892350 0.00000 0.00000 0.00000
35.6133840 66.6937030 -16.9632430 0.00000 0.00000 0.00000
35.6244390 66.8579180 -16.9373930 0.00000 0.00000 0.00000
35.6364290 65.0998840 -16.6890910 0.00000 0.00000 0.00000
35.6385420 64.9403920 -16.6624200 0.00000 0.00000 0.00000
35.6408460 66.0628430 -16.7808530 0.00000 0.00000 0.00000
35.6809460 64.6347500 -16.4568390 0.00000 0.00000 0.00000
35.6948200 66.5019380 -17.2806870 0.00000 0.00000 0.00000
35.7373920 66.0369110 -17.0564990 0.00000 0.00000 0.00000
35.7465360 66.8409880 -17.1111510 0.00000 0.00000 0.00000
35.7527920 66.2026140 -17.0133910 0.00000 0.00000 0.00000
35.7600520 65.5644840 -16.9115980 0.00000 0.00000 0.00000
35.7668910 66.3678820 -16.9754470 0.00000 0.00000 0.00000
35.7671430 66.6883240 -17.0108810 0.00000 0.00000 0.00000
35.7721670 67.0105060 -17.0273080 0.00000 0.00000 0.00000
35.7977220 65.7381360 -16.7797740 0.00000 0.00000 0.00000
35.7992820 65.8989180 -16.7917840 0.00000 0.00000 0.00000
35.8101160 64.9413150 -16.6392800 0.00000 0.00000 0.00000
35.8129920 65.1025920 -16.6460400 0.00000 0.00000 0.00000
35.8266940 65.2677000 -16.6096990 0.00000 0.00000 0.00000
35.8292120 64.7877580 -16.5449770 0.00000 0.00000 0.00000
35.8292160 64.6274800 -16.5267310 0.00000 0.00000 0.00000
35.8342860 67.1317370 -17.4576530 0.00000 0.00000 0.00000
35.8343160 66.8116000 -17.4211270 0.00000 0.00000 0.00000
35.8771480 66.1866680 -17.1779290 0.00000 0.00000 0.00000
35.8794710 65.5469210 -17.0958580 0.00000 0.00000 0.00000
35.8947720 65.8726960 -17.0714040 0.00000 0.00000 0.00000
35.8972550 65.3930740 -17.0068930 0.00000 0.00000 0.00000
35.9071770 65.0762180 -16.9309750 0.00000 0.00000 0.00000
35.9105680 65.7181700 -16.9903370 0.00000 0.00000 0.00000
35.9312170 64.7642520 -16.7988820 0.00000 0.00000 0.00000
35.9397510 66.3694000 -16.9470730 0.00000 0.00000 0.00000
35.9558640 65.2536320 -16.7554470 0.00000 0.00000 0.00000
35.9573970 66.0553360 -16.8404410 0.00000 0.00000 0.00000
35.9650500 66.6989750 -16.8828530 0.00000 0.00000 0.00000
35.9704970 66.5407260 -16.8429660 0.00000 0.00000 0.00000
35.9778250 64.6203310 -16.5951730 0.00000 0.00000 0.00000
36.0075800 66.6532520 -17.3726180 0.00000 0.00000 0.00000
36.0198480 66.1773450 -17.2692870 0.00000 0.00000 0.00000
36.0233840 65.6982270 -17.2006360 0.00000 0.00000 0.00000
36.0303150 66.5013730 -17.2640800 0.00000 0.00000 0.00000
36.0416870 66.0250550 -17.1642820 0.00000 0.00000 0.00000
36.0533790 66.3495640 -17.1542110 0.00000 0.00000 0.00000
36.0545430 65.2288130 -17.0221730 0.00000 0.00000 0.00000
36.0710030 64.9142300 -16.9203300 0.00000 0.00000 0.00000
36.0713810 66.9967040 -17.1554790 0.00000 0.00000 0.00000
36.0720600 65.3952030 -16.9707510 0.00000 0.00000 0.00000
36.0751880 65.5565030 -16.9765210 0.00000 0.00000 0.00000
36.0855450 66.8416980 -17.0809960 0.00000 0.00000 0.00000
36.0915340 64.6009900 -16.8022840 0.00000 0.00000 0.00000
36.1779670 64.7915040 -16.4768890 0.00000 0.00000 0.00000
36.1925200 66.8193210 -17.3142660 0.00000 0.00000 0.00000
36.1938210 66.9799190 -17.3272970 0.00000 0.00000 0.00000
36.2116580 66.1856770 -17.1655270 0.00000 0.00000 0.00000
36.2242390 65.5494920 -17.0427880 0.00000 0.00000 0.00000
36.2254870 65.8703000 -17.0742360 0.00000 0.00000 0.00000
36.2273220 66.3514790 -17.1215380 0.00000 0.00000 0.00000
36.2377050 67.1560670 -17.1712880 0.00000 0.00000 0.00000
36.2469830 65.2371440 -16.9160840 0.00000 0.00000 0.00000
36.2603150 64.6009060 -16.7903230 0.00000 0.00000 0.00000
36.2639350 64.9226610 -16.8123510 0.00000 0.00000 0.00000
36.2675400 66.6863710 -16.9982740 0.00000 0.00000 0.00000
36.2677730 66.0456160 -16.9245410 0.00000 0.00000 0.00000
36.2715260 65.0855710 -16.8004070 0.00000 0.00000 0.00000
36.2782060 65.4084170 -16.8103070 0.00000 0.00000 0.00000
36.3307340 64.7857970 -16.5288730 0.00000 0.00000 0.00000
36.3645320 66.6604540 -17.2710400 0.00000 0.00000 0.00000
36.3709830 66.1823270 -17.1908860 0.00000 0.00000 0.00000
36.3849830 65.3864440 -17.0444150 0.00000 0.00000 0.00000
36.3864480 66.3480450 -17.1477410 0.00000 0.00000 0.00000
36.3948210 65.5501170 -17.0235750 0.00000 0.00000 0.00000
36.3956870 65.8708190 -17.0565320 0.00000 0.00000 0.00000
36.4007990 66.5133970 -17.1090320 0.00000 0.00000 0.00000
36.4360920 65.2442780 -16.8234790 0.00000 0.00000 0.00000
36.4607770 67.0157470 -16.9257530 0.00000 0.00000 0.00000
36.4646220 65.0940550 -16.6921120 0.00000 0.00000 0.00000
36.4689410 64.6147080 -16.6203590 0.00000 0.00000 0.00000
36.4712640 64.9361040 -16.6475580 0.00000 0.00000 0.00000
36.5215870 67.1366880 -17.3598820 0.00000 0.00000 0.00000
36.5568470 66.3486710 -17.1293090 0.00000 0.00000 0.00000
36.5763240 65.7148280 -16.9793950 0.00000 0.00000 0.00000
36.5770490 66.9967190 -17.1220130 0.00000 0.00000 0.00000
36.5907330 66.5210650 -17.0132480 0.00000 0.00000 0.00000
36.5952450 64.5998080 -16.7770630 0.00000 0.00000 0.00000
36.6227110 65.8915790 -16.8137930 0.00000 0.00000 0.00000
36.6318590 66.6961440 -16.8685170 0.00000 0.00000 0.00000
36.6322560 65.5744320 -16.7395820 0.00000 0.00000 0.00000
36.6402630 65.4169770 -16.6896630 0.00000 0.00000 0.00000
36.6557660 65.2621460 -16.6100350 0.00000 0.00000 0.00000
36.6747890 65.1085210 -16.5164590 0.00000 0.00000 0.00000
36.7211990 67.1480180 -17.2257730 0.00000 0.00000 0.00000
36.7400890 66.0334700 -17.0237690 0.00000 0.00000 0.00000
36.7607960 65.2396320 -16.8508910 0.00000 0.00000 0.00000
36.7637940 65.8816910 -16.9117790 0.00000 0.00000 0.00000
36.7663540 66.8440170 -17.0107380 0.00000 0.00000 0.00000
36.7826230 65.7281270 -16.8190650 0.00000 0.00000 0.00000
36.7845120 66.5300980 -16.9025190 0.00000 0.00000 0.00000
36.7906070 65.5706860 -16.7692740 0.00000 0.00000 0.00000
36.8005070 66.2153170 -16.8028470 0.00000 0.00000 0.00000
36.8051800 65.0949480 -16.6570150 0.00000 0.00000 0.00000
36.8061260 66.3776020 -16.7988030 0.00000 0.00000 0.00000
36.8159710 65.4193570 -16.6506940 0.00000 0.00000 0.00000
36.8552890 64.9521710 -16.4404640 0.00000 0.00000 0.00000
36.8618700 64.6337360 -16.3780100 0.00000 0.00000 0.00000
36.9055020 65.3913420 -16.9526000 0.00000 0.00000 0.00000
36.9171560 65.7159420 -16.9428770 0.00000 0.00000 0.00000
36.9251210 64.9174650 -16.8204770 0.00000 0.00000 0.00000
36.9325900 66.8431400 -17.0091110 0.00000 0.00000 0.00000
36.9344480 67.1642760 -17.0381030 0.00000 0.00000 0.00000
36.9405250 65.2434080 -16.7959420 0.00000 0.00000 0.00000
36.9646570 66.0533600 -16.7914330 0.00000 0.00000 0.00000
36.9681740 64.7721940 -16.6320440 0.00000 0.00000 0.00000
36.9775540 65.8976590 -16.7222610 0.00000 0.00000 0.00000
36.9834670 66.7012560 -16.7898060 0.00000 0.00000 0.00000
36.9896700 64.6193470 -16.5288470 0.00000 0.00000 0.00000
37.0030750 65.5860750 -16.5849900 0.00000 0.00000 0.00000
37.0490150 65.8630450 -17.0952380 0.00000 0.00000 0.00000
37.0602420 65.7068020 -17.0327170 0.00000 0.00000 0.00000
37.0627590 66.8292240 -17.1499580 0.00000 0.00000 0.00000
37.0770260 66.5139310 -17.0572780 0.00000 0.00000 0.00000
37.0800740 65.5535740 -16.9362240 0.00000 0.00000 0.00000
37.0972180 67.0019150 -17.0320630 0.00000 0.00000 0.00000
37.0993420 65.4001080 -16.8419320 0.00000 0.00000 0.00000
37.1008570 65.2403640 -16.8177830 0.00000 0.00000 0.00000
37.1062930 64.9216920 -16.7599540 0.00000 0.00000 0.00000
37.1148260 66.0467000 -16.8534930 0.00000 0.00000 0.00000
37.1272010 64.6083530 -16.6409870 0.00000 0.00000 0.00000
37.1429410 66.2170180 -16.7606300 0.00000 0.00000 0.00000
37.1700520 65.1043090 -16.5262700 0.00000 0.00000 0.00000
37.1862720 64.7892380 -16.4258190 0.00000 0.00000 0.00000
37.2196120 66.0238950 -17.0945090 0.00000 0.00000 0.00000
37.2198830 65.7035370 -17.0571140 0.00000 0.00000 0.00000
37.2228890 66.1852800 -17.0997510 0.00000 0.00000 0.00000
37.2267460 66.9877470 -17.1753390 0.00000 0.00000 0.00000
37.2408180 66.5121540 -17.0653400 0.00000 0.00000 0.00000
37.2583270 65.5568620 -16.8872700 0.00000 0.00000 0.00000
37.2675900 64.7586750 -16.7598650 0.00000 0.00000 0.00000
37.2721140 65.8822940 -16.8692050 0.00000 0.00000 0.00000
37.3015210 66.8545230 -16.8622090 0.00000 0.00000 0.00000
37.3693850 66.1773300 -17.1759510 0.00000 0.00000 0.00000
37.3866080 66.3436970 -17.1262320 0.00000 0.00000 0.00000
37.3879320 64.6400990 -16.2667710 0.00000 0.00000 0.00000
37.4201430 66.0351640 -16.9577480 0.00000 0.00000 0.00000
37.4275740 66.6788710 -17.0011120 0.00000 0.00000 0.00000
37.4314270 66.8405150 -17.0040820 0.00000 0.00000 0.00000
37.4380870 65.7209630 -16.8506970 0.00000 0.00000 0.00000
37.4388660 65.8815310 -16.8657970 0.00000 0.00000 0.00000
37.4416430 67.0044630 -16.9819930 0.00000 0.00000 0.00000
37.4446140 65.2423550 -16.7704720 0.00000 0.00000 0.00000
37.4469410 65.4034810 -16.7794720 0.00000 0.00000 0.00000
37.4523580 64.6037670 -16.6672730 0.00000 0.00000 0.00000
37.4925190 65.5798490 -16.6179870 0.00000 0.00000 0.00000
37.4928090 64.7781520 -16.5259760 0.00000 0.00000 0.00000
37.4946980 64.9391780 -16.5367130 0.00000 0.00000 0.00000
37.5658680 65.7064210 -17.0008110 0.00000 0.00000 0.00000
37.5685200 65.3868180 -16.9540540 0.00000 0.00000 0.00000
37.5705530 65.2272570 -16.9278910 0.00000 0.00000 0.00000
37.5753940 67.1520770 -17.1266770 0.00000 0.00000 0.00000
37.5755040 66.8316350 -17.0899350 0.00000 0.00000 0.00000
37.5917590 64.7537690 -16.7899090 0.00000 0.00000 0.00000
37.5918960 65.5553210 -16.8801630 0.00000 0.00000 0.00000
37.5920750 66.3567960 -16.9702400 0.00000 0.00000 0.00000
37.5941960 66.5178300 -16.9800450 0.00000 0.00000 0.00000
37.6044810 66.0406490 -16.8850940 0.00000 0.00000 0.00000
37.6165920 64.9227220 -16.7102720 0.00000 0.00000 0.00000
37.6283610 66.6903690 -16.8637050 0.00000 0.00000 0.00000
37.6447560 66.2152790 -16.7446860 0.00000 0.00000 0.00000
37.7335700 65.7059780 -16.9936350 0.00000 0.00000 0.00000
37.7384990 65.0665820 -16.9016510 0.00000 0.00000 0.00000
37.7464030 66.1913450 -16.9976200 0.00000 0.00000 0.00000
37.7508390 65.8723600 -16.9438630 0.00000 0.00000 0.00000
37.7528610 66.5141910 -17.0085160 0.00000 0.00000 0.00000
37.7613070 66.9980470 -17.0297450 0.00000 0.00000 0.00000
37.7676120 67.1605910 -17.0230920 0.00000 0.00000 0.00000
37.7761920 65.4003750 -16.7896940 0.00000 0.00000 0.00000
37.7763140 64.7591020 -16.7165890 0.00000 0.00000 0.00000
37.7763670 66.8431930 -16.9523770 0.00000 0.00000 0.00000
37.7791520 64.9204180 -16.7235760 0.00000 0.00000 0.00000
37.7952000 66.0483780 -16.7875420 0.00000 0.00000 0.00000
37.7976680 66.6905440 -16.8504490 0.00000 0.00000 0.00000
37.8008840 66.3710480 -16.8014970 0.00000 0.00000 0.00000
37.8107640 64.6106640 -16.5629020 0.00000 0.00000 0.00000
37.8323330 65.5804370 -16.5870270 0.00000 0.00000 0.00000
37.8483280 65.2652740 -16.4877850 0.00000 0.00000 0.00000
37.8901480 66.5029220 -17.1209550 0.00000 0.00000 0.00000
37.8914410 66.6636350 -17.1340080 0.00000 0.00000 0.00000
37.8957440 65.3830260 -16.9719830 0.00000 0.00000 0.00000
37.9037820 66.9885710 -17.1218220 0.00000 0.00000 0.00000
37.9126170 66.8314900 -17.0689720 0.00000 0.00000 0.00000
37.9203640 65.5519560 -16.8933930 0.00000 0.00000 0.00000
37.9254680 65.2331240 -16.8370300 0.00000 0.00000 0.00000
37.9374240 64.7562940 -16.7356010 0.00000 0.00000 0.00000
37.9517520 66.2043000 -16.8426530 0.00000 0.00000 0.00000
37.9623030 65.0856320 -16.6741450 0.00000 0.00000 0.00000
37.9675060 64.9270780 -16.6355440 0.00000 0.00000 0.00000
37.9731790 66.0515670 -16.7403260 0.00000 0.00000 0.00000
37.9917910 65.8977970 -16.6490460 0.00000 0.00000 0.00000
38.0047950 65.7420040 -16.5798050 0.00000 0.00000 0.00000
38.0209350 64.6247860 -16.3892590 0.00000 0.00000 0.00000
38.0653110 65.8640750 -17.0120430 0.00000 0.00000 0.00000
38.0798150 65.2279660 -16.8825610 0.00000 0.00000 0.00000
38.0829700 66.3511960 -16.9971560 0.00000 0.00000 0.00000
38.0926900 66.6752550 -16.9952890 0.00000 0.00000 0.00000
38.1008300 66.5178680 -16.9451960 0.00000 0.00000 0.00000
38.1197660 67.1658940 -16.9434530 0.00000 0.00000 0.00000
38.1225200 66.0446090 -16.8056530 0.00000 0.00000 0.00000
38.1268010 65.0840000 -16.6799830 0.00000 0.00000 0.00000
38.1299590 66.8489230 -16.8671700 0.00000 0.00000 0.00000
38.1308140 67.0095600 -16.8819520 0.00000 0.00000 0.00000
38.1320080 64.7650600 -16.6232470 0.00000 0.00000 0.00000
38.1352580 65.5680470 -16.7012270 0.00000 0.00000 0.00000
38.1380580 66.2104570 -16.7628210 0.00000 0.00000 0.00000
38.1427120 65.7310330 -16.6901170 0.00000 0.00000 0.00000
38.2228810 67.1422120 -17.1898370 0.00000 0.00000 0.00000
38.2445370 66.8294600 -17.0686970 0.00000 0.00000 0.00000
38.2533870 66.3517380 -16.9796090 0.00000 0.00000 0.00000
38.2663310 65.5547100 -16.8381920 0.00000 0.00000 0.00000
38.2666550 66.9976960 -17.0001220 0.00000 0.00000 0.00000
38.2813720 65.3996280 -16.7610780 0.00000 0.00000 0.00000
38.2879980 64.9208450 -16.6806640 0.00000 0.00000 0.00000
38.2915950 66.6860050 -16.8660950 0.00000 0.00000 0.00000
38.2992130 65.2454910 -16.6729770 0.00000 0.00000 0.00000
38.3007770 66.0478740 -16.7575490 0.00000 0.00000 0.00000
38.3281360 65.0951690 -16.5414070 0.00000 0.00000 0.00000
38.3401790 65.7410050 -16.5667710 0.00000 0.00000 0.00000
38.4058990 66.5062030 -17.0504090 0.00000 0.00000 0.00000
38.4216610 65.2292100 -16.8436530 0.00000 0.00000 0.00000
38.4242250 65.5507810 -16.8698650 0.00000 0.00000 0.00000
38.4784470 65.8905490 -16.6937600 0.00000 0.00000 0.00000
38.4894790 64.6111600 -16.5054280 0.00000 0.00000 0.00000
38.4932370 67.0184480 -16.7627720 0.00000 0.00000 0.00000
38.4970320 66.0574870 -16.6391090 0.00000 0.00000 0.00000
38.5064390 64.9378740 -16.4752750 0.00000 0.00000 0.00000
38.5104520 66.3830490 -16.6228260 0.00000 0.00000 0.00000
38.5134390 66.8653110 -16.6655270 0.00000 0.00000 0.00000
38.5259250 65.7468340 -16.4896660 0.00000 0.00000 0.00000
38.5345610 65.1080700 -16.3832550 0.00000 0.00000 0.00000
38.5718610 67.1463470 -17.1228830 0.00000 0.00000 0.00000
38.5953600 65.7118380 -16.8678680 0.00000 0.00000 0.00000
38.6037900 66.0355000 -16.8711280 0.00000 0.00000 0.00000
38.6086730 66.6785960 -16.9245170 0.00000 0.00000 0.00000
38.6088980 65.8769450 -16.8330190 0.00000 0.00000 0.00000
38.6129230 64.5953670 -16.6722430 0.00000 0.00000 0.00000
38.6140400 65.0769040 -16.7222630 0.00000 0.00000 0.00000
38.6266560 66.8453670 -16.8723030 0.00000 0.00000 0.00000
38.6330950 66.2062150 -16.7745990 0.00000 0.00000 0.00000
38.6365780 66.5281910 -16.7972350 0.00000 0.00000 0.00000
38.6469920 65.4091490 -16.6295810 0.00000 0.00000 0.00000
38.6527860 66.3735730 -16.7156930 0.00000 0.00000 0.00000
38.6557080 65.5726010 -16.6136110 0.00000 0.00000 0.00000
38.6740070 64.7768170 -16.4513210 0.00000 0.00000 0.00000
38.7245410 65.2757190 -16.3079950 0.00000 0.00000 0.00000
38.7466240 66.9881820 -17.0704150 0.00000 0.00000 0.00000
38.7668650 66.5144350 -16.9369740 0.00000 0.00000 0.00000
38.7846110 67.1621480 -16.9400880 0.00000 0.00000 0.00000
38.7927740 66.0425260 -16.7813590 0.00000 0.00000 0.00000
38.7990110 64.6011200 -16.5938590 0.00000 0.00000 0.00000
38.8142170 65.0876240 -16.5887950 0.00000 0.00000 0.00000
38.8152050 65.7296220 -16.6574480 0.00000 0.00000 0.00000
