# 3D Systems, Inc.
# New Model
VERSION 0.7
FIELDS x y z x_normal y_normal z_normal
SIZE 4 4 4 4 4 4 
TYPE F F F F F F
COUNT 1 1 1 1 1 1 
WIDTH 813
HEIGHT 1
VIEWPOINT 0 0 0 1 0 0 0
POINTS 813
DATA ascii
163.8724500 13.5834370 -33.6336710 0.00000 0.00000 0.00000
163.8736900 8.5490894 -34.0957720 0.00000 0.00000 0.00000
163.8956600 15.9331670 -33.7264400 0.00000 0.00000 0.00000
163.9041300 10.8963450 -34.1734090 0.00000 0.00000 0.00000
163.9067400 10.5608700 -34.1478390 0.00000 0.00000 0.00000
163.9071700 16.6045320 -33.7428050 0.00000 0.00000 0.00000
163.9124500 8.8835011 -34.0352970 0.00000 0.00000 0.00000
163.9141500 9.8898315 -34.0921330 0.00000 0.00000 0.00000
163.9237200 15.5973880 -33.6478540 0.00000 0.00000 0.00000
163.9266700 9.5540810 -34.0459520 0.00000 0.00000 0.00000
163.9287400 10.2249660 -34.0818940 0.00000 0.00000 0.00000
163.9448400 15.2615670 -33.5837480 0.00000 0.00000 0.00000
163.9476300 17.2760030 -33.6988870 0.00000 0.00000 0.00000
164.0087600 16.9403650 -33.5514410 0.00000 0.00000 0.00000
164.0316800 11.2294560 -33.9281850 0.00000 0.00000 0.00000
164.0769000 11.8998480 -33.8743740 0.00000 0.00000 0.00000
164.0859500 12.9065080 -33.9159740 0.00000 0.00000 0.00000
164.0908400 11.5640090 -33.8252490 0.00000 0.00000 0.00000
164.0950600 8.2096500 -34.3810080 0.00000 0.00000 0.00000
164.1034400 13.9130990 -33.9400330 0.00000 0.00000 0.00000
164.1117700 12.2349340 -33.8219450 0.00000 0.00000 0.00000
164.1166400 13.2417540 -33.8722310 0.00000 0.00000 0.00000
164.1487900 8.5435019 -34.2894670 0.00000 0.00000 0.00000
164.1620500 9.5492811 -34.3222920 0.00000 0.00000 0.00000
164.1750600 8.8781853 -34.2549440 0.00000 0.00000 0.00000
164.1772500 15.5907610 -33.8872110 0.00000 0.00000 0.00000
164.2272600 13.5762600 -33.6623080 0.00000 0.00000 0.00000
164.2312000 9.2121792 -34.1584050 0.00000 0.00000 0.00000
164.2387100 10.5538080 -34.2233200 0.00000 0.00000 0.00000
164.2398400 14.5833760 -33.6966250 0.00000 0.00000 0.00000
164.2540900 16.9334140 -33.8080670 0.00000 0.00000 0.00000
164.2592200 14.2474840 -33.6361390 0.00000 0.00000 0.00000
164.2779500 11.2239660 -34.1820410 0.00000 0.00000 0.00000
164.2823500 15.9261900 -33.6888580 0.00000 0.00000 0.00000
164.2866700 10.8883240 -34.1438290 0.00000 0.00000 0.00000
164.3011500 14.9187730 -33.5892720 0.00000 0.00000 0.00000
164.3172300 11.5587730 -34.1205940 0.00000 0.00000 0.00000
164.3427300 9.8805542 -33.9668880 0.00000 0.00000 0.00000
164.3548300 12.5647780 -34.1028290 0.00000 0.00000 0.00000
164.3549700 17.2693810 -33.6184650 0.00000 0.00000 0.00000
164.3587000 16.2618850 -33.5502240 0.00000 0.00000 0.00000
164.3806800 16.5977290 -33.5246540 0.00000 0.00000 0.00000
164.3854400 12.2287910 -34.0190810 0.00000 0.00000 0.00000
164.3859900 13.2354930 -34.0783810 0.00000 0.00000 0.00000
164.3864000 13.5710490 -34.0976640 0.00000 0.00000 0.00000
164.3938100 11.8930760 -33.9815940 0.00000 0.00000 0.00000
164.4342800 14.2417760 -34.0384830 0.00000 0.00000 0.00000
164.4983400 14.9126110 -33.9456940 0.00000 0.00000 0.00000
164.5016000 9.2066040 -34.3617780 0.00000 0.00000 0.00000
164.5033700 8.8711548 -34.3379970 0.00000 0.00000 0.00000
164.5181000 15.2481840 -33.9247930 0.00000 0.00000 0.00000
164.5272100 8.1996498 -34.2482720 0.00000 0.00000 0.00000
164.5407100 13.9052260 -33.7972030 0.00000 0.00000 0.00000
164.5582700 9.8761053 -34.2844240 0.00000 0.00000 0.00000
164.5939900 11.2172190 -34.2907140 0.00000 0.00000 0.00000
164.6118800 8.5327892 -34.0926130 0.00000 0.00000 0.00000
164.6130100 10.8813800 -34.2311940 0.00000 0.00000 0.00000
164.6397400 9.5387096 -34.0951730 0.00000 0.00000 0.00000
164.6399800 17.2624470 -33.7924800 0.00000 0.00000 0.00000
164.6403700 10.2097870 -34.1341210 0.00000 0.00000 0.00000
164.6439200 10.5452540 -34.1468890 0.00000 0.00000 0.00000
164.6603100 16.2550580 -33.6898500 0.00000 0.00000 0.00000
164.6701800 15.9192120 -33.6491850 0.00000 0.00000 0.00000
164.6870300 11.5511100 -34.1177830 0.00000 0.00000 0.00000
164.7008400 16.5908870 -33.6258350 0.00000 0.00000 0.00000
164.7109200 12.5574670 -34.1285970 0.00000 0.00000 0.00000
164.7157600 11.8862210 -34.0782850 0.00000 0.00000 0.00000
164.7274900 12.2216420 -34.0740810 0.00000 0.00000 0.00000
164.7619500 17.5986710 -33.5594020 0.00000 0.00000 0.00000
164.7713200 14.5704260 -34.1240810 0.00000 0.00000 0.00000
164.7811300 12.8921740 -34.0030560 0.00000 0.00000 0.00000
164.7868200 13.8990550 -34.0516700 0.00000 0.00000 0.00000
164.7885600 14.2346800 -34.0681800 0.00000 0.00000 0.00000
164.8153200 8.1937428 -34.4147190 0.00000 0.00000 0.00000
164.8264300 13.5630090 -33.9493480 0.00000 0.00000 0.00000
164.8500200 13.2270520 -33.8802410 0.00000 0.00000 0.00000
164.8637800 16.2483230 -34.0329740 0.00000 0.00000 0.00000
164.8781600 16.5840110 -34.0232700 0.00000 0.00000 0.00000
164.8871000 9.8690872 -34.3664780 0.00000 0.00000 0.00000
164.8990200 14.9053340 -33.8792950 0.00000 0.00000 0.00000
164.9045900 9.5332088 -34.3101270 0.00000 0.00000 0.00000
164.9092400 15.2410360 -33.8782230 0.00000 0.00000 0.00000
164.9140600 15.9125310 -33.9085120 0.00000 0.00000 0.00000
164.9222400 11.5457220 -34.3942340 0.00000 0.00000 0.00000
164.9244400 17.5912480 -33.9876560 0.00000 0.00000 0.00000
164.9266400 15.5767360 -33.8622890 0.00000 0.00000 0.00000
164.9433900 8.8612089 -34.1894680 0.00000 0.00000 0.00000
164.9571700 10.2030390 -34.2413710 0.00000 0.00000 0.00000
164.9727800 16.9198360 -33.8471370 0.00000 0.00000 0.00000
164.9899400 12.2156600 -34.2941590 0.00000 0.00000 0.00000
165.0023000 10.5376540 -34.1679230 0.00000 0.00000 0.00000
165.0102400 11.8798030 -34.2319720 0.00000 0.00000 0.00000
165.0588500 17.2558480 -33.6887660 0.00000 0.00000 0.00000
165.0908100 8.5235491 -34.6273040 0.00000 0.00000 0.00000
165.1093900 13.5565540 -34.1271550 0.00000 0.00000 0.00000
165.1283600 12.8850100 -34.0475650 0.00000 0.00000 0.00000
165.1320600 8.1870241 -34.5217590 0.00000 0.00000 0.00000
165.1354800 14.2276380 -34.1133040 0.00000 0.00000 0.00000
165.1358200 13.2206050 -34.0522190 0.00000 0.00000 0.00000
165.1410200 15.5702390 -34.1823230 0.00000 0.00000 0.00000
165.1517600 14.5631930 -34.0997010 0.00000 0.00000 0.00000
165.1670400 8.8569078 -34.4895670 0.00000 0.00000 0.00000
165.1764800 14.8987350 -34.0685770 0.00000 0.00000 0.00000
165.1826000 9.8628283 -34.5176700 0.00000 0.00000 0.00000
165.2007300 10.8687490 -34.5404360 0.00000 0.00000 0.00000
165.2018400 9.1914721 -34.4375990 0.00000 0.00000 0.00000
165.2208400 16.9128930 -34.0975110 0.00000 0.00000 0.00000
165.2210700 16.2414490 -34.0567630 0.00000 0.00000 0.00000
165.2220300 10.1974090 -34.4561390 0.00000 0.00000 0.00000
165.2347100 16.5771790 -34.0486220 0.00000 0.00000 0.00000
165.2541800 17.2486920 -34.0485920 0.00000 0.00000 0.00000
165.2543800 15.9056470 -33.9676510 0.00000 0.00000 0.00000
165.2698400 9.5253153 -34.3168980 0.00000 0.00000 0.00000
165.2736700 11.2028630 -34.4095690 0.00000 0.00000 0.00000
165.2756500 11.8738420 -34.4456790 0.00000 0.00000 0.00000
165.2883100 10.5315270 -34.3390120 0.00000 0.00000 0.00000
165.3812400 13.8858030 -34.3478010 0.00000 0.00000 0.00000
165.3946800 12.8788510 -34.2596320 0.00000 0.00000 0.00000
165.4010500 13.2143940 -34.2665630 0.00000 0.00000 0.00000
165.4154200 14.2211210 -34.2972070 0.00000 0.00000 0.00000
165.4181700 12.2072510 -34.1708220 0.00000 0.00000 0.00000
165.4577300 8.1800518 -34.6103210 0.00000 0.00000 0.00000
165.4595000 12.5423490 -34.1053620 0.00000 0.00000 0.00000
165.4785300 13.5492310 -34.1263280 0.00000 0.00000 0.00000
165.4867100 9.5209551 -34.6308170 0.00000 0.00000 0.00000
165.5210400 10.5264850 -34.6200830 0.00000 0.00000 0.00000
165.5361600 15.2274210 -34.1077160 0.00000 0.00000 0.00000
165.5374000 14.8916740 -34.0850330 0.00000 0.00000 0.00000
165.5375800 8.5132847 -34.4652560 0.00000 0.00000 0.00000
165.5496100 9.8549461 -34.5208280 0.00000 0.00000 0.00000
165.5633900 8.8481007 -34.4320030 0.00000 0.00000 0.00000
165.5647000 16.2345850 -34.1090620 0.00000 0.00000 0.00000
165.6091600 12.2023200 -34.5384220 0.00000 0.00000 0.00000
165.6112100 16.5703470 -34.0329480 0.00000 0.00000 0.00000
165.6198600 17.2419570 -34.0552900 0.00000 0.00000 0.00000
165.6339900 10.8597510 -34.4066700 0.00000 0.00000 0.00000
165.6340000 15.8986810 -33.9455260 0.00000 0.00000 0.00000
165.6630900 11.1947830 -34.3665810 0.00000 0.00000 0.00000
165.6867200 17.5779950 -33.9370800 0.00000 0.00000 0.00000
165.6893000 11.8655390 -34.3526230 0.00000 0.00000 0.00000
165.7154200 12.8720110 -34.3589550 0.00000 0.00000 0.00000
165.7200200 11.5294060 -34.2690240 0.00000 0.00000 0.00000
165.7578600 14.5497550 -34.3718110 0.00000 0.00000 0.00000
165.7913500 13.5424730 -34.2422600 0.00000 0.00000 0.00000
165.7958100 8.5081549 -34.6933360 0.00000 0.00000 0.00000
165.8361500 10.5197660 -34.7305790 0.00000 0.00000 0.00000
165.8687100 14.2132430 -34.1225660 0.00000 0.00000 0.00000
165.8706100 13.8774520 -34.0985530 0.00000 0.00000 0.00000
165.8742200 16.2277570 -34.2318990 0.00000 0.00000 0.00000
165.8781100 15.8920030 -34.2037730 0.00000 0.00000 0.00000
165.8959400 11.5250280 -34.6674120 0.00000 0.00000 0.00000
165.9113600 10.1827100 -34.5551410 0.00000 0.00000 0.00000
165.9183200 15.2203120 -34.0804250 0.00000 0.00000 0.00000
165.9183800 14.8844970 -34.0601880 0.00000 0.00000 0.00000
165.9191100 8.8403559 -34.4587820 0.00000 0.00000 0.00000
165.9234800 9.1758060 -34.4698220 0.00000 0.00000 0.00000
165.9410100 12.1953220 -34.6145100 0.00000 0.00000 0.00000
165.9455000 15.5560280 -34.0443690 0.00000 0.00000 0.00000
165.9586200 17.5709740 -34.1379850 0.00000 0.00000 0.00000
165.9671300 16.5635090 -34.0600360 0.00000 0.00000 0.00000
165.9682300 11.1882310 -34.4979860 0.00000 0.00000 0.00000
165.9695400 10.8526300 -34.4752010 0.00000 0.00000 0.00000
165.9698800 12.5304520 -34.5750500 0.00000 0.00000 0.00000
165.9843400 17.2352180 -34.0647510 0.00000 0.00000 0.00000
165.9928400 16.8993760 -34.0270460 0.00000 0.00000 0.00000
166.0221400 12.8653510 -34.4871900 0.00000 0.00000 0.00000
166.0427200 13.8719520 -34.5050510 0.00000 0.00000 0.00000
166.0441000 11.8581640 -34.3815690 0.00000 0.00000 0.00000
166.0709200 8.8379297 -34.9063190 0.00000 0.00000 0.00000
166.0853000 14.2072240 -34.4372900 0.00000 0.00000 0.00000
166.0858000 13.5359020 -34.3960530 0.00000 0.00000 0.00000
166.0949600 13.2001300 -34.3570250 0.00000 0.00000 0.00000
166.1067000 8.1661701 -34.7923390 0.00000 0.00000 0.00000
166.1328900 14.8782520 -34.3792460 0.00000 0.00000 0.00000
166.1364900 9.5070896 -34.8112370 0.00000 0.00000 0.00000
166.1465100 14.5424600 -34.3310470 0.00000 0.00000 0.00000
166.1695100 10.1772270 -34.7833100 0.00000 0.00000 0.00000
166.1820700 15.5494620 -34.3179400 0.00000 0.00000 0.00000
166.1990800 15.8851620 -34.3029710 0.00000 0.00000 0.00000
166.2048800 15.2136210 -34.2507670 0.00000 0.00000 0.00000
166.2154200 16.2208920 -34.2893330 0.00000 0.00000 0.00000
166.2259500 8.4983406 -34.5664410 0.00000 0.00000 0.00000
166.2353400 16.8924350 -34.2884830 0.00000 0.00000 0.00000
166.2484600 11.1821320 -34.6807790 0.00000 0.00000 0.00000
166.2533600 10.8465070 -34.6505970 0.00000 0.00000 0.00000
166.2814300 9.8392315 -34.5323490 0.00000 0.00000 0.00000
166.2943600 17.2283480 -34.1868320 0.00000 0.00000 0.00000
166.3206000 16.5566690 -34.0923650 0.00000 0.00000 0.00000
166.3292800 12.5230940 -34.5944820 0.00000 0.00000 0.00000
166.3473400 12.8584590 -34.5773320 0.00000 0.00000 0.00000
166.3520700 11.5158970 -34.4871370 0.00000 0.00000 0.00000
166.3540800 17.5643940 -34.0836830 0.00000 0.00000 0.00000
166.3846000 8.1605539 -34.9793550 0.00000 0.00000 0.00000
166.3884300 14.2005230 -34.5729870 0.00000 0.00000 0.00000
166.3932500 12.1865560 -34.4424440 0.00000 0.00000 0.00000
166.4134400 13.1933180 -34.4611430 0.00000 0.00000 0.00000
166.4361100 13.5287650 -34.4344900 0.00000 0.00000 0.00000
166.4413900 13.8644120 -34.4436450 0.00000 0.00000 0.00000
166.4431800 8.4943247 -34.8787610 0.00000 0.00000 0.00000
166.4468700 9.1650848 -34.9112970 0.00000 0.00000 0.00000
166.4491900 14.5357430 -34.4678190 0.00000 0.00000 0.00000
166.4683500 15.2070390 -34.4685210 0.00000 0.00000 0.00000
166.4819800 14.8712520 -34.4203190 0.00000 0.00000 0.00000
166.4984900 9.8347473 -34.8451730 0.00000 0.00000 0.00000
166.5195200 9.4987736 -34.7817340 0.00000 0.00000 0.00000
166.5203200 10.1697460 -34.8202820 0.00000 0.00000 0.00000
166.5596500 16.2140270 -34.3406640 0.00000 0.00000 0.00000
166.5666200 10.8398190 -34.7650680 0.00000 0.00000 0.00000
166.6003400 15.5423010 -34.2165150 0.00000 0.00000 0.00000
166.6005100 11.1747300 -34.7153280 0.00000 0.00000 0.00000
166.6045500 17.2214780 -34.3084110 0.00000 0.00000 0.00000
166.6571000 16.5498260 -34.1598510 0.00000 0.00000 0.00000
166.6599900 10.5023820 -34.5526430 0.00000 0.00000 0.00000
166.6711400 12.8515870 -34.6703110 0.00000 0.00000 0.00000
166.6936200 12.1800180 -34.5838170 0.00000 0.00000 0.00000
166.6976300 12.5156120 -34.5957030 0.00000 0.00000 0.00000
166.7523800 13.5219740 -34.5431710 0.00000 0.00000 0.00000
166.7530100 13.1862720 -34.5217740 0.00000 0.00000 0.00000
166.7554200 8.1522999 -34.9749760 0.00000 0.00000 0.00000
166.7574500 13.8576150 -34.5528370 0.00000 0.00000 0.00000
166.7780900 9.4934206 -35.0086330 0.00000 0.00000 0.00000
166.7823300 8.4869900 -34.9396970 0.00000 0.00000 0.00000
166.7995300 8.8219938 -34.9243770 0.00000 0.00000 0.00000
166.8246600 14.1927780 -34.4345090 0.00000 0.00000 0.00000
166.8304900 15.2000120 -34.4828610 0.00000 0.00000 0.00000
166.8324600 15.5357520 -34.4988710 0.00000 0.00000 0.00000
166.8344300 14.8642340 -34.4546240 0.00000 0.00000 0.00000
166.8462800 16.5429690 -34.5307120 0.00000 0.00000 0.00000
166.8557000 16.2072110 -34.4912410 0.00000 0.00000 0.00000
166.8596200 16.8787290 -34.5233690 0.00000 0.00000 0.00000
166.8627200 10.8334600 -34.9147870 0.00000 0.00000 0.00000
166.8853600 9.1553144 -34.7678030 0.00000 0.00000 0.00000
166.9033500 11.1682210 -34.8512650 0.00000 0.00000 0.00000
166.9154400 10.1613090 -34.7661900 0.00000 0.00000 0.00000
166.9209300 10.4967690 -34.7749600 0.00000 0.00000 0.00000
166.9578900 11.8384260 -34.7792850 0.00000 0.00000 0.00000
166.9604900 17.2147160 -34.3358120 0.00000 0.00000 0.00000
166.9893500 13.1803890 -34.7949100 0.00000 0.00000 0.00000
166.9975400 12.1734320 -34.7177770 0.00000 0.00000 0.00000
167.0032000 11.5020650 -34.6659280 0.00000 0.00000 0.00000
167.0038800 12.8446030 -34.7448810 0.00000 0.00000 0.00000
167.0046700 17.5507320 -34.2649920 0.00000 0.00000 0.00000
167.0413200 12.5084650 -34.6478270 0.00000 0.00000 0.00000
167.0623200 8.1458588 -35.1021960 0.00000 0.00000 0.00000
167.0762300 14.8578400 -34.7166400 0.00000 0.00000 0.00000
167.1255500 13.5146050 -34.5348320 0.00000 0.00000 0.00000
167.1356200 8.4792728 -34.9716150 0.00000 0.00000 0.00000
167.1439700 14.1859490 -34.5371550 0.00000 0.00000 0.00000
167.1485700 15.1931830 -34.5879480 0.00000 0.00000 0.00000
167.1508800 15.8646630 -34.6234050 0.00000 0.00000 0.00000
167.1629800 14.5215780 -34.5181350 0.00000 0.00000 0.00000
167.1640900 9.8205338 -34.9933850 0.00000 0.00000 0.00000
167.1717400 9.4848528 -34.9575960 0.00000 0.00000 0.00000
167.1955400 9.1487446 -34.8886110 0.00000 0.00000 0.00000
167.1983600 16.5361270 -34.5659330 0.00000 0.00000 0.00000
167.1983900 8.8131247 -34.8626670 0.00000 0.00000 0.00000
167.2093400 10.4905950 -34.9405860 0.00000 0.00000 0.00000
167.2094400 15.5287240 -34.4828870 0.00000 0.00000 0.00000
167.2191200 16.2003250 -34.5031810 0.00000 0.00000 0.00000
167.2544300 10.8252590 -34.8679580 0.00000 0.00000 0.00000
167.2575500 17.5436520 -34.5045170 0.00000 0.00000 0.00000
167.2604800 11.4963060 -34.8957290 0.00000 0.00000 0.00000
167.2643900 11.1606580 -34.8676150 0.00000 0.00000 0.00000
167.2802400 16.8720040 -34.4177020 0.00000 0.00000 0.00000
167.3205000 13.1734350 -34.8728220 0.00000 0.00000 0.00000
167.3248400 12.1665020 -34.8035850 0.00000 0.00000 0.00000
167.3265400 12.8377420 -34.8403170 0.00000 0.00000 0.00000
167.3449200 17.2080210 -34.3048250 0.00000 0.00000 0.00000
167.3656300 12.5015800 -34.7399290 0.00000 0.00000 0.00000
167.4342300 14.1793540 -34.6993790 0.00000 0.00000 0.00000
167.4470800 13.5077590 -34.6328540 0.00000 0.00000 0.00000
167.4523800 8.4725485 -35.0787240 0.00000 0.00000 0.00000
167.4622300 14.5148840 -34.6619720 0.00000 0.00000 0.00000
167.4683500 13.8433150 -34.6092260 0.00000 0.00000 0.00000
167.4838300 9.4782276 -35.0743870 0.00000 0.00000 0.00000
167.4849100 8.8071842 -35.0320050 0.00000 0.00000 0.00000
167.4894900 10.1490950 -35.1028710 0.00000 0.00000 0.00000
167.4955100 16.5292870 -34.7140960 0.00000 0.00000 0.00000
167.4991800 9.1423368 -35.0228200 0.00000 0.00000 0.00000
167.5030700 14.8504030 -34.5982250 0.00000 0.00000 0.00000
167.5259700 15.8577000 -34.6114540 0.00000 0.00000 0.00000
167.5301200 11.4903410 -35.0997470 0.00000 0.00000 0.00000
167.5330800 16.1934870 -34.6168980 0.00000 0.00000 0.00000
167.5580000 9.8120413 -34.9421730 0.00000 0.00000 0.00000
167.5677600 11.1541390 -35.0024340 0.00000 0.00000 0.00000
167.5694900 10.4829580 -34.9587710 0.00000 0.00000 0.00000
167.5722700 15.1858800 -34.4761730 0.00000 0.00000 0.00000
167.6068100 17.2010360 -34.5257800 0.00000 0.00000 0.00000
167.6161300 17.5369360 -34.5267300 0.00000 0.00000 0.00000
167.6181600 16.8651790 -34.4823680 0.00000 0.00000 0.00000
167.6270800 12.1599390 -34.9409330 0.00000 0.00000 0.00000
167.6462200 12.4952910 -34.9217450 0.00000 0.00000 0.00000
167.6500700 12.8308720 -34.9339100 0.00000 0.00000 0.00000
167.6512500 13.1664890 -34.9515760 0.00000 0.00000 0.00000
167.7204600 8.4671469 -35.2856060 0.00000 0.00000 0.00000
167.7270200 13.5013370 -34.8161850 0.00000 0.00000 0.00000
167.7310900 8.1314182 -35.2437130 0.00000 0.00000 0.00000
167.7413200 14.5083280 -34.8470800 0.00000 0.00000 0.00000
167.7497100 8.8018064 -35.2457350 0.00000 0.00000 0.00000
167.7765200 9.1365852 -35.2108080 0.00000 0.00000 0.00000
167.7854800 14.1722740 -34.7363780 0.00000 0.00000 0.00000
167.8017600 9.4714603 -35.1791080 0.00000 0.00000 0.00000
167.8103900 10.1422580 -35.2015300 0.00000 0.00000 0.00000
167.8175200 13.8362210 -34.6505660 0.00000 0.00000 0.00000
167.8413700 15.5150740 -34.7021030 0.00000 0.00000 0.00000
167.8533900 15.1792160 -34.6573680 0.00000 0.00000 0.00000
167.8556500 9.8057337 -35.0887180 0.00000 0.00000 0.00000
167.8589500 15.8508300 -34.6861040 0.00000 0.00000 0.00000
167.8794600 14.8432480 -34.5837900 0.00000 0.00000 0.00000
167.8876600 17.5299220 -34.7275810 0.00000 0.00000 0.00000
167.8972000 11.4827210 -35.1038360 0.00000 0.00000 0.00000
167.9081600 17.1941470 -34.6655160 0.00000 0.00000 0.00000
167.9093200 16.1865860 -34.6028750 0.00000 0.00000 0.00000
167.9131800 11.8180340 -35.0911560 0.00000 0.00000 0.00000
167.9451900 10.4750020 -34.9453010 0.00000 0.00000 0.00000
167.9561300 16.8583560 -34.5470500 0.00000 0.00000 0.00000
167.9873800 12.4881780 -34.9792210 0.00000 0.00000 0.00000
168.0059200 12.1522470 -34.9211540 0.00000 0.00000 0.00000
168.0170300 8.1255693 -35.4138300 0.00000 0.00000 0.00000
168.0455900 13.4945210 -34.9201470 0.00000 0.00000 0.00000
168.0611700 14.1657920 -34.9283680 0.00000 0.00000 0.00000
168.0659800 9.1305323 -35.3737600 0.00000 0.00000 0.00000
168.0662200 8.7950840 -35.3532140 0.00000 0.00000 0.00000
168.0753000 15.1728260 -34.9595950 0.00000 0.00000 0.00000
168.0785100 14.8370980 -34.9329830 0.00000 0.00000 0.00000
168.1035900 13.8296950 -34.8213500 0.00000 0.00000 0.00000
168.1561300 14.5008490 -34.7539020 0.00000 0.00000 0.00000
168.1592300 16.1798210 -34.8478810 0.00000 0.00000 0.00000
168.1648400 15.5082230 -34.7962570 0.00000 0.00000 0.00000
168.1716600 10.4700920 -35.2376140 0.00000 0.00000 0.00000
168.1853800 9.7986975 -35.1693880 0.00000 0.00000 0.00000
168.2039600 15.8439320 -34.7361530 0.00000 0.00000 0.00000
168.2144800 9.4624376 -35.0897640 0.00000 0.00000 0.00000
168.2189900 16.8514440 -34.7656210 0.00000 0.00000 0.00000
168.2274800 11.4757230 -35.1834640 0.00000 0.00000 0.00000
168.2397300 10.8043120 -35.1182980 0.00000 0.00000 0.00000
168.2565200 11.1396120 -35.1040120 0.00000 0.00000 0.00000
168.2638100 17.1873820 -34.6939160 0.00000 0.00000 0.00000
168.2661100 17.5232720 -34.7092590 0.00000 0.00000 0.00000
168.2889300 12.4816050 -35.1178860 0.00000 0.00000 0.00000
168.3384700 8.1187172 -35.5111270 0.00000 0.00000 0.00000
168.3552900 8.7890768 -35.5168150 0.00000 0.00000 0.00000
168.3615900 12.1448970 -34.9490890 0.00000 0.00000 0.00000
168.3689400 13.4876580 -35.0143200 0.00000 0.00000 0.00000
168.3767900 13.8232880 -35.0183260 0.00000 0.00000 0.00000
168.3946800 12.8159140 -34.9215350 0.00000 0.00000 0.00000
168.4045900 9.1232538 -35.4360080 0.00000 0.00000 0.00000
168.4295500 14.1585730 -34.9304430 0.00000 0.00000 0.00000
168.4395900 14.8300290 -34.9500050 0.00000 0.00000 0.00000
168.4560900 10.1285010 -35.3908580 0.00000 0.00000 0.00000
168.4602800 9.7929010 -35.3622550 0.00000 0.00000 0.00000
168.4960800 16.5087620 -34.9347720 0.00000 0.00000 0.00000
168.5047000 15.8371350 -34.8769800 0.00000 0.00000 0.00000
168.5081000 14.4937950 -34.7897300 0.00000 0.00000 0.00000
168.5177200 15.1654300 -34.8101880 0.00000 0.00000 0.00000
168.5199700 9.4559689 -35.2201310 0.00000 0.00000 0.00000
168.5508400 11.4688450 -35.2773280 0.00000 0.00000 0.00000
168.5520800 16.1728950 -34.8001170 0.00000 0.00000 0.00000
168.5632000 11.1330340 -35.2319910 0.00000 0.00000 0.00000
168.5866100 10.7969750 -35.1641080 0.00000 0.00000 0.00000
168.5926400 11.8037620 -35.2119290 0.00000 0.00000 0.00000
168.6130700 17.5165140 -34.7556230 0.00000 0.00000 0.00000
168.6450500 12.1386130 -35.1248210 0.00000 0.00000 0.00000
168.6540500 12.8098440 -35.1465450 0.00000 0.00000 0.00000
168.7056100 13.8163770 -35.1013410 0.00000 0.00000 0.00000
168.7152300 9.1166735 -35.5555500 0.00000 0.00000 0.00000
168.7259700 8.1099949 -35.4735220 0.00000 0.00000 0.00000
168.7470100 13.4802360 -34.9966850 0.00000 0.00000 0.00000
168.7595400 14.4874320 -35.0312580 0.00000 0.00000 0.00000
168.7625600 14.8231750 -35.0450900 0.00000 0.00000 0.00000
168.7655500 8.7799110 -35.4327240 0.00000 0.00000 0.00000
168.7688900 9.4508448 -35.4659840 0.00000 0.00000 0.00000
168.7689800 14.1515870 -34.9918630 0.00000 0.00000 0.00000
168.7970000 15.4945730 -35.0148430 0.00000 0.00000 0.00000
168.7996400 15.1587670 -34.9893950 0.00000 0.00000 0.00000
168.8049800 10.1210620 -35.4323580 0.00000 0.00000 0.00000
168.8625000 16.1660630 -34.9211200 0.00000 0.00000 0.00000
168.8723000 16.8377690 -34.9412540 0.00000 0.00000 0.00000
168.8844500 11.7973870 -35.3702930 0.00000 0.00000 0.00000
168.8903200 9.7835932 -35.2380370 0.00000 0.00000 0.00000
168.9105500 15.8300970 -34.8028600 0.00000 0.00000 0.00000
168.9130900 10.4543860 -35.2316440 0.00000 0.00000 0.00000
168.9241300 10.7898180 -35.2291490 0.00000 0.00000 0.00000
168.9254900 12.1323720 -35.3065260 0.00000 0.00000 0.00000
168.9293700 17.1737400 -34.8446920 0.00000 0.00000 0.00000
168.9529600 11.1249460 -35.1903230 0.00000 0.00000 0.00000
168.9555800 16.5019070 -34.7510300 0.00000 0.00000 0.00000
168.9609100 17.5097520 -34.8003460 0.00000 0.00000 0.00000
168.9657900 11.4604080 -35.1841580 0.00000 0.00000 0.00000
168.9954500 12.4670490 -35.1837200 0.00000 0.00000 0.00000
168.9969200 12.8027310 -35.2008360 0.00000 0.00000 0.00000
169.0381900 14.4808810 -35.2168120 0.00000 0.00000 0.00000
169.0384400 13.1379580 -35.1360780 0.00000 0.00000 0.00000
169.0694000 8.7735186 -35.5661620 0.00000 0.00000 0.00000
169.0817600 8.4376850 -35.5209540 0.00000 0.00000 0.00000
169.0824700 14.8163420 -35.1464580 0.00000 0.00000 0.00000
169.0849600 13.4732190 -35.0611650 0.00000 0.00000 0.00000
169.0862900 13.8089940 -35.0785060 0.00000 0.00000 0.00000
169.1187600 15.1519340 -35.0924910 0.00000 0.00000 0.00000
169.1277200 8.1008730 -35.4071880 0.00000 0.00000 0.00000
169.1425300 9.1071854 -35.4370000 0.00000 0.00000 0.00000
169.1435200 15.8234600 -35.0820240 0.00000 0.00000 0.00000
169.1545900 9.7780380 -35.4524960 0.00000 0.00000 0.00000
169.1658900 16.1592430 -35.0564420 0.00000 0.00000 0.00000
169.1671800 10.7844790 -35.4869270 0.00000 0.00000 0.00000
169.1809200 11.1197990 -35.4789280 0.00000 0.00000 0.00000
169.1850900 16.8309140 -35.0573650 0.00000 0.00000 0.00000
169.2674000 11.4538970 -35.3226470 0.00000 0.00000 0.00000
169.2781700 12.4607300 -35.3607560 0.00000 0.00000 0.00000
169.2862900 16.4950600 -34.8307910 0.00000 0.00000 0.00000
169.3379500 13.1313650 -35.2789760 0.00000 0.00000 0.00000
169.3508900 8.7677040 -35.7450710 0.00000 0.00000 0.00000
169.3652600 13.4667970 -35.2433320 0.00000 0.00000 0.00000
169.3755600 12.7951720 -35.1822200 0.00000 0.00000 0.00000
169.3938300 8.0955849 -35.6175610 0.00000 0.00000 0.00000
169.3985100 13.8022340 -35.1955870 0.00000 0.00000 0.00000
169.4191300 14.8094130 -35.2136730 0.00000 0.00000 0.00000
169.4303400 15.1451360 -35.2108540 0.00000 0.00000 0.00000
169.4329500 14.4735360 -35.1654620 0.00000 0.00000 0.00000
169.4475400 15.4808590 -35.1958810 0.00000 0.00000 0.00000
169.4617000 9.7715130 -35.5793910 0.00000 0.00000 0.00000
169.4773300 9.1000051 -35.5074650 0.00000 0.00000 0.00000
169.4911000 16.4882260 -35.1672290 0.00000 0.00000 0.00000
169.4981500 9.4350891 -35.4850920 0.00000 0.00000 0.00000
169.5206900 10.1057980 -35.4792630 0.00000 0.00000 0.00000
169.5237000 10.4413490 -35.4931490 0.00000 0.00000 0.00000
169.5309300 16.1523440 -35.0659980 0.00000 0.00000 0.00000
169.5325600 11.4480110 -35.5351940 0.00000 0.00000 0.00000
169.5479100 17.4958800 -35.1115490 0.00000 0.00000 0.00000
169.5568200 10.7763200 -35.4457240 0.00000 0.00000 0.00000
169.6181800 11.1108470 -35.3407820 0.00000 0.00000 0.00000
169.6365200 17.1601910 -34.9109500 0.00000 0.00000 0.00000
169.6393100 12.4533420 -35.3779140 0.00000 0.00000 0.00000
169.6463800 11.7818020 -35.3234180 0.00000 0.00000 0.00000
169.6585400 12.1173500 -35.3187070 0.00000 0.00000 0.00000
169.6884300 13.1241880 -35.3179090 0.00000 0.00000 0.00000
169.6964900 12.7883320 -35.2814710 0.00000 0.00000 0.00000
169.7062800 13.4597520 -35.3016010 0.00000 0.00000 0.00000
169.7337300 8.7592564 -35.7175520 0.00000 0.00000 0.00000
169.7471800 9.0944366 -35.7102200 0.00000 0.00000 0.00000
169.7490100 8.0877781 -35.6464160 0.00000 0.00000 0.00000
169.7605400 8.4230099 -35.6429750 0.00000 0.00000 0.00000
169.7795000 15.1381650 -35.2527730 0.00000 0.00000 0.00000
169.7916400 14.4664340 -35.1879500 0.00000 0.00000 0.00000
169.7943000 15.4739270 -35.2426870 0.00000 0.00000 0.00000
169.7947100 15.8097520 -35.2618600 0.00000 0.00000 0.00000
169.8153400 10.0995250 -35.6315990 0.00000 0.00000 0.00000
169.8317700 9.7635632 -35.5781250 0.00000 0.00000 0.00000
169.8404100 10.7702010 -35.6206130 0.00000 0.00000 0.00000
169.8464400 9.4276028 -35.5282520 0.00000 0.00000 0.00000
169.8646400 16.1454850 -35.1395340 0.00000 0.00000 0.00000
169.8945000 10.4334920 -35.4905700 0.00000 0.00000 0.00000
169.9058800 16.8173070 -35.0957340 0.00000 0.00000 0.00000
169.9071800 12.1115780 -35.5648990 0.00000 0.00000 0.00000
169.9209900 11.4400230 -35.4967580 0.00000 0.00000 0.00000
169.9396200 16.4813690 -35.0069470 0.00000 0.00000 0.00000
169.9441200 17.1533150 -35.0379180 0.00000 0.00000 0.00000
169.9463200 17.4892850 -35.0534930 0.00000 0.00000 0.00000
169.9810600 12.4462200 -35.4346690 0.00000 0.00000 0.00000
169.9913500 13.7890010 -35.4938470 0.00000 0.00000 0.00000
169.9924000 11.7745660 -35.3715210 0.00000 0.00000 0.00000
170.0081600 13.1173610 -35.4196010 0.00000 0.00000 0.00000
170.0107600 12.7815760 -35.3942680 0.00000 0.00000 0.00000
170.0321200 13.4528610 -35.3909150 0.00000 0.00000 0.00000
170.0740100 14.4598560 -35.3658220 0.00000 0.00000 0.00000
170.0813400 14.1239970 -35.3308910 0.00000 0.00000 0.00000
170.0993000 9.7579374 -35.7854650 0.00000 0.00000 0.00000
170.1166200 15.4670820 -35.3392410 0.00000 0.00000 0.00000
170.1182600 9.0863523 -35.7069590 0.00000 0.00000 0.00000
170.1293000 10.4284120 -35.7645490 0.00000 0.00000 0.00000
170.1574100 10.7634400 -35.7274740 0.00000 0.00000 0.00000
170.1583900 10.0922110 -35.6854290 0.00000 0.00000 0.00000
170.1618000 16.1386700 -35.2875060 0.00000 0.00000 0.00000
170.1725800 15.1309850 -35.2054560 0.00000 0.00000 0.00000
170.1762200 14.7950650 -35.1780090 0.00000 0.00000 0.00000
170.2099800 17.4822540 -35.2696840 0.00000 0.00000 0.00000
170.2148400 15.8026710 -35.1596030 0.00000 0.00000 0.00000
170.2186300 11.4335820 -35.6431120 0.00000 0.00000 0.00000
170.2329700 11.0976660 -35.5939750 0.00000 0.00000 0.00000
170.2353800 12.1046310 -35.6491320 0.00000 0.00000 0.00000
170.2367600 16.4745270 -35.1551060 0.00000 0.00000 0.00000
170.2399400 16.8104710 -35.1687390 0.00000 0.00000 0.00000
170.2515400 12.7757420 -35.6563110 0.00000 0.00000 0.00000
170.2761500 11.7683180 -35.5462570 0.00000 0.00000 0.00000
170.2815400 17.1465020 -35.1041600 0.00000 0.00000 0.00000
170.3054500 12.4393340 -35.5268060 0.00000 0.00000 0.00000
170.3192300 13.7821000 -35.5789410 0.00000 0.00000 0.00000
170.3224000 13.4463380 -35.5524440 0.00000 0.00000 0.00000
170.3563800 14.1175240 -35.5235100 0.00000 0.00000 0.00000
170.3691400 8.7457514 -35.9278760 0.00000 0.00000 0.00000
170.3787400 8.0744438 -35.8683590 0.00000 0.00000 0.00000
170.3907600 14.4530450 -35.4736330 0.00000 0.00000 0.00000
170.4094500 14.7887290 -35.4557300 0.00000 0.00000 0.00000
170.4191300 8.4088793 -35.8064040 0.00000 0.00000 0.00000
170.4212500 15.1244810 -35.4518130 0.00000 0.00000 0.00000
170.4270200 9.0798168 -35.8303990 0.00000 0.00000 0.00000
170.4323900 9.7508221 -35.8594970 0.00000 0.00000 0.00000
170.5062600 11.0916920 -35.7896580 0.00000 0.00000 0.00000
170.5071000 10.0847770 -35.7278980 0.00000 0.00000 0.00000
170.5144500 15.7958770 -35.3025860 0.00000 0.00000 0.00000
170.5304400 16.1317650 -35.2901230 0.00000 0.00000 0.00000
170.5327800 16.8036000 -35.3254810 0.00000 0.00000 0.00000
170.5417500 10.4197100 -35.6776200 0.00000 0.00000 0.00000
170.5575900 11.7621090 -35.7255250 0.00000 0.00000 0.00000
170.5763400 10.7547130 -35.6274030 0.00000 0.00000 0.00000
170.5897200 11.4258880 -35.6403120 0.00000 0.00000 0.00000
170.6087500 13.1041550 -35.7017750 0.00000 0.00000 0.00000
170.6099400 12.4327200 -35.6593480 0.00000 0.00000 0.00000
170.6404900 13.4395280 -35.6574020 0.00000 0.00000 0.00000
170.6492000 8.0690336 -36.0693240 0.00000 0.00000 0.00000
170.7076600 12.7672100 -35.4811060 0.00000 0.00000 0.00000
170.7089500 13.7746300 -35.5384980 0.00000 0.00000 0.00000
170.7320300 9.4089251 -35.9814300 0.00000 0.00000 0.00000
170.7398700 15.1176510 -35.5559160 0.00000 0.00000 0.00000
170.7461500 8.7374516 -35.9127580 0.00000 0.00000 0.00000
170.7515600 8.4017277 -35.8818320 0.00000 0.00000 0.00000
170.7554900 14.7817420 -35.5041660 0.00000 0.00000 0.00000
170.7764700 10.0790480 -35.9313320 0.00000 0.00000 0.00000
170.7802100 9.7433767 -35.9037400 0.00000 0.00000 0.00000
170.7948000 10.4142570 -35.9141960 0.00000 0.00000 0.00000
170.7982200 15.7891250 -35.4776230 0.00000 0.00000 0.00000
170.8028300 10.7496960 -35.9179230 0.00000 0.00000 0.00000
170.8514300 15.4530640 -35.3496400 0.00000 0.00000 0.00000
170.8524600 16.1249180 -35.3876040 0.00000 0.00000 0.00000
170.8536800 17.1326640 -35.4451710 0.00000 0.00000 0.00000
170.8707600 11.0840620 -35.8002320 0.00000 0.00000 0.00000
170.8779900 16.7967760 -35.3759040 0.00000 0.00000 0.00000
170.9000100 11.4192330 -35.7609630 0.00000 0.00000 0.00000
170.9091800 11.7547840 -35.7623670 0.00000 0.00000 0.00000
170.9367800 12.4258020 -35.7464790 0.00000 0.00000 0.00000
170.9758000 13.0967880 -35.7074620 0.00000 0.00000 0.00000
171.0081500 14.1037640 -35.7019270 0.00000 0.00000 0.00000
171.0147900 13.7679260 -35.6684420 0.00000 0.00000 0.00000
171.0401200 8.3957701 -36.0461120 0.00000 0.00000 0.00000
171.0422100 12.7601970 -35.5528490 0.00000 0.00000 0.00000
171.0490600 9.0666351 -36.0680010 0.00000 0.00000 0.00000
171.0600700 13.4316700 -35.5566750 0.00000 0.00000 0.00000
171.0712600 8.7305079 -36.0030590 0.00000 0.00000 0.00000
171.0971500 10.0722160 -36.0306320 0.00000 0.00000 0.00000
171.1125500 14.7746920 -35.5304340 0.00000 0.00000 0.00000
171.1166700 15.4464210 -35.5621190 0.00000 0.00000 0.00000
171.1237600 14.4387310 -35.4876790 0.00000 0.00000 0.00000
171.1521800 15.1103790 -35.4701580 0.00000 0.00000 0.00000
171.1600000 15.7821810 -35.4943580 0.00000 0.00000 0.00000
171.1692200 10.4063250 -35.9047470 0.00000 0.00000 0.00000
171.1753700 16.1180710 -35.4832380 0.00000 0.00000 0.00000
171.1994800 16.4539870 -35.4544260 0.00000 0.00000 0.00000
171.2101700 11.0768870 -35.8618320 0.00000 0.00000 0.00000
171.2195600 16.7899480 -35.4337770 0.00000 0.00000 0.00000
171.2256800 11.4123150 -35.8504220 0.00000 0.00000 0.00000
171.2372600 12.4192430 -35.8869930 0.00000 0.00000 0.00000
171.2943700 11.7469230 -35.7313730 0.00000 0.00000 0.00000
171.3070200 13.4255950 -35.8058430 0.00000 0.00000 0.00000
171.3341100 13.7611040 -35.7710300 0.00000 0.00000 0.00000
171.3520500 12.7534960 -35.6746980 0.00000 0.00000 0.00000
171.3626300 14.0966530 -35.7333340 0.00000 0.00000 0.00000
171.3835000 8.3883238 -36.0994000 0.00000 0.00000 0.00000
171.3841200 13.0889500 -35.6297870 0.00000 0.00000 0.00000
171.4113500 15.1038280 -35.6947630 0.00000 0.00000 0.00000
171.4128000 15.4396680 -35.7118230 0.00000 0.00000 0.00000
171.4245800 14.4320290 -35.6279720 0.00000 0.00000 0.00000
171.4352600 14.7678370 -35.6263960 0.00000 0.00000 0.00000
171.4530600 10.0646250 -36.0586970 0.00000 0.00000 0.00000
171.4610100 10.4000820 -36.0625950 0.00000 0.00000 0.00000
171.4614300 9.0575228 -35.9818000 0.00000 0.00000 0.00000
171.4877600 9.7282162 -35.9685210 0.00000 0.00000 0.00000
171.5009200 11.4062560 -36.0419040 0.00000 0.00000 0.00000
171.5219400 11.0702150 -35.9794240 0.00000 0.00000 0.00000
171.5226400 16.1111890 -35.5295720 0.00000 0.00000 0.00000
171.5405600 12.0769640 -36.0017280 0.00000 0.00000 0.00000
171.5647100 10.7337090 -35.8729400 0.00000 0.00000 0.00000
171.5889100 11.7405030 -35.8840520 0.00000 0.00000 0.00000
171.6282700 12.7472200 -35.8644330 0.00000 0.00000 0.00000
171.6725500 14.0899000 -35.8549540 0.00000 0.00000 0.00000
171.6749300 13.0824550 -35.7901380 0.00000 0.00000 0.00000
171.6869000 8.7175121 -36.2535170 0.00000 0.00000 0.00000
171.6949900 15.0971610 -35.8695760 0.00000 0.00000 0.00000
171.6960300 9.0528316 -36.2550890 0.00000 0.00000 0.00000
171.7213300 14.4253580 -35.7763370 0.00000 0.00000 0.00000
171.7231100 13.4177710 -35.7127340 0.00000 0.00000 0.00000
171.7385100 14.7611010 -35.7616160 0.00000 0.00000 0.00000
171.7617600 8.3799314 -36.0823550 0.00000 0.00000 0.00000
171.7658500 9.7223473 -36.1540490 0.00000 0.00000 0.00000
171.7800400 10.0576580 -36.1453590 0.00000 0.00000 0.00000
171.8148800 11.3995370 -36.1549260 0.00000 0.00000 0.00000
171.8417200 10.7277180 -36.0607530 0.00000 0.00000 0.00000
171.8490100 11.0632690 -36.0659870 0.00000 0.00000 0.00000
171.8709700 10.3914300 -35.9816860 0.00000 0.00000 0.00000
171.8835400 11.7340840 -36.0362550 0.00000 0.00000 0.00000
171.9445300 12.7404390 -35.9731140 0.00000 0.00000 0.00000
171.9572800 12.4044970 -35.9273830 0.00000 0.00000 0.00000
172.0050800 14.0829660 -35.9308700 0.00000 0.00000 0.00000
172.0217600 14.4186590 -35.9172060 0.00000 0.00000 0.00000
172.0312000 13.7469120 -35.8581310 0.00000 0.00000 0.00000
172.0452900 15.0901800 -35.9096790 0.00000 0.00000 0.00000
172.0472300 14.7543300 -35.8858030 0.00000 0.00000 0.00000
172.0505800 13.0749870 -35.7790370 0.00000 0.00000 0.00000
172.0767400 9.3801270 -36.2531660 0.00000 0.00000 0.00000
172.1207600 10.0503940 -36.2043500 0.00000 0.00000 0.00000
172.1221500 9.0433807 -36.1416090 0.00000 0.00000 0.00000
172.1280500 15.4257130 -35.7626650 0.00000 0.00000 0.00000
172.1448500 9.7141953 -36.1357730 0.00000 0.00000 0.00000
172.1513700 10.7210990 -36.1825490 0.00000 0.00000 0.00000
172.2019700 11.7272860 -36.1404800 0.00000 0.00000 0.00000
172.2374400 11.3909650 -36.0489500 0.00000 0.00000 0.00000
172.2518500 12.3980180 -36.0798720 0.00000 0.00000 0.00000
172.2769300 12.0618840 -36.0092510 0.00000 0.00000 0.00000
172.3159900 13.0687850 -35.9904940 0.00000 0.00000 0.00000
172.3334700 13.7402450 -35.9952240 0.00000 0.00000 0.00000
172.3469100 14.0759580 -35.9881100 0.00000 0.00000 0.00000
172.3473400 8.3677807 -36.3935090 0.00000 0.00000 0.00000
172.3521000 14.4117490 -35.9976230 0.00000 0.00000 0.00000
172.3532400 14.7475740 -36.0152890 0.00000 0.00000 0.00000
172.3727100 8.7026939 -36.3623620 0.00000 0.00000 0.00000
172.3840600 13.4038930 -35.8731990 0.00000 0.00000 0.00000
172.3988800 9.3732576 -36.3495940 0.00000 0.00000 0.00000
172.4074600 9.0374289 -36.3123020 0.00000 0.00000 0.00000
172.4140300 10.0441530 -36.3589520 0.00000 0.00000 0.00000
172.4488400 9.7077417 -36.2689320 0.00000 0.00000 0.00000
172.4625100 10.3787820 -36.2812920 0.00000 0.00000 0.00000
172.4779400 11.0498280 -36.2901650 0.00000 0.00000 0.00000
172.5140500 11.3848840 -36.2374080 0.00000 0.00000 0.00000
172.5456700 12.0558200 -36.2136800 0.00000 0.00000 0.00000
172.5692600 10.7123880 -36.0862500 0.00000 0.00000 0.00000
172.5939600 11.7193150 -36.0964360 0.00000 0.00000 0.00000
172.5944500 13.0624330 -36.1753620 0.00000 0.00000 0.00000
172.6449700 12.7260250 -36.0536350 0.00000 0.00000 0.00000
172.6527600 12.3900810 -36.0179980 0.00000 0.00000 0.00000
172.6612400 14.4049930 -36.1207890 0.00000 0.00000 0.00000
172.6793700 13.3973180 -36.0243230 0.00000 0.00000 0.00000
172.6909000 8.3603287 -36.4466630 0.00000 0.00000 0.00000
172.7314600 14.0685990 -35.9594350 0.00000 0.00000 0.00000
172.7527600 9.0299835 -36.3620950 0.00000 0.00000 0.00000
172.7551900 8.6942587 -36.3372880 0.00000 0.00000 0.00000
172.7869700 10.3718720 -36.3731920 0.00000 0.00000 0.00000
172.8169700 10.0355510 -36.2928240 0.00000 0.00000 0.00000
172.8198700 9.6997700 -36.2670670 0.00000 0.00000 0.00000
172.8333600 11.0423620 -36.3197480 0.00000 0.00000 0.00000
172.8586000 11.3776420 -36.2890170 0.00000 0.00000 0.00000
172.8656800 10.7060220 -36.2347790 0.00000 0.00000 0.00000
172.8797000 12.3845320 -36.3064080 0.00000 0.00000 0.00000
172.8916500 12.0486130 -36.2624170 0.00000 0.00000 0.00000
172.9113800 11.7125350 -36.2027850 0.00000 0.00000 0.00000
172.9479100 13.0552210 -36.2092060 0.00000 0.00000 0.00000
172.9516900 12.7193610 -36.1816140 0.00000 0.00000 0.00000
172.9982600 8.3538609 -36.5727420 0.00000 0.00000 0.00000
173.0154000 13.3903190 -36.0934450 0.00000 0.00000 0.00000
173.0656700 8.6876945 -36.4572300 0.00000 0.00000 0.00000
173.0706800 9.6945181 -36.5070460 0.00000 0.00000 0.00000
173.0753900 9.3587608 -36.4776380 0.00000 0.00000 0.00000
173.1367200 10.0287390 -36.3943250 0.00000 0.00000 0.00000
173.1799500 11.0350580 -36.3673170 0.00000 0.00000 0.00000
173.1951300 11.7062870 -36.3767590 0.00000 0.00000 0.00000
173.2010500 10.6989080 -36.3049770 0.00000 0.00000 0.00000
173.2261700 11.3700100 -36.2944030 0.00000 0.00000 0.00000
173.2323600 13.3845600 -36.4017790 0.00000 0.00000 0.00000
173.2438400 12.0413080 -36.2988590 0.00000 0.00000 0.00000
173.2602400 12.3768740 -36.2858810 0.00000 0.00000 0.00000
173.3757600 8.3454905 -36.5579570 0.00000 0.00000 0.00000
173.3987300 9.0162077 -36.5517540 0.00000 0.00000 0.00000
173.4005000 9.6874800 -36.5881230 0.00000 0.00000 0.00000
173.4009600 8.6804829 -36.5273360 0.00000 0.00000 0.00000
173.4155000 9.3514700 -36.5380400 0.00000 0.00000 0.00000
173.4418900 10.0222420 -36.5249670 0.00000 0.00000 0.00000
173.4866200 11.3642020 -36.5150910 0.00000 0.00000 0.00000
173.4940200 10.6926090 -36.4603120 0.00000 0.00000 0.00000
173.5106000 10.3565260 -36.4070660 0.00000 0.00000 0.00000
173.5341600 11.6991600 -36.4395900 0.00000 0.00000 0.00000
173.5650800 12.3702550 -36.4175030 0.00000 0.00000 0.00000
173.5688900 11.0269830 -36.3299940 0.00000 0.00000 0.00000
173.5795700 12.7058600 -36.4083480 0.00000 0.00000 0.00000
173.6012300 12.0339290 -36.3249630 0.00000 0.00000 0.00000
173.6032300 13.0413840 -36.3808480 0.00000 0.00000 0.00000
173.6828600 9.0102863 -36.7244490 0.00000 0.00000 0.00000
173.7374600 8.3375511 -36.5751340 0.00000 0.00000 0.00000
173.7396100 8.6731873 -36.5907440 0.00000 0.00000 0.00000
173.7533100 9.3442316 -36.6031680 0.00000 0.00000 0.00000
173.7674000 9.6796055 -36.5948940 0.00000 0.00000 0.00000
173.7963400 10.6861300 -36.5967250 0.00000 0.00000 0.00000
173.8079800 11.0216330 -36.5933270 0.00000 0.00000 0.00000
173.8211200 10.0141490 -36.5071560 0.00000 0.00000 0.00000
173.8280000 10.3497620 -36.5133480 0.00000 0.00000 0.00000
173.8777900 11.3561650 -36.4733470 0.00000 0.00000 0.00000
173.8798700 12.6992800 -36.5490490 0.00000 0.00000 0.00000
173.8903000 12.3633580 -36.5081710 0.00000 0.00000 0.00000
173.9183700 12.0271430 -36.4319950 0.00000 0.00000 0.00000
173.9325600 11.6910850 -36.3835720 0.00000 0.00000 0.00000
174.0357500 8.3313255 -36.7194560 0.00000 0.00000 0.00000
174.0525400 9.0022373 -36.7257390 0.00000 0.00000 0.00000
174.0706800 8.6660843 -36.6694560 0.00000 0.00000 0.00000
174.1261300 9.6719112 -36.6182590 0.00000 0.00000 0.00000
174.1507000 11.3501480 -36.6687810 0.00000 0.00000 0.00000
174.1635000 10.6784020 -36.6032640 0.00000 0.00000 0.00000
174.1795700 10.0065030 -36.5312000 0.00000 0.00000 0.00000
174.1908000 11.6852460 -36.6084980 0.00000 0.00000 0.00000
174.2042700 12.0208280 -36.6014480 0.00000 0.00000 0.00000
174.2111400 10.3416560 -36.4879150 0.00000 0.00000 0.00000
174.2193100 12.3564090 -36.5913050 0.00000 0.00000 0.00000
174.2244100 11.0130600 -36.5012470 0.00000 0.00000 0.00000
174.3364300 9.3319492 -36.9187320 0.00000 0.00000 0.00000
174.3567800 8.9958115 -36.8580860 0.00000 0.00000 0.00000
174.3695800 8.3241405 -36.7925720 0.00000 0.00000 0.00000
174.4091500 9.6659327 -36.7931670 0.00000 0.00000 0.00000
174.4579600 10.0005820 -36.7155460 0.00000 0.00000 0.00000
174.4647100 10.3361920 -36.7219620 0.00000 0.00000 0.00000
174.5349600 10.6705880 -36.6014710 0.00000 0.00000 0.00000
174.5420400 11.0062790 -36.6072200 0.00000 0.00000 0.00000
174.5459000 11.3420410 -36.6194570 0.00000 0.00000 0.00000
174.6418800 8.3186188 -36.9887280 0.00000 0.00000 0.00000
174.6741900 9.3247128 -36.9839170 0.00000 0.00000 0.00000
174.6953700 8.9885368 -36.9217260 0.00000 0.00000 0.00000
174.7539700 8.6513386 -36.7847440 0.00000 0.00000 0.00000
174.7675000 9.9939909 -36.8374400 0.00000 0.00000 0.00000
174.7751900 10.3295690 -36.8420260 0.00000 0.00000 0.00000
174.8035700 9.6574316 -36.7454410 0.00000 0.00000 0.00000
174.8128500 10.6645810 -36.7867430 0.00000 0.00000 0.00000
174.8175000 11.0002720 -36.7973670 0.00000 0.00000 0.00000
174.8575600 11.3353600 -36.7373280 0.00000 0.00000 0.00000
175.0232800 8.9815273 -37.0067600 0.00000 0.00000 0.00000
175.0433200 8.3096066 -36.9269100 0.00000 0.00000 0.00000
175.0433800 8.6453190 -36.9467320 0.00000 0.00000 0.00000
175.0629000 10.3234100 -37.0073810 0.00000 0.00000 0.00000
175.0730300 9.6517572 -36.9473690 0.00000 0.00000 0.00000
175.1056800 10.9940300 -36.9619640 0.00000 0.00000 0.00000
175.1943800 10.6565720 -36.7650990 0.00000 0.00000 0.00000
175.3313300 8.3036594 -37.0915910 0.00000 0.00000 0.00000
175.3518100 8.6388063 -37.0707050 0.00000 0.00000 0.00000
175.3526000 9.3101711 -37.1089590 0.00000 0.00000 0.00000
175.3752300 8.9739189 -37.0439530 0.00000 0.00000 0.00000
175.4337500 9.6440220 -36.9671900 0.00000 0.00000 0.00000
175.4516600 9.9794025 -36.9514080 0.00000 0.00000 0.00000
175.4908100 10.6502060 -36.9132580 0.00000 0.00000 0.00000
175.6423000 8.2970905 -37.2104110 0.00000 0.00000 0.00000
175.6752000 9.3032951 -37.2046280 0.00000 0.00000 0.00000
175.6999100 8.6312637 -37.1156080 0.00000 0.00000 0.00000
175.7310600 9.6377163 -37.1133880 0.00000 0.00000 0.00000
175.7394100 8.9660091 -37.0569150 0.00000 0.00000 0.00000
175.9199200 8.2914228 -37.3954240 0.00000 0.00000 0.00000
175.9907400 8.6252079 -37.2745670 0.00000 0.00000 0.00000
176.0378900 8.9597301 -37.2007140 0.00000 0.00000 0.00000
176.0668200 9.2947826 -37.1631280 0.00000 0.00000 0.00000
176.0800200 9.6302471 -37.1568180 0.00000 0.00000 0.00000
176.3173800 8.6182222 -37.3622210 0.00000 0.00000 0.00000
176.6779200 8.9461012 -37.4026150 0.00000 0.00000 0.00000
163.4659900 17.6260130 -33.1861190 0.00000 0.00000 0.00000
163.7863300 17.6191650 -33.2870410 0.00000 0.00000 0.00000
163.9997600 17.6119140 -33.6105190 0.00000 0.00000 0.00000
164.0608500 18.2838290 -33.5236280 0.00000 0.00000 0.00000
164.2963000 17.6049820 -33.7605970 0.00000 0.00000 0.00000
164.3281100 17.9408820 -33.7146030 0.00000 0.00000 0.00000
164.3504900 18.2767890 -33.6882590 0.00000 0.00000 0.00000
164.4747000 18.6134740 -33.4501500 0.00000 0.00000 0.00000
164.6702300 17.9341410 -33.7700230 0.00000 0.00000 0.00000
164.9666100 18.2629490 -33.9404980 0.00000 0.00000 0.00000
164.9756200 17.9272210 -33.9016800 0.00000 0.00000 0.00000
165.0389600 18.5992300 -33.8106310 0.00000 0.00000 0.00000
165.0890000 18.9354820 -33.7269440 0.00000 0.00000 0.00000
165.3669900 18.5924300 -33.8954540 0.00000 0.00000 0.00000
165.4003300 19.2644370 -33.8666800 0.00000 0.00000 0.00000
165.4106000 18.9286380 -33.8252410 0.00000 0.00000 0.00000
165.4184100 17.9209590 -33.7486650 0.00000 0.00000 0.00000
165.7166700 18.9216670 -33.9557000 0.00000 0.00000 0.00000
165.7167700 18.2498970 -33.9152180 0.00000 0.00000 0.00000
165.7296400 18.5858780 -33.9087030 0.00000 0.00000 0.00000
165.8594800 19.5949060 -33.7005840 0.00000 0.00000 0.00000
166.0369400 18.2430480 -34.0164640 0.00000 0.00000 0.00000
166.0547500 17.9072380 -33.9595180 0.00000 0.00000 0.00000
166.0749800 19.2510430 -33.9982190 0.00000 0.00000 0.00000
166.1104900 18.9154130 -33.9047470 0.00000 0.00000 0.00000
166.1265300 18.5795570 -33.8514670 0.00000 0.00000 0.00000
166.1269400 19.5874960 -33.9110300 0.00000 0.00000 0.00000
166.3403600 17.9002230 -34.1321140 0.00000 0.00000 0.00000
166.3418300 18.2361070 -34.1491780 0.00000 0.00000 0.00000
166.3653300 18.9080280 -34.1409490 0.00000 0.00000 0.00000
166.3871300 19.2441140 -34.1160430 0.00000 0.00000 0.00000
166.4318500 18.5725990 -33.9835430 0.00000 0.00000 0.00000
166.4757200 19.9169310 -33.9735600 0.00000 0.00000 0.00000
166.6102900 18.2289560 -34.3568800 0.00000 0.00000 0.00000
166.6475100 17.8933140 -34.2600940 0.00000 0.00000 0.00000
166.7460800 19.5735590 -34.1575470 0.00000 0.00000 0.00000
166.7506700 19.2376580 -34.1279640 0.00000 0.00000 0.00000
166.7658400 19.9097250 -34.1369250 0.00000 0.00000 0.00000
166.8576500 20.2468360 -33.9679070 0.00000 0.00000 0.00000
166.9493300 18.2222160 -34.4191440 0.00000 0.00000 0.00000
167.0554400 19.5665890 -34.2811580 0.00000 0.00000 0.00000
167.0603500 17.8868920 -34.1705090 0.00000 0.00000 0.00000
167.0865300 20.2388230 -34.2573850 0.00000 0.00000 0.00000
167.0892200 18.5590100 -34.1512910 0.00000 0.00000 0.00000
167.1097300 19.9031370 -34.1895140 0.00000 0.00000 0.00000
167.1194200 18.8952330 -34.1092830 0.00000 0.00000 0.00000
167.1395100 19.2314280 -34.0880050 0.00000 0.00000 0.00000
167.1778300 20.5760270 -34.0896190 0.00000 0.00000 0.00000
167.2665600 17.8795190 -34.5061380 0.00000 0.00000 0.00000
167.3449700 18.5517120 -34.3851660 0.00000 0.00000 0.00000
167.3499100 18.2158280 -34.3548700 0.00000 0.00000 0.00000
167.3674800 18.8878000 -34.3589400 0.00000 0.00000 0.00000
167.4075500 19.5600590 -34.3168450 0.00000 0.00000 0.00000
167.4256100 20.5681690 -34.3400000 0.00000 0.00000 0.00000
167.4364900 19.8963510 -34.2774010 0.00000 0.00000 0.00000
167.4606200 19.2245770 -34.1876260 0.00000 0.00000 0.00000
167.5258600 20.9056190 -34.1540950 0.00000 0.00000 0.00000
167.5739300 17.8726080 -34.6334800 0.00000 0.00000 0.00000
167.6807400 18.5449660 -34.4543570 0.00000 0.00000 0.00000
167.7019800 19.8888660 -34.4911310 0.00000 0.00000 0.00000
167.7215400 19.2171780 -34.4108200 0.00000 0.00000 0.00000
167.7309900 20.2251550 -34.4516980 0.00000 0.00000 0.00000
167.7358600 18.2093490 -34.3210980 0.00000 0.00000 0.00000
167.7447700 19.5533730 -34.3831630 0.00000 0.00000 0.00000
167.7460000 18.8814090 -34.3404620 0.00000 0.00000 0.00000
167.7628500 20.8975200 -34.4265140 0.00000 0.00000 0.00000
167.8324100 20.5624890 -34.2635990 0.00000 0.00000 0.00000
167.9306900 18.5376360 -34.6996150 0.00000 0.00000 0.00000
167.9707000 17.8661080 -34.5774190 0.00000 0.00000 0.00000
