# .PCD v0.7 - Point Cloud Data file format
VERSION 0.7
FIELDS x y z
SIZE 4 4 4
TYPE F F F
COUNT 1 1 1
WIDTH 1540
HEIGHT 1
VIEWPOINT 0 0 0 1 0 0 0
POINTS 1540
DATA ascii
53.518711 -39.69101 11.902417
54.850163 -39.717522 11.73472
56.215748 -39.739071 11.602702
57.710926 -39.746246 11.362575
59.190067 -39.713768 10.971879
60.694321 -39.799042 10.766336
62.17178 -39.648289 10.662848
63.44569 -40.0434 10.644596
64.569221 -40.101841 10.516437
52.453487 -38.366482 11.922962
53.50716 -38.233189 11.858752
54.859898 -38.279446 11.674584
56.242107 -38.272743 11.610214
57.737869 -38.235886 11.263998
59.218384 -38.251617 10.906011
60.712357 -38.337784 10.711937
62.049522 -38.374817 10.657418
63.297981 -38.412666 10.628546
52.384029 -37.260624 11.956315
53.395058 -36.56934 11.852638
54.793343 -36.76125 11.678042
56.220882 -36.768108 11.490746
57.76601 -36.726471 11.265034
59.226997 -36.764355 10.862531
60.691959 -36.820881 10.732495
62.013359 -36.736385 10.681344
63.188347 -36.396164 10.688183
51.770111 -35.302536 11.875447
53.362831 -35.187939 11.86839
54.804619 -35.242737 11.670785
56.24667 -35.309742 11.440372
57.787254 -35.197582 11.173141
59.201599 -35.240463 10.860048
60.727493 -35.36414 10.666969
61.98291 -35.067261 10.609002
50.754585 -33.19519 11.98608
52.06897 -33.808037 11.916201
53.360497 -33.718765 11.807741
54.774086 -33.712452 11.564298
56.227306 -33.801991 11.482704
57.769951 -33.709541 11.167044
59.266003 -33.741985 10.839666
60.669025 -33.882557 10.677505
61.801922 -33.757229 10.623178
50.853802 -32.204361 11.915299
51.821095 -32.38559 11.872419
53.354179 -32.272385 11.80318
54.768559 -32.278004 11.612644
56.25898 -32.284763 11.399005
57.777538 -32.216839 11.107158
59.232307 -32.249664 10.812199
60.73671 -32.320087 10.641734
62.219761 -32.252071 10.605471
63.290756 -32.244812 10.555429
50.979755 -31.077646 11.930457
51.883331 -30.752153 11.884323
53.294399 -30.770746 11.781952
54.755451 -30.778072 11.581918
56.184502 -30.750938 11.351996
57.693203 -30.725262 11.043283
59.287819 -30.740498 10.77986
60.687485 -30.732559 10.693175
62.126831 -30.946333 10.62595
50.574802 -29.046579 11.875535
51.633835 -29.244581 11.837173
53.327152 -29.251566 11.743384
54.76347 -29.289444 11.541179
56.237492 -29.258526 11.3435
57.734726 -29.254049 11.066566
59.109173 -29.261419 10.823122
60.755032 -29.257198 10.622321
62.021488 -29.262161 10.595864
49.2962 -28.007008 11.98249
50.610394 -27.9501 11.848486
51.803535 -27.715788 11.834965
53.31818 -27.749344 11.760364
54.734928 -27.810707 11.510013
56.219738 -27.717905 11.26003
57.734299 -27.736065 11.044111
59.150158 -27.767857 10.748821
60.694462 -27.83662 10.58435
61.96389 -28.290657 10.582096
49.337914 -26.004227 11.960701
50.6157 -26.124968 11.889017
51.787312 -26.117426 11.80495
53.309853 -26.181105 11.715858
54.767876 -26.306992 11.456138
56.246693 -26.229076 11.202064
57.725685 -26.237635 11.007898
58.990986 -26.368105 10.761306
60.725254 -26.003057 10.607017
61.5644 -26.69701 10.504259
49.320473 -24.612093 11.984793
50.485863 -24.837543 11.849315
51.682964 -24.713558 11.808858
53.241211 -24.715628 11.711868
54.7477 -24.812502 11.440387
56.22303 -24.731478 11.211254
57.706337 -24.735676 10.983394
59.141026 -24.781294 10.747416
60.701782 -24.884493 10.623592
48.851524 -23.021667 11.95702
50.391987 -23.182819 11.878636
51.738918 -23.083378 11.810893
53.309036 -23.220627 11.666923
54.783012 -23.315746 11.433861
56.225971 -23.173035 11.166631
57.677544 -23.256781 10.916345
59.033192 -23.248854 10.735685
60.846912 -22.99511 10.580557
49.187649 -22.071938 11.882235
50.463848 -21.687046 11.877287
51.756035 -21.697878 11.785658
53.269333 -21.750395 11.619146
54.732784 -21.813751 11.319029
56.227371 -21.692102 11.127813
57.705135 -21.729523 10.872679
58.997757 -21.995815 10.677709
60.460194 -21.257452 10.530975
61.540611 -22.374554 10.519869
49.307468 -20.136862 11.818245
50.425835 -20.107512 11.816422
51.752041 -20.12738 11.756486
53.273205 -20.210039 11.664589
54.730049 -20.288128 11.316262
56.213943 -20.205507 11.050183
57.690113 -20.225744 10.874437
59.029144 -20.295462 10.637393
60.554142 -20.429272 10.563434
49.01981 -18.469269 11.910199
50.406376 -18.637714 11.763884
51.774555 -18.686567 11.732703
53.27401 -18.761469 11.597219
54.772564 -18.749554 11.285934
56.268169 -18.697664 11.00281
57.764198 -18.799889 10.856475
59.103405 -18.802212 10.62652
60.326015 -18.176802 10.611205
49.111069 -17.055475 11.858911
50.410461 -17.132172 11.831171
51.767345 -17.25737 11.728604
53.309593 -17.264605 11.57814
54.771503 -17.280714 11.2237
56.203102 -17.225809 10.961188
57.73547 -17.246517 10.834874
58.986481 -17.327007 10.681986
60.708893 -16.775345 10.580006
49.063869 -15.832541 11.885578
50.257103 -15.693834 11.783546
51.781334 -15.748175 11.697289
53.2332 -15.782289 11.556122
54.742908 -15.74955 11.208765
56.2379 -15.699902 10.980878
57.699543 -15.746652 10.790505
58.923485 -15.782269 10.643752
60.063202 -15.507354 10.586781
47.600952 -13.781859 11.925192
49.192661 -14.231368 11.834424
50.294651 -14.203538 11.772693
51.780819 -14.289502 11.706672
53.234997 -14.300941 11.504181
54.723019 -14.237835 11.187031
56.223846 -14.217517 10.905707
57.700729 -14.284478 10.804502
58.902264 -14.32694 10.688227
49.180702 -12.883865 11.85476
50.28875 -12.681101 11.76263
51.76067 -12.75959 11.67271
53.254871 -12.802328 11.496541
54.72216 -12.744295 11.189628
56.219662 -12.719222 10.912445
57.666615 -12.797975 10.752687
58.913254 -12.990855 10.59253
47.530865 -10.904391 11.960548
49.047657 -11.25449 11.856466
50.367222 -11.200191 11.747168
51.771992 -11.254606 11.636986
53.281338 -11.301609 11.452548
54.739899 -11.230116 11.138116
56.257694 -11.235761 10.884843
57.702339 -11.20832 10.748059
58.86792 -11.207129 10.657819
47.742477 -9.6384315 11.96184
49.093529 -9.4989462 11.749535
50.257042 -9.7502089 11.739055
51.729679 -9.7493753 11.589748
53.242519 -9.7819319 11.415056
54.723026 -9.6784077 11.088407
56.137959 -9.7773743 10.788727
57.675072 -9.7975788 10.74813
58.757187 -9.8383951 10.638577
47.276638 -8.4629221 11.999237
49.127689 -8.1647415 11.81427
50.291672 -8.2022638 11.688094
51.719498 -8.2774773 11.574893
53.242393 -8.3036699 11.392356
54.709141 -8.2025423 11.022315
56.223244 -8.2328806 10.801104
57.529537 -8.2682581 10.770205
58.932808 -8.1186848 10.600314
60.102592 -8.5194626 10.513802
47.681244 -6.6507874 11.884142
49.04425 -6.7254424 11.755063
50.258392 -6.6276522 11.708966
51.764065 -6.7652245 11.474617
53.294914 -6.778451 11.286276
54.729088 -6.7292123 10.985356
56.213081 -6.7676663 10.728322
57.612133 -6.7815275 10.717375
58.87291 -6.8453059 10.647975
47.480026 -5.0121174 11.918338
49.025921 -5.3029742 11.80776
50.319778 -5.1975942 11.621862
51.754272 -5.2798629 11.465426
53.24324 -5.2579718 11.241143
54.704472 -5.2268119 11.000172
56.228359 -5.216886 10.818916
57.570515 -5.3915319 10.723644
58.8526 -5.4026155 10.609354
47.553467 -3.6274569 11.931979
48.907681 -3.6883855 11.778307
50.238705 -3.7326481 11.651808
51.745968 -3.7885807 11.520456
53.240593 -3.7645063 11.259715
54.740509 -3.653321 10.949211
56.239105 -3.7306149 10.743071
57.498459 -3.753253 10.670174
58.707268 -3.9486172 10.659204
46.418034 -2.6322856 11.924959
47.476677 -2.2918344 11.916748
48.923786 -2.2477293 11.777946
50.268703 -2.202178 11.630883
51.769569 -2.2659841 11.449345
53.259396 -2.2664235 11.288585
54.704845 -2.2219374 10.918858
56.179115 -2.2617574 10.761012
57.540337 -2.3963463 10.699028
58.745029 -2.8203533 10.534086
46.456249 -0.9746173 11.867849
47.440998 -0.78529668 11.875875
48.953133 -0.75245774 11.789431
50.257156 -0.74834573 11.634047
51.752792 -0.80943775 11.396139
53.27729 -0.72456998 11.213036
54.714073 -0.72412336 10.893732
56.151134 -0.80973512 10.705243
57.563675 -0.90241319 10.669998
58.757065 -0.23704019 10.58213
46.350685 0.52473849 11.938429
47.414501 0.67292839 11.859439
48.888145 0.74076074 11.726088
50.270081 0.75165331 11.542083
51.750938 0.71155632 11.338814
53.229565 0.75389349 11.191851
54.674545 0.80795884 10.929149
56.105888 0.62490135 10.729456
57.651016 0.59704322 10.638209
58.707008 0.93041342 10.573595
46.214005 1.5249264 11.948331
47.591599 2.4243312 11.83889
48.945419 2.3315582 11.753022
50.308514 2.2313216 11.551978
51.714329 2.1940007 11.264825
53.241936 2.2461157 11.129333
54.697868 2.2823677 10.862977
56.085819 2.2087343 10.719299
57.461887 2.0585489 10.581397
58.908924 2.1742196 10.531316
46.371647 4.2604971 11.890853
47.447498 3.8677106 11.79971
48.957897 3.8376453 11.727473
50.292324 3.773983 11.536815
51.741295 3.6620455 11.292934
53.252586 3.7902596 11.0602
54.654415 3.7776728 10.824733
56.239235 3.6161385 10.675451
57.385529 3.5670531 10.622952
45.827148 5.4383869 11.955724
47.436146 5.3788285 11.747656
48.856304 5.2822928 11.726974
50.270588 5.2203083 11.486999
51.75782 5.1953921 11.291196
53.259228 5.2778897 11.046272
54.692535 5.2919555 10.864651
56.13863 5.2369556 10.67815
57.459087 5.3097849 10.587837
46.257511 6.6191926 11.933017
47.500416 6.7575989 11.792823
48.775124 6.7817826 11.642493
50.241211 6.7558489 11.485192
51.702785 6.6894455 11.214698
53.236462 6.7518458 11.062313
54.67593 6.7546558 10.717517
56.315758 6.4800506 10.675978
57.511436 6.7347221 10.6363
46.158875 8.1719847 11.911755
47.327858 8.3236465 11.801272
48.80011 8.3209972 11.693749
50.237579 8.2381611 11.476071
51.744965 8.1885195 11.157595
53.25787 8.3203831 10.991282
54.642834 8.3094215 10.802224
56.076694 8.36339 10.667643
57.577908 8.5408907 10.571815
46.248653 9.7123518 11.920548
47.518547 9.8340416 11.799397
48.773949 9.7704821 11.666128
50.248367 9.7463999 11.373242
51.711971 9.7216549 11.116746
53.173008 9.8074389 10.92757
54.625881 9.7509174 10.746565
56.242901 9.7068052 10.62897
57.402466 9.9910173 10.597038
46.486092 11.154305 11.817876
47.334511 11.304707 11.83346
48.839256 11.276849 11.654297
50.256145 11.233565 11.36918
51.732677 11.224176 11.041945
53.229256 11.298325 10.884128
54.726139 11.292381 10.756282
56.313755 11.080688 10.593956
57.485527 10.546627 10.624688
47.754051 12.598763 11.853638
48.866428 12.72358 11.627702
50.231995 12.729104 11.38074
51.685356 12.698672 11.101083
53.257549 12.778021 10.903518
54.646248 12.696381 10.739404
55.838779 12.996204 10.607369
47.779552 13.62906 11.886705
49.06366 14.18724 11.722322
50.223515 14.247137 11.382269
51.712917 14.182794 11.034223
53.169289 14.357872 10.879996
54.599171 14.244018 10.753806
56.394596 14.429893 10.57945
49.122158 15.659125 11.730256
50.293007 15.737218 11.503743
51.764721 15.695719 11.043138
53.268967 15.807458 10.908293
54.584393 15.670429 10.739656
55.874569 15.969214 10.593692
49.250954 16.974846 11.863995
50.367786 17.202782 11.518454
51.807518 17.245865 11.020465
53.222263 17.204062 10.881386
54.632069 17.364893 10.712105
55.657993 17.589504 10.659965
49.482586 18.432718 11.917558
50.422813 18.684345 11.610883
51.696159 18.717276 11.051667
53.199268 18.796419 10.813363
54.571861 18.793278 10.703536
55.661415 18.750019 10.530631
50.52388 20.190401 11.610533
51.725449 20.196592 11.12799
53.192009 20.307442 10.845763
54.615852 20.302416 10.665895
55.516483 19.586721 10.530609
50.392696 21.739521 11.6777
51.719002 21.692944 11.100814
53.227608 21.846363 10.827578
54.561966 21.712074 10.700264
50.40321 23.208416 11.594327
51.68277 23.238869 11.00545
53.213295 23.259474 10.75688
54.559048 23.179516 10.674382
49.408142 24.561165 11.869182
50.35128 24.770357 11.499453
51.700958 24.753609 10.92306
53.127068 24.752808 10.80079
54.540527 24.751381 10.639913
49.142982 26.557232 11.827009
50.275818 26.25272 11.351893
51.730442 26.248312 10.838567
53.113644 26.310125 10.722434
54.513603 26.051928 10.600852
47.80674 28.128401 11.870216
48.973721 27.779716 11.687324
50.213074 27.70064 11.116557
51.706726 27.721043 10.867733
53.120678 27.629681 10.727507
54.498978 27.730766 10.601476
47.56588 29.476032 11.765367
48.781055 29.292685 11.483977
50.235886 29.200003 11.01594
51.695335 29.186537 10.812209
53.127163 29.238188 10.702667
54.506302 29.00709 10.545428
44.926903 31.336061 11.931254
46.282234 31.152731 11.694101
47.308407 30.817642 11.630017
48.717098 30.727234 11.2828
50.17849 30.68968 10.88408
51.651413 30.754509 10.7231
53.134918 30.814264 10.67282
54.40789 31.056345 10.529965
44.619392 32.384991 11.868666
45.896961 32.343891 11.786052
47.276833 32.274876 11.488763
48.750328 32.234436 11.200619
50.235683 32.192913 10.907348
51.586124 32.22403 10.759917
53.17662 32.160248 10.63203
54.295879 32.038345 10.619252
43.101116 33.916744 11.910101
44.295353 33.911243 11.816821
45.807579 33.818447 11.660878
47.279095 33.774593 11.439369
48.772171 33.752205 11.158322
50.183357 33.688519 10.824448
51.595104 33.72316 10.703308
53.127628 33.788662 10.65255
54.379776 33.800102 10.566142
42.960209 34.966373 11.904355
44.31945 35.269871 11.789895
45.769684 35.251835 11.663002
47.248348 35.296139 11.41878
48.745697 35.266441 11.085682
50.198738 35.154957 10.829616
51.582279 35.255646 10.718427
53.137989 35.419079 10.596271
54.288498 34.801208 10.532394
41.344994 36.543476 11.98594
42.914513 36.869873 11.847676
44.328907 36.77459 11.743646
45.794697 36.766022 11.629578
47.250328 36.745564 11.342644
48.758804 36.730835 11.077765
50.14167 36.718433 10.748891
51.672714 36.679977 10.674252
53.065861 36.993729 10.631254
54.260513 36.474598 10.548033
42.902233 38.250519 11.891472
44.264851 38.234982 11.756413
45.809566 38.29528 11.574738
47.313187 38.269459 11.257653
48.76844 38.262283 11.032192
50.289558 38.167 10.762025
51.3969 38.252811 10.745367
53.001457 38.235733 10.597648
41.435562 39.37711 11.997752
42.924641 39.695278 11.862349
44.382259 39.735302 11.714536
45.787632 39.739891 11.637671
47.250973 39.753487 11.208241
48.788116 39.748722 11.021721
50.192726 39.652214 10.722322
51.676937 39.729679 10.653876
53.317371 39.747311 10.596581
54.293999 40.319664 10.531155
41.639122 41.036091 11.921568
42.876598 41.224751 11.857565
44.286087 41.270061 11.734332
45.754807 41.306877 11.541498
47.260548 41.234043 11.201571
48.743767 41.247326 11.03748
50.086273 41.20116 10.752889
51.483311 41.193378 10.638613
52.890369 41.280373 10.639796
54.324379 41.322647 10.523715
41.491474 42.916092 11.952461
42.994244 42.609058 11.857814
44.313446 42.791134 11.719976
45.74612 42.766903 11.604397
47.221455 42.788528 11.258696
48.728424 42.747246 10.999015
50.066536 42.623672 10.750185
51.587914 42.697132 10.64552
52.821949 42.396313 10.569733
41.735954 43.956791 11.948099
42.915398 44.262131 11.816886
44.35479 44.267174 11.681844
45.754936 44.269161 11.462797
47.267403 44.279129 11.162548
48.710293 44.24231 10.870399
50.093197 44.181213 10.684739
51.457195 44.127316 10.681797
52.791088 44.583122 10.578299
41.736118 45.700813 11.866824
42.788555 45.744892 11.834416
44.239986 45.655941 11.676208
45.735653 45.796314 11.494383
47.24366 45.751442 11.15849
48.74157 45.719364 10.922598
50.130577 45.717911 10.708241
51.446613 45.814629 10.612619
52.931107 46.348694 10.502009
41.479149 47.310265 11.868948
42.972469 47.332069 11.757886
44.325523 47.262424 11.655045
45.739998 47.281498 11.393605
47.22097 47.270042 11.082048
48.758873 47.261154 10.825843
50.233379 47.308018 10.694082
51.415478 47.295216 10.641927
52.869019 46.5233 10.572595
41.582684 48.762123 11.876269
42.921768 48.723957 11.768058
44.231884 48.715698 11.565208
45.730885 48.77198 11.378279
47.22298 48.731121 11.074659
48.700329 48.759861 10.846863
50.098415 48.705242 10.672646
51.445137 48.798912 10.585465
41.576855 50.282257 11.893191
42.852299 50.248463 11.746335
44.22921 50.265278 11.548706
45.739925 50.248909 11.351457
47.211201 50.27747 11.052397
48.697361 50.253227 10.767602
50.053055 50.390995 10.657428
51.342705 49.711155 10.59409
40.43045 51.306404 11.963104
41.599979 51.722763 11.85908
42.881649 51.645542 11.7768
44.307396 51.763603 11.627455
45.728226 51.718376 11.317817
47.214382 51.793201 11.028909
48.613422 51.785667 10.821921
50.078037 51.664715 10.679422
51.443798 51.613628 10.584085
40.389038 52.725632 11.964043
41.521523 53.095356 11.825455
42.89254 53.157928 11.710067
44.221081 53.296825 11.528708
45.725647 53.281338 11.309534
47.224976 53.256969 11.004511
48.72839 53.256676 10.714128
50.000111 53.272274 10.611526
51.197945 53.226913 10.598183
41.451542 54.666958 11.83187
42.820854 54.722198 11.729732
44.282825 54.701553 11.512321
45.777061 54.794117 11.288511
47.259277 54.746426 11.017299
48.709572 54.728313 10.75614
50.044991 54.529949 10.605192
51.323452 55.11557 10.51788
41.510197 56.30233 11.843998
42.836891 56.246635 11.687801
44.294422 56.255989 11.499413
45.716583 56.217846 11.205468
47.214375 56.293217 10.93375
48.746422 56.283195 10.775445
49.90839 56.326633 10.657965
51.364265 56.234299 10.538109
38.947029 58.406055 11.980818
40.327728 57.399429 11.939334
41.476513 57.744896 11.845931
42.781231 57.698246 11.67474
44.28112 57.746746 11.46549
45.75478 57.763256 11.182486
47.180031 57.74176 10.885958
48.698143 57.730709 10.701693
49.789684 57.663628 10.587365
51.057877 57.406929 10.538745
39.904091 59.238754 11.953382
41.524483 59.321747 11.813606
42.815239 59.239231 11.659077
44.27174 59.227203 11.429359
45.745342 59.272442 11.151918
47.171261 59.288578 10.920742
48.789677 59.20409 10.706226
49.741051 59.448116 10.608149
39.886395 60.858887 11.926226
41.463726 60.699421 11.811123
42.760551 60.71666 11.615495
44.241867 60.756702 11.389048
45.766716 60.754444 11.154953
47.214359 60.823517 10.893077
48.70224 60.629894 10.69366
49.962608 60.665752 10.623079
40.080811 61.87616 11.878182
41.538036 62.327808 11.790447
42.792507 62.239822 11.64648
44.214924 62.23497 11.415154
45.709148 62.271198 11.068603
47.176315 62.307648 10.840736
48.66029 62.273071 10.702054
50.18082 62.052204 10.565268
51.192276 61.76173 10.522753
38.941452 63.83551 11.976431
39.888866 63.483131 11.905718
41.450737 63.715744 11.759377
42.798889 63.723713 11.567928
44.256721 63.692528 11.293207
45.742973 63.805283 11.030301
47.159416 63.729984 10.855023
48.739716 63.841465 10.689968
49.550491 63.610359 10.59535
38.637733 65.745659 11.887676
39.931515 65.298111 11.837893
41.310707 65.21476 11.728859
42.708309 65.194214 11.557336
44.238358 65.222076 11.30375
45.754868 65.252808 10.931675
47.12648 65.291496 10.803322
48.633339 65.123688 10.659912
49.730785 65.29866 10.689188
38.632236 66.546524 11.941332
39.94215 66.791893 11.857487
41.444744 66.735634 11.729089
42.751003 66.720161 11.55181
44.245625 66.741959 11.310493
45.736965 66.743607 10.986375
47.158573 66.743454 10.774228
48.648453 66.830032 10.596365
49.687572 66.661781 10.642472
38.918968 68.602196 11.987108
39.852608 68.237511 11.892853
41.395164 68.213303 11.737339
42.746296 68.230705 11.512204
44.234554 68.267113 11.24695
45.750076 68.232681 10.964532
47.140419 68.290413 10.835656
48.614326 68.457634 10.665329
49.701267 68.41584 10.590779
38.906136 69.699402 11.935498
39.917011 69.632858 11.834558
41.409801 69.774651 11.649798
42.724426 69.724983 11.469431
44.25457 69.721222 11.259116
45.731995 69.81295 11.014267
47.133961 69.731339 10.800628
48.624893 69.785721 10.635823
49.566475 69.149086 10.645632
38.394566 71.287636 11.896044
39.838963 71.332458 11.836029
41.294109 71.286087 11.689359
42.738857 71.242767 11.516693
44.25869 71.19603 11.180908
45.708935 71.243668 10.950365
47.148983 71.252945 10.779664
48.59626 71.272751 10.620314
49.644558 71.335106 10.681253
37.317913 72.268547 11.954816
38.256027 72.521378 11.923855
39.856945 72.884605 11.85162
41.322353 72.741989 11.689612
42.774078 72.761482 11.545317
44.294632 72.733063 11.193845
45.709507 72.751892 10.934211
47.211918 72.69474 10.726986
48.756748 72.629059 10.591941
49.806004 72.320656 10.517148
38.515545 74.540001 11.919973
39.81258 74.31971 11.862523
41.299316 74.29216 11.699905
42.745487 74.234917 11.454699
44.214104 74.278015 11.133596
45.693432 74.206223 10.837986
47.017529 74.113602 10.744552
48.66061 74.314034 10.581063
36.898464 75.933868 11.871675
38.643677 75.711449 11.910219
39.841019 75.862984 11.81355
41.32198 75.772148 11.624784
42.758732 75.757576 11.369745
44.238266 75.710274 11.094018
45.72374 75.702843 10.890246
47.113331 75.665741 10.73805
48.351028 75.928009 10.656673
36.977989 77.707245 11.982336
38.599777 77.033859 11.858528
39.796597 77.300568 11.822866
41.291191 77.27076 11.651751
42.767864 77.240738 11.300536
44.247181 77.254051 11.068089
45.711231 77.211044 10.934464
47.080902 77.155907 10.763863
48.342758 77.190399 10.61771
49.591965 76.513596 10.506909
37.186604 79.128922 11.961385
38.326195 78.848343 11.902431
39.77087 78.744202 11.771561
41.354332 78.775169 11.604953
42.759056 78.733818 11.308121
44.27166 78.746857 11.044122
45.739357 78.675537 10.857754
47.068375 78.738663 10.739542
48.469009 78.610382 10.562782
36.759815 80.474518 11.905529
38.531757 80.346916 11.849336
39.827782 80.252609 11.790242
41.326859 80.281052 11.550418
42.77668 80.242027 11.322591
44.205189 80.236641 11.058019
45.747059 80.179405 10.802285
47.074539 80.209702 10.728582
48.547043 80.082909 10.613023
37.15226 81.766586 11.91012
38.476639 81.747078 11.789533
39.762497 81.765686 11.729903
41.297939 81.803879 11.546266
42.783073 81.774261 11.27519
44.265568 81.710785 10.940169
45.71727 81.675339 10.768386
47.126476 81.704971 10.712198
48.640839 81.7117 10.516571
35.793831 83.638031 11.981058
36.951073 83.094193 11.898437
38.439445 83.356483 11.816371
39.821766 83.292404 11.755521
41.309158 83.256073 11.543055
42.786724 83.256783 11.16352
44.243511 83.256195 10.945701
45.65649 83.242409 10.742847
47.0256 83.217766 10.641049
48.125648 83.900261 10.586563
36.966454 84.897263 11.86336
38.319706 84.79364 11.822212
39.807873 84.761993 11.755198
41.337635 84.77771 11.525567
42.767075 84.744293 11.229941
44.263729 84.753174 10.918157
45.679607 84.703125 10.787923
47.041092 84.718155 10.674099
48.330601 84.911552 10.592038
35.570564 86.393082 11.945532
36.6562 86.303177 11.95408
38.355747 86.236549 11.794918
39.718422 86.279953 11.71468
41.280716 86.272758 11.489052
42.788277 86.271515 11.116703
44.214359 86.241882 10.873035
45.655979 86.250191 10.744156
47.109863 86.293617 10.673387
35.525826 87.933678 11.981361
36.967373 87.736694 11.853324
38.57336 87.653625 11.853329
39.785503 87.713051 11.694496
41.309822 87.750389 11.451895
42.757084 87.785843 11.144037
44.19516 87.789642 10.92417
45.655899 87.748436 10.731294
46.907856 87.695084 10.668172
48.232262 87.757545 10.52909
35.780571 89.323479 11.919615
36.934048 89.427002 11.830511
38.393509 89.257622 11.841504
39.682983 89.212578 11.724844
41.237717 89.230164 11.49753
42.792641 89.249588 11.125876
44.256374 89.291328 10.882352
45.694832 89.30233 10.755147
47.114845 89.259392 10.609723
35.579906 90.99852 11.838138
36.865391 90.712837 11.851578
38.35191 90.708733 11.727328
39.760101 90.728607 11.622054
41.263844 90.736328 11.419786
42.769859 90.743584 11.123495
44.239124 90.756119 10.849343
45.675793 90.746849 10.701745
47.161289 90.863945 10.598593
48.127232 90.105392 10.50214
35.645844 92.104164 11.896019
37.070423 92.325569 11.846835
38.433334 92.287971 11.706914
39.762939 92.234413 11.66138
41.265575 92.272911 11.346549
42.76273 92.245316 11.030832
44.245819 92.287666 10.781815
45.598057 92.265266 10.73707
46.975872 92.332771 10.601112
35.276695 93.602417 11.920481
36.995003 93.744354 11.786914
38.304253 93.701454 11.750605
39.724342 93.718697 11.640656
41.263336 93.735298 11.344092
42.718513 93.773499 10.980611
44.193039 93.807732 10.88234
45.523121 93.741692 10.728715
47.072208 93.635406 10.589161
34.38541 95.674461 11.936076
35.606033 95.017097 11.897456
36.919922 95.209953 11.882003
38.380909 95.264381 11.727496
39.751011 95.252579 11.604967
41.306637 95.241135 11.40791
42.72113 95.256729 10.969602
44.196095 95.20945 10.835644
45.579422 95.286316 10.699059
47.035526 94.921684 10.573451
35.49654 96.622253 11.878501
36.830006 96.628822 11.797446
38.297306 96.740417 11.720665
39.717224 96.70639 11.607408
41.214619 96.709351 11.340997
42.765415 96.765717 10.977932
44.245987 96.705803 10.761378
45.63158 96.756256 10.731208
46.893009 96.808441 10.569626
34.350159 97.863327 11.991861
35.377831 98.368668 11.899999
36.918602 98.181625 11.815084
38.344418 98.182472 11.771342
39.761242 98.262192 11.546336
41.318127 98.230179 11.374759
42.703651 98.232819 11.009495
44.126923 98.289925 10.760774
45.573303 98.099945 10.654436
46.93618 97.843163 10.613643
35.342148 99.868668 11.845409
36.856468 99.705856 11.815689
38.331654 99.798462 11.710042
39.726463 99.71907 11.470234
41.282597 99.76828 11.255423
42.713776 99.716782 10.929214
44.206116 99.834213 10.77798
45.458843 99.785088 10.618241
46.680038 99.680916 10.56213
35.634392 101.28068 11.850908
36.876801 101.33611 11.755853
38.299156 101.24625 11.686083
39.801552 101.25335 11.559264
41.235291 101.22545 11.220144
42.759327 101.29202 10.910546
44.167225 101.25694 10.759187
45.577957 101.25663 10.641397
46.576832 100.84955 10.518678
34.061333 103.12683 11.901801
35.491253 102.74503 11.840321
36.840088 102.65001 11.79661
38.237061 102.79576 11.704815
39.731674 102.74632 11.482291
41.226742 102.77613 11.191789
42.739475 102.72948 10.868921
44.177895 102.78609 10.73296
45.546619 102.7609 10.626689
47.328201 102.72002 10.541417
33.986355 104.00706 11.937791
35.367359 104.23504 11.808537
36.817497 104.26761 11.768957
38.270649 104.30206 11.608383
39.739666 104.24076 11.477811
41.251453 104.2672 11.147126
42.74789 104.22867 10.844343
44.157211 104.18066 10.710904
45.544834 104.21014 10.595186
34.163731 105.9007 11.912691
35.29282 105.63625 11.85426
36.782925 105.68344 11.733494
38.339584 105.76247 11.635285
39.78574 105.75085 11.440596
41.273376 105.77023 11.141423
42.720661 105.7009 10.811167
44.101547 105.72124 10.757361
45.409683 105.58192 10.630336
46.542572 105.22768 10.523788
35.937485 106.59363 11.825949
36.693718 106.65472 11.767395
38.317657 106.75057 11.704189
39.766899 106.68924 11.48326
41.223934 106.68127 11.164657
42.57864 106.68269 10.805441
44.103783 106.64572 10.726157
45.382446 106.55167 10.527905
47.170471 -54.202484 13.436905
48.754642 -54.181767 13.263762
50.234695 -54.218636 13.029672
51.710125 -54.1679 12.843458
53.331463 -54.184547 12.588707
54.726223 -54.231907 12.377215
55.921471 -54.115192 12.201756
57.802643 -54.114563 12.043244
46.227886 -52.638256 13.42439
47.34716 -53.24744 13.355182
48.842754 -53.143345 13.144318
50.271244 -53.302929 13.046141
51.714039 -53.177586 12.855924
53.247551 -53.247078 12.678707
54.654373 -53.314514 12.348213
56.169502 -53.16415 12.257684
57.69101 -53.243473 12.119251
46.208698 -51.813747 13.469078
47.422649 -51.636318 13.33182
48.859341 -51.737591 13.124624
50.304146 -51.760429 13.011963
51.741879 -51.72295 12.798927
53.256214 -51.75771 12.651713
54.676849 -51.789181 12.316757
56.206497 -51.793098 12.195215
57.597137 -52.231312 12.111724
45.987324 -50.268291 13.426095
47.406116 -50.154388 13.320575
48.805889 -50.265182 13.127572
50.264259 -50.209373 12.939885
51.786442 -50.23251 12.769993
53.269932 -50.282314 12.518208
54.647449 -50.346703 12.267072
56.273247 -50.261215 12.171345
57.493031 -49.906208 12.078027
44.9198 -48.700356 13.485272
46.072243 -48.749069 13.396654
47.287029 -48.64225 13.318553
48.805668 -48.806995 13.096074
50.281925 -48.705196 12.932109
51.768036 -48.741116 12.713634
53.256069 -48.774456 12.486604
54.652561 -48.771858 12.289607
56.173878 -48.816536 12.150208
57.980743 -48.656345 12.032967
44.71611 -46.790833 13.450155
46.04694 -47.277107 13.380653
47.394508 -47.202381 13.285198
48.775921 -47.281765 13.061725
50.253941 -47.220772 12.88997
51.763466 -47.254856 12.683706
53.249943 -47.294891 12.481858
54.615559 -47.228916 12.252534
56.145317 -47.345737 12.153508
57.678337 -47.316612 12.022618
44.775005 -45.308529 13.497244
46.081097 -45.679874 13.362212
47.342648 -45.776855 13.282966
48.786816 -45.793629 13.052135
50.256844 -45.67355 12.849627
51.736465 -45.784317 12.654674
53.256245 -45.807945 12.4922
54.59277 -45.662598 12.235577
55.909786 -45.683659 12.162244
57.07336 -45.303127 12.082519
44.710445 -44.230007 13.442904
45.978912 -44.113628 13.387022
47.297985 -44.278542 13.225183
48.759701 -44.282478 13.040904
50.258919 -44.216881 12.793997
51.743 -44.262981 12.565639
53.243275 -44.264076 12.406722
54.582546 -44.174465 12.24559
56.114902 -44.256756 12.132891
57.10997 -44.310604 12.096696
44.625706 -42.325787 13.430012
45.950783 -42.602154 13.321192
47.266941 -42.733253 13.227808
48.79034 -42.796082 13.008162
50.24004 -42.721352 12.712294
51.756058 -42.790474 12.521428
53.235752 -42.772251 12.345577
54.555847 -42.717609 12.210874
56.275848 -42.699516 12.0842
44.678604 -41.254307 13.448841
46.006783 -41.216618 13.293724
47.30447 -41.23925 13.238487
48.785511 -41.239193 12.954751
50.262215 -41.199783 12.661699
51.761654 -41.262966 12.526607
53.234291 -41.201 12.315013
54.566761 -41.154984 12.21544
55.78616 -41.437321 12.147408
44.80685 -39.545715 13.379607
45.969009 -39.779221 13.32262
47.312523 -39.813663 13.178144
48.768894 -39.683002 12.938853
50.262356 -39.736485 12.690476
51.7463 -39.796822 12.476954
53.189224 -39.75465 12.295624
54.445236 -39.777439 12.247791
56.082294 -40.230999 12.03568
44.538677 -38.188511 13.383093
46.01651 -38.186481 13.338223
47.230747 -38.287041 13.191075
48.769756 -38.226856 12.89219
50.29528 -38.22625 12.579152
51.759647 -38.301998 12.436687
53.156693 -38.21909 12.269969
54.426022 -38.185703 12.175964
56.088898 -38.255165 12.031564
43.344769 -36.488941 13.473334
44.803368 -36.363091 13.361079
45.91383 -36.869404 13.273994
47.249763 -36.79224 13.154425
48.727879 -36.727383 12.903671
50.280857 -36.754375 12.590343
51.769585 -36.784565 12.410956
53.240746 -36.786327 12.298081
54.444111 -36.715061 12.164379
44.504532 -35.256432 13.432531
45.900112 -35.271011 13.27958
47.245094 -35.267971 13.106784
48.75713 -35.20636 12.851583
50.305004 -35.249046 12.63853
51.75135 -35.258492 12.322612
53.18528 -35.245289 12.245169
54.364483 -35.202637 12.113182
43.084694 -33.667168 13.438858
44.554184 -33.698101 13.395204
45.955887 -33.734421 13.262359
47.263542 -33.767475 13.03283
48.758114 -33.726364 12.75694
50.237629 -33.775925 12.47309
51.689461 -33.77084 12.360016
53.157711 -33.696709 12.220454
54.310551 -34.006626 12.159646
43.438538 -32.521622 13.346099
44.473358 -32.210716 13.355705
45.902592 -32.268581 13.227026
47.242535 -32.254051 13.067658
48.717182 -32.207287 12.814113
50.216015 -32.292469 12.436334
51.747665 -32.249386 12.33007
53.161407 -32.189327 12.166169
54.368828 -32.226753 12.183574
43.345398 -30.450968 13.393959
44.469791 -30.623489 13.339253
45.836018 -30.779068 13.212771
47.22118 -30.723639 12.980983
48.728523 -30.764053 12.756252
50.245926 -30.767782 12.42037
51.763733 -30.732525 12.318377
53.146851 -30.672125 12.15624
54.424725 -30.909369 12.065433
43.21833 -29.205431 13.410131
44.473724 -29.094017 13.32122
45.83643 -29.296926 13.206395
47.279537 -29.20965 12.965344
48.762077 -29.246229 12.747705
50.20372 -29.29162 12.411553
51.769863 -29.241594 12.223075
53.11858 -29.191027 12.175734
54.544292 -28.614925 12.141066
42.940384 -27.632059 13.386704
44.496559 -27.874079 13.337764
45.812183 -27.797947 13.211352
47.212322 -27.703354 12.886439
48.737408 -27.762775 12.621112
50.201855 -27.783005 12.385073
51.681873 -27.726137 12.236768
53.14753 -27.692686 12.146986
54.503185 -27.395227 12.051536
41.785919 -26.175066 13.429813
43.11853 -26.305519 13.440506
44.434025 -26.293076 13.29135
45.802753 -26.302544 13.165831
47.231972 -26.175962 12.845313
48.726032 -26.272131 12.606065
50.232086 -26.320282 12.378163
51.73518 -26.27364 12.208127
53.166798 -26.24832 12.115499
54.33033 -26.424757 12.082039
42.933228 -24.394751 13.404839
44.38134 -24.85906 13.307249
45.867847 -24.763206 13.144741
47.252625 -24.756281 12.870279
48.729149 -24.745636 12.599182
50.173523 -24.806973 12.399748
51.802536 -24.70359 12.174624
53.293713 -24.844147 12.140571
54.459244 -25.124449 12.037968
42.715466 -23.204365 13.36783
44.369205 -23.343489 13.308731
45.763706 -23.229475 13.180923
47.226616 -23.20192 12.872435
48.71825 -23.296055 12.556081
50.273094 -23.282135 12.346689
51.743748 -23.309082 12.196829
53.069393 -23.329931 12.163886
54.193817 -23.233164 12.099797
41.928131 -21.048697 13.353852
42.944057 -21.737436 13.383769
44.469067 -21.804201 13.279204
45.793888 -21.749189 13.079178
47.256531 -21.720856 12.775181
48.717239 -21.747929 12.528654
50.232361 -21.790205 12.286128
51.637329 -21.78372 12.162317
53.041992 -21.717617 12.102132
41.657036 -20.244751 13.395198
42.870228 -20.212568 13.350475
44.385071 -20.244396 13.1869
45.810711 -20.207026 13.040537
47.253548 -20.226198 12.76619
48.727489 -20.279984 12.481668
50.192383 -20.304537 12.267015
51.733341 -20.32704 12.172649
52.97234 -20.490129 12.077052
41.592361 -19.132904 13.475919
42.922432 -18.640339 13.294471
44.318138 -18.789164 13.207851
45.785458 -18.693129 13.085395
47.200893 -18.746635 12.755158
48.731953 -18.812513 12.495895
50.188164 -18.779167 12.225574
51.777187 -18.879929 12.122655
52.614204 -18.585096 12.04618
41.293789 -17.113255 13.420252
42.789364 -17.190426 13.325858
44.342983 -17.300043 13.205596
45.769867 -17.190065 12.979724
47.238335 -17.266779 12.645153
48.711857 -17.330942 12.435918
50.13755 -17.293169 12.219452
51.661312 -17.232634 12.113031
52.822781 -17.096401 12.096354
41.354141 -15.729834 13.388994
42.781406 -15.783602 13.309218
44.307816 -15.718489 13.211044
45.77177 -15.718462 12.90891
47.246834 -15.748117 12.616407
48.661243 -15.817321 12.403244
50.246807 -15.689514 12.220213
51.592266 -15.651773 12.114096
41.105824 -14.433441 13.398991
42.887192 -14.388147 13.30135
44.298981 -14.28096 13.149753
45.791237 -14.18289 12.936927
47.258781 -14.290851 12.598228
48.662823 -14.296724 12.395279
50.217678 -14.158237 12.220384
51.67712 -14.180364 12.126491
52.692654 -13.934711 12.097589
41.382725 -12.763386 13.354273
42.913269 -12.783949 13.287003
44.30447 -12.742844 13.161733
45.78299 -12.699954 12.882526
47.263042 -12.775302 12.540717
48.694847 -12.767639 12.337214
50.181084 -12.735168 12.142074
51.614845 -12.628181 12.078883
52.628674 -13.101856 12.077971
41.438236 -11.193217 13.377007
42.832745 -11.291287 13.237776
44.306507 -11.192122 13.095104
45.769863 -11.186049 12.85735
47.222435 -11.321184 12.477969
48.66497 -11.263469 12.293332
50.210712 -11.227462 12.189735
51.907387 -11.335345 12.053782
40.124588 -9.0626631 13.49769
41.341572 -9.7461367 13.373288
42.838448 -9.8174982 13.229877
44.248085 -9.714571 13.100041
45.745586 -9.7340107 12.728969
47.239189 -9.763484 12.485996
48.67831 -9.8391094 12.338168
50.18243 -9.609169 12.129754
51.631115 -9.9804945 12.076722
52.533371 -10.190495 12.009367
41.369034 -8.1484108 13.347791
42.815556 -8.2375526 13.182108
44.273449 -8.2013645 13.048384
45.757534 -8.2342253 12.731817
47.250526 -8.2988834 12.542195
48.5816 -8.2482328 12.261693
50.207809 -8.2449303 12.126879
51.577721 -8.1674347 12.042221
40.094681 -6.9098001 13.331456
41.376022 -6.8769941 13.317581
42.810165 -6.8110332 13.211679
44.256615 -6.6644087 13.050828
45.731113 -6.7665539 12.717196
47.234047 -6.8159566 12.442192
48.638336 -6.7326574 12.303359
50.268421 -6.9271779 12.159287
39.975258 -5.1631804 13.43441
41.34721 -5.3623075 13.310575
42.804607 -5.2286534 13.230103
44.253914 -5.209795 13.037224
45.748142 -5.2426605 12.660986
47.240181 -5.3408484 12.39942
48.59808 -5.2184882 12.254933
49.92709 -5.2988987 12.153642
40.102371 -4.2529054 13.491293
41.42197 -3.8253808 13.349518
42.855408 -3.6963925 13.140246
44.304199 -3.7103894 12.95787
45.786697 -3.7580097 12.693754
47.206364 -3.822612 12.371838
48.543495 -3.7439761 12.255348
50.288971 -3.5854104 12.124855
51.2929 -3.7521122 12.04884
40.09137 -2.3185384 13.431763
41.437752 -2.2812412 13.251848
42.79237 -2.1860969 13.160865
44.220917 -2.1913972 12.894194
45.746658 -2.2742801 12.684567
47.169201 -2.2715881 12.355634
48.591263 -2.1571624 12.248488
50.400501 -2.4211791 12.07991
40.246723 -1.2386545 13.419113
41.403797 -0.76258212 13.270283
42.79475 -0.71109319 13.129762
44.284595 -0.71375096 12.885114
45.754372 -0.78832871 12.551847
47.176861 -0.7691192 12.348918
48.59166 -0.65477246 12.224508
50.437805 -0.95769328 12.041936
51.114281 -1.0861554 12.021522
40.319702 0.95535469 13.418913
41.407509 0.69594693 13.216146
42.716595 0.79015231 13.120169
44.266842 0.75299555 12.83972
45.77211 0.72846305 12.609172
47.205383 0.70199841 12.271116
48.616547 0.83713412 12.159698
50.75079 0.8370384 12.035263
38.423553 2.2583809 13.454346
40.061932 2.329257 13.417356
41.455475 2.1758511 13.227941
42.76598 2.3104 13.108813
44.235882 2.2498806 12.918489
45.729889 2.2482297 12.552022
47.182816 2.1939645 12.306564
48.632778 2.2955251 12.157377
49.822254 2.1509805 12.094826
38.638687 4.0441766 13.412012
40.100601 3.8428669 13.359396
41.354588 3.7738068 13.217126
42.755783 3.820132 13.096682
44.290363 3.7694352 12.778421
45.735085 3.7218857 12.478273
47.093895 3.6984081 12.238956
48.52198 3.7402678 12.162985
49.889748 3.18836 12.061383
38.696434 5.4891739 13.467089
39.934284 5.1187987 13.38487
41.305122 5.1644392 13.176229
42.7845 5.3194165 13.022966
44.287933 5.2352772 12.74632
45.761326 5.2117515 12.503336
47.130928 5.1405444 12.274149
48.631542 5.2778707 12.149781
49.616127 5.4412403 12.050265
38.559402 6.8466086 13.430183
39.85899 6.7822771 13.404627
41.360992 6.7472215 13.275059
42.791794 6.7679529 13.010532
44.276344 6.7579546 12.721892
45.740982 6.7077451 12.419604
47.124233 6.7489886 12.250165
48.635227 6.8371439 12.140007
38.516472 8.5615549 13.385027
39.873489 8.1686821 13.349602
41.358501 8.2617331 13.176489
42.76165 8.2988758 13.004625
44.254429 8.2525511 12.712262
45.7397 8.1592093 12.49257
47.135986 8.2737436 12.256522
48.584991 8.210103 12.140182
40.055359 9.2280283 13.397418
41.355484 9.7969151 13.278187
42.811878 9.7585878 13.094172
44.261116 9.750494 12.772692
45.680962 9.6965666 12.482027
47.129734 9.8227625 12.234916
48.737556 9.738884 12.099345
41.097847 10.87012 13.409482
43.037663 11.045446 13.203281
44.297649 11.210899 12.991879
45.725185 11.187263 12.591457
47.222137 11.293491 12.250775
48.487923 11.367423 12.227995
43.42038 12.290628 13.440655
44.572361 12.354203 13.189507
45.787285 12.713566 12.900085
47.183765 12.775286 12.485367
48.479092 12.886617 12.149144
46.145313 13.962719 13.161532
47.279728 14.219187 12.824762
48.527531 14.347598 12.32799
47.529854 15.615856 12.991433
48.714283 15.802873 12.497007
49.679638 15.844248 12.206254
47.877327 16.741575 13.239957
48.796726 17.241323 12.781759
49.847813 17.370665 12.24842
49.098495 18.727808 12.892144
49.913139 18.847748 12.309482
49.229095 20.243635 12.891939
50.000187 20.335552 12.320491
49.236195 21.778339 13.105277
49.929485 21.739557 12.452194
51.007378 21.259224 12.155506
49.20026 23.309219 12.83587
49.847542 23.276878 12.302705
49.00058 24.82411 12.861732
49.816662 24.756809 12.226602
47.752831 26.512873 13.220945
48.659676 26.206959 12.689137
49.776115 25.992386 12.123762
46.328266 28.254362 13.365527
47.41222 27.84215 12.829068
48.519554 27.738022 12.313849
49.639629 27.121334 12.120917
44.838459 29.777687 13.386226
45.918423 29.4394 13.093304
47.075104 29.1595 12.560789
48.340527 29.006399 12.176212
41.641708 31.27869 13.322296
42.81208 30.977804 13.279635
44.277824 30.88941 12.95304
45.67453 30.70645 12.510552
46.950813 30.484318 12.211113
35.42572 32.757359 13.363508
37.087971 32.631405 13.422058
38.594223 32.711418 13.309183
39.761223 32.620781 13.295818
41.393665 32.502052 13.058186
42.737015 32.313583 12.842697
44.18169 32.194798 12.540874
45.53368 32.152958 12.204739
46.636433 32.362133 12.136673
34.190674 33.660275 13.455325
35.49799 33.691872 13.361425
36.783951 33.769615 13.255475
38.283115 33.801907 13.180296
39.760132 33.786133 13.064644
41.26886 33.784206 12.810045
42.746716 33.69265 12.466616
44.183945 33.57029 12.18837
45.50288 33.675278 12.164017
46.574146 33.251724 12.118092
34.194901 35.095318 13.367074
35.430721 35.27145 13.32726
36.783459 35.184132 13.242932
38.261494 35.243099 13.144204
39.755928 35.239494 13.019742
41.232647 35.286732 12.649916
42.682961 35.260342 12.38212
44.182755 35.182484 12.22487
45.422565 35.297886 12.164189
46.621521 35.497784 12.02471
34.285912 36.595638 13.350441
35.23349 36.707394 13.370536
36.826523 36.712502 13.266339
38.287479 36.797401 13.088072
39.779217 36.763676 12.95356
41.263084 36.77911 12.616749
42.724686 36.686005 12.315586
44.203129 36.645725 12.180976
45.702679 36.432026 12.114445
34.212284 38.235981 13.349986
35.28595 38.249207 13.330209
36.768406 38.179325 13.195123
38.281319 38.2836 13.045096
39.769165 38.303928 12.924812
41.27037 38.270935 12.567149
42.732372 38.241776 12.318594
44.132294 38.233368 12.133839
45.44836 38.173069 12.085385
46.518894 37.669975 12.026158
34.235218 39.719074 13.365653
35.444317 39.62841 13.299711
36.862782 39.736561 13.212587
38.330654 39.743107 13.056472
39.773792 39.765324 12.904909
41.22842 39.754314 12.523314
42.635284 39.716366 12.256701
44.033779 39.631199 12.192561
45.629166 39.871235 12.073613
34.301739 41.289848 13.34605
35.432789 41.287502 13.304107
36.77393 41.192657 13.247636
38.259838 41.260529 13.063007
39.75494 41.300255 12.852447
41.204216 41.2589 12.482053
42.734425 41.196571 12.290606
44.129723 41.028633 12.198529
45.07946 40.52504 12.076181
34.082008 42.85775 13.432371
35.244637 42.722187 13.336053
36.773586 42.777912 13.128304
38.262787 42.739002 12.959511
39.774529 42.765083 12.778946
41.246647 42.765621 12.434019
42.635559 42.796146 12.270744
44.11544 42.640686 12.169632
45.412094 42.780064 12.097155
34.041111 44.372921 13.388282
35.270992 44.185734 13.254182
36.811584 44.250027 13.121298
38.340042 44.236835 12.996552
39.781769 44.306641 12.80904
41.212082 44.275223 12.472894
42.676178 44.180885 12.261813
43.898571 44.173294 12.160426
45.282276 44.1175 12.095469
32.662075 45.70351 13.433389
33.978802 45.806648 13.377668
35.203156 45.693947 13.218378
36.762844 45.755836 13.122895
38.261929 45.725658 12.983578
39.79892 45.80872 12.742205
41.230915 45.751251 12.455088
42.709724 45.66552 12.289595
44.064003 45.882729 12.13811
45.901676 45.360451 12.018395
32.798512 46.891499 13.378916
34.151485 47.438541 13.395089
35.263191 47.267639 13.299555
36.79261 47.23164 13.114413
38.274857 47.257889 12.912753
39.757298 47.254391 12.720264
41.193539 47.260105 12.420557
42.608192 47.103855 12.221799
44.053001 47.153824 12.106319
45.260452 46.701786 12.026651
33.931473 48.667538 13.296559
35.265129 48.714832 13.255875
36.726818 48.728546 13.081908
38.236938 48.774143 12.928656
39.78014 48.790649 12.720848
41.142925 48.722435 12.39477
42.665009 48.743595 12.246865
44.245571 48.696899 12.084634
45.340542 49.375351 12.01246
32.58556 50.456379 13.464986
34.016857 50.153595 13.333097
35.26453 50.202518 13.267893
36.754505 50.242004 13.075841
38.290985 50.278214 12.798785
39.796101 50.298565 12.564943
41.203255 50.235538 12.351028
42.584457 50.179989 12.197932
43.946194 50.19025 12.087641
32.843483 51.594166 13.404007
33.897739 51.657879 13.310967
35.320587 51.747692 13.174999
36.751972 51.781883 13.059973
38.26165 51.772015 12.858287
39.776585 51.777088 12.615681
41.195465 51.743088 12.360195
42.576729 51.852787 12.196118
44.171879 52.000977 12.033809
31.472403 52.904846 13.472713
32.615589 53.141521 13.36761
33.885078 53.279625 13.328554
35.239769 53.20747 13.226597
36.757359 53.234833 12.991279
38.270077 53.295303 12.813736
39.75684 53.278725 12.499931
41.158516 53.30711 12.328391
42.579708 53.299465 12.193968
44.170441 53.062904 12.059027
31.209061 55.406574 13.478624
32.238014 54.729839 13.400184
33.849598 54.721634 13.297126
35.246006 54.744846 13.127358
36.75322 54.742764 12.968807
38.274746 54.785835 12.808202
39.786556 54.800201 12.579799
41.153652 54.78577 12.343976
42.534275 54.730869 12.135565
43.928196 54.766788 12.085373
32.470989 56.171898 13.369636
33.876411 56.167908 13.274117
35.246193 56.191376 13.122515
36.753784 56.247761 12.953777
38.285847 56.255581 12.684542
39.81078 56.278141 12.465172
41.160416 56.262455 12.315043
42.588734 56.18903 12.141952
31.103724 57.902954 13.433722
32.529461 57.91814 13.355494
33.820366 57.772888 13.264156
35.272755 57.695511 13.07246
36.747154 57.734383 12.886437
38.29501 57.767586 12.671122
39.767521 57.800682 12.486675
41.177204 57.781132 12.297564
42.503201 57.568932 12.167279
43.559746 57.831158 12.056141
31.022896 58.959671 13.437035
32.445377 59.274288 13.350478
33.862186 59.242363 13.260705
35.250477 59.245438 13.038614
36.724236 59.227089 12.892724
38.256287 59.260242 12.692311
39.742432 59.278561 12.412775
41.070145 59.210617 12.282863
42.31699 59.254501 12.201466
43.676102 59.082558 12.023044
30.919912 60.805958 13.438795
32.355392 60.787121 13.332835
33.835392 60.708858 13.238973
35.263287 60.721775 13.035581
36.727966 60.758762 12.857019
38.263641 60.753014 12.584764
39.778698 60.787949 12.453754
41.12616 60.819988 12.252828
42.583633 60.770481 12.153725
43.676785 61.432755 12.077729
30.893566 62.50312 13.398944
32.281322 62.123119 13.360547
33.83506 62.228668 13.237738
35.239285 62.223137 13.016663
36.715668 62.223839 12.799848
38.250206 62.249615 12.675993
39.73872 62.312382 12.337482
41.138145 62.236324 12.229656
42.610554 62.287968 12.071178
31.006365 63.830044 13.389583
32.404781 63.762882 13.372255
33.770248 63.727783 13.201472
35.251556 63.708214 13.022485
36.753448 63.749802 12.85257
38.259052 63.754646 12.581711
39.736988 63.819855 12.369492
41.11068 63.78503 12.230845
42.393219 63.862949 12.120845
30.91361 65.142128 13.390569
32.226093 65.305519 13.388056
33.804836 65.219055 13.198783
35.238659 65.240707 12.996781
36.754566 65.200729 12.705098
38.273117 65.226578 12.578228
39.706169 65.278038 12.328077
41.039444 65.194023 12.222846
42.258301 65.281822 12.089304
29.850863 66.749725 13.482892
30.89678 66.894287 13.419567
32.337406 66.624802 13.313553
33.774284 66.725342 13.205394
35.253593 66.721832 12.909195
36.760361 66.732277 12.691757
38.235012 66.741577 12.572571
39.725201 66.759628 12.313309
41.088646 66.834221 12.217603
42.563354 67.120827 12.054604
30.887699 68.373688 13.351166
32.308678 68.261887 13.311175
33.779728 68.182556 13.126096
35.224476 68.21106 12.884897
36.756699 68.215126 12.651119
38.279259 68.266792 12.498927
39.792099 68.269592 12.344504
41.062263 68.340576 12.197598
42.509155 67.961037 12.076889
30.890385 69.696205 13.36596
32.324402 69.815262 13.30068
33.811211 69.730309 13.047931
35.278816 69.711494 12.849739
36.747631 69.732376 12.567269
38.240578 69.767548 12.517025
39.734158 69.786308 12.302505
40.986675 69.853828 12.183471
42.375015 69.298416 12.059309
29.828396 71.758858 13.477782
