# .PCD v0.7 - Point Cloud Data file format
VERSION 0.7
FIELDS x y z
SIZE 4 4 4
TYPE F F F
COUNT 1 1 1
WIDTH 1561
HEIGHT 1
VIEWPOINT 0 0 0 1 0 0 0
POINTS 1561
DATA ascii
157.00517 94.824303 27.613314
158.98517 95.071754 27.475838
160.94876 95.023346 27.285282
163.03387 95.055183 27.000381
165.06671 94.97438 26.656834
167.20961 95.04171 26.449785
169.03615 95.146706 26.286434
170.97395 95.24736 26.271704
173.09401 95.591286 26.086298
174.50798 95.387268 26.115974
176.41487 95.696716 26.033676
156.98566 96.455559 27.952574
158.88791 96.407364 27.880207
161.08919 96.923523 27.77865
162.97998 96.849556 27.623009
165.01628 97.052284 27.393162
166.99808 97.011101 27.11278
169.12411 96.974098 26.842022
171.02483 97.048698 26.666502
173.07947 97.004623 26.4793
175.05823 97.094124 26.414801
177.05363 97.071686 26.291327
179.07068 97.236267 26.106148
180.82405 97.430565 26.068251
163.76639 98.506302 27.731869
165.07173 98.577888 27.817873
167.08125 98.78614 27.563345
168.88756 99.05703 27.508257
170.9798 99.07235 27.288208
173.06479 99.019218 27.104076
175.06903 98.961395 26.887789
176.99754 99.056702 26.712231
178.88872 98.934013 26.486345
180.79478 98.900307 26.389883
182.92697 99.152214 26.228811
184.73903 99.458954 26.165415
187.0006 99.667542 26.197647
168.17772 100.29282 27.816517
171.1557 100.77068 27.721819
173.05388 100.723 27.629972
174.98976 100.95407 27.54213
176.96555 101.01875 27.338091
178.88516 101.03339 27.17989
180.8895 100.96188 26.920374
182.9377 101.00618 26.702063
184.94281 101.05515 26.51367
186.91896 101.06673 26.279562
188.61775 101.23298 26.27813
190.66739 101.62962 26.153324
192.68271 101.48055 26.139847
173.46684 102.27161 27.91464
175.14995 102.46708 27.878218
176.85965 102.68028 27.779476
179.06969 102.85332 27.652269
180.88309 103.03808 27.603558
182.90459 103.02172 27.392742
184.95641 103.04568 27.130022
186.9269 102.94056 26.950047
189.00975 103.00591 26.575901
191.11133 103.06864 26.396606
192.98665 103.1952 26.344687
194.85124 103.36967 26.273605
196.55559 103.50725 26.149452
179.16455 104.71609 27.821114
181.23927 104.49934 27.900791
182.96678 104.76269 27.8165
184.98914 104.86009 27.692772
186.86728 105.02728 27.596155
188.89891 104.9861 27.277187
190.93289 105.06187 27.104084
192.89795 104.92891 26.790379
195.02979 105.04927 26.549726
197.01866 104.95894 26.372824
198.66446 105.10878 26.221483
200.75789 105.33298 26.116138
202.7428 105.452 26.092997
185.21371 106.67608 27.952477
187.02548 106.68799 27.827488
188.86444 106.799 27.839958
191.02237 106.93642 27.647995
193.00749 107.01155 27.427639
194.964 107.0697 27.165649
196.85861 107.01538 26.929501
198.89993 107.00455 26.689205
200.95207 106.93823 26.421967
202.97104 107.11256 26.40806
204.83087 107.36636 26.33222
206.74095 107.5461 26.283316
208.50308 107.47522 26.123066
190.83614 108.2784 27.903702
193.16025 108.67251 27.873369
194.96239 108.82703 27.763971
196.8952 109.066 27.612225
198.85635 109.10469 27.386654
200.86087 108.98201 27.16501
202.84785 108.91082 26.885841
204.86589 108.95291 26.757792
206.90739 108.99628 26.54191
208.97813 109.07085 26.452578
210.90335 109.18964 26.221642
212.64798 109.47015 26.192322
214.90225 109.74449 26.038889
216.15851 109.70975 26.106922
196.9257 110.44527 27.893993
199.16655 110.88181 27.865381
200.9689 110.77572 27.685148
202.92189 110.89341 27.509516
204.92491 111.06377 27.371975
206.94557 111.02002 27.2925
208.83913 111.03628 27.022346
210.92088 110.95704 26.811045
212.90375 110.86817 26.563538
214.89565 110.97883 26.417006
216.84547 111.20679 26.19796
218.62468 111.45272 26.128088
220.9379 111.74091 26.05649
200.82532 112.30226 27.902315
203.09369 112.26584 27.93557
204.95845 112.61899 27.803545
206.99756 113.04105 27.793804
208.96094 112.94064 27.693672
210.8992 113.02192 27.399271
212.92116 112.97405 27.196085
214.86076 112.91428 26.91111
216.89049 112.90598 26.69273
218.88419 112.98243 26.416986
220.85283 113.20992 26.29805
222.73164 113.51244 26.172001
224.51292 113.75391 26.121855
232.80728 113.24435 26.108782
234.94102 112.77759 26.20285
209.14235 114.69482 27.881256
211.27696 114.76915 27.855265
212.97731 114.71181 27.764462
214.98569 114.98476 27.600546
216.93036 115.00651 27.29813
218.94006 114.92887 27.095587
220.94618 114.97626 26.967613
222.91487 114.96735 26.635067
224.81276 115.03033 26.420261
226.78755 115.13753 26.223995
228.75688 115.52079 26.299515
230.76071 114.91596 26.320795
239.76761 114.00503 26.064377
241.17874 114.98746 26.208618
212.05339 116.30546 27.923233
215.32033 116.48582 27.8846
217.06973 116.77071 27.758589
218.92821 116.93153 27.649673
221.03423 116.94859 27.498861
222.93874 117.04893 27.288618
224.95955 116.93928 27.063143
226.91306 116.97587 26.846523
228.96521 116.98125 26.887474
230.2413 116.04829 26.582607
242.47693 117.5108 26.411226
221.15352 118.47667 27.776764
223.16649 118.90903 27.726807
225.00923 118.84686 27.604696
227.01401 119.03707 27.440277
228.68561 118.8575 27.591604
243.06114 119.10146 26.506845
224.80768 120.41087 27.891665
226.98274 120.78145 27.886993
228.33028 120.86655 27.719767
241.98425 121.91525 27.380606
243.04669 120.99957 26.864559
244.86848 121.03635 26.211344
246.84111 121.54134 26.1439
248.81279 121.68703 26.095387
241.76913 123.07902 27.678185
243.07718 122.98882 27.244293
245.04111 122.96952 26.743311
247.04912 122.94865 26.525963
248.92973 123.01402 26.277437
250.92874 123.181 26.23233
252.86082 123.37048 26.13459
254.79645 122.14407 26.007259
241.69002 124.81664 27.804028
243.17499 124.89608 27.592834
245.03296 125.02753 27.488811
247.05418 125.0012 27.229376
249.03825 124.96969 26.991423
251.03242 124.89829 26.679607
252.98848 124.97421 26.445023
254.97012 125.08383 26.268955
256.79437 125.32227 26.171848
258.31577 125.60754 26.320198
243.86688 126.27991 27.987709
245.37697 126.58215 27.824982
247.15883 126.71851 27.76268
249.17719 126.88441 27.625639
251.06239 126.9899 27.363832
253.03493 126.99251 27.141947
255.03976 126.8877 26.811417
257.04413 126.92099 26.607412
259.00497 127.1041 26.433012
260.80234 127.21953 26.222412
262.84674 127.16893 26.113634
247.36575 128.34555 27.837639
249.67426 128.30099 27.928177
251.22906 128.69667 27.935266
253.16302 128.75708 27.723074
255.11446 128.93349 27.533846
257.06534 129.01886 27.267284
259.0488 128.87547 26.948782
261.00629 128.9955 26.766405
262.66095 128.93295 26.592182
254.98137 130.72304 27.92861
257.19461 130.87592 27.826889
259.07123 130.9649 27.610487
261.04538 131.00624 27.406897
262.64301 130.77791 26.973104
259.6478 132.34427 27.862129
261.39294 132.56438 27.835297
262.53821 132.60741 27.737839
103.52496 76.915039 28.303347
104.77886 77.382393 28.188244
107.21156 77.754402 28.102377
108.41086 77.762024 28.01203
110.43681 77.716843 28.03927
103.69208 79.027321 28.693197
104.92577 78.881851 28.642607
106.80522 79.043259 28.333216
108.73026 79.24913 28.316454
110.46153 79.367661 28.13187
112.42212 79.47245 28.133615
115.63188 79.736641 28.006783
103.66453 80.983238 29.360945
104.85514 81.011894 29.319597
106.88842 80.997513 29.033907
108.89757 81.01255 28.812155
110.85805 81.022171 28.610443
112.92255 81.020355 28.40925
114.76699 81.066597 28.221331
117.16666 81.584023 28.275183
118.43309 81.429596 28.141729
103.68008 82.332947 29.732563
105.07751 82.76564 29.818327
106.9453 82.986809 29.697958
108.90121 83.017532 29.446089
110.90318 83.016953 29.300571
112.85128 83.030258 29.020542
114.86061 82.944176 28.815788
116.8119 83.048775 28.653301
118.73672 83.035988 28.370014
120.76678 83.28952 28.259083
122.43038 83.269142 28.189575
124.82425 83.758972 28.059284
126.6396 83.745743 28.003695
107.08488 84.311485 29.920044
109.1123 84.604759 29.830481
111.02104 84.654915 29.616272
112.91158 85.008614 29.592773
114.8887 85.0755 29.44158
116.93269 85.106354 29.171335
118.85416 84.929848 28.977596
120.91602 85.008751 28.770569
122.91099 84.925194 28.506371
124.90784 85.042427 28.397743
126.79781 85.229866 28.228474
128.70003 85.541969 28.182198
112.84956 86.97377 29.801167
115.00449 86.424637 29.819889
116.9688 86.634712 29.757418
118.91319 86.953499 29.682415
120.90838 87.042023 29.416389
122.84595 86.943794 29.130651
124.81616 86.947037 28.882456
126.90026 86.951683 28.69879
128.78458 87.065163 28.442177
130.97882 87.097763 28.244205
132.58109 87.362877 28.182583
134.44098 87.541878 28.18293
117.64512 89.169777 29.885227
120.93417 88.623886 29.790184
122.92313 88.804321 29.654669
124.96726 88.903465 29.555271
126.84814 88.917328 29.264954
128.86174 88.909103 29.081623
130.8212 88.977264 28.780621
132.9919 89.018059 28.512526
135.00157 89.00695 28.337847
136.75726 89.256653 28.269415
138.42606 89.445541 28.180731
142.66476 89.544235 28.048363
123.0451 90.575943 29.788733
125.15066 90.649773 29.895012
126.94767 90.60479 29.757019
129.01222 90.918892 29.578768
130.96231 91.013657 29.422344
132.85379 90.966362 29.248045
134.911 90.982758 29.002609
136.93723 90.933357 28.689354
138.93922 90.941963 28.456703
140.93796 91.241341 28.339911
142.79713 91.363037 28.248653
144.68015 91.441727 28.16832
146.28688 91.503525 28.295418
128.87 92.728043 29.966442
130.86002 92.683098 29.737682
132.86371 92.662743 29.736401
134.93214 92.84034 29.633041
136.91422 92.872086 29.241478
138.97304 92.943802 29.036547
140.94099 93.026382 28.930513
142.87976 92.982224 28.73419
144.77271 92.982269 28.606901
146.82899 93.076691 28.411499
148.77029 93.292458 28.287853
150.76176 93.398872 28.192146
152.31351 93.096298 28.25124
135.06607 94.156013 29.761879
136.94907 94.707512 29.71599
138.86578 94.985657 29.726168
140.87244 95.020462 29.509876
142.93854 95.013123 29.369076
144.95009 94.996185 29.1705
146.85899 94.973251 28.980257
148.90367 94.981453 28.739069
150.88744 95.076149 28.544809
152.8026 95.066017 28.389835
154.78304 95.178047 28.212318
156.73714 95.35775 28.148582
158.28284 95.554115 28.11298
160.10265 95.744156 28.085197
138.87393 96.32592 29.985216
141.18478 96.362625 29.747583
143.08241 96.678734 29.759073
144.92317 96.762817 29.70668
146.95271 96.964691 29.599768
148.89754 97.032578 29.413292
150.87941 97.041611 29.218748
152.86037 96.94825 28.915249
154.89728 96.943375 28.681032
156.83652 96.990471 28.447863
158.82358 97.134254 28.244226
160.74001 97.214432 28.18235
162.80231 97.441772 28.136929
164.08501 97.377083 28.010696
145.69284 98.314209 29.971405
147.28972 98.569595 29.874969
149.04091 98.58799 29.821821
150.98817 98.888481 29.699289
152.91751 99.032471 29.555424
154.8679 98.995682 29.332806
156.87317 98.923767 29.086704
158.83084 98.943039 28.774605
160.91075 98.974739 28.612259
162.89951 98.981361 28.342018
164.92543 99.183693 28.44169
166.82988 99.187576 28.200689
168.045 99.814308 28.034933
153.07928 100.75066 29.82403
154.99876 100.67411 29.775448
156.99388 100.79738 29.680721
158.94592 100.87096 29.416487
160.90408 101.03677 29.305523
162.91641 101.00243 29.031551
164.89197 100.89168 28.832319
166.86362 100.93932 28.517473
168.91931 101.02914 28.359207
170.84549 101.19032 28.221895
172.87721 101.53556 28.148466
174.25507 101.61143 28.239916
176.13002 101.75706 28.127274
159.7171 102.71955 29.891693
161.07213 102.94381 29.826494
163.03287 102.92536 29.640133
164.97816 102.93766 29.315477
166.90254 102.95932 29.203297
168.92638 102.8556 28.876116
170.90669 102.95267 28.677322
172.84091 103.01075 28.51543
174.80789 103.20853 28.367958
176.92889 103.27976 28.312023
178.67957 103.34948 28.127113
180.90926 103.79047 28.067579
162.91855 104.31094 29.99049
165.18245 104.55479 29.759434
166.95374 104.84113 29.708216
168.89191 104.87707 29.50984
170.89844 104.95264 29.296991
172.88121 104.96484 29.162457
174.98148 104.9883 29.049023
176.90186 105.06531 28.828718
178.85657 104.99148 28.557783
180.80359 105.09396 28.385578
182.91316 105.17939 28.374943
184.68677 105.49888 28.150339
186.54762 105.37823 28.070944
169.22786 106.7067 29.829088
171.06676 106.52869 29.78363
172.94365 106.76505 29.663198
174.86639 106.99846 29.617867
176.97441 106.94971 29.401342
178.92303 107.00329 29.147268
180.92363 106.98064 29.010019
182.92526 106.98615 28.754087
184.88623 106.9707 28.454233
186.90675 106.99344 28.348389
188.92651 107.22539 28.21242
190.5822 107.47608 28.060732
192.14471 107.7895 28.105923
175.48079 108.35022 29.814503
177.2048 108.43114 29.660038
179.02148 108.73267 29.597149
181.00294 108.95349 29.635115
182.94992 109.07025 29.395863
184.9624 108.8671 29.196995
186.93826 108.98224 28.856043
188.90256 109.00125 28.700314
190.90257 109.01074 28.371401
192.86101 109.06422 28.251553
194.71176 109.55741 28.163385
180.50177 110.57108 29.804966
183.20847 110.59158 29.798199
185.01213 110.76382 29.658689
186.95819 110.92827 29.578291
188.97713 111.02951 29.412676
190.91112 110.97211 28.981337
192.92778 110.91435 28.768946
194.9146 110.9588 28.521658
196.89197 111.1463 28.356812
198.63771 111.19398 28.200195
200.93588 111.33807 28.085831
202.70592 111.7913 28.169123
187.43079 112.50865 29.837378
189.15256 112.64797 29.708426
191.02359 112.82617 29.636841
192.94032 112.94231 29.410875
194.91486 112.92873 29.225624
196.92137 112.98419 28.93763
198.9175 112.94863 28.645849
200.92784 113.00101 28.494375
202.91953 113.05772 28.338474
204.87979 113.38007 28.219196
206.77473 113.09454 28.206776
208.99573 113.51096 28.050602
211.04099 113.78922 28.081972
193.2077 114.72588 29.791992
195.06966 114.77161 29.714035
197.03575 114.99923 29.613689
198.98712 115.00091 29.466478
200.97429 115.02631 29.158466
202.95381 114.9043 28.893478
204.98398 115.04424 28.782587
206.97647 114.94516 28.573305
208.93793 115.03168 28.379967
210.77589 115.17618 28.229616
212.96587 115.47356 28.177095
195.71869 116.37463 29.877489
197.17525 116.45624 29.820917
199.39821 116.6852 29.914108
200.99753 116.78325 29.771839
203.02591 116.83791 29.56621
204.9406 117.02129 29.396935
207.00595 116.9558 29.28023
208.96394 116.96097 29.027792
210.99666 116.91985 28.755196
213.02464 116.99036 28.537361
214.91148 117.10298 28.351933
216.82672 117.37268 28.240866
218.93372 117.49832 28.199272
220.55293 117.50777 28.09716
201.35435 118.35251 29.975008
203.0984 118.36857 29.843834
205.17409 118.40889 29.748842
207.18681 118.79626 29.719921
209.13994 118.85513 29.604767
211.01904 118.98666 29.395229
213.04295 118.97491 29.214174
214.97073 118.95317 28.898312
217.00389 118.94009 28.686298
219.00258 118.97458 28.475737
220.97331 119.18375 28.42358
222.65666 119.33138 28.229944
224.77769 119.61211 28.177002
226.24382 119.83055 28.073914
229.54062 119.26752 28.190546
242.8521 119.0312 28.071102
207.35406 120.75975 29.998655
209.49307 120.37013 29.825727
210.96284 120.56743 29.801672
213.05469 120.72832 29.682581
215.05417 120.95021 29.512638
217.05844 120.87609 29.353149
219.06151 120.90683 29.157383
221.01215 120.95837 28.834694
223.02463 120.94883 28.660717
225.03397 121.12016 28.453745
226.99303 121.22624 28.287159
229.08578 121.10297 28.35751
230.07959 120.84438 28.775127
241.71716 121.84827 29.21759
242.48187 120.34953 28.585789
215.16949 122.47699 29.96097
217.29321 122.40623 29.780956
219.12511 122.8018 29.688946
221.04012 123.02018 29.496925
223.04027 122.86118 29.238543
225.01112 122.93757 29.052162
227.01439 122.95163 28.738619
229.01727 122.98611 28.660555
230.76855 123.18103 28.943316
241.19473 123.35517 28.422295
219.40771 124.56303 29.969944
221.24936 124.78446 29.840618
223.10263 124.5982 29.640972
225.12784 124.83933 29.620258
227.1246 124.93353 29.455185
229.03925 124.96202 29.213997
231.00549 124.9423 29.068888
232.91901 125.15197 29.196894
234.93146 125.45355 29.327538
237.12134 125.36965 29.370075
239.13017 125.22498 28.803322
240.81416 125.03735 28.281033
242.72896 125.50343 28.108915
220.92883 126.00624 29.908106
225.28534 126.51154 29.915964
227.23735 126.44793 29.75704
229.13631 126.80816 29.68733
231.16103 126.92657 29.521523
233.06364 127.0061 29.424801
235.12366 126.8472 29.313148
237.08391 126.98003 29.155159
239.04865 126.94596 28.902025
241.11273 126.9626 28.641865
243.1003 127.01324 28.504938
245.00327 127.19777 28.257685
246.99908 127.5616 28.134094
248.82971 127.68773 28.101124
233.33698 128.59937 29.849352
235.05344 128.59604 29.636972
237.18025 128.95978 29.636568
239.15178 129.02307 29.518864
241.12172 128.95212 29.27689
243.10101 128.92503 29.154329
245.02898 128.89473 28.876415
247.0744 129.03375 28.639614
249.0753 129.08401 28.392082
251.05869 129.26466 28.239307
252.99101 129.65472 28.154381
254.18301 129.64426 28.152863
237.20238 130.13437 29.805351
239.61865 130.39261 29.783327
241.25244 130.48529 29.63002
243.2498 130.77742 29.686859
245.08765 131.04587 29.447338
247.01823 131.00124 29.303196
249.06882 130.96974 28.97378
251.10699 130.99805 28.743904
253.0668 130.93539 28.525877
255.03336 131.2574 28.29928
256.8288 131.37338 28.252831
258.51022 131.07439 28.043304
263.30823 131.6438 28.067696
245.7597 132.58368 29.85309
247.24202 132.83868 29.798046
249.19577 132.90768 29.577436
251.13472 133.0132 29.477736
253.08797 132.90245 29.147711
255.1053 132.95183 28.879911
257.15274 132.98851 28.662685
259.02603 133.11949 28.372728
260.94861 133.29134 28.233681
262.92303 133.24921 28.33563
249.33075 134.3994 29.867632
251.50731 134.75452 29.812397
253.18465 134.79417 29.724764
255.01421 134.88081 29.530678
257.00137 134.92213 29.273026
259.15134 134.9467 28.986801
261.13553 134.95457 28.819441
262.56567 134.96736 28.65008
255.28445 136.3549 29.734013
257.2431 136.82925 29.74485
258.99194 136.77347 29.624737
260.99173 136.97981 29.399605
262.57809 137.02806 29.21703
259.32611 138.4231 29.872578
261.25931 138.42036 29.823313
262.53244 138.72939 29.777313
262.57733 140.31372 29.577343
262.7356 144.1243 29.885239
103.55917 83.201782 30.676962
104.73377 83.369896 30.264479
106.62441 83.729187 30.131254
108.53588 83.417725 30.01919
112.57948 83.747116 30.088402
103.6234 84.976578 31.326473
104.94849 84.952789 30.661493
106.91032 85.075844 30.396055
108.82774 85.237556 30.213602
110.73813 85.545395 30.162706
113.07166 85.676582 30.147364
116.16563 85.380501 30.037064
103.64061 87.028084 31.460314
105.02163 86.953682 31.253147
106.98679 86.973785 31.084755
108.9524 86.93779 30.797508
110.94605 87.007362 30.624006
112.94152 86.999939 30.445698
114.88154 87.289078 30.252146
116.88756 87.36834 30.245146
119.33595 87.825073 30.090084
120.13537 87.83223 30.025097
103.47827 88.438179 31.642437
104.9469 88.7341 31.723076
106.95965 88.841957 31.637346
108.95756 88.9655 31.43922
110.99692 89.018707 31.277182
113.0035 89.011276 31.080359
114.98634 88.981537 30.793495
116.88341 89.011864 30.602573
118.94539 88.983261 30.425257
120.90102 89.268806 30.194674
122.87689 89.539482 30.112183
124.53762 89.827423 30.110252
126.34601 89.827698 30.015995
107.37087 90.441376 31.720312
109.24579 90.594009 31.808548
111.03136 90.63868 31.728563
113.01821 90.885117 31.619314
114.9698 90.935043 31.503319
117.00292 91.004288 31.171562
118.97366 90.894188 31.009983
120.96018 90.934456 30.775719
122.89972 91.103317 30.513826
124.85282 91.152603 30.365196
126.97141 91.323547 30.26816
128.54582 91.415939 30.178049
130.35944 91.408913 30.108616
113.16087 92.398903 31.852026
114.99957 92.389542 31.789827
117.08099 92.709778 31.746946
119.06222 92.883141 31.597624
121.00339 92.959541 31.287712
122.94794 92.967239 31.163868
124.97151 92.907166 30.953032
126.96309 92.939178 30.746502
128.93803 93.016808 30.446716
130.92917 93.151054 30.258615
132.92485 93.607201 30.1681
134.81172 93.499779 30.106287
136.35876 93.818336 30.126263
118.40727 94.361305 31.998211
120.93722 94.54586 31.790964
123.06219 94.83596 31.71246
125.08906 94.766869 31.512953
127.00754 95.019951 31.386517
128.97269 94.898163 31.070412
130.94981 94.955048 30.78145
132.92628 95.012863 30.489447
134.88747 95.072578 30.3081
136.93048 95.344086 30.255108
138.94524 95.170113 30.128592
142.16457 95.824524 30.106102
122.98615 96.001579 31.86158
125.02573 96.460808 31.773336
127.00999 96.695633 31.851812
129.01997 96.798859 31.568626
131.0486 96.908722 31.431767
132.97734 96.969383 31.228378
134.96391 96.923523 30.973032
136.94328 96.97625 30.69766
138.93477 97.041908 30.495394
140.88187 97.097412 30.35083
142.79774 97.346451 30.26568
144.8616 97.528709 30.132122
146.70634 97.683434 30.176802
148.59743 97.409035 30.07221
129.65796 98.263374 31.867319
131.2016 98.536278 31.867218
133.14563 98.924736 31.787254
135.09676 98.824348 31.583582
136.9366 98.934563 31.282804
138.97357 98.893639 31.041765
140.93541 99.043007 30.871382
142.94405 98.986496 30.651052
144.91022 99.040611 30.489845
146.84744 99.159714 30.368795
148.90228 99.249893 30.216471
150.79324 99.543785 30.19733
135.29253 100.39523 31.894983
137.25333 100.58959 31.68317
139.01028 100.64155 31.623375
141.01529 100.98684 31.590143
142.95601 100.9991 31.343096
144.95853 101.01662 31.187368
146.97903 100.97069 30.954273
148.96454 100.96957 30.698254
150.96996 100.98449 30.551109
152.8932 101.14975 30.343065
154.87253 101.39767 30.265547
156.82256 101.52183 30.265154
158.90088 101.81669 30.17511
139.38434 102.39768 31.964354
141.52007 102.41497 31.803926
143.18892 102.6334 31.623131
144.99223 102.89056 31.64889
147.00038 102.91151 31.61171
149.00497 102.88872 31.366108
151.00041 102.88725 31.162243
152.97481 102.94688 30.862293
154.9989 103.00368 30.736938
156.96274 103.01174 30.450212
158.85686 103.08366 30.30835
160.80542 103.24116 30.195047
162.65788 103.43368 30.162169
164.57568 103.86803 30.00827
144.76593 104.23222 31.833744
146.86128 104.1467 31.793558
149.21011 104.60405 31.779957
151.0688 104.79609 31.682539
153.05408 104.89108 31.385147
154.97977 104.94128 31.350691
157.03374 104.89596 31.181965
158.99562 104.93499 30.896015
160.98512 104.97427 30.666719
162.97194 105.04959 30.432108
164.78999 105.26886 30.229326
166.98456 105.48999 30.220673
168.99625 105.84172 30.170036
151.79948 106.59315 31.965805
153.39613 106.61602 31.812374
155.18953 106.5679 31.700689
157.11618 106.74892 31.61348
159.00505 106.93124 31.502876
160.98978 106.97665 31.252304
162.97816 106.95035 30.928644
164.98087 106.97241 30.759558
166.96307 107.02106 30.49761
168.86499 107.139 30.38048
170.87431 107.32536 30.253344
173.02744 107.59438 30.152714
175.16719 107.562 30.170746
176.84712 107.82852 30.131805
153.77338 108.01199 31.992886
155.76971 108.81625 31.991768
156.9754 108.35649 31.80335
159.35774 108.4614 31.864683
161.14655 108.81091 31.770731
163.01352 108.8897 31.576902
165.06941 108.89744 31.346376
167.00801 108.98999 31.19912
169.0034 109.0222 30.995108
170.96896 109.00516 30.638897
172.97861 109.02039 30.495005
174.89851 109.15749 30.413597
176.90416 109.17949 30.270294
178.91885 109.58266 30.148336
181.04593 109.34488 30.087757
163.24988 110.24953 31.869955
165.04938 110.38807 31.753162
167.1675 110.79667 31.650614
169.05792 110.89152 31.534079
170.95172 110.90046 31.336477
173.00848 110.94763 31.188887
174.99095 110.97015 30.848488
177.02844 110.95354 30.819038
179.00497 111.00948 30.531055
181.05315 111.00196 30.468033
182.90218 111.29887 30.283554
184.84755 111.63106 30.169247
187.03528 111.86639 30.079706
165.79575 112.00555 31.998331
166.78761 112.22205 31.920807
168.92616 112.5011 31.81716
171.17163 112.48158 31.690866
173.16818 112.67382 31.658522
175.065 112.86894 31.590313
177.03728 112.90598 31.423988
179.00754 112.97617 31.24511
181.01599 112.96076 30.879519
183.02481 112.9796 30.724512
185.02318 113.01065 30.525494
186.87961 113.21936 30.2892
188.95883 113.29921 30.248249
190.89067 113.7422 30.123785
192.64793 113.8719 30.079351
175.14697 114.30087 31.778915
177.20187 114.57961 31.782196
179.15553 114.79325 31.657982
181.02849 114.94749 31.575369
183.05391 114.98413 31.299122
185.01291 115.02533 31.064938
187.02988 114.9666 30.85783
189.02719 114.99924 30.65358
191.019 115.03813 30.426523
192.92175 115.22943 30.26947
194.92958 115.5276 30.152901
196.22496 115.49771 30.039307
179.83717 116.01482 31.869692
181.16603 116.42542 31.824873
183.14818 116.58706 31.700781
185.19511 116.82262 31.718155
187.06503 116.9229 31.445822
189.0591 116.89754 31.280327
191.03949 116.94855 31.009214
193.04889 116.96889 30.850618
194.987 117.06095 30.556723
196.94675 117.16637 30.395063
198.83745 117.28684 30.24362
201.00748 117.55747 30.17918
202.66437 117.87552 30.158854
184.96939 118.86842 31.801128
187.42867 118.79578 31.801901
189.11368 118.61232 31.708227
191.11069 118.88725 31.605867
193.07942 118.92927 31.423647
195.05907 118.92003 31.199251
197.07491 118.93468 31.062759
199.04305 118.99812 30.745266
201.01006 119.0776 30.496689
203.03584 119.11843 30.334606
204.98825 119.34857 30.284529
206.86211 119.40085 30.186712
208.80032 119.61803 30.196417
189.03224 120.01678 31.975714
191.32585 120.15067 31.898064
193.18903 120.38711 31.814419
195.12851 120.74678 31.722473
197.0806 120.90373 31.603476
199.07137 120.89945 31.360323
201.08467 120.91759 31.211967
203.05496 120.9784 30.903755
205.06969 120.99582 30.758118
207.06868 121.02872 30.619486
209.00053 121.14332 30.399103
211.10745 121.2715 30.256691
213.02284 121.45965 30.120039
215.13965 121.73705 30.159872
216.73555 121.89639 30.014727
195.05219 122.01521 31.982103
197.22203 122.34668 31.8915
199.22441 122.45751 31.836691
201.10448 122.56194 31.725817
203.07089 122.82397 31.526501
205.11105 122.88443 31.422066
207.09756 122.97408 31.184307
209.11298 122.94743 31.026129
211.09506 122.99694 30.760149
213.10063 123.0247 30.576162
215.06544 123.16074 30.338514
216.95032 123.31852 30.179993
218.83318 123.5991 30.186808
201.44519 124.17678 31.877258
202.97423 124.13985 31.828964
205.36789 124.37638 31.699997
207.22458 124.61658 31.815857
209.14311 124.8305 31.580408
211.11607 124.97638 31.428944
213.13086 124.96848 31.213297
215.123 124.96426 30.970135
217.12338 124.99735 30.766708
219.0696 125.09755 30.51359
221.04747 125.13589 30.33466
223.05339 125.29426 30.24486
225.0128 125.68899 30.186363
226.3483 125.51769 30.001249
236.30833 124.8349 30.669762
209.49113 126.28904 31.796198
211.25513 126.53928 31.798674
213.12379 126.74453 31.755905
215.15334 126.77566 31.57239
217.09532 126.93743 31.413467
219.08011 126.98316 31.106853
221.11172 127.00066 30.839931
223.07265 127.03882 30.618254
225.02142 127.15357 30.448359
226.97849 127.28887 30.260138
228.99951 127.475 30.144592
230.4527 127.60651 30.140894
213.89839 128.04837 31.837629
215.94878 128.42139 31.914867
217.12114 128.67279 31.854702
219.22067 128.75346 31.569298
221.1349 128.90547 31.441948
223.09647 128.98972 31.226654
225.14378 128.96573 31.060156
227.13817 129.00482 30.834549
229.12518 129.05017 30.584284
231.1292 129.08131 30.38924
232.99059 129.34464 30.298666
235.20074 129.53746 30.203077
236.79578 129.51019 30.118057
219.59854 130.35677 31.939053
221.42101 130.27396 31.918056
223.23164 130.63564 31.730005
225.10887 130.81218 31.6243
227.10246 130.9339 31.405668
229.13512 130.96535 31.145985
231.09666 131.01945 30.929939
233.10019 131.0098 30.767159
235.1226 131.036 30.586594
237.03949 131.11763 30.39916
238.93149 131.14812 30.320761
240.84091 131.3979 30.266716
242.62354 131.70796 30.17462
244.03874 131.91382 30.124939
225.28629 132.21512 31.870037
227.30901 132.38394 31.782694
229.12524 132.70969 31.750723
231.05118 132.7679 31.543051
233.00427 132.92848 31.381559
235.06898 132.93347 31.222122
236.94505 133.01363 31.048271
238.94557 132.98843 30.93811
240.92926 132.9998 30.686768
242.94231 133.10712 30.515059
244.8232 133.13025 30.324581
246.75116 133.54742 30.227484
248.53082 133.82787 30.129009
231.29195 134.05939 31.848291
233.3586 134.47945 31.740957
235.07224 134.75523 31.741049
236.97527 134.75859 31.598944
238.9315 134.99654 31.471228
240.96935 134.85397 31.314554
242.95979 134.99823 31.122595
244.91248 135.05585 30.884859
246.98744 134.99658 30.609364
249.00856 135.20718 30.38905
250.8194 135.28529 30.243555
252.573 135.44284 30.156612
254.20837 135.78816 30.184013
233.71754 136.05603 31.993156
235.98029 136.04489 31.965626
237.19398 136.05525 31.883938
238.81459 136.45172 31.888041
240.99797 136.52832 31.840471
242.88895 136.79759 31.729002
244.91919 136.89995 31.536638
246.94174 136.94516 31.28553
248.90909 136.97501 30.964972
250.9361 137.08392 30.857395
252.94879 137.03763 30.5184
254.938 137.20334 30.351423
256.70526 137.35576 30.193205
259.01535 137.86343 30.161465
260.5495 137.90103 30.29686
245.06401 138.24838 31.771193
247.04485 138.5023 31.749514
248.92416 138.85716 31.576382
250.8895 138.91713 31.488535
252.87579 138.96368 31.233471
254.93117 138.98341 30.898483
256.93741 139.15855 30.65259
258.86938 139.10413 30.463779
260.88763 139.39633 30.353043
262.86725 139.29062 30.417423
247.97104 140.10419 31.754589
249.35167 140.16508 31.886711
250.99614 140.38811 31.846615
253.01126 140.70183 31.758963
254.92735 140.89189 31.605919
256.86322 140.96576 31.309359
258.8577 141.0065 31.078363
260.89307 141.03709 30.822723
262.74146 141.09943 30.858696
255.08829 142.16248 31.928211
256.94067 142.6683 31.790573
258.94089 142.83804 31.687471
260.88669 142.94232 31.490829
262.63736 142.89885 31.334818
259.22723 144.48756 31.926851
261.31802 144.4498 31.811396
262.70685 144.63803 31.588991
103.67509 86.839569 32.067322
103.68357 89.34185 32.383823
105.00848 89.48304 32.244198
106.98809 89.603462 32.203987
103.66341 91.016586 32.764355
105.05887 91.032318 32.641369
107.01539 91.146599 32.477829
108.97784 91.214073 32.27692
110.9865 91.433556 32.196266
112.82031 91.546211 32.203491
103.73557 92.981689 33.540741
105.09605 92.926178 33.278389
107.07657 92.976738 33.010651
109.05693 93.027481 32.742229
111.0597 93.032753 32.623734
112.98871 93.223862 32.446205
115.05304 93.164963 32.313293
116.9501 93.418083 32.202259
118.68176 93.63266 32.327385
103.62189 94.442795 33.857468
105.17861 94.534897 33.770611
107.11437 94.83596 33.646542
109.09297 94.923088 33.372669
111.08145 94.957298 33.159317
113.08476 94.962601 33.041946
115.07562 94.993362 32.839737
117.05927 95.038406 32.590199
119.10004 95.14315 32.38081
121.05238 95.395142 32.314247
122.98827 95.501877 32.139912
124.73418 95.476799 32.137466
126.67616 95.479164 32.03344
103.09289 96.081764 33.975723
107.24954 96.24485 33.923092
109.26157 96.451836 33.828434
111.06161 96.793587 33.791473
113.14632 96.840851 33.6133
115.07032 96.954437 33.414993
117.09553 96.933449 33.224258
119.05324 97.014534 33.016727
121.06079 97.027313 32.712521
123.04444 97.072327 32.463051
125.01186 97.345909 32.302261
127.05078 97.407677 32.26001
128.71335 97.844055 32.111687
130.79968 97.754814 32.124409
109.89706 98.067307 33.965816
111.49716 98.074814 33.862564
113.07888 98.413734 33.694038
115.32187 98.622681 33.773575
117.1847 98.703514 33.758251
119.21552 98.922935 33.612309
121.13435 98.955688 33.394356
123.09819 98.935715 33.203617
125.05527 99.027588 32.795433
127.05583 99.04335 32.645355
128.9985 99.137009 32.478931
130.91718 99.303909 32.35899
132.50072 99.519737 32.176998
134.48752 99.672913 32.127342
136.65784 99.91246 32.058113
138.7178 99.448181 32.122879
119.10712 100.3266 33.856396
121.36538 100.64491 33.78059
123.20618 100.64384 33.68224
125.10791 100.87717 33.52425
127.10201 100.9207 33.339233
129.07951 100.97638 33.05344
131.06238 101.02291 32.79879
133.06036 101.04465 32.628902
135.01614 101.16513 32.446663
136.88452 101.41994 32.300674
139.01056 101.58665 32.172615
140.2251 101.95251 32.026749
125.16337 102.28329 33.749969
127.26286 102.48392 33.77906
129.22662 102.78429 33.640526
131.1051 102.90639 33.471962
133.09167 102.94688 33.23822
135.07971 102.98531 33.01162
137.05359 103.04611 32.707676
139.02573 103.11584 32.493313
140.9095 103.24268 32.256695
142.94699 103.38509 32.246895
145.19543 103.70388 32.208042
147.26302 103.72588 32.035
148.69102 103.50694 32.007156
151.12073 103.88332 32.031593
129.52037 104.03907 33.941616
131.3212 104.29812 33.859905
133.18845 104.73629 33.729446
135.18712 104.71851 33.554222
137.0816 104.95277 33.300415
139.07811 104.97818 33.119362
141.04536 105.04833 32.782555
143.05049 105.06142 32.644398
145.06902 105.11269 32.493107
147.07864 105.12067 32.372414
148.91853 105.44386 32.281551
150.91068 105.71551 32.278126
152.76114 105.59481 32.075188
154.2914 105.91061 32.063416
156.74551 105.47843 32.009708
133.87367 106.10577 33.770622
135.5943 106.18626 33.774261
137.18748 106.59363 33.780319
139.15883 106.66344 33.720066
141.11899 106.8783 33.521046
143.09596 106.94113 33.33144
145.08725 106.9757 33.119034
147.10388 106.97387 33.034084
149.05725 107.06338 32.628456
151.0143 107.09885 32.606018
152.95003 107.11715 32.331688
155.02051 107.32487 32.21032
156.74509 107.51438 32.153351
158.70598 107.89071 32.202774
139.90985 108.25052 33.979469
141.23083 108.22613 33.901901
143.13606 108.48212 33.748661
145.12512 108.66205 33.718445
147.18604 108.83624 33.514622
149.11682 108.92411 33.38419
151.11937 108.94389 33.224266
153.08646 109.01318 32.88879
155.05389 109.05209 32.724155
157.07719 109.10816 32.500858
159.02176 109.18883 32.349846
160.94185 109.35223 32.191914
162.87152 109.9319 32.134483
164.31923 109.50127 32.127686
147.52725 110.21336 33.884087
149.26889 110.66216 33.882004
151.15753 110.67165 33.715717
153.1447 110.81039 33.519562
155.07565 110.91668 33.350182
157.1162 110.96438 33.146187
159.10339 111.00632 32.908009
161.08064 111.06135 32.62315
163.02965 111.21095 32.405674
164.98033 111.29507 32.40097
166.77963 111.51066 32.247906
169.19757 111.53506 32.054573
171.95866 111.49871 32.066166
153.32495 112.42113 33.883865
155.24788 112.60059 33.700592
157.24249 112.77702 33.680878
159.09279 112.91711 33.488216
161.0722 112.95218 33.275326
163.08669 113.0187 32.946533
165.07625 113.05766 32.719215
167.10286 113.104 32.589149
169.04576 113.13789 32.393654
171.0378 113.27517 32.226593
172.98901 113.38013 32.174816
174.54071 113.49568 32.226955
176.32741 113.92458 32.096664
157.50635 114.47555 33.907913
159.44009 114.40675 33.889233
161.09067 114.83224 33.767384
163.11922 114.91651 33.570431
165.15715 114.92105 33.404869
167.11655 114.97205 33.198078
169.12404 114.98985 33.048218
171.08871 115.05943 32.709568
173.09248 115.08218 32.541386
175.09857 115.19091 32.403042
177.06578 115.22786 32.286152
178.94688 115.51443 32.227478
181.54614 115.52815 32.068237
163.51434 116.21985 33.829422
165.3069 116.59336 33.809395
167.08817 116.61238 33.698002
169.24203 116.78996 33.594658
171.1255 116.95184 33.354294
173.10657 117.00146 33.088261
175.10721 117.02843 32.905712
177.13026 117.00317 32.738907
179.12004 117.07022 32.584885
181.09917 117.21149 32.417156
182.95927 117.33157 32.223312
184.79118 117.6393 32.285267
186.5316 117.94003 32.120399
189.18587 117.9216 32.080944
169.36807 118.38908 33.842682
171.1618 118.55379 33.777439
173.20441 118.72916 33.659294
174.9874 118.81796 33.555763
177.03229 118.85793 33.452007
179.02704 118.95396 33.210224
181.02277 119.08736 33.122787
183.01709 118.97855 32.777912
185.07693 119.11621 32.540329
186.90416 119.16777 32.331207
189.0262 119.36494 32.357658
190.45088 119.68923 32.116161
192.78201 119.91454 32.211674
175.36542 120.18321 33.761597
177.38031 120.44363 33.803452
179.20329 120.68023 33.671631
181.1676 120.75448 33.537613
183.07518 120.95983 33.386032
185.17322 120.96655 33.21981
187.15678 121.01401 32.961414
189.14378 121.05789 32.71648
191.11363 121.15183 32.412933
193.07301 121.37973 32.384663
194.98309 121.59297 32.217869
197.36505 121.93533 32.196186
178.74039 122.069 33.985245
181.0616 122.27158 33.908562
183.30667 122.6295 33.714069
185.07828 122.85991 33.717976
187.10063 122.87455 33.481766
189.07706 122.90818 33.386143
190.99861 122.99824 33.110409
193.07521 123.0367 32.882973
195.05022 123.10822 32.59597
197.05246 123.19743 32.526024
199.04738 123.32033 32.268322
201.10052 123.40768 32.20583
203.21025 123.52792 32.191051
204.02652 123.91122 32.272293
183.11694 124.08823 33.97406
185.54668 124.21988 33.903618
187.15428 124.32734 33.806534
189.17271 124.79863 33.808399
191.07231 124.86819 33.614948
193.07936 124.88412 33.450611
195.11002 124.99665 33.19368
197.15718 125.02734 32.997902
199.09882 125.05045 32.70256
201.03148 125.14564 32.527157
203.07166 125.15491 32.414284
205.03777 125.26726 32.330898
207.00505 125.49143 32.160179
208.75276 125.8348 32.308571
191.23654 126.24927 33.910778
192.87109 126.16154 33.871349
194.98099 126.74666 33.725121
197.10762 126.84162 33.550915
199.1424 126.96829 33.383358
201.03748 126.92999 33.253517
203.05769 127.0063 33.033703
205.06511 127.04056 32.816135
207.00772 127.13226 32.582253
208.91006 127.19771 32.511143
210.93575 127.40993 32.325306
212.96983 127.60475 32.176346
214.72194 127.61208 32.106247
216.02386 127.96949 32.070438
197.63121 128.27995 33.780777
199.29068 128.40219 33.725456
201.02988 128.76622 33.70512
202.94249 128.86516 33.582409
204.96664 128.97386 33.440788
206.93642 128.96202 33.284679
208.89049 129.00323 33.054394
210.90233 129.04089 32.899017
212.90485 129.07184 32.704948
214.92056 129.14522 32.405361
216.89598 129.60228 32.342262
218.68123 129.56349 32.181705
220.3903 129.99898 32.025681
202.98007 130.10808 33.839783
204.99695 130.62491 33.838303
206.90591 130.5806 33.76413
208.89604 130.82697 33.653709
210.93201 130.89397 33.509224
212.93871 131.01376 33.354996
214.96146 131.03448 33.067936
216.99504 130.96461 32.819412
218.88705 131.23691 32.559628
220.96252 131.23773 32.375404
222.85451 131.54955 32.315449
224.37125 131.63095 32.26646
208.96509 132.52788 33.812145
210.93556 132.20877 33.927368
213.0125 132.65015 33.802452
214.87872 132.81868 33.64307
216.97649 133.01129 33.424538
218.96686 132.9427 33.230568
220.8654 133.04596 32.911781
222.95609 133.09927 32.753387
225.00293 133.16119 32.439739
226.80385 133.36757 32.305592
228.74196 133.56799 32.260544
230.4493 133.58528 32.133301
215.6328 134.50035 33.911682
216.9593 134.40134 33.769886
218.814 134.81161 33.732815
220.94521 134.8873 33.614185
222.8945 134.9939 33.333817
224.9269 135.05138 32.968182
226.89999 135.09444 32.865292
228.9548 135.07539 32.623177
231.13701 135.15733 32.396637
233.00403 135.30498 32.25642
234.87184 135.73245 32.320946
236.39836 135.57361 32.201378
239.74142 135.98418 32.092728
219.0152 136.11063 33.925884
221.28592 136.5217 33.848591
223.08659 136.63728 33.79739
224.9164 136.90466 33.69733
226.90872 136.94418 33.488121
228.9391 137.04253 33.2836
230.93553 137.03397 33.052502
232.93443 137.06981 32.841293
234.91682 137.1288 32.7435
236.89215 137.06303 32.435089
238.84525 137.26109 32.288258
240.71266 137.45198 32.294247
242.77357 137.85971 32.158779
225.45959 138.10464 33.950722
227.18164 138.42581 33.778973
228.88348 138.7648 33.699657
230.979 138.81839 33.623238
232.91698 138.93782 33.521366
234.87401 139.02509 33.239578
236.90808 139.03433 33.138824
238.87929 139.0356 32.875664
240.92154 139.07512 32.64827
242.94016 139.08545 32.543209
244.84621 139.2213 32.338329
246.63811 139.38161 32.180698
248.13904 139.40585 32.099346
229.61842 140.13065 33.913979
230.9509 140.12764 33.886642
233.09216 140.62469 33.797905
234.94138 140.71576 33.780754
236.97867 140.83923 33.687668
238.93452 140.97093 33.545364
240.92105 141.01683 33.293121
242.94342 141.03636 33.150967
244.89342 141.1091 32.786137
246.95145 141.01175 32.580921
248.86433 141.15175 32.41943
250.85608 141.33524 32.260487
252.83708 141.66824 32.266083
238.86 142.256 33.883442
240.98665 142.72086 33.82391
242.92842 142.95142 33.636234
245.01802 142.91051 33.520329
246.96198 143.01561 33.32016
248.94092 143.0672 33.044048
250.96068 143.08986 32.889584
252.93752 143.09868 32.594387
254.91951 143.08881 32.362267
256.87003 143.35146 32.240002
258.32343 143.63635 32.09441
263.55466 143.19034 32.101795
242.52052 144.11771 33.979897
245.12096 144.17894 33.937054
247.20752 144.56314 33.827705
248.96559 144.96892 33.657196
250.96643 145.00499 33.446774
252.97592 145.03514 33.261608
254.91037 145.06212 32.889103
256.90308 145.0257 32.628281
258.9035 145.02495 32.450508
260.7428 145.20906 32.298939
262.27713 145.55013 32.255558
248.93144 146.14418 33.877495
251.10306 146.30716 33.871883
253.10397 146.76788 33.718845
255.0313 146.93924 33.579113
256.98376 147.02223 33.39814
258.98529 147.05844 33.187855
260.98611 147.06149 32.916462
262.33148 147.15758 32.667652
252.90753 148.15109 33.924446
255.20561 148.22937 33.880318
257.11621 148.49564 33.797573
259.06131 148.92287 33.718563
261.01892 148.98177 33.505424
262.37976 149.04305 33.350952
259.7128 150.95525 33.980625
261.20401 150.28279 33.912651
262.47891 150.66896 33.736446
103.24121 92.996803 34.524818
103.59927 95.172821 34.587421
105.01447 95.331619 34.202274
107.54536 95.791977 34.030792
103.56506 97.11216 34.691128
105.22294 97.003021 34.666389
107.09894 97.172318 34.498638
108.98749 97.23391 34.26263
111.35494 97.369698 34.143322
112.75132 97.844543 34.112835
114.75772 97.9767 34.037945
103.50336 98.675293 35.196198
105.04995 99.017815 35.320232
107.15381 99.041054 35.088783
109.08984 99.032028 34.786182
111.01547 99.07254 34.593391
113.18973 99.116409 34.362305
115.06065 99.4534 34.382092
116.93651 99.474281 34.188587
118.97717 99.837234 34.233688
120.57556 99.95134 34.122631
103.3251 101.02496 35.899384
104.86166 100.63475 35.790657
106.97929 100.78893 35.636383
108.95781 100.99178 35.331566
111.00316 100.97812 35.228897
112.98492 100.96185 35.014484
115.05225 101.11903 34.814842
117.15467 101.01974 34.462547
119.08164 101.23325 34.434597
121.00069 101.44541 34.239143
123.03152 101.59176 34.206245
124.77717 101.55276 34.138458
107.17909 103.39659 35.772911
109.06129 102.5768 35.760483
110.96284 102.81266 35.783329
112.87685 102.8744 35.629246
114.87024 102.94185 35.497372
117.00251 103.01194 35.209438
119.05759 103.00607 35.134098
121.05232 103.09545 34.781284
123.13204 103.10925 34.524174
125.0409 103.2193 34.456718
126.82048 103.23218 34.273506
128.5677 103.49503 34.193386
131.19553 103.9304 34.244102
112.61414 104.3353 35.865921
115.44772 104.52759 35.78846
117.07687 104.61975 35.726475
118.86642 104.90005 35.648453
120.88779 104.91814 35.44241
122.93888 104.96306 35.260757
125.06583 104.99568 35.056416
127.13432 104.99769 34.693745
129.10333 105.08263 34.494362
131.0407 105.24419 34.242867
132.8036 105.53307 34.166843
134.85381 105.48718 34.151394
119.63437 106.30479 35.913303
121.02769 106.40562 35.786842
122.92188 106.9061 35.751442
124.90015 106.91149 35.553204
126.94115 106.94954 35.389603
129.07243 107.05721 35.024445
131.18115 107.01639 34.747063
133.10745 107.0137 34.525803
135.00258 107.06512 34.389057
137.1165 107.37892 34.206528
139.04782 107.52192 34.187157
140.55127 107.80483 34.0616
122.79858 108.15192 35.835041
124.97908 108.29026 35.835472
127.00941 108.62241 35.788292
129.04366 108.86677 35.59322
131.04747 109.01844 35.450886
133.01697 108.91961 35.183353
135.09305 109.05423 35.024734
137.1338 109.06837 34.712315
139.0936 109.05 34.477726
141.15773 109.27137 34.382778
143.0399 109.41732 34.28545
144.99298 109.62061 34.206905
146.59462 109.5613 34.183689
127.58829 110.15958 35.847771
129.62436 110.11805 35.908272
131.08002 110.32222 35.77187
132.90643 110.87432 35.774559
134.80321 110.88047 35.646969
136.85834 110.95618 35.440968
138.98532 111.06232 35.133183
141.06456 111.06 34.935055
143.04466 111.01563 34.739166
145.08208 111.06994 34.58004
147.09715 111.1944 34.384945
148.92032 111.27474 34.224506
151.006 111.53339 34.214634
152.7896 111.58826 34.075119
133.20572 112.13029 35.958649
135.20561 112.14907 35.804287
137.222 112.57648 35.834831
138.96857 112.79433 35.778595
140.89595 112.90726 35.571026
143.00563 112.91809 35.431316
144.98036 113.02336 35.274937
147.02675 112.99599 35.003239
149.11391 113.09074 34.737682
151.16292 113.03374 34.505188
152.98083 113.25387 34.408669
154.83673 113.4261 34.252617
156.64929 113.37187 34.19902
158.19746 113.58832 34.098396
140.90953 114.14653 35.817421
142.82156 114.36539 35.776474
144.88058 114.80259 35.797791
146.91949 114.84926 35.659
148.89746 114.98413 35.328777
150.98483 115.03065 35.243866
153.03787 115.058 34.939568
155.04926 115.05065 34.633587
157.02269 115.12151 34.485844
159.05583 115.31571 34.326908
161.24925 115.57507 34.270035
162.38797 115.98323 34.2425
165.03064 115.57726 34.104668
146.88319 116.46857 35.893452
148.94612 116.65873 35.741287
151.09798 116.66485 35.697834
152.9944 116.92977 35.585461
154.86201 117.0148 35.390141
156.98329 117.02582 35.144913
159.12045 117.0886 34.876492
161.07758 117.0732 34.616737
163.09775 117.09338 34.458714
164.99486 117.30074 34.297932
167.09386 117.55968 34.162766
168.58008 117.34512 34.14875
153.4276 118.40553 35.844753
154.90204 118.65613 35.783409
156.91628 118.91513 35.645386
158.9355 118.96899 35.506001
160.97957 119.03029 35.260815
163.10594 119.04183 34.959415
165.03708 119.02735 34.771183
167.02257 119.03264 34.508385
168.94495 119.22487 34.356724
170.90077 119.37579 34.339279
172.79395 119.45853 34.146179
175.0874 119.34705 34.02037
176.24138 119.59799 34.066334
158.86862 120.40618 35.796284
161.18311 120.82877 35.763786
162.88599 120.86822 35.609299
164.90964 120.97031 35.39529
166.94664 121.04538 35.269531
168.92984 121.08366 34.980579
171.04575 121.07851 34.693264
173.05728 121.02029 34.518986
174.98653 121.10413 34.351528
176.79167 121.29726 34.321365
178.78645 121.40968 34.225967
180.94102 121.60213 34.107124
183.67917 121.98811 34.102058
161.98608 122.18015 35.785141
163.4425 122.12948 35.922653
165.18668 122.27803 35.91758
166.98619 122.716 35.709415
168.91771 122.98197 35.60273
170.96037 122.98056 35.408207
172.98785 123.04929 35.188354
174.94347 123.09403 35.007599
176.95779 123.03751 34.788166
179.01733 123.01777 34.550514
180.98769 123.24065 34.36235
182.8363 123.17924 34.394936
184.80753 123.46549 34.404003
186.62067 123.44205 34.213123
168.55476 124.41483 35.914074
171.08051 124.54778 35.835472
172.97693 124.64107 35.701988
174.88899 124.89255 35.674706
176.90416 124.98882 35.442287
178.89177 125.04807 35.26593
180.84299 125.07732 35.012821
182.85074 125.05387 34.844273
184.95111 125.14041 34.614388
187.00856 125.22286 34.376961
188.69887 125.33317 34.340668
190.77245 125.09966 34.154446
192.51263 125.56842 34.269714
175.23216 126.36182 35.82872
177.03006 126.3064 35.818382
179.11354 126.80526 35.739697
180.84129 126.95589 35.566635
182.87465 127.00463 35.448196
184.90353 127.0531 35.183956
186.9623 127.10296 34.913536
188.98328 127.08587 34.777496
190.78294 127.03863 34.48856
192.87491 127.15862 34.332672
194.72305 127.40427 34.182415
197.00848 127.35056 34.114166
181.56 128.44907 35.880569
183.18039 128.31186 35.842548
184.9818 128.6803 35.728546
186.9021 128.9167 35.503414
188.87808 129.0215 35.388138
190.96852 128.98122 35.06646
192.8992 129.07947 34.885181
194.93932 129.00609 34.582352
196.8354 129.11002 34.428955
198.89507 129.26897 34.32328
