# .PCD v0.7 - Point Cloud Data file format
VERSION 0.7
FIELDS x y z
SIZE 4 4 4
TYPE F F F
COUNT 1 1 1
WIDTH 1489
HEIGHT 1
VIEWPOINT 0 0 0 1 0 0 0
POINTS 1489
DATA ascii
141.86354 -45.610634 -3.2447207
143.2661 -45.76606 -3.4836149
144.74565 -45.769917 -3.7484818
146.2858 -45.715271 -3.941643
147.71021 -45.695084 -4.1523309
149.12843 -45.661827 -4.356277
150.29015 -45.697708 -4.4516544
139.13589 -43.885532 -3.0075536
140.32666 -44.131649 -3.1283247
141.92377 -44.180832 -3.264467
143.28191 -44.215027 -3.4842324
144.72932 -44.279259 -3.8085525
146.26006 -44.274635 -3.9384654
147.74635 -44.254768 -4.1460328
149.02719 -44.258514 -4.2819285
150.13654 -44.315247 -4.4523969
140.46968 -42.775391 -3.1348524
141.86055 -42.732906 -3.3293409
143.27725 -42.658493 -3.5834017
144.73697 -42.759357 -3.8479195
146.24593 -42.804508 -4.0192857
147.68527 -42.680927 -4.251102
148.79597 -42.73209 -4.3011899
150.55026 -42.89967 -4.4797883
139.09912 -40.730381 -3.0881822
140.3989 -41.313484 -3.2040896
141.84341 -41.277294 -3.3310251
143.21677 -41.191154 -3.6626647
144.75558 -41.226643 -3.9154861
146.23636 -41.332428 -4.0390115
147.63292 -41.298397 -4.2964826
148.87657 -41.293694 -4.3311005
137.80298 -39.403625 -3.0393267
138.91454 -40.261681 -3.0342097
140.4193 -39.674675 -3.2166557
141.80322 -39.813431 -3.3257704
143.25247 -39.772629 -3.6985693
144.70924 -39.683182 -3.991127
146.24471 -39.803913 -4.1033869
147.76407 -39.880062 -4.2932348
148.88361 -39.770908 -4.3934417
137.63365 -38.191792 -3.0613203
139.092 -38.119759 -3.1005926
140.38747 -38.090572 -3.2068768
141.74637 -38.26202 -3.3562455
143.19856 -38.26474 -3.7313614
144.7068 -38.203491 -3.9963276
146.24922 -38.311176 -4.1563892
147.48056 -38.311195 -4.330133
148.71173 -38.415535 -4.398458
137.55495 -36.927425 -3.0879838
138.94707 -36.837555 -3.1463778
140.33069 -36.676872 -3.3062139
141.75154 -36.75407 -3.4205854
143.25499 -36.805309 -3.7715638
144.71344 -36.673824 -4.0867333
146.14664 -36.758961 -4.2632561
147.616 -36.829807 -4.3303337
148.70918 -36.926796 -4.3755655
137.56911 -35.342701 -3.0987194
138.8721 -35.404655 -3.1599362
140.33893 -35.224445 -3.302413
141.76503 -35.251835 -3.4693873
143.14496 -35.301819 -3.9292846
144.68942 -35.28289 -4.0848589
146.17737 -35.148129 -4.2219682
147.44843 -35.370026 -4.3449769
148.61084 -35.657867 -4.4133081
137.44417 -33.840904 -3.0681565
138.88921 -33.705467 -3.1940498
140.3082 -33.75919 -3.3460743
141.75179 -33.698048 -3.5815933
143.22919 -33.811096 -3.9860282
144.70634 -33.766342 -4.1507745
146.22623 -33.803425 -4.2789092
147.46008 -33.590611 -4.3832083
148.74297 -34.14455 -4.4691091
136.16559 -31.998505 -3.0831854
137.41522 -32.084499 -3.1378264
138.77843 -32.170605 -3.1767592
140.2314 -32.276337 -3.3465688
141.74214 -32.198605 -3.6208489
143.22861 -32.261246 -4.0399179
144.6525 -32.31028 -4.1678939
146.19411 -32.239044 -4.334362
147.52798 -32.480125 -4.4099283
135.71835 -30.788244 -3.0627782
137.39807 -30.676062 -3.2015338
138.80167 -30.757713 -3.2371814
140.29675 -30.791069 -3.4643002
141.76413 -30.68693 -3.7446418
143.24741 -30.743937 -4.0558038
144.70052 -30.768017 -4.240797
146.26082 -30.712654 -4.3390527
147.39458 -31.395247 -4.4906087
134.86824 -28.92461 -3.0342751
135.87444 -29.353258 -3.0817394
137.31905 -29.231638 -3.165489
138.86917 -29.143328 -3.2329068
140.26295 -29.311506 -3.4821122
141.76086 -29.231058 -3.7564349
143.21579 -29.234781 -4.0612283
144.61252 -29.287598 -4.2771597
146.08452 -29.277792 -4.3591113
134.83673 -27.410141 -3.0436277
135.92958 -27.592896 -3.1611269
137.26456 -27.714396 -3.195873
138.77898 -27.656528 -3.3171725
140.26608 -27.770554 -3.5496387
141.77834 -27.79417 -3.883918
143.23811 -27.703474 -4.1824045
144.56799 -27.8419 -4.3283505
146.17986 -28.05127 -4.3798895
147.04584 -27.841368 -4.3811255
134.82939 -26.232603 -3.0705996
135.80453 -26.31991 -3.1234825
137.36761 -26.294861 -3.2341218
138.75029 -26.1807 -3.3446414
140.31697 -26.246151 -3.5582049
141.80026 -26.287973 -3.8866529
143.17871 -26.243553 -4.1832852
144.7256 -26.248428 -4.3479176
146.13263 -26.178272 -4.4134665
134.84233 -24.494965 -3.104475
135.8239 -24.662565 -3.0981965
137.34735 -24.739149 -3.2825384
138.75473 -24.698881 -3.4241819
140.23535 -24.729105 -3.6589992
141.73392 -24.822821 -3.9378674
143.05507 -24.857807 -4.2306995
144.69182 -24.691586 -4.3709569
146.02637 -25.148466 -4.3734398
134.51044 -23.194023 -3.1661451
135.85669 -23.255754 -3.1679327
137.30595 -23.267496 -3.3203425
138.73602 -23.246147 -3.4435492
140.25293 -23.187737 -3.6196041
141.7106 -23.267191 -3.9912579
143.07912 -23.237886 -4.2185516
144.6554 -23.416782 -4.3205929
146.06355 -23.364191 -4.4291072
133.15944 -21.769161 -3.0833473
134.50618 -21.587732 -3.0959356
135.85483 -21.712273 -3.207185
137.29987 -21.735659 -3.3627689
138.70248 -21.798325 -3.5232255
140.25977 -21.696625 -3.7341831
141.74962 -21.754175 -4.060431
143.15506 -21.835745 -4.2690554
144.8396 -21.644085 -4.4454608
132.50316 -20.435696 -3.0586426
134.55463 -20.345663 -3.1514559
135.75772 -20.266336 -3.2696612
137.27158 -20.252745 -3.4191551
138.73836 -20.304226 -3.6077523
140.27077 -20.174154 -3.8019786
141.70381 -20.225201 -4.1220694
142.99377 -20.24659 -4.2801733
144.80084 -20.138931 -4.4416885
131.8952 -18.061258 -3.019439
133.05193 -18.827402 -3.0526609
134.55345 -18.838251 -3.174439
135.80527 -18.687458 -3.2992005
137.27293 -18.746302 -3.4544001
138.72943 -18.796961 -3.6462803
140.24564 -18.730597 -3.8914163
141.69453 -18.751606 -4.1661997
142.99982 -18.80134 -4.2977533
131.74579 -17.215673 -3.0292716
132.81593 -17.27059 -3.0511398
134.61296 -17.262554 -3.2252018
135.78918 -17.173904 -3.280695
137.22125 -17.228838 -3.4960611
138.73251 -17.262758 -3.7211373
140.27438 -17.310589 -3.8298998
141.78802 -17.215601 -4.2073359
143.00841 -17.28208 -4.3828487
131.87112 -16.294491 -3.0351601
132.8476 -15.523678 -3.121321
134.4877 -15.686011 -3.2107894
135.8063 -15.700431 -3.3674257
137.23744 -15.709724 -3.6051455
138.76151 -15.768971 -3.836719
140.25659 -15.79219 -3.9556737
141.70741 -15.744928 -4.2222004
142.78433 -15.696734 -4.3122516
131.83221 -13.771473 -3.1667974
132.81015 -14.060854 -3.1373312
134.37088 -14.246709 -3.2021763
135.70778 -14.296644 -3.3939216
137.29317 -14.212746 -3.6168907
138.74881 -14.228061 -3.8900318
140.27631 -14.308834 -3.9804866
141.64828 -14.294646 -4.2645783
142.90266 -13.9921 -4.3874493
130.3336 -12.294457 -3.0106609
131.56174 -12.427827 -3.0783093
132.89536 -12.622229 -3.2035499
134.37024 -12.706298 -3.2694957
135.79185 -12.793356 -3.4918468
137.26547 -12.751968 -3.7248847
138.75815 -12.657913 -3.9065347
140.22508 -12.813256 -4.0687628
141.6655 -12.870687 -4.3238921
142.97411 -12.810804 -4.3974805
131.53416 -11.236288 -3.0429912
132.95287 -11.196342 -3.2156126
134.39929 -11.253491 -3.3001018
135.82002 -11.287607 -3.5360196
137.28609 -11.226752 -3.8125026
138.71941 -11.254107 -4.004612
140.2274 -11.244996 -4.0509863
141.70573 -11.23457 -4.2930875
142.65042 -11.181832 -4.3497396
130.3175 -9.6038713 -3.1013489
131.57552 -9.8823299 -3.16769
132.85205 -9.6341543 -3.2056117
134.24797 -9.7226124 -3.3176987
135.73407 -9.7854891 -3.558368
137.28091 -9.7782154 -3.767508
138.76862 -9.6909857 -4.0221386
140.23761 -9.7782497 -4.1514711
141.69496 -9.8767719 -4.3176155
142.79543 -9.7944498 -4.4144464
129.75447 -8.912859 -3.0026391
131.44595 -8.2829313 -3.1650486
132.6795 -8.2425642 -3.2663219
134.28354 -8.1830425 -3.3309591
135.72206 -8.240591 -3.6403441
137.24223 -8.2986946 -3.8801737
138.75783 -8.2199812 -4.0813885
140.17691 -8.2120533 -4.1641536
141.59518 -8.246604 -4.328084
142.59763 -8.1212635 -4.4038429
131.34779 -6.7926297 -3.1654274
132.85867 -6.7789941 -3.2865257
134.28008 -6.6956186 -3.395951
135.76245 -6.7467871 -3.7035799
137.272 -6.7990985 -3.9209535
138.69746 -6.7691445 -4.146184
140.2175 -6.7384577 -4.1942425
141.47665 -6.8280554 -4.3541479
142.63622 -6.6038613 -4.464654
130.07236 -4.9170632 -3.0646157
131.31889 -5.2180238 -3.22153
132.74341 -5.3128109 -3.3726211
134.28328 -5.2055335 -3.4162974
135.73448 -5.2073255 -3.7811608
137.29842 -5.235765 -3.9465134
138.76877 -5.3277988 -4.2101912
140.21808 -5.1927562 -4.2526298
141.47104 -5.2601557 -4.3232241
129.97807 -3.6620929 -3.129225
131.47987 -3.7397628 -3.2113864
132.74611 -3.8074465 -3.3489487
134.23338 -3.7559705 -3.4898789
135.72099 -3.682111 -3.8055141
137.22478 -3.765594 -4.0062857
138.67511 -3.8350058 -4.2036257
140.15466 -3.7490282 -4.2795534
141.48233 -3.4924121 -4.3959093
129.97412 -2.1091599 -3.166872
131.30499 -2.182524 -3.2157416
132.76521 -2.2413073 -3.4318864
134.27939 -2.2960992 -3.5447342
135.7524 -2.2129984 -3.9154136
137.2097 -2.2336752 -4.1421638
138.62297 -2.2788992 -4.2328825
140.09518 -2.3389421 -4.2914343
141.22287 -2.0467203 -4.3931069
128.81464 -0.41760668 -3.0665028
129.95709 -0.61970824 -3.1510773
131.30809 -0.65316027 -3.2861266
132.74834 -0.75424248 -3.4708264
134.26985 -0.79640746 -3.6134665
135.74876 -0.73643124 -3.9304335
137.24495 -0.75489473 -4.1867185
138.735 -0.75900829 -4.3312135
140.22917 -0.80785227 -4.3217955
141.34317 -0.82508755 -4.401041
128.4008 0.6300748 -3.0838709
129.83139 0.70325536 -3.1130364
131.32948 0.82816613 -3.277
132.70244 0.78703672 -3.5459785
134.27951 0.73274916 -3.7076421
135.71715 0.74734539 -4.0108171
137.22241 0.83622754 -4.1749916
138.64801 0.74304754 -4.3355994
140.14108 0.69134605 -4.3300071
141.36871 0.69553286 -4.3901858
128.79623 1.966342 -3.1304119
129.9476 2.4347584 -3.2421088
131.30386 2.3085809 -3.3457108
132.75401 2.2607069 -3.5829198
134.25192 2.2847283 -3.8222375
135.73645 2.1733398 -3.99406
137.17754 2.2881327 -4.2097087
138.60916 2.1668687 -4.3295608
140.23807 2.0833979 -4.3889642
141.32555 2.1040115 -4.4175525
128.36349 3.6459956 -3.0767391
129.83565 3.6880043 -3.1957161
131.32426 3.7879481 -3.3831396
132.74525 3.7821302 -3.6602137
134.23956 3.7416236 -3.8811295
135.6757 3.726042 -4.1067362
137.24858 3.8415723 -4.2209196
138.50186 3.8251884 -4.3589768
140.05745 3.8905869 -4.4184632
141.35909 3.7369943 -4.4282212
127.16634 5.2630839 -3.0408831
128.33221 5.0088382 -3.1367843
129.84109 5.2265859 -3.2560346
131.25624 5.2110219 -3.4590294
132.75351 5.3079267 -3.7322371
134.2157 5.2821803 -3.8970613
135.668 5.2069845 -4.1374316
137.11227 5.238472 -4.2664742
138.61469 5.3219037 -4.3544836
140.14326 5.235692 -4.4043112
127.39754 6.7171402 -3.0588188
128.24648 6.7812529 -3.1050897
129.86476 6.7818255 -3.2642202
131.23935 6.7065396 -3.5469646
132.75754 6.7462864 -3.7980061
134.2338 6.7694068 -3.9795129
135.72916 6.7098975 -4.1349034
137.17288 6.70047 -4.3075461
138.54791 6.5158629 -4.343298
139.81786 6.6446509 -4.4270411
127.22231 8.7089167 -3.1773748
128.32982 8.3014698 -3.1288762
129.80038 8.1997309 -3.2784171
131.28311 8.2390499 -3.5072749
132.7435 8.2033377 -3.8274271
134.22336 8.277791 -4.0082011
135.5831 8.2990789 -4.1097865
137.15694 8.2261086 -4.3186483
138.16734 8.1385288 -4.3008165
140.27289 8.3249493 -4.4458237
125.84127 10.203729 -3.0327866
126.88445 9.5621872 -3.094079
128.3602 9.8241301 -3.1523273
129.83238 9.7755442 -3.3231082
131.24794 9.7372255 -3.6062534
132.6917 9.6870461 -3.8578408
134.241 9.8063078 -4.0916648
135.66217 9.7715998 -4.2423887
137.19603 9.8143654 -4.3676944
138.10568 9.3897562 -4.3125367
125.71799 11.386526 -3.0095484
126.76564 11.079902 -3.1177528
128.21651 11.270363 -3.1584084
129.75641 11.303282 -3.3532493
131.29192 11.255167 -3.5544646
132.72675 11.223075 -3.9664803
134.2137 11.233088 -4.1254625
135.52946 11.333049 -4.2187243
137.04686 11.188871 -4.3887439
138.30273 10.817196 -4.4192538
126.72684 12.761123 -3.0843589
128.27365 12.6856 -3.155498
129.84145 12.778191 -3.3683007
131.24397 12.788465 -3.7472076
132.73114 12.707609 -3.9498432
134.23932 12.70337 -4.1858797
135.57199 12.762802 -4.2923598
137.29176 12.6974 -4.3877506
138.2863 12.424469 -4.4001422
125.80771 14.190125 -3.0681756
126.8925 14.287959 -3.1318927
128.31407 14.202462 -3.1815641
129.78004 14.237577 -3.450063
131.22394 14.256252 -3.7488053
132.68117 14.251656 -4.1064029
134.21587 14.245997 -4.2046437
135.49141 14.148893 -4.2888837
136.85085 13.829492 -4.4377861
138.06635 14.45314 -4.479733
125.69467 15.709953 -3.0531671
126.7821 15.845038 -3.1711884
128.3078 15.674415 -3.2888932
129.79764 15.730512 -3.5073936
131.29404 15.800599 -3.7641129
132.69211 15.768682 -4.1217537
134.23967 15.751368 -4.2175655
135.47922 15.675863 -4.2728181
136.53236 16.342203 -4.4370732
124.233 17.140507 -3.0361333
125.46178 17.241314 -3.1180489
126.82714 17.256283 -3.1891086
128.31203 17.270639 -3.286716
129.75938 17.205767 -3.5478344
131.28316 17.296808 -3.8963981
132.74493 17.269709 -4.1253719
134.14851 17.1597 -4.2717037
135.68713 17.13125 -4.4030876
136.58498 17.525263 -4.4271259
124.38213 18.487156 -3.0207274
125.38506 18.802814 -3.1062682
126.74969 18.754681 -3.2486107
128.24693 18.715311 -3.345701
129.73021 18.715342 -3.580586
131.30249 18.818516 -3.9156692
132.69049 18.774965 -4.1626849
134.17804 18.799921 -4.2868876
135.41823 18.788742 -4.3519173
124.09988 20.42997 -3.0229185
125.55813 20.369118 -3.1816173
126.76124 20.218901 -3.2602823
128.23341 20.200102 -3.3620622
129.71487 20.221134 -3.6073444
131.21002 20.218597 -3.906909
132.69905 20.307844 -4.2089157
134.28438 20.176546 -4.3147025
135.57935 19.900351 -4.3872676
123.61273 21.70175 -3.022085
125.49641 21.72027 -3.1137199
126.73785 21.793638 -3.2929242
128.26099 21.773785 -3.3972218
129.75928 21.754812 -3.572324
131.26277 21.690126 -4.0254049
132.69228 21.744326 -4.2218251
134.16202 21.840187 -4.2976851
135.53943 21.790075 -4.4266615
124.0427 23.600267 -3.1119289
125.39447 23.226608 -3.1561115
126.82195 23.296513 -3.3111982
128.28891 23.299213 -3.4592636
129.76335 23.2423 -3.6879849
131.26405 23.200151 -4.078063
132.60808 23.27066 -4.2411771
134.08488 23.129257 -4.346622
135.54959 23.396755 -4.3620181
124.10934 24.819839 -3.1428406
125.43235 24.801664 -3.1860821
126.76109 24.764509 -3.3775151
128.23689 24.811295 -3.5321641
129.7281 24.754522 -3.7208159
131.23415 24.747889 -4.0579162
132.5809 24.662533 -4.2701526
134.14577 24.925285 -4.3993311
135.25999 24.677795 -4.4035811
123.93159 26.248362 -3.1502573
125.35347 26.250347 -3.181448
126.78342 26.19371 -3.3288314
128.2458 26.30928 -3.5663805
129.74818 26.308361 -3.7965806
131.21133 26.206322 -4.1483703
132.66649 26.175709 -4.2648745
133.90291 25.954912 -4.3115015
135.47406 26.164396 -4.4729362
122.95456 27.864342 -3.0382662
123.90836 27.589378 -3.1745238
125.30963 27.705282 -3.2658541
126.81592 27.680342 -3.369067
128.26825 27.724724 -3.5597479
129.78252 27.799589 -3.8802347
131.22636 27.752499 -4.1579227
132.70642 27.674351 -4.3047495
133.99551 27.71134 -4.3954134
135.34039 27.014374 -4.4417815
122.52954 29.514561 -3.0313613
123.94047 29.384382 -3.1397474
125.23807 29.279333 -3.2560036
126.7896 29.228842 -3.449286
128.25945 29.195953 -3.6738837
129.81609 29.252411 -3.8608527
131.21387 29.324854 -4.2369022
132.5191 29.185061 -4.3113642
134.03186 29.399662 -4.432013
122.49746 31.28373 -3.0643406
123.85137 30.757938 -3.1834097
125.2588 30.750732 -3.2468877
126.75587 30.756647 -3.481472
128.20993 30.747154 -3.7191167
129.73483 30.727184 -3.9112716
131.16476 30.776163 -4.2500319
132.5159 30.704027 -4.3012843
133.82503 30.585941 -4.4375906
122.31963 32.338993 -3.0788529
123.87412 32.336563 -3.2216556
125.22664 32.328342 -3.3072176
126.73663 32.249008 -3.4845765
128.24661 32.218758 -3.746573
129.75729 32.253658 -3.9231136
131.29279 32.246136 -4.248064
132.66608 32.240253 -4.3569498
133.74948 32.782333 -4.4893327
135.20332 32.937141 -4.4858041
121.21692 33.804142 -3.0416958
122.22565 33.657719 -3.0596595
123.89243 33.69812 -3.2585666
125.23127 33.814198 -3.3500631
126.73361 33.752556 -3.5496085
128.25511 33.744686 -3.8249469
129.77231 33.719429 -3.9815016
131.10793 33.709068 -4.222033
132.56537 33.719906 -4.3623538
121.01183 35.020241 -3.0478795
122.21097 35.332157 -3.1195621
123.7835 35.261127 -3.2281704
125.17679 35.309624 -3.3539364
126.71852 35.318977 -3.6168053
128.22542 35.221375 -3.8626721
129.70422 35.280449 -4.0405564
131.08928 35.155521 -4.2085562
132.71976 35.157223 -4.3861284
133.53992 35.165726 -4.3504543
119.89183 36.582184 -3.0478988
121.09686 36.805546 -3.1314914
122.2854 36.769955 -3.1321039
123.90948 36.704205 -3.2637906
125.29979 36.725235 -3.3832047
126.72986 36.76627 -3.6810946
128.24803 36.806408 -3.8848529
129.67375 36.763504 -4.0511179
131.10503 36.697479 -4.273488
132.47653 36.91386 -4.3541727
133.7373 37.01368 -4.4986453
120.90961 38.211548 -3.1301825
122.2858 38.283737 -3.1973495
123.87582 38.227501 -3.3579617
125.22004 38.201023 -3.4480119
126.71366 38.237789 -3.6927955
128.25566 38.292007 -3.9433422
129.73425 38.256889 -4.1734066
131.11487 38.148499 -4.2736406
132.38046 38.12553 -4.3895507
121.00078 39.582035 -3.0988119
122.30077 39.696518 -3.1816587
123.83406 39.707211 -3.3907421
125.23509 39.735485 -3.506283
126.70671 39.766621 -3.7956455
128.29346 39.792114 -4.0081615
129.743 39.793583 -4.1087718
131.19063 39.700665 -4.2971458
132.35425 39.288929 -4.4232793
119.69281 40.744244 -3.059557
120.76027 41.359528 -3.1421099
122.3266 41.296394 -3.1568611
123.8292 41.248386 -3.4191704
125.24161 41.22662 -3.6177039
126.76555 41.228722 -3.857461
128.246 41.251621 -4.029779
129.66801 41.298012 -4.114069
131.11188 41.260239 -4.3921757
132.16786 41.294758 -4.4149985
119.79955 42.694942 -3.0984049
120.71749 42.749981 -3.083076
122.36492 42.826935 -3.2443388
123.81841 42.77187 -3.4197774
125.23796 42.750553 -3.5938826
126.75203 42.743008 -3.8698018
128.22369 42.683308 -4.0155005
129.72412 42.798721 -4.2358871
131.10295 42.529758 -4.3335228
132.18341 42.675335 -4.4411507
119.69687 43.580948 -3.1069195
120.76575 44.301876 -3.1449103
122.30569 44.254391 -3.2329879
123.87394 44.28825 -3.4408658
125.25823 44.245193 -3.6811244
126.74324 44.230465 -3.9155049
128.24815 44.229118 -4.097249
129.71638 44.219761 -4.1731815
130.99138 44.167812 -4.3802228
132.07036 43.642826 -4.368742
119.70616 45.574028 -3.0992305
120.92718 45.878242 -3.2200491
122.29248 45.772228 -3.2331057
123.82125 45.818504 -3.443985
125.25539 45.785461 -3.7325935
126.71565 45.750221 -3.9031665
128.22231 45.73922 -4.1523561
129.7202 45.637596 -4.2546339
130.88678 45.549244 -4.3618102
119.69275 47.215588 -3.0672555
120.72746 47.081806 -3.2013078
122.27054 47.244476 -3.2636383
123.75768 47.229088 -3.4301744
125.23299 47.275417 -3.7811806
126.74785 47.292847 -3.9718218
128.23351 47.253262 -4.1279826
129.75372 47.154331 -4.2747221
130.99414 47.201397 -4.4116139
119.71773 48.836555 -3.0743682
120.79379 48.720623 -3.255363
122.2918 48.744064 -3.3514297
123.78667 48.717056 -3.4765391
125.29147 48.784245 -3.7911146
126.73239 48.777035 -3.9902594
128.25813 48.780651 -4.1722775
129.76649 48.790142 -4.2752576
130.84834 48.671753 -4.3975477
119.62064 50.14072 -3.1490209
120.93587 50.279057 -3.2619424
122.19905 50.19751 -3.3432152
123.78873 50.232155 -3.5207121
125.20473 50.233536 -3.8499789
126.71959 50.272224 -4.0222721
128.27763 50.276958 -4.2128778
129.77348 50.294609 -4.3192887
130.80247 50.133171 -4.3907504
118.15139 51.502216 -3.0432303
119.5116 51.931908 -3.2084975
120.83186 51.752811 -3.2465026
122.23215 51.708698 -3.4024558
123.74022 51.740398 -3.5148118
125.19131 51.704903 -3.8934937
126.72601 51.756645 -4.0176015
128.22971 51.728172 -4.2184567
129.79649 51.748688 -4.3618426
130.98984 51.67086 -4.4527535
118.34943 53.417934 -3.0317497
119.46221 53.127525 -3.1621706
120.80112 53.23465 -3.2845204
122.28608 53.274109 -3.4300842
123.74006 53.225796 -3.6770425
125.17709 53.247433 -3.9274375
126.65128 53.255341 -4.1013021
128.13387 53.287197 -4.2858806
129.85506 53.284931 -4.3546038
130.69872 53.219654 -4.4025779
119.37764 54.67551 -3.1524825
120.83633 54.806278 -3.3134279
122.28286 54.790977 -3.4168053
123.78413 54.774448 -3.590754
125.22063 54.697918 -3.9774199
126.74849 54.731174 -4.1372771
128.18697 54.769138 -4.2535434
129.63783 54.642929 -4.3398485
130.7063 55.166634 -4.4299393
118.49854 55.671925 -3.0271699
119.56751 56.330872 -3.2425158
120.7826 56.27063 -3.3353617
122.24289 56.24398 -3.5179498
123.79712 56.277889 -3.7074435
125.26073 56.222725 -4.0226202
126.67236 56.198116 -4.1746016
128.17105 56.166092 -4.2980185
129.61884 56.083614 -4.3688579
130.71992 55.673424 -4.4472842
118.17731 57.952026 -3.0473495
119.43124 57.705978 -3.184047
120.83003 57.78759 -3.3662372
122.28503 57.726997 -3.4458852
123.73602 57.804123 -3.7406354
125.24319 57.730251 -4.0569582
126.71556 57.772434 -4.2005796
128.13715 57.813316 -4.2706628
129.76631 57.691929 -4.427732
118.02427 59.356579 -3.0849888
119.27857 59.235291 -3.1746593
120.78841 59.288738 -3.3678584
122.24099 59.225964 -3.5346415
123.70902 59.230652 -3.8172772
125.18832 59.217186 -4.0743113
126.65817 59.199509 -4.2427936
128.21489 59.168262 -4.3744807
129.38741 59.19968 -4.4237728
130.51993 59.408787 -4.4195404
117.95704 60.802391 -3.1249776
119.45071 60.7201 -3.2164161
120.77036 60.729664 -3.432476
122.25715 60.727634 -3.6205482
123.80258 60.772282 -3.8238096
125.20809 60.776997 -4.1985493
126.7197 60.811764 -4.1979909
128.0318 60.760101 -4.3488107
129.83357 60.480091 -4.4393992
118.06581 62.322277 -3.1696646
119.37654 62.283344 -3.2414434
120.81062 62.22522 -3.4395857
122.2711 62.235409 -3.7308118
123.74459 62.255604 -3.8940806
125.1811 62.28973 -4.209703
126.69325 62.285538 -4.2903976
127.92294 62.553905 -4.3260393
129.71751 62.11964 -4.4427052
117.97574 63.976974 -3.1106515
119.33035 63.806961 -3.2896135
120.76698 63.746792 -3.5251453
122.23887 63.73061 -3.8042469
123.74858 63.686035 -3.9404945
125.15037 63.825859 -4.2065935
126.64687 63.775162 -4.3030043
128.08116 63.762032 -4.3890047
118.06461 65.211304 -3.1265635
119.31699 65.297737 -3.3074286
120.76795 65.28447 -3.5614152
122.23072 65.204109 -3.8312893
123.74897 65.184013 -3.9546728
125.12148 65.25251 -4.1950359
126.77081 65.193565 -4.3016634
127.73839 65.00592 -4.3810678
129.46317 65.084976 -4.4746876
116.75624 66.654472 -3.0880721
117.98726 66.868912 -3.2149415
119.35307 66.738693 -3.3128867
120.83528 66.786583 -3.5924957
122.28648 66.74408 -3.8259821
123.78606 66.748169 -3.9884994
125.14056 66.713097 -4.2413378
126.58372 66.450012 -4.2741446
128.2874 66.923416 -4.4411392
116.62176 68.404732 -3.0705483
117.97453 68.140587 -3.1892309
119.37189 68.237465 -3.3095253
120.78239 68.190208 -3.5926538
122.26223 68.245102 -3.8740711
123.73681 68.25679 -4.067091
125.22697 68.165886 -4.2871776
126.66799 68.138565 -4.368258
128.20525 68.140945 -4.429554
116.62935 69.69239 -3.1454237
117.94772 69.659073 -3.1852248
119.32396 69.69426 -3.3079133
120.759 69.729927 -3.6438563
122.23444 69.791466 -3.9561377
123.68361 69.781769 -4.0332828
125.14992 69.74939 -4.2626767
126.59936 69.737633 -4.3814206
128.21852 70.254044 -4.497088
114.96941 70.547249 -3.0098431
116.52885 71.542778 -3.1023593
117.94454 71.241081 -3.1707776
119.28338 71.203484 -3.374393
120.71836 71.251884 -3.7053087
122.25671 71.247528 -4.0018349
123.71399 71.273293 -4.1373162
125.11904 71.214699 -4.3354607
126.6207 71.155464 -4.3722744
127.55664 71.442657 -4.4667244
116.64249 72.788918 -3.1400034
117.88262 72.863274 -3.2820661
119.30293 72.696678 -3.4105079
120.73145 72.72998 -3.7064197
122.27509 72.753136 -4.0440784
123.79969 72.787987 -4.2107816
125.03512 72.774933 -4.3254995
126.58913 72.545258 -4.3708959
128.15919 73.310158 -4.4994364
115.48796 74.948555 -3.0324278
116.46833 74.527939 -3.1324799
117.85773 74.21006 -3.2451909
119.25788 74.21096 -3.3975534
120.74857 74.23774 -3.7201905
122.18683 74.24308 -4.063467
123.66404 74.190819 -4.1216283
125.04096 74.237183 -4.2557158
126.65105 74.290611 -4.3929191
127.5121 74.671494 -4.4480076
115.17116 75.879295 -3.0194063
116.55066 75.744591 -3.1093333
117.75363 75.843094 -3.2226801
119.30927 75.768768 -3.4358261
120.72044 75.727898 -3.8167248
122.2077 75.730911 -4.0825839
123.70928 75.746994 -4.180264
125.0034 75.724937 -4.2756753
126.63268 75.684906 -4.4387236
127.71065 75.181931 -4.4532232
115.40247 77.820175 -3.0803063
116.42491 77.275482 -3.1609125
117.7813 77.359619 -3.2342465
119.29224 77.283279 -3.44736
120.74037 77.268883 -3.8507206
122.25601 77.215973 -4.1207757
123.69206 77.199966 -4.2204461
124.93813 77.158539 -4.3742652
126.55585 76.65976 -4.446362
115.1528 78.559959 -3.0258706
116.69013 78.72953 -3.187124
117.80508 78.831711 -3.2681732
119.28206 78.739525 -3.4533079
120.77097 78.780365 -3.8364921
122.25797 78.74263 -4.1066055
123.74828 78.768265 -4.2330766
124.99512 78.719833 -4.315227
126.40381 78.484726 -4.4445
116.73701 80.480019 -3.134814
117.93361 80.252106 -3.2278838
119.23806 80.248352 -3.4973614
120.78539 80.231201 -3.786799
122.20042 80.243546 -4.1546335
123.77358 80.308472 -4.228508
124.98906 80.506531 -4.3079886
126.12634 80.521622 -4.4392414
116.9772 81.230659 -3.0463276
117.91947 81.734207 -3.2040401
119.25813 81.748459 -3.5016885
120.73436 81.740158 -3.8446789
122.21379 81.720673 -4.125937
123.65607 81.859573 -4.2877908
125.0583 81.67382 -4.3419175
126.4509 81.621948 -4.4898238
118.04416 83.235329 -3.1844294
119.29299 83.254143 -3.5686653
120.76357 83.23391 -3.9136927
122.22627 83.278656 -4.2025256
123.63125 83.341934 -4.2762256
125.25768 83.320312 -4.4108119
118.09227 84.744781 -3.2566915
119.25896 84.699814 -3.5349708
120.71133 84.737518 -3.9477408
122.22402 84.750854 -4.2159157
123.7207 84.658058 -4.3050585
124.87038 84.896439 -4.4097252
117.95762 86.320992 -3.2896843
119.22211 86.238342 -3.6107569
120.75263 86.197296 -4.0126882
122.24767 86.212761 -4.2166886
123.61812 86.211655 -4.3075404
124.92272 86.25415 -4.3733082
116.66235 88.247574 -3.1799064
117.81519 87.731316 -3.2788224
119.2619 87.784317 -3.5853932
120.76166 87.72039 -3.9472744
122.1352 87.714569 -4.2649565
123.68871 87.782043 -4.3732548
124.9413 87.905113 -4.4170523
115.4238 89.458931 -3.1054142
116.3514 89.325066 -3.193069
117.7192 89.302139 -3.4090624
119.19204 89.275406 -3.7314999
120.70602 89.240082 -4.0244927
122.1456 89.24588 -4.2491555
123.59275 89.290916 -4.3652501
124.80393 89.303856 -4.3787208
112.89905 91.355728 -3.0406203
114.99189 90.789864 -3.2098873
116.30775 90.761848 -3.2553627
117.75281 90.720505 -3.4663072
119.21866 90.758163 -3.8303289
120.74631 90.785667 -4.0954628
122.15567 90.781013 -4.3174791
123.59383 90.803032 -4.3088088
125.04942 90.274422 -4.4973845
112.20155 92.519104 -3.1191623
113.14815 92.369789 -3.0848289
114.96152 92.291267 -3.1954896
116.24432 92.20697 -3.3264399
117.72699 92.245354 -3.4689498
119.20338 92.235458 -3.8059392
120.73375 92.257446 -4.1130309
122.13336 92.318611 -4.319222
123.63187 92.342628 -4.3768067
124.66589 92.205574 -4.4434009
111.72059 93.203094 -3.0401006
113.39202 93.604637 -3.1860461
114.88351 93.639641 -3.2304475
116.28071 93.717346 -3.3470323
117.77811 93.722321 -3.6186013
119.27001 93.74543 -3.8257413
120.70317 93.722328 -4.1466246
122.13458 93.774551 -4.3311782
123.55975 93.726044 -4.3701825
124.82306 93.673386 -4.4982247
112.47874 95.734573 -3.1857054
113.37671 95.313232 -3.1261342
114.95486 95.216377 -3.2622073
116.23729 95.296776 -3.3648393
117.7544 95.275711 -3.5446112
119.25119 95.226051 -3.8242865
120.69395 95.216393 -4.132442
122.06445 95.147217 -4.2902346
123.66753 95.306259 -4.3922081
111.54331 96.678131 -3.0325434
113.30254 96.756546 -3.1493015
114.80702 96.714729 -3.2145314
116.28178 96.756943 -3.4519496
117.7548 96.719971 -3.6198812
119.26713 96.723572 -3.866437
120.65083 96.759377 -4.1838617
121.96214 96.677933 -4.2884159
123.60961 96.94445 -4.4439759
124.56376 96.054939 -4.4797702
111.96423 98.352287 -3.1064599
113.34042 98.303696 -3.1649015
114.79379 98.288116 -3.289484
116.27538 98.270042 -3.4300725
117.76155 98.270889 -3.6897514
119.19105 98.229973 -4.0011568
120.69955 98.204834 -4.1894007
122.24523 98.516365 -4.3647704
123.2999 97.994743 -4.4546337
111.63681 99.378944 -3.120981
113.37852 99.725479 -3.1577318
114.77177 99.723145 -3.3242075
116.18437 99.789566 -3.5020523
117.71072 99.759842 -3.6653454
119.18512 99.761475 -4.0232539
120.6839 99.693275 -4.2706733
121.9857 99.791618 -4.3396535
123.95575 99.501678 -4.4228067
110.78934 101.44433 -3.0281737
111.8551 101.46657 -3.1441073
113.29787 101.18272 -3.1764369
114.80751 101.19248 -3.3177896
116.24535 101.23768 -3.5721464
117.75337 101.29276 -3.7564771
119.21613 101.25445 -4.129324
120.59995 101.28429 -4.2730737
121.92313 101.10354 -4.3752942
123.23273 101.05402 -4.4740648
110.99696 102.68403 -3.0781548
111.99446 102.68578 -3.0832253
113.25217 102.71172 -3.2506299
114.82516 102.79533 -3.3487895
116.35397 102.77007 -3.5028636
117.78709 102.78772 -3.8386147
119.21767 102.7612 -4.1382337
120.63094 102.73514 -4.2087092
121.87962 103.08213 -4.4101267
110.53347 104.70907 -3.0929508
111.73438 104.10858 -3.1199381
113.29587 104.20438 -3.2394249
114.76618 104.26759 -3.3628607
116.23373 104.26431 -3.5734839
117.71275 104.2464 -3.850122
119.20108 104.2388 -4.1156192
120.535 104.17776 -4.243536
121.88554 104.07388 -4.3740206
110.89563 106.05108 -3.2212429
111.90366 105.7906 -3.175077
113.35897 105.80603 -3.2961717
114.71738 105.81715 -3.3797591
116.25034 105.72633 -3.5965693
117.79783 105.7152 -3.8472934
119.22845 105.79365 -4.0683246
120.62013 105.7581 -4.3042789
121.91481 105.53836 -4.3799953
112.37106 106.60616 -3.1461723
113.27148 106.59805 -3.2923119
114.56371 106.58499 -3.5095594
116.08437 106.60762 -3.5625064
135.85117 -57.048492 -1.7339387
137.28403 -57.11124 -1.8690877
138.99022 -57.18726 -2.0017276
140.22382 -57.181446 -2.2025027
141.72798 -57.201572 -2.7324781
143.1245 -57.197395 -2.8633218
144.50896 -57.240341 -2.9724176
145.93875 -57.225658 -2.9580584
134.26332 -56.10313 -1.6134199
135.89163 -56.165115 -1.6811039
137.29175 -56.27877 -1.792361
138.74692 -56.226078 -1.9338796
140.23 -56.221649 -2.2373877
141.72087 -56.288132 -2.543221
143.16374 -56.271992 -2.8104432
144.66609 -56.214615 -2.8934908
145.75533 -56.366634 -2.8941691
133.33174 -54.252506 -1.5576017
134.33636 -54.651684 -1.6091697
135.79811 -54.810074 -1.6976151
137.26512 -54.719681 -1.8607713
138.80185 -54.750164 -1.915519
140.24388 -54.705711 -2.2999253
141.67966 -54.782539 -2.5698867
143.24622 -54.810509 -2.8410332
144.62737 -54.604565 -2.9036498
145.91805 -54.393723 -2.9331715
133.35204 -53.750248 -1.558553
134.47624 -53.324795 -1.6218959
135.7635 -53.214108 -1.7123818
137.2541 -53.238182 -1.8643191
138.70683 -53.295311 -2.0419893
140.24651 -53.190197 -2.3743117
141.73616 -53.262131 -2.585186
143.04947 -53.311787 -2.80773
144.36935 -53.704147 -2.9405313
145.63815 -53.763256 -2.9418895
134.54193 -51.864811 -1.6738466
135.77052 -51.629391 -1.7710655
137.26906 -51.746006 -1.9428771
138.73183 -51.763298 -2.0356066
140.20528 -51.716515 -2.3501887
141.72128 -51.752342 -2.6149659
143.1093 -51.810593 -2.8345628
144.38681 -51.821918 -2.915484
133.36841 -50.225819 -1.6102129
134.43466 -50.253925 -1.7032583
135.84032 -50.226227 -1.8013877
137.24216 -50.245365 -1.9895351
138.71953 -50.298733 -2.1318576
140.22375 -50.230919 -2.5086112
141.69864 -50.27779 -2.6912441
143.1745 -50.348095 -2.9008181
144.40881 -50.593605 -2.9438653
131.94167 -48.485149 -1.5722239
132.82161 -48.564865 -1.6162508
134.46053 -48.737 -1.7211194
135.77223 -48.830536 -1.8642284
137.25839 -48.682522 -2.0454683
138.80115 -48.773895 -2.2115695
140.20624 -48.741627 -2.5363314
141.65378 -48.720104 -2.7390933
142.89455 -48.722862 -2.8628805
144.45255 -49.248169 -2.9757929
131.57544 -47.026558 -1.5568606
132.84203 -47.013054 -1.6208069
134.36018 -47.189495 -1.8185202
135.75418 -47.286209 -1.9019839
137.26961 -47.236839 -2.1223209
138.72655 -47.237839 -2.2568893
140.21907 -47.298603 -2.546407
141.60747 -47.216698 -2.7721651
142.84395 -47.286297 -2.8954003
144.08234 -47.633972 -2.9380724
131.27158 -45.671043 -1.5551636
132.66293 -45.723392 -1.6860005
134.31306 -45.714252 -1.7877938
135.77489 -45.779964 -1.9048954
137.26727 -45.74847 -2.098326
138.74918 -45.733841 -2.2922316
140.21233 -45.791824 -2.6265366
141.72055 -45.793068 -2.7418692
142.71181 -45.891586 -2.9182658
130.34482 -43.550285 -1.5697415
131.39757 -44.11124 -1.6180935
132.66008 -44.248024 -1.6336325
134.38402 -44.239796 -1.8005744
135.80719 -44.274296 -1.9440157
137.19814 -44.253159 -2.3096075
138.77017 -44.245239 -2.4199605
140.2028 -44.311188 -2.6867299
141.58804 -44.366829 -2.7976182
142.67111 -44.205406 -2.9690559
131.57492 -42.603531 -1.6359308
132.832 -42.580013 -1.6968665
134.31195 -42.686672 -1.8198583
135.75966 -42.759678 -2.0368686
137.22704 -42.796719 -2.3403318
138.75987 -42.722538 -2.4947381
140.12984 -42.763138 -2.6467054
141.53433 -42.836357 -2.8342268
129.9547 -41.311417 -1.5361824
131.36569 -41.426376 -1.6752094
132.7292 -41.204044 -1.7027737
134.32777 -41.191212 -1.873596
135.75806 -41.224655 -2.1629207
137.24425 -41.31039 -2.4604456
138.75877 -41.220745 -2.563201
140.16165 -41.196026 -2.7286446
141.58951 -41.432949 -2.862416
142.63184 -41.34317 -2.9165072
130.10017 -40.162762 -1.5713575
131.45924 -39.677025 -1.7011229
132.81766 -39.725338 -1.7719411
134.24341 -39.712837 -1.8815935
135.71036 -39.73193 -2.2153783
137.222 -39.776566 -2.520251
138.81343 -39.717896 -2.5581329
140.03062 -39.744076 -2.7411358
141.5239 -39.671024 -2.8652508
130.21199 -37.976402 -1.6471938
131.36967 -38.21315 -1.6815803
132.79112 -38.227581 -1.8196704
134.28236 -38.226578 -1.9700332
135.74849 -38.196381 -2.2884037
137.17778 -38.264263 -2.5855126
138.75787 -38.291889 -2.5829923
140.09872 -38.332844 -2.7864475
141.54311 -38.359356 -2.9213083
130.06464 -36.935135 -1.6469761
131.35884 -36.691761 -1.7389752
132.78563 -36.752697 -1.7901205
134.21037 -36.812302 -2.0711627
135.75151 -36.692215 -2.3171964
137.2182 -36.725471 -2.5774112
138.63614 -36.76379 -2.6947768
140.09352 -36.774399 -2.8062994
141.24724 -36.963619 -2.9814613
128.89476 -35.015442 -1.5680711
129.8847 -35.183159 -1.6111996
131.36357 -35.192764 -1.7602595
132.81993 -35.240368 -1.8494718
134.21928 -35.273563 -2.0991046
135.7747 -35.212013 -2.3823266
137.23297 -35.236416 -2.5801258
138.7724 -35.293175 -2.7389946
140.04263 -35.167072 -2.8801355
141.35225 -35.228558 -2.9028206
128.75153 -33.581997 -1.6237333
129.8667 -33.952923 -1.6841675
131.35194 -33.702244 -1.8001878
132.74863 -33.754681 -1.9571834
134.26337 -33.753712 -2.131099
135.78876 -33.724731 -2.4060066
137.18857 -33.742428 -2.6482334
138.75728 -33.77533 -2.7893543
139.95229 -33.827427 -2.8742831
141.0417 -34.206089 -2.8800948
128.89203 -32.3279 -1.6244282
129.85913 -32.2603 -1.6610041
131.29192 -32.262882 -1.9062554
132.80797 -32.222229 -1.9787983
134.28665 -32.264645 -2.2320964
135.73373 -32.329067 -2.5571902
137.20941 -32.221226 -2.7192841
138.69695 -32.2817 -2.7806251
139.91344 -32.613804 -2.8321652
128.65593 -30.555653 -1.5970426
129.80365 -30.709595 -1.6743256
131.29005 -30.763874 -1.8810843
132.73857 -30.735924 -2.0487535
134.20781 -30.769995 -2.3340054
135.73904 -30.766447 -2.6027319
137.20041 -30.742107 -2.7507679
138.77296 -30.767782 -2.83939
139.87677 -30.717716 -2.8842974
128.65196 -29.076605 -1.6718403
129.91022 -29.22216 -1.737566
131.27074 -29.264034 -1.9407538
132.72607 -29.222843 -2.1067781
134.22855 -29.246319 -2.337147
135.73282 -29.281998 -2.6416318
137.22879 -29.188473 -2.778722
138.70081 -29.387873 -2.8566039
139.94905 -29.109695 -2.9702733
127.07796 -27.810955 -1.5385253
128.50063 -27.63426 -1.6384993
129.84094 -27.676233 -1.751225
131.24788 -27.795105 -1.9998106
132.77245 -27.721209 -2.1817894
134.23143 -27.770103 -2.4157889
135.67206 -27.801176 -2.6892922
137.23759 -27.839294 -2.8682652
138.82211 -27.991226 -2.8719356
140.20305 -27.602192 -2.9462037
126.87745 -26.040081 -1.5686471
128.45348 -26.237581 -1.64491
129.82535 -26.178284 -1.7983202
131.25471 -26.256941 -2.0823147
132.74962 -26.299879 -2.2469144
134.26471 -26.218473 -2.4874678
135.74045 -26.253227 -2.7051816
137.09674 -26.30698 -2.8304236
138.51414 -26.146133 -2.9213243
139.76884 -26.463057 -2.942364
125.38 -24.392469 -1.5518688
126.91382 -24.697397 -1.5760131
128.36302 -24.760464 -1.7291437
129.82364 -24.700417 -1.8687472
131.28221 -24.750994 -2.1566377
132.72594 -24.793053 -2.3330498
134.22066 -24.709143 -2.549772
135.77644 -24.748564 -2.7100329
137.03471 -24.969141 -2.784102
138.88281 -24.791603 -2.9166884
127.05051 -23.03384 -1.61726
128.34116 -23.188648 -1.7000573
129.83377 -23.188883 -1.9006989
131.2603 -23.247707 -2.1801155
132.72662 -23.316275 -2.382633
134.21254 -23.199802 -2.6070871
135.65103 -23.235327 -2.8014762
136.94881 -23.25832 -2.8393531
138.9343 -23.175224 -2.9553566
125.3922 -21.80674 -1.6040506
126.53658 -21.847412 -1.5745857
128.46033 -21.756918 -1.7671921
129.81815 -21.702837 -1.9198029
131.26404 -21.726053 -2.2997971
132.76068 -21.794037 -2.4462647
134.22548 -21.745907 -2.6444497
135.66949 -21.788475 -2.7825766
136.9046 -21.758333 -2.8484278
124.48659 -19.82818 -1.5536573
125.48458 -20.071123 -1.6149858
126.82077 -20.231056 -1.6775273
128.35164 -20.258265 -1.7629474
129.72974 -20.211401 -2.0406184
131.24307 -20.232605 -2.3177304
132.7303 -20.290239 -2.5553343
134.16879 -20.261499 -2.6557724
135.65129 -20.136366 -2.8208776
136.73499 -20.067976 -2.8945577
124.27293 -18.561405 -1.541842
125.39041 -18.59775 -1.6056942
126.9678 -18.675003 -1.674922
128.35609 -18.724604 -1.8112524
129.72485 -18.797756 -2.0691195
131.21056 -18.702135 -2.3567309
132.72949 -18.77376 -2.6202209
134.19444 -18.785868 -2.6879239
135.64832 -18.784031 -2.8475783
136.58075 -18.715355 -2.9674273
124.12475 -16.904869 -1.5558604
125.4595 -17.136051 -1.6121398
126.88771 -17.148499 -1.7162784
128.39555 -17.24239 -1.8191614
129.70154 -17.288712 -2.05251
131.23056 -17.221661 -2.3350286
132.7361 -17.242638 -2.6288943
134.12111 -17.302107 -2.767859
135.74051 -17.404102 -2.8398783
136.58606 -16.776829 -2.928525
124.13006 -15.224816 -1.5614969
125.38132 -15.7552 -1.6274524
126.93985 -15.652895 -1.7798896
128.32072 -15.757474 -1.8698206
129.714 -15.834723 -2.1652119
131.22632 -15.7155 -2.4802182
132.74554 -15.779493 -2.6801813
134.17995 -15.795465 -2.7879965
135.47717 -16.078268 -2.8919187
122.66115 -14.22752 -1.5241116
123.96699 -14.084696 -1.5960273
125.4273 -14.210828 -1.7100689
126.81128 -14.200308 -1.7934228
128.29997 -14.243247 -1.8911846
129.72464 -14.312567 -2.2082543
131.19482 -14.273617 -2.5472808
132.74495 -14.293717 -2.6942446
134.19098 -14.242669 -2.8119113
135.47736 -14.297633 -2.8678322
123.87663 -12.560102 -1.5653914
125.35741 -12.897868 -1.6763775
126.80325 -12.650539 -1.7771623
128.25237 -12.746295 -1.9282182
129.68671 -12.780493 -2.2654681
131.19022 -12.812336 -2.5647106
132.69673 -12.775226 -2.7601738
134.22 -12.748118 -2.8284974
135.16689 -13.403353 -2.8700206
122.53755 -10.655686 -1.6351466
123.7897 -11.116491 -1.631294
125.29635 -11.325848 -1.7067297
126.7403 -11.271498 -1.8539377
128.29578 -11.189785 -2.0253367
129.73772 -11.270552 -2.3451097
131.23161 -11.291972 -2.6286144
132.64259 -11.234845 -2.8307111
134.04912 -11.160295 -2.8470011
135.25755 -11.121989 -2.9006383
122.49357 -9.8554831 -1.5988014
123.77528 -9.7893267 -1.67392
125.27805 -9.7660646 -1.7371626
126.78092 -9.8075113 -1.8716477
128.306 -9.695694 -2.0686467
129.69244 -9.7155828 -2.4588656
131.13344 -9.7975597 -2.6694691
132.70584 -9.7660666 -2.8486881
134.31966 -9.7349358 -2.8710434
122.68004 -7.9449601 -1.6145986
123.76632 -8.2166023 -1.6784171
125.24793 -8.2386189 -1.7933658
126.8111 -8.2794256 -1.9169042
128.31293 -8.2198658 -2.1236145
129.77655 -8.2310858 -2.5078013
131.17105 -8.2837849 -2.6848953
132.78041 -8.3134108 -2.8296771
133.9913 -8.2114038 -2.8772833
135.03069 -8.2159138 -2.9534819
122.51799 -6.7017293 -1.6201395
123.80977 -6.7359595 -1.6900904
125.36331 -6.7618294 -1.8481357
126.74509 -6.8074889 -1.9514558
128.25102 -6.7378955 -2.1858666
129.72797 -6.7312784 -2.479171
131.18098 -6.7728391 -2.6752889
132.48067 -6.7587547 -2.8255241
122.62611 -5.1105905 -1.629171
123.79318 -5.2290916 -1.6934121
125.25142 -5.220562 -1.8495694
126.71822 -5.2975311 -2.0504858
128.26602 -5.3139691 -2.1655395
129.72896 -5.1944933 -2.5521936
131.12883 -5.3469887 -2.7071867
132.44525 -5.2463818 -2.8943315
134.14194 -5.4094543 -2.9799585
119.79587 -3.0587606 -1.519376
120.72632 -3.4874077 -1.5683644
122.54136 -3.7356279 -1.6692445
123.77809 -3.7807863 -1.7067688
125.30355 -3.6954536 -1.9626704
126.80525 -3.7603486 -2.097307
128.31447 -3.779186 -2.3013666
129.74796 -3.6878018 -2.6046753
131.10333 -3.7627001 -2.7737942
132.65269 -3.7844172 -2.8818521
134.10233 -4.0591693 -2.9915648
120.89629 -1.877808 -1.5713193
122.48338 -2.333957 -1.7063189
123.73091 -2.2695372 -1.7795966
125.2744 -2.1937823 -1.9130667
126.76638 -2.2519929 -2.2205012
128.26576 -2.2784319 -2.3640709
129.649 -2.2772615 -2.6799073
131.02429 -2.3442316 -2.8194833
132.38179 -2.579813 -2.93098
119.71356 -0.20085298 -1.5629932
120.8261 -0.68714029 -1.5802661
122.50173 -0.69535875 -1.7411412
123.77532 -0.78537637 -1.8071516
125.25704 -0.73146296 -2.041064
126.73438 -0.73810542 -2.2345736
128.28357 -0.77393448 -2.4390006
129.66949 -0.82279909 -2.7131608
131.16708 -0.75447017 -2.8619025
132.09048 -0.71808779 -2.9472878
119.90437 0.13065107 -1.5657951
120.68352 0.63122302 -1.5788919
122.50157 0.81029838 -1.692312
123.77081 0.66792911 -1.8891596
125.2589 0.75649714 -2.0953219
126.78899 0.79834986 -2.2467637
128.29112 0.72415251 -2.481272
129.63412 0.71905524 -2.6967425
130.94449 0.77809602 -2.8311586
132.41461 0.70736569 -2.9588628
119.45206 2.1873286 -1.5579945
120.88815 2.2393131 -1.6000904
122.44745 2.3349156 -1.7446347
123.7673 2.2776618 -1.8644025
125.25554 2.2295363 -2.0984056
126.8027 2.303323 -2.3664904
128.27002 2.2356348 -2.5781701
129.68695 2.1610849 -2.7465019
131.01945 2.1119521 -2.9263937
132.21162 2.3151608 -2.9534323
119.22062 4.0695176 -1.5783468
120.86582 3.8941402 -1.6816212
122.34788 3.7551217 -1.792639
123.7344 3.6944821 -1.9790494
125.23117 3.7252471 -2.191488
126.76642 3.7981884 -2.4192314
128.23381 3.7545114 -2.6065013
129.71733 3.7849505 -2.7727888
130.87451 3.6481476 -2.8689282
119.63191 5.2799292 -1.6420724
120.85268 5.3358006 -1.6910919
122.38686 5.3150392 -1.7967985
123.75266 5.2485538 -2.0544119
125.23547 5.2322011 -2.2188315
126.76532 5.2867937 -2.510489
128.26004 5.3029375 -2.6455429
129.48976 5.2530532 -2.7369423
131.01665 4.7074733 -2.8766537
119.51262 6.8006835 -1.6430327
120.85696 6.8280673 -1.6938789
122.35496 6.8507123 -1.8149405
123.80305 6.7392793 -2.04392
125.25591 6.7277989 -2.3288333
126.72278 6.7416444 -2.5749466
128.2361 6.7751317 -2.7058625
129.45134 6.7203321 -2.7975726
130.88763 6.6756396 -2.949765
119.39021 8.309763 -1.6168472
120.80927 8.2441921 -1.6963634
122.35466 8.2958126 -1.9006318
123.75563 8.2927933 -2.1161082
125.25547 8.2314205 -2.293529
126.70074 8.2113199 -2.629972
128.16965 8.2828522 -2.7285168
129.4594 8.3967886 -2.8640697
130.82553 7.9994411 -2.9384713
119.43769 9.542922 -1.6319124
120.81618 9.6596622 -1.7009932
122.24019 9.7510195 -1.8788565
123.75283 9.8101645 -2.1525607
125.24849 9.7510548 -2.4324179
126.70462 9.690506 -2.6296904
128.20015 9.775075 -2.795702
129.51776 9.7301168 -2.87275
119.72024 11.322177 -1.6904845
120.7907 11.256183 -1.7289509
122.2317 11.202145 -1.8906983
123.71761 11.263674 -2.2560399
125.21906 11.283685 -2.418885
126.70759 11.267401 -2.6617093
128.26277 11.155992 -2.774657
129.554 11.06877 -2.8210833
120.95135 12.689054 -1.7583829
122.28606 12.689074 -1.8994516
123.74403 12.803179 -2.2881625
125.29113 12.76618 -2.4779429
126.73464 12.725832 -2.6980014
128.03204 12.674792 -2.766573
129.28069 12.72833 -2.9243357
120.9967 14.019217 -1.7372786
122.31096 14.235375 -1.9603671
123.75261 14.260215 -2.3118577
125.23685 14.278051 -2.4442971
126.66723 14.205897 -2.7677574
128.136 14.183106 -2.8151679
129.50047 14.328734 -2.9112768
121.33109 15.801908 -1.7974088
122.33284 15.700574 -1.9525144
123.73 15.758747 -2.4227583
125.22746 15.785557 -2.5931523
126.68648 15.71325 -2.7571518
128.07361 15.832513 -2.8340206
129.30281 16.049391 -2.9030735
121.37901 17.126652 -1.809016
122.36124 17.239687 -1.9859909
123.70757 17.224302 -2.4078071
125.25755 17.319204 -2.5748823
126.68703 17.286772 -2.7803559
128.04083 17.227198 -2.8411145
129.13425 17.191517 -2.914582
121.40141 18.674402 -1.6732
122.45879 18.758083 -2.0017998
123.69131 18.720156 -2.4172928
125.19983 18.753208 -2.6758931
126.57114 18.834505 -2.8668087
128.10002 18.807102 -2.8705432
121.20479 20.534063 -1.7659823
122.3488 20.267265 -2.073993
123.70592 20.215673 -2.4460168
125.13967 20.230747 -2.6688263
126.67228 20.290871 -2.8778286
127.95237 20.682804 -2.8887687
129.01442 20.78404 -2.8999779
121.06368 21.926113 -2.0109706
122.28066 21.795795 -2.1334345
123.72927 21.755476 -2.5597939
125.18781 21.701508 -2.7130098
126.59856 21.773226 -2.8451476
127.93639 21.758247 -2.8916936
129.03554 21.458609 -2.9155738
119.70425 23.567276 -1.6969029
120.84871 23.298584 -1.9774978
122.27286 23.291189 -2.209964
123.7081 23.207067 -2.5923319
125.23615 23.198715 -2.7179811
126.5073 23.141432 -2.8093181
127.83321 23.288391 -2.8887429
119.55035 24.797844 -1.9200041
120.75455 24.753588 -2.0793598
122.22262 24.758001 -2.3545275
123.62756 24.724062 -2.6497407
125.22734 24.745829 -2.7819405
126.64469 24.806425 -2.8826239
127.95772 24.091026 -2.9494741
118.01011 26.600857 -1.6887394
119.3634 26.282085 -1.8864172
120.75031 26.183325 -2.1576459
122.25147 26.264587 -2.3303986
123.59702 26.291094 -2.6915205
125.23444 26.161472 -2.8207629
126.57778 26.507189 -2.8904674
116.60298 28.054869 -1.6332772
117.80978 27.901276 -1.7092249
119.26608 27.738443 -1.9423212
120.7045 27.695032 -2.2863595
122.23634 27.765209 -2.4432015
123.75363 27.790697 -2.6940207
125.16859 27.856058 -2.8253722
126.45039 27.820932 -2.9168577
115.13314 28.995806 -1.5806615
116.38678 29.449875 -1.6485766
117.81452 29.303568 -1.7444296
119.30064 29.261869 -2.0048182
120.75037 29.203295 -2.3811264
122.23737 29.238565 -2.488204
123.69091 29.246801 -2.7329509
125.26702 29.334524 -2.8412747
126.26347 28.886614 -2.9420743
115.13491 30.848734 -1.5892754
116.28069 30.853386 -1.6838679
117.80138 30.859991 -1.8332804
119.26531 30.734165 -2.1105561
120.76709 30.730503 -2.4771891
122.20132 30.67506 -2.5122523
123.60553 30.753643 -2.6988406
125.2001 30.850498 -2.8720562
126.40003 30.528826 -2.9915025
113.86359 32.385471 -1.508373
115.04076 32.402763 -1.5598238
116.3779 32.264606 -1.6971799
117.75231 32.290012 -1.9265653
119.26756 32.267467 -2.1382301
120.75417 32.255402 -2.5024304
122.23801 32.200356 -2.6062751
123.52779 32.147774 -2.7293391
125.21653 32.017124 -2.8865173
126.15824 32.142017 -2.9299357
113.68172 34.14027 -1.7056202
114.81013 33.781857 -1.6509674
116.35664 33.848495 -1.7043754
117.77541 33.747482 -1.8936349
119.26587 33.765503 -2.2338963
120.77622 33.736607 -2.5079255
122.26901 33.700195 -2.5993924
123.59473 33.796467 -2.7422941
