# 3D Systems, Inc.
# New Model
VERSION 0.7
FIELDS x y z x_normal y_normal z_normal
SIZE 4 4 4 4 4 4 
TYPE F F F F F F
COUNT 1 1 1 1 1 1 
WIDTH 810
HEIGHT 1
VIEWPOINT 0 0 0 1 0 0 0
POINTS 810
DATA ascii
67.5380020 102.7447900 -13.4920000 0.00000 0.00000 0.00000
67.5447010 106.6559200 -13.8885160 0.00000 0.00000 0.00000
67.5585400 100.5558100 -13.7634190 0.00000 0.00000 0.00000
67.5619960 102.6733300 -13.9786410 0.00000 0.00000 0.00000
67.5735700 100.7258400 -13.7308390 0.00000 0.00000 0.00000
67.5793840 102.5191500 -13.9033640 0.00000 0.00000 0.00000
67.5845570 101.5450700 -13.7814970 0.00000 0.00000 0.00000
67.5909350 101.8737400 -13.7951590 0.00000 0.00000 0.00000
67.5941310 101.2241600 -13.7147480 0.00000 0.00000 0.00000
67.5950780 102.2013200 -13.8162670 0.00000 0.00000 0.00000
67.6000980 104.8930100 -13.5122070 0.00000 0.00000 0.00000
67.6039580 103.1823300 -13.8913820 0.00000 0.00000 0.00000
67.6331560 104.6618000 -13.9512250 0.00000 0.00000 0.00000
67.6366730 104.3380300 -13.9046490 0.00000 0.00000 0.00000
67.6422350 106.5432100 -13.5465010 0.00000 0.00000 0.00000
67.6451800 102.8771500 -13.7193610 0.00000 0.00000 0.00000
67.6493990 105.1582900 -13.9495190 0.00000 0.00000 0.00000
67.6543120 106.2236300 -13.4713990 0.00000 0.00000 0.00000
67.6657790 103.0501500 -13.6682910 0.00000 0.00000 0.00000
67.6720890 103.5417400 -13.6996270 0.00000 0.00000 0.00000
67.6812210 103.8719300 -13.7041430 0.00000 0.00000 0.00000
67.6872180 101.0246300 -13.9536920 0.00000 0.00000 0.00000
67.6907730 100.7008600 -13.9070000 0.00000 0.00000 0.00000
67.7640080 106.6819800 -13.7254270 0.00000 0.00000 0.00000
67.7757870 102.5327100 -13.8161870 0.00000 0.00000 0.00000
67.7868800 105.3907500 -13.5098090 0.00000 0.00000 0.00000
67.7898030 106.2066300 -13.5873300 0.00000 0.00000 0.00000
67.8012080 105.5609100 -13.4796190 0.00000 0.00000 0.00000
67.8101040 105.7283200 -13.4674930 0.00000 0.00000 0.00000
67.8559420 100.3735200 -13.8886810 0.00000 0.00000 0.00000
67.8667980 100.2159700 -13.8351790 0.00000 0.00000 0.00000
67.8690190 103.3928500 -13.5935490 0.00000 0.00000 0.00000
67.8691250 104.8584700 -13.7501680 0.00000 0.00000 0.00000
67.8705830 104.3707000 -13.6930060 0.00000 0.00000 0.00000
67.8832930 101.6888000 -13.9372840 0.00000 0.00000 0.00000
67.8910220 104.2180900 -13.6076420 0.00000 0.00000 0.00000
67.8982470 100.5566200 -13.7655860 0.00000 0.00000 0.00000
67.8983840 102.0216900 -13.9220360 0.00000 0.00000 0.00000
67.9003980 105.8513000 -13.7509160 0.00000 0.00000 0.00000
67.9069520 106.0174700 -13.7465880 0.00000 0.00000 0.00000
67.9114000 101.3769200 -13.8090750 0.00000 0.00000 0.00000
67.9372480 105.5443100 -13.5936140 0.00000 0.00000 0.00000
67.9400410 103.9168200 -13.4098520 0.00000 0.00000 0.00000
67.9513020 105.2256600 -13.5120400 0.00000 0.00000 0.00000
67.9537890 106.5299800 -13.6433320 0.00000 0.00000 0.00000
67.9725950 106.7024900 -13.5983070 0.00000 0.00000 0.00000
67.9806060 102.7131900 -13.7187360 0.00000 0.00000 0.00000
67.9892730 102.2289400 -13.6376380 0.00000 0.00000 0.00000
68.0076830 100.7721400 -13.4194960 0.00000 0.00000 0.00000
68.0112150 106.3964800 -13.4351260 0.00000 0.00000 0.00000
68.0127410 103.0547000 -13.6469070 0.00000 0.00000 0.00000
68.0233000 106.1536000 -13.9431250 0.00000 0.00000 0.00000
68.0330050 102.4132300 -13.5098510 0.00000 0.00000 0.00000
68.0344620 101.9253100 -13.4526780 0.00000 0.00000 0.00000
68.0463560 103.8856400 -13.6224820 0.00000 0.00000 0.00000
68.0530240 101.3636600 -13.9039240 0.00000 0.00000 0.00000
68.0538480 102.9121200 -13.4929470 0.00000 0.00000 0.00000
68.0941090 101.0579600 -13.7327390 0.00000 0.00000 0.00000
68.1038820 103.2626300 -13.3616950 0.00000 0.00000 0.00000
68.1142200 104.7339900 -13.4844090 0.00000 0.00000 0.00000
68.1181640 101.7208900 -13.7226470 0.00000 0.00000 0.00000
68.1269450 100.9109900 -13.6063200 0.00000 0.00000 0.00000
68.1466670 100.1061600 -13.4536710 0.00000 0.00000 0.00000
68.1734240 106.7189800 -13.4972160 0.00000 0.00000 0.00000
68.1892550 100.0457100 -13.8771800 0.00000 0.00000 0.00000
68.1935580 100.2914800 -13.3154870 0.00000 0.00000 0.00000
68.1948780 101.2695500 -13.4157670 0.00000 0.00000 0.00000
68.2055130 104.8579000 -13.7640980 0.00000 0.00000 0.00000
68.2066500 103.5556500 -13.6208480 0.00000 0.00000 0.00000
68.2317890 105.5225400 -13.7466770 0.00000 0.00000 0.00000
68.2373200 102.9192700 -13.4493420 0.00000 0.00000 0.00000
68.2556460 103.9057600 -13.4932070 0.00000 0.00000 0.00000
68.2713090 101.8760100 -13.7968010 0.00000 0.00000 0.00000
68.2746730 105.8700300 -13.6393440 0.00000 0.00000 0.00000
68.2752910 103.4267700 -13.3757130 0.00000 0.00000 0.00000
68.2828450 104.4080600 -13.4553160 0.00000 0.00000 0.00000
68.2846070 104.0831000 -13.4145810 0.00000 0.00000 0.00000
68.2933650 100.9097100 -13.6190830 0.00000 0.00000 0.00000
68.3008650 100.4247400 -13.5419160 0.00000 0.00000 0.00000
68.3065340 102.0560100 -13.6974650 0.00000 0.00000 0.00000
68.3075100 101.0793800 -13.5896350 0.00000 0.00000 0.00000
68.3151320 102.3858900 -13.7038200 0.00000 0.00000 0.00000
68.3152240 105.7277100 -13.4874460 0.00000 0.00000 0.00000
68.3195420 106.3815800 -13.5428750 0.00000 0.00000 0.00000
68.3424530 104.1906000 -13.8049710 0.00000 0.00000 0.00000
68.3470080 104.0300300 -13.7724660 0.00000 0.00000 0.00000
68.3585430 101.4298200 -13.4552950 0.00000 0.00000 0.00000
68.3721160 100.6218100 -13.3230860 0.00000 0.00000 0.00000
68.3825300 104.3734700 -13.6896060 0.00000 0.00000 0.00000
68.3881230 102.2587200 -13.4444100 0.00000 0.00000 0.00000
68.3988190 100.0650300 -13.7467350 0.00000 0.00000 0.00000
68.4001160 101.6128800 -13.3348950 0.00000 0.00000 0.00000
68.4015730 106.6630200 -13.8705080 0.00000 0.00000 0.00000
68.4095610 103.7354000 -13.5302930 0.00000 0.00000 0.00000
68.4195710 103.2516400 -13.4448030 0.00000 0.00000 0.00000
68.4577560 104.7369200 -13.4751860 0.00000 0.00000 0.00000
68.4605870 103.0256800 -13.8557740 0.00000 0.00000 0.00000
68.4663540 105.2300100 -13.4990050 0.00000 0.00000 0.00000
68.4800720 100.2666800 -13.4949540 0.00000 0.00000 0.00000
68.4901200 105.4049300 -13.4377070 0.00000 0.00000 0.00000
68.4916000 101.4123800 -13.5787950 0.00000 0.00000 0.00000
68.4979400 102.7183800 -13.6972210 0.00000 0.00000 0.00000
68.5361790 105.7541500 -13.3199710 0.00000 0.00000 0.00000
68.5424350 103.8803900 -13.6718690 0.00000 0.00000 0.00000
68.5442120 103.5555300 -13.6311180 0.00000 0.00000 0.00000
68.5517810 106.3279100 -13.9022940 0.00000 0.00000 0.00000
68.5589980 104.2143900 -13.6518850 0.00000 0.00000 0.00000
68.5599900 105.1921200 -13.7531680 0.00000 0.00000 0.00000
68.5603790 105.3551900 -13.7692870 0.00000 0.00000 0.00000
68.5655060 100.7963700 -13.2642160 0.00000 0.00000 0.00000
68.5696110 102.2647900 -13.4075560 0.00000 0.00000 0.00000
68.5763400 101.2904400 -13.2806550 0.00000 0.00000 0.00000
68.5782930 106.1785700 -13.7971170 0.00000 0.00000 0.00000
68.5841140 100.5612400 -13.7492000 0.00000 0.00000 0.00000
68.5947040 104.5580100 -13.5685210 0.00000 0.00000 0.00000
68.5964660 106.6764400 -13.7892510 0.00000 0.00000 0.00000
68.5997160 102.9312700 -13.3776090 0.00000 0.00000 0.00000
68.6017530 100.0811500 -13.6385330 0.00000 0.00000 0.00000
68.6090390 101.2245700 -13.7363830 0.00000 0.00000 0.00000
68.6098480 104.8914200 -13.5532590 0.00000 0.00000 0.00000
68.6110310 105.8694500 -13.6539090 0.00000 0.00000 0.00000
68.6130450 101.3893400 -13.7405590 0.00000 0.00000 0.00000
68.6211780 100.7418700 -13.6439420 0.00000 0.00000 0.00000
68.6230160 104.0833700 -13.4225010 0.00000 0.00000 0.00000
68.6243740 103.7581700 -13.3831140 0.00000 0.00000 0.00000
68.6357570 106.5336300 -13.6417890 0.00000 0.00000 0.00000
68.6478350 101.8947700 -13.6776780 0.00000 0.00000 0.00000
68.6580280 102.2254500 -13.6788010 0.00000 0.00000 0.00000
68.6654660 104.0204700 -13.8458260 0.00000 0.00000 0.00000
68.6663510 99.9490280 -13.4072670 0.00000 0.00000 0.00000
68.6752090 102.3967100 -13.6393760 0.00000 0.00000 0.00000
68.6781620 105.0886800 -13.3445430 0.00000 0.00000 0.00000
68.6921160 102.7307400 -13.6182970 0.00000 0.00000 0.00000
68.6963270 106.0756800 -13.3890170 0.00000 0.00000 0.00000
68.7100300 103.0653200 -13.5938620 0.00000 0.00000 0.00000
68.7100980 101.7621200 -13.4542200 0.00000 0.00000 0.00000
68.7637020 102.6029100 -13.3639830 0.00000 0.00000 0.00000
68.7647090 103.5810400 -13.4652400 0.00000 0.00000 0.00000
68.8321840 105.4071300 -13.4337890 0.00000 0.00000 0.00000
68.8599620 100.2864900 -13.3652200 0.00000 0.00000 0.00000
68.8772960 106.4077900 -13.3891850 0.00000 0.00000 0.00000
68.8909230 100.9530900 -13.3325300 0.00000 0.00000 0.00000
68.8926540 103.7236600 -13.6230470 0.00000 0.00000 0.00000
68.8927460 105.8411600 -13.8491760 0.00000 0.00000 0.00000
68.8960340 100.4666700 -13.2633540 0.00000 0.00000 0.00000
68.8983380 100.7936900 -13.2905880 0.00000 0.00000 0.00000
68.9024050 101.6104200 -13.3642980 0.00000 0.00000 0.00000
68.9086760 102.5911200 -13.4481180 0.00000 0.00000 0.00000
68.9172440 106.1793300 -13.8030610 0.00000 0.00000 0.00000
68.9198460 101.2929200 -13.2717670 0.00000 0.00000 0.00000
68.9236150 105.0423100 -13.6600960 0.00000 0.00000 0.00000
68.9269710 102.7630200 -13.4050630 0.00000 0.00000 0.00000
68.9273530 102.1113800 -13.3341020 0.00000 0.00000 0.00000
68.9283600 103.0895900 -13.4353270 0.00000 0.00000 0.00000
68.9379960 103.4202300 -13.4383220 0.00000 0.00000 0.00000
68.9402240 100.7326600 -13.7152680 0.00000 0.00000 0.00000
68.9438480 100.2458000 -13.6510460 0.00000 0.00000 0.00000
68.9465260 104.8908900 -13.5669670 0.00000 0.00000 0.00000
68.9484940 101.2252000 -13.7401800 0.00000 0.00000 0.00000
68.9626080 104.2471600 -13.4441180 0.00000 0.00000 0.00000
68.9937900 100.1067000 -13.4685970 0.00000 0.00000 0.00000
68.9985810 105.4058800 -13.4472190 0.00000 0.00000 0.00000
69.0051190 104.4313100 -13.3210490 0.00000 0.00000 0.00000
69.0062940 106.3875200 -13.5262750 0.00000 0.00000 0.00000
69.0110930 106.7158700 -13.5452660 0.00000 0.00000 0.00000
69.0173340 102.2358100 -13.6172700 0.00000 0.00000 0.00000
69.0174100 105.7413100 -13.4198430 0.00000 0.00000 0.00000
69.0233610 101.4242000 -13.5102490 0.00000 0.00000 0.00000
69.0583040 103.5591200 -13.6212920 0.00000 0.00000 0.00000
69.0584640 104.3737100 -13.7078360 0.00000 0.00000 0.00000
69.0652390 105.6801800 -13.8247890 0.00000 0.00000 0.00000
69.0737760 104.0555200 -13.6224410 0.00000 0.00000 0.00000
69.0766300 103.0793900 -13.5085130 0.00000 0.00000 0.00000
69.0905230 106.6702800 -13.8457880 0.00000 0.00000 0.00000
69.1223750 105.3831800 -13.6013360 0.00000 0.00000 0.00000
69.1233980 103.9171900 -13.4411860 0.00000 0.00000 0.00000
69.1849290 104.7627000 -13.3251140 0.00000 0.00000 0.00000
69.1990660 101.7532200 -13.5275630 0.00000 0.00000 0.00000
69.2134480 104.5296700 -13.7761140 0.00000 0.00000 0.00000
69.2163090 100.4579500 -13.3312820 0.00000 0.00000 0.00000
69.2231830 99.9723130 -13.2563340 0.00000 0.00000 0.00000
69.2246630 101.9285500 -13.4604950 0.00000 0.00000 0.00000
69.2304690 103.2348600 -13.5806710 0.00000 0.00000 0.00000
69.2385250 102.5870700 -13.4844030 0.00000 0.00000 0.00000
69.2486340 105.1988500 -13.7296770 0.00000 0.00000 0.00000
69.2498090 104.0590400 -13.6039270 0.00000 0.00000 0.00000
69.2581410 101.2928700 -13.2803260 0.00000 0.00000 0.00000
69.2613300 103.0870800 -13.4614100 0.00000 0.00000 0.00000
69.2631990 104.8803300 -13.6468260 0.00000 0.00000 0.00000
69.2702030 103.9062000 -13.5192240 0.00000 0.00000 0.00000
69.2830050 100.9788200 -13.1633910 0.00000 0.00000 0.00000
69.2918930 102.9391000 -13.3431400 0.00000 0.00000 0.00000
69.2927400 103.5914200 -13.4100340 0.00000 0.00000 0.00000
69.2946550 100.6583600 -13.0900690 0.00000 0.00000 0.00000
69.3088000 105.5549600 -13.5660670 0.00000 0.00000 0.00000
69.3234940 101.8944900 -13.6965880 0.00000 0.00000 0.00000
69.3239820 105.3996400 -13.4985790 0.00000 0.00000 0.00000
69.3304440 102.0607600 -13.6910800 0.00000 0.00000 0.00000
69.3345490 105.7309000 -13.4985490 0.00000 0.00000 0.00000
69.3449780 101.4161600 -13.5735070 0.00000 0.00000 0.00000
69.3461610 106.3886600 -13.5299130 0.00000 0.00000 0.00000
69.3640140 100.6106300 -13.4236550 0.00000 0.00000 0.00000
69.3692930 104.7703900 -13.2794350 0.00000 0.00000 0.00000
69.3733140 102.8961700 -13.6367840 0.00000 0.00000 0.00000
69.3749080 102.4081900 -13.5792880 0.00000 0.00000 0.00000
69.3779830 103.5501200 -13.6910130 0.00000 0.00000 0.00000
69.3872070 106.0835000 -13.3597100 0.00000 0.00000 0.00000
69.4262540 99.9883190 -13.1487030 0.00000 0.00000 0.00000
69.4460910 100.5690400 -13.7148110 0.00000 0.00000 0.00000
69.4564510 104.8924900 -13.5716600 0.00000 0.00000 0.00000
69.4666520 103.9197800 -13.4335630 0.00000 0.00000 0.00000
69.4696270 101.0689600 -13.6894650 0.00000 0.00000 0.00000
69.4986420 105.7284900 -13.5196850 0.00000 0.00000 0.00000
69.5033650 106.2197800 -13.5563430 0.00000 0.00000 0.00000
69.5258260 105.0901800 -13.3604450 0.00000 0.00000 0.00000
69.5458300 104.2850300 -13.2074010 0.00000 0.00000 0.00000
69.5493700 104.4498300 -13.2131720 0.00000 0.00000 0.00000
69.5493700 106.5691000 -13.4395880 0.00000 0.00000 0.00000
69.5498730 103.0627800 -13.6339640 0.00000 0.00000 0.00000
69.5601200 102.4160400 -13.5305810 0.00000 0.00000 0.00000
69.5829850 99.9823300 -13.1940360 0.00000 0.00000 0.00000
69.5858690 101.4507000 -13.3412860 0.00000 0.00000 0.00000
69.5902790 106.7529300 -13.3222400 0.00000 0.00000 0.00000
69.6064450 103.5794100 -13.4998460 0.00000 0.00000 0.00000
69.6168210 106.0288100 -13.7267930 0.00000 0.00000 0.00000
69.6219640 100.9790000 -13.1701190 0.00000 0.00000 0.00000
69.6236650 105.5434400 -13.6520500 0.00000 0.00000 0.00000
69.6596220 102.9535300 -13.2550560 0.00000 0.00000 0.00000
69.6747670 105.0801500 -13.4315740 0.00000 0.00000 0.00000
69.6773680 102.3100300 -13.1269380 0.00000 0.00000 0.00000
69.6774140 102.0650300 -13.6707410 0.00000 0.00000 0.00000
69.6813660 104.1053800 -13.3053620 0.00000 0.00000 0.00000
69.6895290 103.7833600 -13.2436330 0.00000 0.00000 0.00000
69.6916960 101.0943100 -13.5193050 0.00000 0.00000 0.00000
69.6917720 106.5556600 -13.5322580 0.00000 0.00000 0.00000
69.7086940 104.7710700 -13.2850250 0.00000 0.00000 0.00000
69.7180180 100.2920500 -13.3456260 0.00000 0.00000 0.00000
69.7202760 101.7598700 -13.4948660 0.00000 0.00000 0.00000
69.7376100 100.7903400 -13.3333500 0.00000 0.00000 0.00000
69.7498170 102.4260400 -13.4672600 0.00000 0.00000 0.00000
69.7561110 105.4469800 -13.1985510 0.00000 0.00000 0.00000
69.7574230 106.2629100 -13.2813100 0.00000 0.00000 0.00000
69.7949520 101.9589400 -13.2664590 0.00000 0.00000 0.00000
69.8034740 100.0065200 -13.0294160 0.00000 0.00000 0.00000
69.8085560 104.5736300 -13.5002580 0.00000 0.00000 0.00000
69.8086320 100.9873100 -13.1169630 0.00000 0.00000 0.00000
69.8610230 103.1323400 -13.1709220 0.00000 0.00000 0.00000
69.8941800 100.2953000 -13.3269080 0.00000 0.00000 0.00000
69.8972630 100.7857400 -13.3689920 0.00000 0.00000 0.00000
69.9069290 100.1383400 -13.2675560 0.00000 0.00000 0.00000
69.9084240 105.7647000 -13.2935840 0.00000 0.00000 0.00000
69.9172740 105.6061000 -13.2470360 0.00000 0.00000 0.00000
69.9201130 101.4486700 -13.3634510 0.00000 0.00000 0.00000
69.9348140 101.1297000 -13.2802930 0.00000 0.00000 0.00000
69.9373550 106.5945900 -13.2854670 0.00000 0.00000 0.00000
69.9425890 102.2745100 -13.3765820 0.00000 0.00000 0.00000
69.9466480 103.5804400 -13.5024630 0.00000 0.00000 0.00000
69.9477310 105.3736100 -13.6902850 0.00000 0.00000 0.00000
69.9500120 103.4191100 -13.4740070 0.00000 0.00000 0.00000
69.9570010 104.2374700 -13.5380220 0.00000 0.00000 0.00000
69.9660260 104.8938600 -13.5779630 0.00000 0.00000 0.00000
69.9694670 101.6354200 -13.2185670 0.00000 0.00000 0.00000
69.9738850 100.4961900 -13.0821340 0.00000 0.00000 0.00000
69.9818420 104.5757600 -13.4911870 0.00000 0.00000 0.00000
69.9846800 102.7840300 -13.2903970 0.00000 0.00000 0.00000
69.9941410 103.9298200 -13.3811280 0.00000 0.00000 0.00000
70.0015720 101.3247400 -13.0781380 0.00000 0.00000 0.00000
70.0021740 102.4664500 -13.1980380 0.00000 0.00000 0.00000
70.0050660 100.5934800 -13.5576260 0.00000 0.00000 0.00000
70.0106580 102.1444500 -13.1353240 0.00000 0.00000 0.00000
70.0107800 106.0572000 -13.5526780 0.00000 0.00000 0.00000
70.0136180 105.2436100 -13.4563570 0.00000 0.00000 0.00000
70.0194780 101.4151100 -13.5972550 0.00000 0.00000 0.00000
70.0248950 102.9666900 -13.1755680 0.00000 0.00000 0.00000
70.0298770 102.0719000 -13.6326600 0.00000 0.00000 0.00000
70.0481870 101.7548300 -13.5376940 0.00000 0.00000 0.00000
70.0497360 106.2398700 -13.4420790 0.00000 0.00000 0.00000
70.0618290 103.0651200 -13.6320560 0.00000 0.00000 0.00000
70.1505660 100.1734800 -13.0272250 0.00000 0.00000 0.00000
70.1568370 105.0677300 -13.5287610 0.00000 0.00000 0.00000
70.1577450 100.4226500 -13.5985990 0.00000 0.00000 0.00000
70.1703110 101.1613700 -13.0668150 0.00000 0.00000 0.00000
70.1753690 104.0988500 -13.3635070 0.00000 0.00000 0.00000
70.2129970 102.9759100 -13.1180520 0.00000 0.00000 0.00000
70.2349240 106.4111200 -13.4115690 0.00000 0.00000 0.00000
70.2388760 104.6194500 -13.2071440 0.00000 0.00000 0.00000
70.2433240 100.1372200 -13.2828100 0.00000 0.00000 0.00000
70.2438660 104.7850000 -13.2081580 0.00000 0.00000 0.00000
70.2462920 106.0907600 -13.3394250 0.00000 0.00000 0.00000
70.2482070 102.2586500 -13.4929360 0.00000 0.00000 0.00000
70.2491610 100.6290600 -13.3158370 0.00000 0.00000 0.00000
70.2693860 104.7136800 -13.6843190 0.00000 0.00000 0.00000
70.2696460 103.8989600 -13.5965300 0.00000 0.00000 0.00000
70.2704160 101.2912900 -13.3156480 0.00000 0.00000 0.00000
70.2982030 101.6306900 -13.2592330 0.00000 0.00000 0.00000
70.3143390 105.0620100 -13.5716150 0.00000 0.00000 0.00000
70.3167190 100.9065800 -13.6884590 0.00000 0.00000 0.00000
70.3227840 105.8812000 -13.6308680 0.00000 0.00000 0.00000
70.3262250 100.4222700 -13.6050910 0.00000 0.00000 0.00000
70.3306880 101.4020600 -13.6947820 0.00000 0.00000 0.00000
70.3342210 102.4633300 -13.2280230 0.00000 0.00000 0.00000
70.3394010 100.9981500 -13.0543740 0.00000 0.00000 0.00000
70.3526540 101.0866700 -13.5879540 0.00000 0.00000 0.00000
70.3627320 105.7382600 -13.4824290 0.00000 0.00000 0.00000
70.3652650 101.9075200 -13.6335370 0.00000 0.00000 0.00000
70.3675540 103.4579800 -13.2230110 0.00000 0.00000 0.00000
70.3729020 104.1128700 -13.2750730 0.00000 0.00000 0.00000
70.3770900 105.2563400 -13.3831180 0.00000 0.00000 0.00000
70.3808520 102.2409700 -13.6171950 0.00000 0.00000 0.00000
70.3859560 102.4064100 -13.6178360 0.00000 0.00000 0.00000
70.3890760 103.0597800 -13.6771590 0.00000 0.00000 0.00000
70.3902740 102.9798200 -13.0962320 0.00000 0.00000 0.00000
70.3953020 102.6560600 -13.0449230 0.00000 0.00000 0.00000
70.3954700 106.7329600 -13.4794070 0.00000 0.00000 0.00000
70.4059140 105.5968600 -13.3233670 0.00000 0.00000 0.00000
70.4185640 103.8091900 -13.0904290 0.00000 0.00000 0.00000
70.4537200 104.3953200 -13.6043000 0.00000 0.00000 0.00000
70.4725040 99.9225230 -13.6322540 0.00000 0.00000 0.00000
70.4725800 103.2635400 -13.4207320 0.00000 0.00000 0.00000
70.5060500 102.7907200 -13.2587820 0.00000 0.00000 0.00000
70.5226360 103.4510700 -13.2739980 0.00000 0.00000 0.00000
70.5305020 100.4388400 -13.4943030 0.00000 0.00000 0.00000
70.5341950 106.3916200 -13.5491730 0.00000 0.00000 0.00000
70.5658800 105.9184500 -13.3931590 0.00000 0.00000 0.00000
70.5661160 106.2446700 -13.4271780 0.00000 0.00000 0.00000
70.5747070 102.9872100 -13.0510380 0.00000 0.00000 0.00000
70.5792160 100.2988800 -13.3172450 0.00000 0.00000 0.00000
70.6002580 103.5692700 -13.5960730 0.00000 0.00000 0.00000
70.6023410 100.1467600 -13.2240480 0.00000 0.00000 0.00000
70.6037060 101.1256900 -13.3239410 0.00000 0.00000 0.00000
70.6058270 105.4492200 -13.2100320 0.00000 0.00000 0.00000
70.6104890 103.9002800 -13.5973310 0.00000 0.00000 0.00000
70.6180950 101.9477800 -13.3637490 0.00000 0.00000 0.00000
70.6261520 103.4189500 -13.4938600 0.00000 0.00000 0.00000
70.6276700 101.3001900 -13.2628070 0.00000 0.00000 0.00000
70.6380540 105.2179000 -13.6461210 0.00000 0.00000 0.00000
70.6434780 104.8945900 -13.5935780 0.00000 0.00000 0.00000
70.6437610 104.0796700 -13.5057250 0.00000 0.00000 0.00000
70.6444780 101.7974200 -13.2599120 0.00000 0.00000 0.00000
70.6519780 103.2685300 -13.3918580 0.00000 0.00000 0.00000
70.6601640 102.7833700 -13.3128680 0.00000 0.00000 0.00000
70.6612630 104.4143500 -13.4831680 0.00000 0.00000 0.00000
70.6685260 102.4613000 -13.2506720 0.00000 0.00000 0.00000
70.6707230 106.7012700 -13.6955740 0.00000 0.00000 0.00000
70.6754380 100.4272800 -13.5781050 0.00000 0.00000 0.00000
70.6806490 100.1037800 -13.5262590 0.00000 0.00000 0.00000
70.6900250 103.7763200 -13.3193930 0.00000 0.00000 0.00000
70.6930470 105.0822600 -13.4486300 0.00000 0.00000 0.00000
70.6930920 104.2670200 -13.3615270 0.00000 0.00000 0.00000
70.7154080 102.0761600 -13.6210370 0.00000 0.00000 0.00000
70.7221910 101.5904500 -13.5466680 0.00000 0.00000 0.00000
70.7257310 106.5660600 -13.4980700 0.00000 0.00000 0.00000
70.7259220 100.7772100 -13.4475360 0.00000 0.00000 0.00000
70.7383960 102.4132200 -13.5805240 0.00000 0.00000 0.00000
70.8609540 101.8200700 -13.1097560 0.00000 0.00000 0.00000
70.8670040 101.1704900 -13.0203640 0.00000 0.00000 0.00000
70.8965840 102.0003100 -13.0104910 0.00000 0.00000 0.00000
70.9066930 103.1471300 -13.0991720 0.00000 0.00000 0.00000
70.9094160 102.0880900 -13.5442650 0.00000 0.00000 0.00000
70.9175950 103.8049500 -13.1330590 0.00000 0.00000 0.00000
70.9182280 102.4183600 -13.5502060 0.00000 0.00000 0.00000
70.9299700 106.4207800 -13.3708210 0.00000 0.00000 0.00000
70.9437100 104.9597000 -13.1693650 0.00000 0.00000 0.00000
70.9535290 102.5984500 -13.4521140 0.00000 0.00000 0.00000
70.9560390 106.1077000 -13.2507570 0.00000 0.00000 0.00000
70.9583050 103.2529100 -13.5060260 0.00000 0.00000 0.00000
70.9603650 101.2973200 -13.2906860 0.00000 0.00000 0.00000
70.9663700 105.2972300 -13.1299910 0.00000 0.00000 0.00000
70.9689790 105.4616700 -13.1388620 0.00000 0.00000 0.00000
70.9714510 103.0962800 -13.4456410 0.00000 0.00000 0.00000
70.9897000 100.6589200 -13.1251750 0.00000 0.00000 0.00000
70.9994510 105.3925600 -13.5974080 0.00000 0.00000 0.00000
71.0048680 101.8078500 -13.1972830 0.00000 0.00000 0.00000
71.0052410 101.9711200 -13.2134490 0.00000 0.00000 0.00000
71.0100020 102.7888600 -13.2848060 0.00000 0.00000 0.00000
71.0238340 103.4479300 -13.3091140 0.00000 0.00000 0.00000
71.0245130 103.7744200 -13.3416470 0.00000 0.00000 0.00000
71.0335160 100.1104100 -13.4876620 0.00000 0.00000 0.00000
71.0375370 105.5746000 -13.4902920 0.00000 0.00000 0.00000
71.0443570 104.1103200 -13.3115480 0.00000 0.00000 0.00000
71.0483250 104.4384500 -13.3333260 0.00000 0.00000 0.00000
71.0603030 100.7751500 -13.4696060 0.00000 0.00000 0.00000
71.0612030 105.9125600 -13.4476890 0.00000 0.00000 0.00000
71.0630190 105.0980800 -13.3548260 0.00000 0.00000 0.00000
71.0821990 101.7637400 -13.5022940 0.00000 0.00000 0.00000
71.0978930 100.3037900 -13.2945980 0.00000 0.00000 0.00000
71.1048810 101.1224100 -13.3586630 0.00000 0.00000 0.00000
71.1116260 106.7533500 -13.3697860 0.00000 0.00000 0.00000
71.1232150 104.9648300 -13.1406560 0.00000 0.00000 0.00000
71.1387180 104.2366000 -13.5782560 0.00000 0.00000 0.00000
71.1612850 100.0074500 -13.0525770 0.00000 0.00000 0.00000
71.2322160 101.5914800 -13.5521360 0.00000 0.00000 0.00000
71.2406080 99.9650800 -13.3509770 0.00000 0.00000 0.00000
71.2567980 106.5782300 -13.4358460 0.00000 0.00000 0.00000
71.2571870 102.5002800 -12.9999720 0.00000 0.00000 0.00000
71.2638850 104.4613300 -13.1867320 0.00000 0.00000 0.00000
71.2822950 105.4492300 -13.2309050 0.00000 0.00000 0.00000
71.2986070 100.9708900 -13.2658370 0.00000 0.00000 0.00000
71.3039630 105.7863200 -13.1949100 0.00000 0.00000 0.00000
71.3047940 100.8107300 -13.2282480 0.00000 0.00000 0.00000
71.3098680 106.2787000 -13.2277720 0.00000 0.00000 0.00000
71.3132480 102.2825500 -13.3570350 0.00000 0.00000 0.00000
71.3148730 105.1391400 -13.0897280 0.00000 0.00000 0.00000
71.3278810 105.3877600 -13.6393670 0.00000 0.00000 0.00000
71.3295590 102.1273100 -13.2864190 0.00000 0.00000 0.00000
71.3390660 104.9041800 -13.5507550 0.00000 0.00000 0.00000
71.3442380 101.4819200 -13.1689650 0.00000 0.00000 0.00000
71.3447040 100.4234200 -13.6201730 0.00000 0.00000 0.00000
71.3465880 104.2556500 -13.4566970 0.00000 0.00000 0.00000
71.3477250 106.0498100 -13.6440750 0.00000 0.00000 0.00000
71.3485870 103.9304900 -13.4154250 0.00000 0.00000 0.00000
71.3766400 101.3342400 -13.0457510 0.00000 0.00000 0.00000
71.3783490 101.2543900 -13.5972150 0.00000 0.00000 0.00000
71.3822170 102.9682700 -13.2013800 0.00000 0.00000 0.00000
71.3943330 103.3004100 -13.1965850 0.00000 0.00000 0.00000
71.4058000 101.8376200 -13.0027110 0.00000 0.00000 0.00000
71.4116820 102.6562500 -13.0704350 0.00000 0.00000 0.00000
71.4121400 104.7772400 -13.2948970 0.00000 0.00000 0.00000
71.4203190 103.4762000 -13.1291460 0.00000 0.00000 0.00000
71.4377820 103.6478700 -13.0895110 0.00000 0.00000 0.00000
71.4424060 104.4659000 -13.1613510 0.00000 0.00000 0.00000
71.4617160 105.1280500 -13.1678390 0.00000 0.00000 0.00000
71.4685130 102.7649900 -13.4593920 0.00000 0.00000 0.00000
71.4818040 104.6484800 -13.0501440 0.00000 0.00000 0.00000
71.5173110 101.8099100 -13.1959710 0.00000 0.00000 0.00000
71.5198440 100.8323100 -13.0834240 0.00000 0.00000 0.00000
71.5319370 106.5465900 -13.6520290 0.00000 0.00000 0.00000
71.5375670 105.8971800 -13.5642010 0.00000 0.00000 0.00000
71.5656200 105.5850100 -13.4380160 0.00000 0.00000 0.00000
71.5788500 101.5953000 -13.5344490 0.00000 0.00000 0.00000
71.5853810 104.6161100 -13.2693400 0.00000 0.00000 0.00000
71.6092300 100.3051600 -13.2964830 0.00000 0.00000 0.00000
71.6104740 102.2626300 -13.5008480 0.00000 0.00000 0.00000
71.6108400 103.3233500 -13.0472770 0.00000 0.00000 0.00000
71.6180880 103.8164100 -13.0757830 0.00000 0.00000 0.00000
71.6250380 103.1670600 -12.9835990 0.00000 0.00000 0.00000
71.6289370 105.1270700 -13.1794560 0.00000 0.00000 0.00000
71.6312560 100.1524100 -13.2072780 0.00000 0.00000 0.00000
71.6400450 104.9694000 -13.1258560 0.00000 0.00000 0.00000
71.6400760 101.9507000 -13.3696180 0.00000 0.00000 0.00000
71.6498260 101.3029600 -13.2683480 0.00000 0.00000 0.00000
71.6673740 101.8006500 -13.2632810 0.00000 0.00000 0.00000
71.7015080 100.8380600 -13.0477570 0.00000 0.00000 0.00000
71.7124630 103.6167000 -13.3074090 0.00000 0.00000 0.00000
71.7151570 101.1708500 -13.0380190 0.00000 0.00000 0.00000
71.7175520 104.2716500 -13.3603100 0.00000 0.00000 0.00000
71.7176900 106.5550100 -13.6029890 0.00000 0.00000 0.00000
71.7195280 104.9250600 -13.4233480 0.00000 0.00000 0.00000
71.7251970 105.4171700 -13.4569640 0.00000 0.00000 0.00000
71.7305070 100.9347000 -13.5268230 0.00000 0.00000 0.00000
71.7319180 102.1578400 -13.0876470 0.00000 0.00000 0.00000
71.7339480 103.1377400 -13.1852870 0.00000 0.00000 0.00000
71.7573010 106.4118100 -13.4566050 0.00000 0.00000 0.00000
71.7722020 106.2561600 -13.3906970 0.00000 0.00000 0.00000
71.7963330 102.5967300 -13.4860510 0.00000 0.00000 0.00000
71.8089680 105.7851000 -13.2188410 0.00000 0.00000 0.00000
71.8120040 103.9916200 -13.0178140 0.00000 0.00000 0.00000
71.8239670 105.1398500 -13.1004660 0.00000 0.00000 0.00000
71.8274310 100.3280400 -13.1416540 0.00000 0.00000 0.00000
71.8346020 100.1682700 -13.1009150 0.00000 0.00000 0.00000
71.8472290 101.1531000 -13.1640210 0.00000 0.00000 0.00000
71.8658220 101.4882200 -13.1382070 0.00000 0.00000 0.00000
71.8953630 102.3181300 -13.1288470 0.00000 0.00000 0.00000
71.9214710 106.5724600 -13.4954090 0.00000 0.00000 0.00000
71.9222870 99.9667890 -13.3538660 0.00000 0.00000 0.00000
71.9227680 106.2468900 -13.4564690 0.00000 0.00000 0.00000
71.9232940 105.1052800 -13.3332060 0.00000 0.00000 0.00000
71.9242100 102.4951600 -13.0522960 0.00000 0.00000 0.00000
71.9358830 100.2993500 -13.3443220 0.00000 0.00000 0.00000
71.9371720 100.9523200 -13.4095890 0.00000 0.00000 0.00000
71.9411540 104.9509600 -13.2576970 0.00000 0.00000 0.00000
71.9431530 104.1361200 -13.1643540 0.00000 0.00000 0.00000
71.9471280 105.7696600 -13.3250840 0.00000 0.00000 0.00000
71.9525070 104.4670600 -13.1686450 0.00000 0.00000 0.00000
71.9530790 102.2645400 -13.4966860 0.00000 0.00000 0.00000
71.9533540 104.3043000 -13.1485130 0.00000 0.00000 0.00000
71.9672700 103.8215400 -13.0510940 0.00000 0.00000 0.00000
71.9767910 101.6235100 -13.3500960 0.00000 0.00000 0.00000
71.9848710 103.2583500 -13.4974060 0.00000 0.00000 0.00000
71.9894710 101.3033100 -13.2741190 0.00000 0.00000 0.00000
72.0012820 100.6563600 -13.1662080 0.00000 0.00000 0.00000
72.0118480 105.9650900 -13.1318440 0.00000 0.00000 0.00000
72.0136180 103.7616000 -13.4559890 0.00000 0.00000 0.00000
72.0149610 100.8259600 -13.1390570 0.00000 0.00000 0.00000
72.0374600 102.6313100 -13.2568860 0.00000 0.00000 0.00000
72.0403520 106.3842200 -13.6467550 0.00000 0.00000 0.00000
72.0522610 101.9857900 -13.1392620 0.00000 0.00000 0.00000
72.0784000 101.5087100 -13.0021100 0.00000 0.00000 0.00000
72.0803600 103.4678000 -13.2041560 0.00000 0.00000 0.00000
72.1174770 105.4439500 -13.2918170 0.00000 0.00000 0.00000
72.1182250 106.7495000 -13.4282960 0.00000 0.00000 0.00000
72.1492160 104.9701100 -13.1365280 0.00000 0.00000 0.00000
72.1733630 105.3084500 -13.0927190 0.00000 0.00000 0.00000
72.2038650 105.6500000 -13.0282800 0.00000 0.00000 0.00000
72.2055280 100.9990500 -13.0920330 0.00000 0.00000 0.00000
72.2062450 100.1834700 -13.0028510 0.00000 0.00000 0.00000
72.2073750 102.4684100 -13.2422910 0.00000 0.00000 0.00000
72.2528530 105.2640500 -13.3896000 0.00000 0.00000 0.00000
72.2800600 105.6038300 -13.3359320 0.00000 0.00000 0.00000
72.2816310 103.6464900 -13.1224820 0.00000 0.00000 0.00000
72.2867130 103.3225600 -13.0712340 0.00000 0.00000 0.00000
72.2953640 101.2876400 -13.3897020 0.00000 0.00000 0.00000
72.2979580 103.0015700 -12.9999510 0.00000 0.00000 0.00000
72.3006520 104.1453500 -13.1127680 0.00000 0.00000 0.00000
72.3031010 106.5942700 -13.3652310 0.00000 0.00000 0.00000
72.3113170 102.8447900 -12.9391790 0.00000 0.00000 0.00000
72.3191450 104.6440200 -13.1047740 0.00000 0.00000 0.00000
72.3202900 101.7888300 -13.3608030 0.00000 0.00000 0.00000
72.3358690 106.1211200 -13.2067070 0.00000 0.00000 0.00000
72.3437960 100.4947900 -13.1455970 0.00000 0.00000 0.00000
72.3504560 103.1083000 -13.4016620 0.00000 0.00000 0.00000
72.3692250 101.9753000 -13.2192310 0.00000 0.00000 0.00000
72.3698040 100.0174300 -13.0090160 0.00000 0.00000 0.00000
72.3728260 105.9763200 -13.0692860 0.00000 0.00000 0.00000
72.3806000 100.8384600 -13.0607500 0.00000 0.00000 0.00000
72.3826980 101.0026400 -13.0713040 0.00000 0.00000 0.00000
72.3988570 102.8053400 -13.2097740 0.00000 0.00000 0.00000
72.3997120 101.5002800 -13.0681180 0.00000 0.00000 0.00000
72.4148030 106.0761400 -13.5050980 0.00000 0.00000 0.00000
72.4156650 104.2819900 -13.3114220 0.00000 0.00000 0.00000
72.4205860 104.4475600 -13.3127960 0.00000 0.00000 0.00000
72.4266970 102.3291400 -13.0672940 0.00000 0.00000 0.00000
72.4277340 103.7983700 -13.2201610 0.00000 0.00000 0.00000
72.4277650 105.7563200 -13.4283290 0.00000 0.00000 0.00000
72.4374080 100.4591400 -13.3960710 0.00000 0.00000 0.00000
72.4640270 100.7978900 -13.3443760 0.00000 0.00000 0.00000
72.4788440 106.7607500 -13.3666790 0.00000 0.00000 0.00000
72.4801560 104.9663600 -13.1714740 0.00000 0.00000 0.00000
72.4847560 104.6422000 -13.1218310 0.00000 0.00000 0.00000
72.5135880 101.1475600 -13.2182140 0.00000 0.00000 0.00000
72.5254440 105.6415900 -13.0939130 0.00000 0.00000 0.00000
72.5317150 103.6034600 -13.4196920 0.00000 0.00000 0.00000
72.5598220 105.5747800 -13.5366760 0.00000 0.00000 0.00000
72.5916820 105.9168500 -13.4680630 0.00000 0.00000 0.00000
72.6025470 105.2696200 -13.3634210 0.00000 0.00000 0.00000
72.6027760 102.6587200 -13.0850130 0.00000 0.00000 0.00000
72.6105650 101.4395100 -13.4922570 0.00000 0.00000 0.00000
72.6151810 102.9911200 -13.0794800 0.00000 0.00000 0.00000
72.6172030 104.1345400 -13.1944270 0.00000 0.00000 0.00000
72.6402740 102.1869800 -12.9112670 0.00000 0.00000 0.00000
72.6446150 104.4743500 -13.1402010 0.00000 0.00000 0.00000
72.6504820 106.4356400 -13.3294440 0.00000 0.00000 0.00000
72.6560130 100.9716000 -13.2928540 0.00000 0.00000 0.00000
72.6606060 100.3211300 -13.2085490 0.00000 0.00000 0.00000
72.6636120 104.9733200 -13.1306770 0.00000 0.00000 0.00000
72.6636510 100.6488900 -13.2333830 0.00000 0.00000 0.00000
72.6640850 102.8514300 -12.9034440 0.00000 0.00000 0.00000
72.6678090 103.5062400 -12.9608270 0.00000 0.00000 0.00000
72.6775280 101.7975500 -13.3098310 0.00000 0.00000 0.00000
72.6833040 102.9423400 -13.4125450 0.00000 0.00000 0.00000
72.6882480 104.0059400 -12.9466060 0.00000 0.00000 0.00000
72.6933290 105.1511900 -13.0516430 0.00000 0.00000 0.00000
72.6968840 100.8276800 -13.1429780 0.00000 0.00000 0.00000
72.7047350 101.9736600 -13.2389740 0.00000 0.00000 0.00000
72.7061770 105.4840200 -13.0446960 0.00000 0.00000 0.00000
72.7095410 103.1181300 -13.3448430 0.00000 0.00000 0.00000
72.7120740 102.3035100 -13.2498730 0.00000 0.00000 0.00000
72.7255630 106.1466400 -13.0512620 0.00000 0.00000 0.00000
72.7275850 103.7794900 -13.3557410 0.00000 0.00000 0.00000
72.7307970 105.4125400 -13.5187870 0.00000 0.00000 0.00000
72.7466350 100.0349000 -12.8948360 0.00000 0.00000 0.00000
72.7687840 106.0839500 -13.4650760 0.00000 0.00000 0.00000
72.7943120 104.9543400 -13.2609430 0.00000 0.00000 0.00000
72.7961810 101.6907100 -12.9077830 0.00000 0.00000 0.00000
72.8124920 104.6368500 -13.1673170 0.00000 0.00000 0.00000
72.8181380 103.6602200 -13.0448910 0.00000 0.00000 0.00000
72.8274920 100.1566800 -13.2038750 0.00000 0.00000 0.00000
72.8843690 101.1625000 -13.1236960 0.00000 0.00000 0.00000
72.9018480 105.9868700 -13.0166020 0.00000 0.00000 0.00000
72.9306260 106.0803000 -13.4942460 0.00000 0.00000 0.00000
72.9387740 106.6583900 -12.9664040 0.00000 0.00000 0.00000
72.9429630 99.9682770 -13.3656780 0.00000 0.00000 0.00000
72.9438400 101.5170500 -12.9657280 0.00000 0.00000 0.00000
72.9449690 102.3338000 -13.0488350 0.00000 0.00000 0.00000
72.9489750 104.4575700 -13.2614130 0.00000 0.00000 0.00000
72.9534450 104.1333400 -13.2122300 0.00000 0.00000 0.00000
72.9567410 104.9509700 -13.2883010 0.00000 0.00000 0.00000
72.9621050 102.6684800 -13.0280290 0.00000 0.00000 0.00000
72.9642790 103.3224800 -13.0904080 0.00000 0.00000 0.00000
72.9672320 105.2825200 -13.2890200 0.00000 0.00000 0.00000
72.9819950 101.1285800 -13.3607000 0.00000 0.00000 0.00000
72.9836500 104.3112800 -13.1317710 0.00000 0.00000 0.00000
72.9865880 100.3149300 -13.2591200 0.00000 0.00000 0.00000
72.9894330 101.4583900 -13.3713050 0.00000 0.00000 0.00000
72.9933620 102.6022600 -13.4799560 0.00000 0.00000 0.00000
73.0108720 102.1211900 -13.3712880 0.00000 0.00000 0.00000
73.0187760 105.9608800 -13.1915510 0.00000 0.00000 0.00000
73.0193180 103.2673000 -13.4653120 0.00000 0.00000 0.00000
73.0321350 105.8042700 -13.1309360 0.00000 0.00000 0.00000
73.0336760 103.8458400 -12.9177160 0.00000 0.00000 0.00000
73.0361560 101.6436800 -13.2374200 0.00000 0.00000 0.00000
73.0369870 100.1752500 -13.0786110 0.00000 0.00000 0.00000
73.0480800 106.6284300 -13.1660750 0.00000 0.00000 0.00000
73.0556870 103.9375200 -13.4169890 0.00000 0.00000 0.00000
73.0567550 105.6531900 -13.0338960 0.00000 0.00000 0.00000
73.0604320 100.6758800 -13.0547650 0.00000 0.00000 0.00000
73.0724490 104.8444900 -12.8963140 0.00000 0.00000 0.00000
73.1073070 101.0243800 -12.9377340 0.00000 0.00000 0.00000
73.1171190 103.4776800 -13.1662070 0.00000 0.00000 0.00000
73.1225130 100.5417000 -12.8364510 0.00000 0.00000 0.00000
73.1306610 103.1577500 -13.0876990 0.00000 0.00000 0.00000
73.1366580 105.4458000 -13.3111190 0.00000 0.00000 0.00000
73.1669240 100.8094600 -13.2803540 0.00000 0.00000 0.00000
73.1976090 104.9860800 -13.0619140 0.00000 0.00000 0.00000
73.2011340 104.1714300 -12.9637600 0.00000 0.00000 0.00000
73.2275620 102.7964600 -13.2923170 0.00000 0.00000 0.00000
73.2553100 102.1568600 -13.1332450 0.00000 0.00000 0.00000
73.2606510 101.8329300 -13.0812900 0.00000 0.00000 0.00000
73.2681200 103.4687800 -13.2305490 0.00000 0.00000 0.00000
73.2742770 100.5332900 -12.8984390 0.00000 0.00000 0.00000
73.2816770 102.3326600 -13.0653310 0.00000 0.00000 0.00000
73.2860340 102.9877200 -13.1206210 0.00000 0.00000 0.00000
73.2873610 104.4574100 -13.2724020 0.00000 0.00000 0.00000
73.2899630 101.0304800 -12.8997560 0.00000 0.00000 0.00000
73.2933120 105.2763700 -13.3398500 0.00000 0.00000 0.00000
73.2941590 104.9503700 -13.3024480 0.00000 0.00000 0.00000
73.2948460 103.9713800 -13.1961820 0.00000 0.00000 0.00000
73.2970580 100.2173500 -12.7900500 0.00000 0.00000 0.00000
73.2983320 100.3812500 -12.8032910 0.00000 0.00000 0.00000
73.3088760 100.7965000 -13.3736710 0.00000 0.00000 0.00000
73.3211440 99.9863510 -13.2473640 0.00000 0.00000 0.00000
73.3446960 102.6082300 -13.4485870 0.00000 0.00000 0.00000
73.3468320 101.9565800 -13.3723550 0.00000 0.00000 0.00000
73.3554760 106.1232000 -13.2256660 0.00000 0.00000 0.00000
73.3555600 105.9600000 -13.2080550 0.00000 0.00000 0.00000
73.3625030 105.6369300 -13.1509230 0.00000 0.00000 0.00000
73.3626100 101.1481000 -13.2347060 0.00000 0.00000 0.00000
73.3695140 102.7832700 -13.3857390 0.00000 0.00000 0.00000
73.4134980 102.9675500 -13.2610030 0.00000 0.00000 0.00000
73.4147640 104.6828600 -12.8779530 0.00000 0.00000 0.00000
73.4162450 101.8262900 -13.1307560 0.00000 0.00000 0.00000
73.4170150 101.5001800 -13.0936050 0.00000 0.00000 0.00000
73.4483950 105.8426500 -12.8907090 0.00000 0.00000 0.00000
73.4509280 100.2099500 -12.8452510 0.00000 0.00000 0.00000
73.4636540 106.5825000 -13.4803450 0.00000 0.00000 0.00000
73.4651950 100.7064900 -12.8511910 0.00000 0.00000 0.00000
73.4801480 103.8158300 -13.1324140 0.00000 0.00000 0.00000
73.4818570 104.1431600 -13.1615770 0.00000 0.00000 0.00000
73.5116350 103.3412100 -12.9786820 0.00000 0.00000 0.00000
73.5120850 102.1983300 -12.8558100 0.00000 0.00000 0.00000
73.5184100 100.3255800 -13.1966920 0.00000 0.00000 0.00000
73.5193020 105.6307400 -13.1966970 0.00000 0.00000 0.00000
73.5881500 106.1546200 -13.0264300 0.00000 0.00000 0.00000
73.6260530 101.5187800 -12.9705220 0.00000 0.00000 0.00000
73.6319810 101.6848500 -12.9687400 0.00000 0.00000 0.00000
73.6392590 100.2185700 -12.7891510 0.00000 0.00000 0.00000
73.6428910 103.1595300 -13.0895590 0.00000 0.00000 0.00000
73.6440350 105.6087700 -13.3458670 0.00000 0.00000 0.00000
73.6482850 106.2637500 -13.4014910 0.00000 0.00000 0.00000
73.6595840 105.1267100 -13.2437290 0.00000 0.00000 0.00000
73.6628950 102.5159800 -12.9556520 0.00000 0.00000 0.00000
73.6641310 103.3330200 -13.0383450 0.00000 0.00000 0.00000
73.6650920 106.4353200 -13.3645950 0.00000 0.00000 0.00000
73.6687010 102.8453400 -12.9715820 0.00000 0.00000 0.00000
73.6691590 101.1327400 -13.3482670 0.00000 0.00000 0.00000
73.6710820 104.4793000 -13.1372820 0.00000 0.00000 0.00000
73.6738360 102.1140400 -13.4371440 0.00000 0.00000 0.00000
73.6856310 102.6091800 -13.4510770 0.00000 0.00000 0.00000
73.6944960 104.1641200 -13.0270720 0.00000 0.00000 0.00000
73.6982730 105.3089500 -13.1362360 0.00000 0.00000 0.00000
73.7003170 103.6770400 -12.9562500 0.00000 0.00000 0.00000
73.7073750 102.3738500 -12.7947430 0.00000 0.00000 0.00000
73.7248760 100.0161900 -13.0472160 0.00000 0.00000 0.00000
73.7270890 100.8334700 -13.1267550 0.00000 0.00000 0.00000
73.7322160 103.4474600 -13.3874780 0.00000 0.00000 0.00000
73.7382810 105.4919100 -13.0245070 0.00000 0.00000 0.00000
73.7406850 101.0030800 -13.1002250 0.00000 0.00000 0.00000
73.7434160 102.9632100 -13.2993760 0.00000 0.00000 0.00000
73.7452240 105.8219400 -13.0367910 0.00000 0.00000 0.00000
73.7602310 100.3591500 -12.9678380 0.00000 0.00000 0.00000
73.7689060 101.9959200 -13.1132100 0.00000 0.00000 0.00000
73.7776030 100.5305300 -12.9291380 0.00000 0.00000 0.00000
73.7791290 104.6126600 -13.3575050 0.00000 0.00000 0.00000
73.8106610 104.7912700 -13.2731800 0.00000 0.00000 0.00000
73.8187180 105.9378800 -13.3684990 0.00000 0.00000 0.00000
73.8236920 100.7153500 -12.7978050 0.00000 0.00000 0.00000
73.8385160 106.7638600 -13.3913320 0.00000 0.00000 0.00000
73.8809810 102.9479200 -13.4068660 0.00000 0.00000 0.00000
73.9463040 104.4483500 -13.3523350 0.00000 0.00000 0.00000
73.9695590 106.6657900 -12.9517140 0.00000 0.00000 0.00000
73.9704510 101.8477300 -12.9973070 0.00000 0.00000 0.00000
73.9819030 100.5466200 -12.8217070 0.00000 0.00000 0.00000
73.9844280 103.3239900 -13.1082370 0.00000 0.00000 0.00000
73.9883730 106.2645300 -13.4073930 0.00000 0.00000 0.00000
73.9967800 105.2892100 -13.2763740 0.00000 0.00000 0.00000
74.0078810 100.6428700 -13.3060920 0.00000 0.00000 0.00000
74.0151980 106.4410600 -13.3383450 0.00000 0.00000 0.00000
74.0160450 100.4834500 -13.2625030 0.00000 0.00000 0.00000
74.0163800 104.9722600 -13.1785950 0.00000 0.00000 0.00000
74.0185620 102.0338100 -12.8596030 0.00000 0.00000 0.00000
74.0188370 100.9744200 -13.3054650 0.00000 0.00000 0.00000
74.0478820 104.1710900 -12.9904850 0.00000 0.00000 0.00000
74.0587310 102.5429100 -12.7821920 0.00000 0.00000 0.00000
74.0618520 103.8511800 -12.9108290 0.00000 0.00000 0.00000
74.0654830 104.8329200 -13.0031210 0.00000 0.00000 0.00000
74.0698620 101.1615500 -13.1584810 0.00000 0.00000 0.00000
74.0789110 100.3494400 -13.0427190 0.00000 0.00000 0.00000
74.0822680 105.1677800 -12.9837380 0.00000 0.00000 0.00000
74.0853880 105.8226200 -13.0430030 0.00000 0.00000 0.00000
74.0876540 102.8024600 -13.2744290 0.00000 0.00000 0.00000
74.0897520 103.6196400 -13.3542840 0.00000 0.00000 0.00000
74.0970690 102.3171800 -13.1921600 0.00000 0.00000 0.00000
74.1054610 104.3623400 -12.8223620 0.00000 0.00000 0.00000
74.1133730 105.5097100 -12.9182180 0.00000 0.00000 0.00000
74.1178590 103.1434000 -13.2118430 0.00000 0.00000 0.00000
74.1529540 100.8738600 -12.8562780 0.00000 0.00000 0.00000
74.1766430 105.9474000 -13.3171500 0.00000 0.00000 0.00000
74.1987920 102.5288200 -12.8820100 0.00000 0.00000 0.00000
74.2002260 101.5493900 -12.7734000 0.00000 0.00000 0.00000
74.2088620 105.6367100 -13.1788430 0.00000 0.00000 0.00000
74.2283170 104.5030300 -12.9949390 0.00000 0.00000 0.00000
74.2342760 106.1391300 -13.1490400 0.00000 0.00000 0.00000
74.2537380 100.0251900 -12.9956670 0.00000 0.00000 0.00000
74.2681500 103.5421400 -12.7627500 0.00000 0.00000 0.00000
74.2843250 104.1214700 -13.3302960 0.00000 0.00000 0.00000
74.2995910 102.9859500 -13.1599650 0.00000 0.00000 0.00000
74.3086400 106.5025900 -12.9444550 0.00000 0.00000 0.00000
74.3316420 100.5513000 -12.7969950 0.00000 0.00000 0.00000
74.3317340 102.5113600 -13.0046230 0.00000 0.00000 0.00000
74.3329240 101.2052800 -12.8621740 0.00000 0.00000 0.00000
74.3347780 102.1861600 -12.9601720 0.00000 0.00000 0.00000
74.3399580 103.4951600 -13.0821160 0.00000 0.00000 0.00000
74.3421710 102.8429600 -13.0056970 0.00000 0.00000 0.00000
74.3428500 105.1294900 -13.2460280 0.00000 0.00000 0.00000
74.3657760 103.8342100 -13.0337250 0.00000 0.00000 0.00000
74.3696590 106.1223500 -13.2637460 0.00000 0.00000 0.00000
74.3730550 104.8176300 -13.1142800 0.00000 0.00000 0.00000
74.3769450 100.7357600 -12.6685630 0.00000 0.00000 0.00000
74.3862990 104.4974300 -13.0370430 0.00000 0.00000 0.00000
74.3943710 106.4611500 -13.2189620 0.00000 0.00000 0.00000
74.3951190 104.0116900 -12.9567170 0.00000 0.00000 0.00000
74.4071040 100.5074400 -13.1042820 0.00000 0.00000 0.00000
74.4121170 102.7954700 -13.3305820 0.00000 0.00000 0.00000
74.4252470 105.8231200 -13.0504280 0.00000 0.00000 0.00000
74.4419780 100.8502600 -13.0268140 0.00000 0.00000 0.00000
74.4498370 101.5071400 -13.0708320 0.00000 0.00000 0.00000
74.4910280 100.0563700 -12.7825310 0.00000 0.00000 0.00000
74.5332180 101.8730400 -12.8375020 0.00000 0.00000 0.00000
74.5447390 105.6352700 -13.1988730 0.00000 0.00000 0.00000
74.5537640 101.7193400 -12.7541450 0.00000 0.00000 0.00000
74.5582580 100.4987800 -13.1680060 0.00000 0.00000 0.00000
74.5582960 105.8052400 -13.1726520 0.00000 0.00000 0.00000
74.5868380 102.4714100 -13.2839600 0.00000 0.00000 0.00000
74.6067200 103.5417900 -12.7745640 0.00000 0.00000 0.00000
74.6073300 103.7872600 -13.3566290 0.00000 0.00000 0.00000
74.6079250 102.0716800 -12.6147260 0.00000 0.00000 0.00000
74.6158750 103.2193600 -12.7104960 0.00000 0.00000 0.00000
74.6198430 102.9769100 -13.2299280 0.00000 0.00000 0.00000
74.6206820 106.3259800 -13.0242420 0.00000 0.00000 0.00000
74.6222380 103.3858200 -12.7073740 0.00000 0.00000 0.00000
74.6233750 105.3471000 -12.9116550 0.00000 0.00000 0.00000
74.6252140 103.3060400 -13.2473020 0.00000 0.00000 0.00000
74.6350630 102.1676600 -13.0944930 0.00000 0.00000 0.00000
74.6572570 100.0546600 -12.7980740 0.00000 0.00000 0.00000
74.6599200 103.1593300 -13.1185720 0.00000 0.00000 0.00000
74.6621630 102.3438000 -13.0247840 0.00000 0.00000 0.00000
74.6707460 103.6544600 -13.1357690 0.00000 0.00000 0.00000
74.6756290 102.6768500 -13.0161910 0.00000 0.00000 0.00000
74.6766740 101.3705800 -12.8742690 0.00000 0.00000 0.00000
74.7074660 106.6117800 -13.3295180 0.00000 0.00000 0.00000
74.7102200 101.2229100 -12.7492310 0.00000 0.00000 0.00000
74.7104490 104.9801900 -13.1468370 0.00000 0.00000 0.00000
74.7252500 105.9673400 -13.2032180 0.00000 0.00000 0.00000
74.7300490 104.3363500 -13.0146770 0.00000 0.00000 0.00000
74.7319260 100.6638600 -13.1767200 0.00000 0.00000 0.00000
74.7321550 101.3170700 -13.2452160 0.00000 0.00000 0.00000
74.7326430 100.7431600 -12.6252450 0.00000 0.00000 0.00000
74.7560120 103.5320100 -12.8447340 0.00000 0.00000 0.00000
74.7794800 100.3593100 -12.9894760 0.00000 0.00000 0.00000
74.7886730 105.6717900 -12.9650650 0.00000 0.00000 0.00000
74.7939990 101.6726500 -13.0813980 0.00000 0.00000 0.00000
74.8051610 104.1274400 -13.3052280 0.00000 0.00000 0.00000
74.8366470 103.8160000 -13.1696420 0.00000 0.00000 0.00000
40.2409590 110.3364600 -16.7171400 0.00000 0.00000 0.00000
40.2587200 113.4010100 -16.9918250 0.00000 0.00000 0.00000
40.2615090 107.5157500 -16.9768310 0.00000 0.00000 0.00000
40.2721600 112.6061600 -16.8494210 0.00000 0.00000 0.00000
40.2744410 110.8396100 -16.6416930 0.00000 0.00000 0.00000
40.2754400 107.6848600 -16.9409690 0.00000 0.00000 0.00000
40.2756420 111.4833300 -16.7093810 0.00000 0.00000 0.00000
40.2774390 109.8769500 -16.5215820 0.00000 0.00000 0.00000
40.2814450 109.5578800 -16.4698830 0.00000 0.00000 0.00000
40.2948880 112.1384600 -16.7071780 0.00000 0.00000 0.00000
40.2968060 110.2105500 -16.4827180 0.00000 0.00000 0.00000
40.2990880 111.1766100 -16.5824070 0.00000 0.00000 0.00000
40.3046040 107.0598300 -16.7557740 0.00000 0.00000 0.00000
40.3073730 113.2715800 -16.7853910 0.00000 0.00000 0.00000
40.3100400 112.7910800 -16.7208250 0.00000 0.00000 0.00000
40.3325420 112.0016000 -16.5432800 0.00000 0.00000 0.00000
40.3382530 109.0086400 -16.8423960 0.00000 0.00000 0.00000
40.3537980 111.3718500 -16.3886110 0.00000 0.00000 0.00000
40.3694730 109.9921100 -16.8300130 0.00000 0.00000 0.00000
40.3833240 111.1256300 -16.9029180 0.00000 0.00000 0.00000
40.3840980 109.5190500 -16.7191910 0.00000 0.00000 0.00000
40.4142950 113.0735100 -16.9999260 0.00000 0.00000 0.00000
40.4187740 107.4503600 -16.3498880 0.00000 0.00000 0.00000
40.4200710 112.5951300 -16.9233910 0.00000 0.00000 0.00000
40.4577100 108.8197600 -17.0080660 0.00000 0.00000 0.00000
40.4841770 111.0282400 -16.4946350 0.00000 0.00000 0.00000
40.4904790 109.3219200 -16.9355530 0.00000 0.00000 0.00000
40.4941410 108.3600400 -16.8130070 0.00000 0.00000 0.00000
40.5009650 111.3603800 -16.4658340 0.00000 0.00000 0.00000
40.5097120 112.3307000 -16.5404850 0.00000 0.00000 0.00000
40.5161860 107.8913300 -16.6735420 0.00000 0.00000 0.00000
40.5231060 112.9824100 -16.5610010 0.00000 0.00000 0.00000
40.5250930 109.1825600 -16.7836630 0.00000 0.00000 0.00000
40.5377160 111.2795000 -16.9697190 0.00000 0.00000 0.00000
40.5486980 107.5895700 -16.5116460 0.00000 0.00000 0.00000
40.5489810 112.5164900 -16.4066830 0.00000 0.00000 0.00000
40.5521890 109.6814600 -16.7331070 0.00000 0.00000 0.00000
