# .PCD v0.7 - Point Cloud Data file format
VERSION 0.7
FIELDS x y z
SIZE 4 4 4
TYPE F F F
COUNT 1 1 1
WIDTH 1560
HEIGHT 1
VIEWPOINT 0 0 0 1 0 0 0
POINTS 1560
DATA ascii
196.95091 142.86819 39.78624
198.9248 142.88838 39.551529
200.89996 143.13945 39.484276
202.88232 143.02881 39.193459
204.86644 142.983 39.021561
206.89633 143.03722 38.883335
208.89525 142.89641 38.548988
210.87328 143.02136 38.345577
212.60999 143.11763 38.227299
214.21249 143.35086 38.059509
196.38808 144.25856 39.922367
198.85144 144.24188 39.927456
200.93718 144.45253 39.843311
202.98183 144.86229 39.782829
204.96584 145.02493 39.58836
206.89496 145.1109 39.485977
208.90549 144.94661 39.115871
210.86789 145.01093 38.927029
212.90224 145.00777 38.733322
214.83311 144.9857 38.486767
216.86458 145.07365 38.282681
218.97124 145.46324 38.225201
221.07883 145.76041 38.06189
222.92477 145.75693 38.027992
205.06976 146.35216 39.909767
206.93381 146.61324 39.860229
209.01207 146.91399 39.739754
211.02245 146.98456 39.546566
212.86151 147.09724 39.368107
214.91724 146.97681 39.154781
216.88051 146.94975 38.903439
218.86775 146.957 38.642895
220.87889 147.01997 38.364635
222.75095 147.04671 38.24892
224.71182 147.45741 38.179691
208.69324 148.40648 39.905224
211.16077 148.39258 39.905548
213.08492 148.60529 39.791866
215.02086 148.94456 39.68861
216.96004 149.00119 39.522469
218.92982 149.02965 39.322716
220.95413 148.95558 38.977135
222.91341 148.96048 38.860924
224.88019 148.92282 38.573685
226.87346 149.09146 38.315334
228.63374 149.39821 38.182766
231.1488 149.6568 38.03017
214.06445 150.26192 39.984505
217.0464 150.40327 39.889301
218.85243 150.7767 39.782585
220.94312 150.85562 39.62809
222.94911 151.01991 39.444988
224.90544 150.99823 39.169853
226.89134 150.93826 38.884457
228.8774 150.89954 38.605461
230.82298 151.0034 38.412205
232.80499 151.12402 38.276543
234.79561 151.23056 38.157875
236.93005 151.48854 38.061516
238.38853 151.56924 38.123196
221.09219 152.28494 39.885674
223.21329 152.51505 39.849926
224.90756 152.81589 39.674114
226.92215 153.01143 39.561577
228.92328 152.97836 39.337132
230.90816 152.94661 39.107143
232.86867 152.95148 38.85844
234.89291 152.95114 38.617538
236.91441 152.93971 38.41106
238.93137 153.13773 38.299816
240.68451 153.42323 38.136307
226.48703 154.49756 39.888123
228.86852 154.75771 39.826645
230.91989 155.05475 39.624054
232.97279 155.03592 39.482037
234.93794 155.04076 39.246311
236.92036 154.96815 39.043545
238.90433 154.92555 38.812496
240.91133 154.93546 38.509602
242.89462 155.02197 38.314342
244.8335 155.2005 38.19989
246.85686 155.6138 38.074112
248.16302 155.6114 38.05817
225.81775 157.94672 39.922256
226.65799 157.93143 39.97776
229.1223 157.92697 39.95174
231.14946 156.71956 39.858727
233.04338 156.79543 39.889622
234.8878 156.98163 39.748775
236.9348 156.90793 39.643711
239.01448 156.93713 39.421085
240.98341 156.93835 39.257671
242.96686 157.04562 39.058113
244.92154 156.94479 38.761227
246.94159 156.97777 38.507442
248.92751 157.12608 38.341934
250.81638 157.39078 38.244698
253.03279 157.62022 38.080357
254.41046 157.80905 38.121498
220.75772 158.05737 39.501175
223.59969 159.79416 39.852547
225.29622 158.79362 39.763947
226.97479 159.24327 39.87104
228.90219 159.24557 39.750885
230.99966 159.03636 39.5569
232.9767 158.99696 39.392258
235.08264 158.9834 39.262993
236.99451 159.11302 38.999935
238.98024 159.11185 38.741528
240.98055 159.13351 38.602978
242.96585 159.1714 38.447506
245.03287 158.92284 38.53112
246.94179 158.6581 38.500618
248.90228 158.44728 38.568386
250.94449 158.63658 38.292233
252.67049 158.46335 38.264233
254.56474 158.41742 38.126671
259.1127 158.601 38.133701
209.9613 161.64249 39.94738
217.31566 161.62917 39.888969
219.37532 161.36049 39.851185
221.16379 161.35683 39.746792
223.26114 161.3441 39.799534
225.15712 161.38124 39.713383
227.10048 160.93954 39.59444
228.97217 160.91359 39.499516
231.00342 160.94633 39.319859
232.97205 160.9102 39.272366
235.02985 160.91684 39.128738
237.03091 160.94676 38.798374
238.96338 161.01572 38.675125
240.91457 161.0574 38.434349
243.00635 161.04909 38.36364
244.85265 161.04182 38.2295
246.78287 160.9791 38.187687
250.58066 161.08559 38.061188
205.72014 162.9198 39.68948
207.60143 162.68942 39.798996
208.71649 162.78751 39.793869
211.11249 162.84105 39.983261
213.15633 162.83565 39.976997
217.13193 162.17918 39.96529
218.7231 162.20883 39.797306
220.90543 162.26299 39.696083
223.08144 162.31276 39.422066
225.02922 162.37959 39.070389
226.87607 162.37392 39.067493
228.92293 162.37202 39.04327
230.88406 162.42982 38.734673
232.9688 162.43115 38.694286
235.04526 162.48717 38.392082
236.96342 162.48277 38.243847
238.89717 162.39766 38.516567
241.0428 162.29276 38.257671
242.68391 162.2925 38.232185
245.10217 162.32111 38.055664
249.27957 162.27657 38.200775
98.675522 107.45815 40.129406
100.19498 107.82265 40.242043
97.751228 108.87825 40.654636
98.96759 109.06287 40.398479
101.13565 109.41685 40.348797
102.89642 109.42028 40.093098
104.36839 109.28932 40.002853
97.724678 110.83029 41.463562
99.004593 111.02525 40.981243
101.14307 111.14285 40.751339
103.10357 110.89515 40.465561
105.00658 111.14605 40.357738
107.08643 111.27124 40.209019
109.11563 111.0723 40.091831
110.80785 111.62895 40.25515
97.987793 112.36123 41.15107
98.964981 112.9373 41.651218
100.88091 113.02318 41.353638
102.92229 113.08101 41.119385
104.96205 112.95723 40.866707
107.01815 113.03958 40.670788
108.94324 113.00652 40.595966
111.0671 113.17503 40.413189
113.04068 113.41357 40.194172
114.8063 113.24116 40.24625
99.240784 114.22885 41.832142
100.90491 114.57243 41.765949
102.92299 114.77966 41.705563
104.85771 115.02024 41.583351
106.82443 115.09995 41.352257
108.98557 114.98409 41.181633
111.01415 115.12331 40.9744
113.02885 114.98638 40.695366
114.98534 114.98273 40.554996
116.90732 115.07772 40.360367
118.8576 115.26862 40.228626
120.99031 115.29185 40.054245
103.63269 116.24038 41.851208
105.05062 116.21559 41.885925
106.87733 116.64825 41.840767
108.90836 116.80062 41.630314
110.95927 117.01369 41.556507
112.9455 117.0212 41.297958
115.01022 117.00919 41.069344
117.03198 116.97094 40.863754
119.00233 116.94531 40.591351
120.9896 117.01836 40.411682
123.08763 117.0648 40.330242
124.83306 117.17912 40.210953
126.59348 117.69411 40.115585
111.36127 118.40509 41.935837
112.98423 118.69913 41.799503
114.92185 118.88103 41.692356
116.90488 119.01627 41.495384
118.91967 118.98447 41.28373
120.85061 118.98609 41.056953
122.90918 119.00851 40.804371
124.94556 118.95869 40.584652
126.9203 119.06448 40.504917
128.76926 119.1473 40.332672
130.45584 119.30642 40.109779
132.80547 119.30956 40.005173
114.8447 120.22815 41.92374
117.03885 120.64879 41.806023
118.97196 120.74056 41.743828
120.80413 120.94014 41.59687
122.84917 121.08 41.508331
124.91043 121.03555 41.248154
126.96844 121.0889 41.08128
128.95345 121.03348 40.807339
130.93745 120.95626 40.549232
132.97348 121.24022 40.345886
134.95163 121.30544 40.177513
137.99622 121.72557 40.030518
121.51758 122.36578 41.897297
122.86926 122.44287 41.926567
125.11491 122.69502 41.794346
126.96918 122.96004 41.562721
128.88715 123.07397 41.468143
130.89822 123.07795 41.207169
132.84637 123.00397 40.88887
134.94548 122.95152 40.669205
137.03975 122.89874 40.380348
138.92241 123.19523 40.288498
140.86186 123.36041 40.293694
142.81274 123.51512 40.099785
144.43134 123.51113 40.054169
125.20521 124.68643 41.805431
127.6669 124.22654 41.902206
128.96741 124.28796 41.935173
130.88252 124.88638 41.744293
132.88846 125.00322 41.569496
134.94206 125.01515 41.309666
136.92444 124.99614 41.049656
138.8878 125.00949 40.84182
140.86699 125.02511 40.678131
142.99911 124.94482 40.509624
144.91919 125.10671 40.281937
146.77632 125.32107 40.137981
148.68974 125.3071 40.121933
133.2494 126.5976 41.849937
134.83784 126.61939 41.82246
136.93161 126.77155 41.644512
138.84676 127.07302 41.559399
140.8624 127.04996 41.28521
142.90506 127.00122 41.115543
144.86926 126.99478 40.879921
146.95215 126.93473 40.573074
149.01984 126.95869 40.414169
150.84132 127.1338 40.358326
152.72987 127.3415 40.216812
154.44193 127.61774 40.135708
137.44656 128.26234 41.851562
139.2036 128.50986 41.894627
141.00984 128.74962 41.772549
142.8078 129.04352 41.669197
144.90973 129.06004 41.549274
146.84644 129.0517 41.287472
148.86221 129.00314 41.096561
150.87885 129.04474 40.860233
152.84587 129.04529 40.647945
154.86737 128.98073 40.393253
156.71252 129.11023 40.25375
158.6046 129.36151 40.169281
160.48456 129.68999 40.269928
143.26445 130.44635 41.949646
145.07359 130.45752 41.84269
146.88632 130.68637 41.803917
148.92831 130.99741 41.729996
150.92216 131.06581 41.536617
152.87379 131.144 41.293102
154.85289 130.98605 41.034969
156.81624 130.95454 40.799599
158.92995 131.04518 40.62952
160.91858 131.12247 40.444542
162.77951 131.20607 40.154823
164.58411 131.34105 40.101437
166.90007 131.70689 40.204773
150.93507 132.38643 41.788933
153.06711 132.63237 41.770718
154.94354 132.938 41.620621
156.92766 133.04147 41.416424
158.86 133.07909 41.199436
160.82462 133.06 40.903099
162.83408 132.99117 40.66407
164.92618 132.89598 40.383591
166.73091 133.26964 40.2407
168.77264 133.41602 40.176022
170.71944 133.56985 40.18462
172.88643 133.75079 40.045414
152.02576 134.29286 41.862946
155.66191 134.87857 41.865028
157.07033 134.49442 41.833992
158.96623 134.83717 41.741814
160.9229 135.01706 41.548531
162.89796 135.06398 41.339096
164.87379 134.99629 41.0858
166.87663 134.94855 40.893642
168.87907 134.933 40.561916
170.89606 134.90605 40.42057
172.78572 135.02808 40.25951
174.72781 135.24242 40.211845
176.75395 135.61549 40.12701
160.98618 136.66663 41.927254
162.90569 136.75504 41.864742
165.00749 136.97195 41.725346
166.89616 136.97122 41.487076
168.89322 137.01726 41.222965
170.90834 136.98308 41.155666
172.87794 136.97722 40.814735
174.90196 136.99837 40.664055
176.82338 137.01587 40.409809
178.84822 137.10292 40.316116
180.63622 137.31313 40.17881
182.89873 137.76306 40.097637
167.29263 138.45306 41.798077
168.97662 138.7729 41.75798
170.89595 139.03604 41.692955
172.90845 139.02052 41.468052
174.91269 139.06464 41.369648
176.93349 139.04498 41.062119
178.8833 138.98221 40.812016
180.90445 138.94356 40.559402
182.92519 139.06213 40.375198
184.84985 139.18198 40.25264
187.01855 139.36415 40.131023
188.5188 139.37996 40.019791
173.39505 140.5305 41.829895
174.98193 140.7885 41.817402
176.98152 140.98856 41.634102
178.94687 141.05463 41.489594
180.90382 141.02654 41.219498
182.92409 140.99394 40.976032
184.92245 140.92255 40.734962
186.89427 140.92029 40.478786
188.86024 141.09056 40.409813
190.84161 141.26131 40.219929
192.74652 141.28914 40.191723
194.55301 141.37814 40.051346
177.30164 142.30342 41.830078
179.07957 142.64064 41.867599
181.01617 142.94453 41.781132
183.00841 143.01111 41.531796
184.91609 142.93826 41.361938
186.89661 142.94295 41.135792
189.00789 143.00253 40.972115
190.92476 142.88583 40.704517
192.92538 142.91867 40.507927
194.79932 143.17235 40.290504
196.73111 143.3632 40.248978
198.85979 143.69998 40.148796
182.90125 144.7701 41.902138
185.10353 144.73875 41.831917
186.99551 144.86433 41.679153
189.0152 144.93013 41.596901
190.95128 144.98152 41.360569
192.95837 144.94765 41.056683
194.91873 144.9469 40.801983
196.89836 144.99956 40.591423
198.90694 144.99524 40.349503
200.90945 145.15878 40.278385
202.74548 145.35667 40.106667
204.29439 145.52158 40.138309
187.29962 146.31915 41.854374
189.1348 146.50858 41.87101
191.16304 146.79079 41.859383
192.97462 146.94389 41.613922
195.00975 146.9543 41.389336
196.97693 147.04396 41.265797
198.88533 146.97983 40.846436
200.90933 146.92038 40.657326
202.91457 146.95 40.476173
204.89944 147.09261 40.396481
206.9211 147.23262 40.252777
208.70775 147.35037 40.1385
210.48761 147.40479 40.07822
193.69562 149.12204 41.921253
194.94383 148.62885 41.868515
196.94232 148.84543 41.712769
199.00162 148.94185 41.505978
200.9512 149.00157 41.374409
202.96118 149.02736 41.210873
204.94228 148.9166 40.957863
206.98582 148.95428 40.74062
208.96783 149.03651 40.529881
210.91338 149.07056 40.330997
212.80582 149.37465 40.205006
214.40547 149.41672 40.10857
216.17342 149.82654 40.057686
197.72253 150.31911 41.937935
199.56128 150.31616 41.907845
200.9872 150.86931 41.829788
203.0937 150.90694 41.75563
204.96922 151.02374 41.506557
206.95567 151.01271 41.352364
209.0208 150.97343 41.153999
210.96257 150.98203 40.888809
212.95715 150.93608 40.64204
214.98744 151.00659 40.430714
216.92488 151.20108 40.323254
219.03778 151.42256 40.146545
220.79443 151.68748 40.137009
203.73273 152.33466 41.892704
204.74602 152.66115 41.927715
206.99722 152.793 41.772316
208.96225 152.89189 41.683289
211.00529 153.03697 41.486763
212.97702 152.94011 41.198467
214.94679 153.00252 41.055275
216.93918 152.96295 40.809776
218.95947 152.96291 40.552101
220.94814 153.06067 40.38575
222.85861 153.23853 40.241867
224.98105 153.67928 40.171944
208.93266 154.72983 41.990097
211.27887 154.50377 41.734188
212.96944 154.77031 41.719879
215.10275 154.90266 41.601727
217.01352 155.05403 41.428307
219.00357 154.90688 41.182621
220.95738 154.9212 40.860382
222.96629 154.95038 40.684608
224.95015 154.99841 40.422577
226.99966 155.07457 40.273827
229.0148 155.58257 40.084118
205.80891 157.62733 41.794952
207.45609 157.99898 41.921692
209.35297 157.74962 41.787945
210.9845 157.8127 41.913849
212.82713 157.47231 41.911766
214.83844 157.97739 41.884567
217.24117 156.63431 41.787956
218.92583 156.50923 41.391228
221.08762 156.6306 41.35865
222.95825 156.4986 41.192142
224.98125 156.88823 40.927891
226.7916 156.72099 40.71656
229.00275 156.55394 40.356823
231.08861 156.92285 40.26572
232.97595 157.10704 40.318043
234.97493 157.23918 40.204937
237.19539 157.61862 40.099255
238.51978 157.43066 40.191742
240.73401 157.84688 40.105556
202.91327 159.25842 41.796131
204.88197 159.20041 41.795345
206.9201 158.90001 41.797794
209.01392 158.99232 41.592804
211.15405 159.10657 41.681683
213.14908 158.9883 41.49548
215.05899 158.91766 41.35997
216.9798 158.92813 41.11544
219.05365 158.95634 41.018887
221.09338 159.1351 40.867413
222.98531 159.11542 40.484673
225.00342 159.09679 40.328876
226.67184 159.01195 40.141159
229.53786 158.81725 40.209068
231.9791 159.0864 40.171776
234.37825 159.51291 40.030792
191.71611 161.28268 41.968964
192.52405 161.28596 41.939873
195.79579 161.26787 41.971977
197.1398 161.23557 41.620918
199.091 161.10724 41.793728
201.01367 161.08551 41.469707
202.98932 160.99181 41.402012
204.89194 161.02634 41.044399
206.95763 161.05905 41.014454
209.01431 160.91803 40.821362
211.05692 161.06441 40.842407
212.96524 161.02299 40.840179
214.99818 161.02951 40.858959
216.95415 160.92354 40.630489
219.01279 160.95638 40.497047
220.96794 160.70284 40.387592
222.9435 160.61525 40.342804
224.99603 160.48273 40.295719
226.10837 160.33002 40.147285
229.79092 160.33232 40.072205
191.98491 162.92459 41.821213
193.4202 162.53015 41.757568
195.44141 162.44174 41.667
196.97258 162.33989 41.648048
198.81984 162.43813 41.146446
201.16786 162.34964 41.42662
202.97028 162.49834 40.790779
204.87201 162.49167 40.685131
207.04208 162.45029 40.569382
208.89796 162.3259 40.233337
210.94931 162.52834 40.519768
212.98416 162.43132 40.414894
214.99146 162.49405 40.620232
216.91231 162.29103 40.594769
218.83801 162.37486 40.161373
97.71373 112.8838 42.281029
98.485077 113.63951 42.131584
97.75808 114.96191 43.007076
98.832153 115.02751 42.369934
100.82736 115.35308 42.312603
102.80116 115.70689 42.077908
105.02112 115.48804 42.032337
97.776505 116.89595 43.499107
98.922821 117.01388 43.01078
100.858 116.95829 42.710896
102.84783 116.95945 42.411053
104.85433 117.04336 42.337677
106.83193 117.52413 42.170792
108.73583 117.50388 42.131485
110.09267 117.5522 42.089249
97.726685 118.85023 43.446106
99.026443 119.08215 43.623646
100.9445 119.01805 43.295933
102.89875 118.9946 43.02832
104.88055 119.01083 42.878399
106.8941 118.99608 42.720409
108.8924 118.91591 42.442772
110.81741 119.09692 42.320187
112.76263 119.26344 42.175068
114.74502 119.30717 42.096775
116.11654 119.33253 42.142357
99.48806 120.43089 43.84486
101.05981 120.49644 43.724354
103.0414 121.00492 43.74445
105.01808 121.02888 43.485439
106.94988 121.08868 43.316814
108.91978 120.9647 43.141171
110.88196 121.03121 42.946682
112.87589 120.93034 42.648678
114.90207 120.98016 42.472172
116.79605 121.13481 42.274998
118.75896 121.29258 42.167801
121.1071 121.65102 42.15226
105.01436 122.52172 43.888996
106.99746 122.65936 43.831463
109.02709 122.97626 43.700436
111.00558 123.035 43.554489
112.97104 123.00967 43.317421
114.91688 122.98232 43.075153
116.88154 122.93407 42.88274
118.90363 122.90445 42.566845
120.80571 123.02418 42.394192
122.89739 123.173 42.262516
124.6348 123.32629 42.179604
126.42654 123.43749 42.213684
111.02637 124.82312 43.93515
113.19797 124.55341 43.837723
115.0393 125.02814 43.656586
116.98888 125.03535 43.441917
118.96722 124.96193 43.230553
120.93675 124.9867 43.061249
122.881 124.99164 42.821865
124.88745 124.95721 42.622982
126.8727 124.97009 42.37611
128.89572 125.12144 42.300095
130.82942 125.51786 42.100647
132.92542 125.75944 42.152721
117.31801 126.65694 43.861652
119.03638 126.77905 43.714706
120.95377 126.99892 43.594395
122.99564 127.07936 43.43325
124.92261 127.01383 43.172054
126.9375 126.84019 42.973648
128.90147 126.9587 42.796093
130.90079 126.94022 42.436348
132.72928 127.15792 42.232841
134.94716 127.50477 42.27673
136.76241 127.6267 42.154934
139.34586 127.3698 42.06197
121.77122 128.48752 43.958458
123.03952 128.70274 43.874863
125.22511 128.77992 43.72485
126.98049 128.87157 43.590694
129.00807 128.9706 43.417671
130.91087 128.9935 43.118481
132.92747 128.95847 42.873909
134.91537 128.91296 42.621704
136.85756 129.01218 42.443172
138.79759 129.14185 42.263184
140.72516 129.38568 42.172321
143.23515 129.18611 42.061279
144.13702 129.77864 42.12619
126.76682 130.30167 43.920406
129.25481 130.65977 43.810337
131.15324 130.83459 43.666698
132.9608 131.03438 43.533421
134.95331 130.98526 43.22604
136.91188 130.97169 43.061222
138.894 130.98087 42.793156
140.89972 130.97604 42.567757
142.88051 131.00696 42.400551
144.88603 131.08195 42.287273
146.92012 131.4623 42.168373
148.53572 131.78174 42.180912
150.14404 131.79359 42.078957
132.95578 132.52791 43.834717
135.08162 132.70343 43.765476
137.06113 132.97423 43.621433
138.97043 133.02502 43.436825
140.92964 133.0293 43.200207
142.95021 132.939 43.037258
144.96066 132.93036 42.827698
146.94263 133.00171 42.650318
148.92657 132.96272 42.372284
150.91393 133.23662 42.305531
152.78386 133.39011 42.175789
154.80806 133.80214 42.102806
136.15363 134.31734 43.955711
139.45866 134.55666 43.876381
141.05695 134.89716 43.75441
143.00519 134.91988 43.603027
144.95911 135.01781 43.466164
146.97664 135.07576 43.319149
148.96399 135.01598 43.055172
150.9579 134.89053 42.809444
152.97551 134.97026 42.557446
154.87186 134.98242 42.379601
156.87413 135.21027 42.241924
158.77328 135.62659 42.182537
160.97748 135.59338 42.128784
143.49335 136.59839 43.888287
145.18051 136.33533 43.794739
147.13322 136.86664 43.759842
149.04384 136.97516 43.646214
150.98883 136.98489 43.468376
152.97786 136.99257 43.228031
154.93152 136.98853 43.027161
156.98476 136.98477 42.809978
158.95918 136.93999 42.556919
160.93536 137.04825 42.369694
162.93646 137.4115 42.176437
164.55368 137.49355 42.126194
167.78374 137.81911 42.036774
149.58672 138.32452 43.900711
150.95035 138.60999 43.863861
153.08257 138.86821 43.773773
155.03571 138.99814 43.557755
156.92882 139.00351 43.407089
159.0175 138.92905 43.179901
160.94337 138.93163 42.927509
162.95322 138.94017 42.632767
164.93413 138.99089 42.36068
166.8434 139.16385 42.264595
168.80327 139.60457 42.150539
171.16014 139.83026 42.088245
172.99245 139.82462 42.058205
153.78427 140.32118 43.981159
155.58549 140.34476 43.828865
157.11168 140.52252 43.819027
159.07294 140.7393 43.686939
161.00627 140.9953 43.51424
162.9554 141.00063 43.2855
164.95213 140.97388 43.008934
166.97418 140.91043 42.834259
168.95862 140.95729 42.57766
170.95409 140.99258 42.370045
172.83684 141.15393 42.238396
174.8766 141.55658 42.178349
176.70131 141.70956 42.200787
161.18156 142.55615 43.825176
163.16138 142.79652 43.740166
165.04404 142.99611 43.650455
167.00272 143.00546 43.48856
168.97697 142.93968 43.228638
170.98569 142.89101 42.991791
172.97589 142.93207 42.760429
174.96254 142.97678 42.513199
176.94942 143.03648 42.347889
178.90599 143.2291 42.249435
180.65317 143.67368 42.171246
182.59917 143.70532 42.098961
185.86667 143.8226 42.091896
165.38995 144.34724 43.910732
167.21236 144.67236 43.927261
169.16341 144.74944 43.737553
171.05312 144.89899 43.595829
173.01047 144.91307 43.417023
175.05469 144.94533 43.222752
176.9633 144.95047 42.959908
178.96982 144.96187 42.6521
180.97522 144.98851 42.483097
182.97839 145.11906 42.329163
184.84309 145.26097 42.210148
186.92424 145.58427 42.102543
188.41089 145.65427 42.055149
171.39355 146.74957 43.95277
173.08574 146.38622 43.714462
174.92255 146.65392 43.723312
177.05247 146.94231 43.582512
179.03688 146.99864 43.406021
181.00371 146.8894 43.093983
182.99944 146.92566 42.883701
185.00333 146.95454 42.705997
186.97829 147.04482 42.570957
188.97067 147.12486 42.368763
190.75572 147.42854 42.269997
192.90926 147.65836 42.102203
194.41536 147.87094 42.026867
177.40753 148.27473 43.81913
178.99417 148.70534 43.851955
181.09476 148.7308 43.637142
183.03352 148.9068 43.540024
184.99438 148.90543 43.304836
187.02997 148.88983 43.115532
189.00325 148.96317 42.950909
191.00172 148.98158 42.611435
192.97099 149.0121 42.427803
195.00458 149.31076 42.296871
197.01402 149.58519 42.199158
198.60823 149.87419 42.084312
180.99335 150.36827 43.934998
183.27959 150.32182 43.785709
185.19283 150.52669 43.735535
187.13795 150.85301 43.663979
189.07397 151.01518 43.586224
191.03473 150.96346 43.26479
192.98456 150.98595 42.922729
194.99936 150.97571 42.711082
196.97052 151.03703 42.542347
198.93718 151.11781 42.299488
200.99301 151.20557 42.225891
202.76367 151.57657 42.120182
206.69035 151.86951 42.088478
189.18524 152.48322 43.849239
191.1651 152.72807 43.733315
193.06204 152.94449 43.624107
195.02298 152.95227 43.387798
197.00989 152.92461 43.058937
199.033 152.93892 42.949566
200.99844 153.00185 42.619961
202.97786 153.05696 42.480263
205.06754 153.20839 42.273609
207.01929 153.29697 42.257042
208.87222 153.80231 42.140465
210.24371 153.89406 42.063919
193.21654 154.39438 43.858509
195.11462 154.76181 43.779057
197.05739 154.83655 43.615299
199.10451 154.87257 43.482601
201.02177 154.90553 43.21624
203.00426 154.9727 43.082127
205.02866 154.96857 42.843338
207.02992 155.00229 42.647091
209.02638 155.05597 42.436539
210.90829 155.28561 42.248268
212.99324 155.62497 42.232563
214.78331 155.69954 42.086781
185.27472 157.26469 43.87973
187.02194 157.2478 43.925125
189.01141 157.25702 43.844669
190.84247 157.31923 43.72924
193.15225 157.39363 43.695774
194.94713 157.23268 43.608097
197.01814 157.14609 43.451828
199.02199 157.03308 43.234303
201.03934 157.0363 42.997181
203.09886 157.04947 42.896255
205.04613 156.92526 42.943939
207.06326 156.89806 42.828083
208.98656 156.8239 42.591286
211.05034 156.73328 42.668587
212.73851 156.75377 42.489952
215.75948 156.57417 42.254265
216.48349 156.28036 42.188286
218.26567 156.71051 42.044041
220.77483 157.05731 42.274048
180.86328 159.69713 43.936073
183.31772 158.7215 43.727768
185.08685 159.46542 43.810913
187.05428 159.16505 43.74786
188.92902 158.98605 43.713398
191.05481 158.94499 43.566589
192.99289 158.98135 43.28059
195.00154 159.00333 43.140884
196.92908 159.09213 42.687088
198.99507 159.03015 42.61087
200.91841 159.05031 42.480854
202.90193 158.85947 42.313416
204.86305 158.82028 42.3582
207.04892 158.8483 42.318413
208.94824 158.65305 42.312862
210.8174 158.8096 42.178089
212.66455 158.48375 42.087433
168.59019 161.34547 43.976639
173.78773 161.78204 43.730415
174.79663 161.28809 43.763691
177.58609 161.41801 43.75808
179.15956 161.40843 43.777752
181.18077 161.12273 43.587845
183.09695 161.06149 43.535042
185.09587 160.97321 43.475895
187.10939 160.99132 43.287766
189.0667 161.06163 42.907558
191.03894 161.1423 42.649765
193.09306 160.96767 42.435253
195.08144 160.95105 42.480785
197.15546 160.88426 42.418751
198.9906 160.85722 42.191624
201.20058 160.60054 42.174049
202.06371 160.75369 42.392872
206.51762 160.01114 42.000439
167.31375 162.55452 43.988968
169.0146 162.79155 43.788986
170.63423 162.66141 43.906662
174.18713 162.16937 43.798019
177.22037 162.26703 43.764969
178.9207 162.42897 43.685753
181.0546 162.34792 43.661629
182.9921 162.45244 43.266373
185.00534 162.46449 43.176857
186.92334 162.5575 42.698524
189.03378 162.4984 42.685497
190.92233 162.60611 42.401932
192.83246 162.35286 42.267941
194.78555 162.21579 42.140804
197.02145 162.02798 42.176788
199.82304 162.44664 42.059223
200.63234 162.45015 42.02951
97.790939 119.42853 44.065525
98.474457 119.26763 44.127331
97.794556 120.99656 44.373333
98.916405 121.10387 44.277737
100.96958 121.38154 44.24992
102.20213 121.60179 44.253365
104.18743 121.8415 44.04789
97.798538 123.06708 45.236965
99.020981 122.97742 44.981441
101.00887 122.95613 44.634449
102.99135 123.00353 44.376366
104.97372 123.22769 44.319561
106.9654 123.41766 44.217537
108.59075 123.70249 44.116741
110.80603 123.62968 44.050285
97.879539 125.15625 45.796268
99.074219 125.04327 45.538906
101.05891 125.01398 45.293171
103.03858 124.87793 45.086788
105.02207 124.92371 44.835129
107.01228 124.95742 44.630177
109.00385 124.9892 44.432804
110.96864 125.1136 44.212738
112.87318 125.32723 44.175537
114.18046 125.66322 44.020199
99.192848 126.51417 45.796513
101.2317 126.89958 45.746422
103.07773 126.88261 45.64473
105.06372 126.96122 45.424145
107.06013 126.90455 45.242153
109.03252 126.89745 45.012318
111.00533 126.99743 44.907837
113.01077 126.97025 44.582352
115.01088 126.98867 44.438038
116.80563 127.25933 44.319866
118.82027 127.39648 44.167496
121.01585 127.53076 44.112587
105.13757 128.58505 45.788216
107.18484 128.76396 45.73996
109.07208 128.89925 45.580544
111.08745 129.02631 45.458504
113.0583 128.95787 45.207939
115.05088 128.98886 45.0149
117.02422 128.94058 44.774582
119.00872 128.98532 44.526714
120.9416 129.05226 44.406246
122.9465 129.34096 44.258457
124.77145 129.3452 44.1194
126.8058 129.85394 44.068226
128.84558 129.81874 44.139351
109.46028 130.1801 45.825359
111.09538 130.49823 45.765194
113.08285 130.64836 45.633785
115.04556 130.94289 45.59296
117.0578 130.92615 45.408566
119.05338 130.91142 45.223598
121.03889 130.95494 44.980961
123.01958 130.9608 44.699219
125.0106 130.99594 44.490131
127.02773 131.08646 44.34428
128.91164 131.19516 44.290199
130.75311 131.48091 44.17952
115.07556 132.3537 45.968498
117.18171 132.37852 45.798046
119.05173 132.82693 45.731358
121.07464 132.85365 45.613262
123.06962 132.97324 45.448517
125.04449 132.89355 45.111279
127.03321 132.93242 44.887665
129.04593 132.93697 44.803001
131.01076 133.01062 44.437916
133.00211 133.32101 44.287334
134.84315 133.44667 44.206589
136.4818 133.71887 44.158009
139.42668 133.87036 44.001999
121.38531 134.30406 45.831146
123.21415 134.72382 45.880726
125.18466 134.60625 45.69067
127.12962 134.90395 45.526344
129.04019 134.93497 45.388309
130.99985 134.97214 44.992317
133.03194 134.94936 44.826973
135.01949 134.99043 44.59399
137.04713 135.05548 44.402256
138.88631 135.19217 44.230782
140.91216 135.46254 44.14994
142.86258 135.47449 44.039043
127.47313 136.38239 45.850067
129.34256 136.6848 45.782925
131.10756 136.90288 45.684025
133.06239 136.89577 45.441086
135.02882 136.98668 45.184052
137.04692 136.92061 45.018066
139.04233 136.95186 44.826733
141.01781 137.00931 44.5266
142.9579 137.08833 44.447845
144.97873 137.20987 44.218914
146.77057 137.5345 44.246765
148.73102 137.77386 44.090008
131.44737 138.21313 45.771725
133.13158 138.37564 45.74147
135.13797 138.74303 45.70924
137.03769 138.89304 45.589943
139.01845 138.95168 45.402248
141.06239 138.89212 45.20953
143.05452 138.92816 44.998348
145.04517 138.96629 44.778599
147.03067 139.01099 44.531494
148.98593 139.09573 44.416046
151.06056 139.39809 44.275043
152.81166 139.63286 44.202847
155.0533 139.74168 44.088898
135.85019 140.20177 45.874741
137.73625 140.26355 45.847027
139.21947 140.59608 45.838264
141.18259 140.80724 45.753063
143.12682 140.95549 45.625828
145.10336 140.95596 45.394432
147.06189 140.91069 45.144386
149.06015 140.93994 44.962685
151.04366 140.98708 44.705044
153.02887 141.02519 44.631229
154.98149 141.12143 44.322914
157.04268 141.3394 44.229954
158.87418 141.4015 44.140888
161.47354 141.87785 44.096859
142.85883 142.21571 45.796555
145.08022 142.55251 45.803024
147.12354 142.79782 45.736069
149.1082 142.92326 45.605541
151.10492 142.93237 45.323246
153.03293 142.97157 45.101711
155.07545 142.94208 44.969322
157.06129 142.98697 44.721561
159.05527 143.0228 44.512196
160.9753 143.25288 44.301609
162.91356 143.41136 44.198986
164.63898 143.70358 44.065823
149.077 144.40503 45.867065
151.19408 144.51044 45.796116
153.2485 144.81645 45.652977
155.10081 144.89255 45.566692
157.07166 144.90924 45.237125
159.0808 144.92818 45.101772
161.08264 144.95557 44.92963
163.06175 145.00778 44.649906
164.99248 145.15797 44.429596
166.98402 145.22473 44.256344
168.83601 145.46683 44.276649
170.66612 145.76295 44.123905
153.47008 146.02043 45.822174
155.37607 146.46591 45.863342
157.19815 146.38962 45.758747
159.12296 146.76715 45.572979
161.13251 146.91245 45.497849
163.075 146.92549 45.184036
165.05284 147.02312 44.911423
167.05756 147.00366 44.739429
169.04326 147.04866 44.490913
170.97324 147.14534 44.358601
173.00601 147.28734 44.190487
175.1086 147.49629 44.163151
176.67209 147.71725 44.048943
159.90689 148.0034 45.903641
161.50192 148.41846 45.831062
163.1725 148.68114 45.670971
165.1134 148.97249 45.526112
167.05582 148.91768 45.360683
169.07703 148.94411 45.121681
171.08951 148.96236 44.992203
173.07364 149.00912 44.735874
175.07591 149.03833 44.557808
177.026 149.18764 44.340824
179.07672 149.45718 44.271488
180.87578 149.66136 44.139427
182.30487 149.89789 44.187122
163.44066 150.05611 45.744934
165.6991 150.22104 45.865807
167.25072 150.49899 45.776878
169.16675 150.82047 45.676708
171.10402 150.87688 45.537945
173.10361 150.90837 45.350582
175.09244 150.95053 45.115112
177.08711 150.98724 44.903999
179.09286 151.01366 44.739071
181.06813 151.10112 44.452698
183.03595 151.2236 44.314354
184.96208 151.48216 44.197559
186.60783 151.68039 44.132423
171.28563 152.13683 45.88327
173.24713 152.67747 45.790985
175.12575 152.83025 45.662792
177.0799 152.85712 45.498138
179.07585 152.90881 45.296604
181.06226 152.97235 45.112717
183.07994 153.01674 44.795151
185.08261 153.0468 44.614761
187.09024 153.07281 44.4529
189.04384 153.34222 44.316086
190.92332 153.45757 44.161694
192.3243 153.89998 44.2799
168.84975 155.7204 45.728348
170.52266 155.6718 45.920734
172.77344 155.65468 45.955772
175.35144 154.84779 45.879753
177.07185 154.2778 45.897724
179.19832 154.71536 45.662766
181.19708 154.66502 45.6124
183.14047 154.77669 45.425568
185.10005 154.83595 45.311447
187.01852 154.96536 45.173836
189.06015 154.98582 44.965553
191.02681 155.04829 44.637238
193.00664 155.17923 44.528915
194.95357 155.45908 44.538971
197.03851 155.67183 44.453278
198.30087 155.75385 44.047714
201.16283 155.94377 44.052979
167.30057 156.91653 45.84766
169.37369 157.09262 45.796467
170.97002 156.98985 45.833897
173.01323 157.01184 45.654316
175.09628 156.97383 45.514133
177.00308 157.00676 45.324013
178.96571 156.99219 45.126774
180.94206 157.09818 44.897583
182.94691 157.05252 44.696495
184.96675 157.10103 44.649834
186.80461 157.05437 44.533363
188.88789 157.00797 44.41135
190.87639 156.90704 44.277119
192.80702 156.62289 44.269875
195.06503 156.30641 44.376289
196.64461 156.35043 44.140739
199.09541 156.34901 44.099426
200.36917 156.30931 44.259361
202.41339 156.30862 44.222626
206.88261 156.33258 44.024017
161.14865 159.77119 45.84201
163.18483 159.71973 45.6679
165.13606 159.34494 45.719753
167.17227 159.10966 45.469135
169.00645 159.36708 45.451424
171.03922 159.04523 45.45504
173.03017 159.09485 45.343208
175.01625 158.99043 45.105114
177.08061 158.97832 44.968781
179.00829 159.04375 44.814575
181.03073 158.95592 44.666142
183.08018 158.94633 44.528698
185.0302 158.86571 44.351891
187.121 158.64195 44.271633
189.50919 159.21478 44.152977
190.39754 158.38391 44.235779
149.28137 161.8643 45.659
153.96376 161.42815 45.747345
155.08183 161.51204 45.970753
157.07687 161.40652 45.80069
159.42809 161.10721 45.818142
160.95129 161.3058 45.669159
162.92271 161.09665 45.535637
164.82637 161.06456 45.382248
166.94855 161.05966 45.074688
168.96901 161.17917 44.853439
170.98808 160.97549 44.743011
172.99763 161.0424 44.486511
174.97371 160.7627 44.368587
176.69646 160.87294 44.37751
179.05368 160.77835 44.311985
180.9272 160.55814 44.258228
183.09265 160.46614 44.082733
184.87956 161.26756 44.083702
147.48616 162.42278 45.900963
149.43701 162.48703 45.560528
150.98555 162.3472 45.888805
152.86667 162.4754 45.758232
155.29503 162.4633 45.90913
157.5639 162.51189 45.801598
159.32671 162.41876 45.738342
161.326 162.48712 45.377525
163.03485 162.59177 44.84594
165.04243 162.60229 44.764191
166.94846 162.64601 44.415672
168.90102 162.58212 44.219208
171.16666 162.35196 44.420727
173.17645 162.27899 44.363216
175.22752 162.25476 44.448257
177.03787 162.38765 44.254265
179.55322 162.07872 44.14949
181.16321 162.34445 44.139019
97.546555 123.64293 46.093906
97.574768 124.96535 46.555931
99.099861 125.91113 46.017097
97.751472 127.05202 46.873154
99.054306 127.30358 46.242279
100.85786 127.34791 46.095272
102.97443 127.88862 46.18465
104.69888 127.9184 46.005531
97.855087 128.85608 47.184277
99.135216 128.98701 46.85099
101.1264 129.01747 46.660152
103.09801 129.08446 46.323696
105.04849 129.39218 46.256714
106.782 129.51337 46.122494
108.50102 129.90555 46.137169
97.778496 130.98911 47.460369
99.184166 130.97305 47.478519
101.15053 130.93463 47.199249
103.13338 130.98041 46.947575
105.12977 131.00201 46.793114
107.11362 131.04645 46.546597
109.10323 131.11382 46.345554
111.07918 131.4147 46.271976
113.05274 131.45908 46.209881
115.1131 131.80453 46.116074
97.664848 132.70683 47.725304
99.229889 132.33873 47.849766
101.2401 132.70309 47.724598
103.18717 132.8568 47.579952
105.16419 132.89961 47.410362
107.1137 132.94536 47.159916
109.10474 132.95563 47.053104
111.1302 133.00867 46.770313
113.12099 133.0421 46.568459
115.11706 133.13545 46.413124
117.03067 133.41028 46.217194
119.16302 133.57216 46.119972
120.98053 133.78334 46.07571
123.1456 133.49918 46.050247
101.98627 134.01163 47.991833
103.37887 134.2309 47.887432
105.22464 134.5213 47.791824
107.14509 134.61166 47.637608
109.1016 134.85887 47.648685
111.08563 134.87209 47.396137
113.10257 134.97972 47.153255
115.14716 134.97165 46.991837
117.13465 135.01117 46.765766
119.11833 135.05675 46.514847
121.05138 135.18442 46.310673
123.04153 135.26825 46.213795
124.9271 135.59384 46.112534
126.72404 135.71617 46.089497
107.58256 136.01761 47.982658
109.4795 136.23409 47.874359
111.49191 136.53738 47.741692
113.18214 136.66353 47.720829
115.01248 136.86568 47.561573
117.06171 137.00189 47.36462
119.15045 136.95689 47.122501
121.13908 136.99496 46.902908
123.14815 137.00299 46.808075
125.12041 137.06581 46.485428
127.09533 137.13264 46.288326
128.866 137.41954 46.208416
130.85202 137.78294 46.164547
115.32063 138.0963 47.891205
117.24741 138.61278 47.810917
119.04578 138.7308 47.690826
121.08882 138.89844 47.562038
123.17323 138.91331 47.373913
125.14452 138.97696 47.047081
127.14006 139.0058 46.866737
129.12984 139.04309 46.650845
131.11272 139.12245 46.400715
133.07526 139.34149 46.329445
134.95717 139.4803 46.186874
137.12608 139.7934 46.125332
121.305 140.31334 47.928143
123.1667 140.55984 47.834019
125.08414 140.832 47.70335
127.10036 140.86148 47.526051
129.12379 140.96051 47.319519
131.15512 140.97516 47.065292
133.13226 141.02988 46.775436
135.08717 141.10173 46.558609
137.07089 141.1581 46.419582
139.06432 141.45055 46.306358
140.701 141.74707 46.115143
142.71472 141.94981 46.065414
144.74409 141.94044 46.048969
125.44604 142.04195 47.903217
127.24853 142.2673 47.887493
129.14861 142.66573 47.793465
131.24472 142.70335 47.620007
133.15163 142.92409 47.40807
135.1521 142.96904 47.159393
137.12984 143.02245 46.874756
139.1281 143.04979 46.702431
141.1312 143.07153 46.554008
143.1192 143.12401 46.420094
145.09871 143.42371 46.247208
146.98332 143.81291 46.131603
148.94144 143.93933 46.120895
150.34525 143.95448 46.01757
131.50558 144.20033 47.933094
133.29707 144.41603 47.850529
135.06122 144.66582 47.667099
137.18291 144.81308 47.586918
139.16527 144.94156 47.345192
141.15701 144.97746 47.136322
143.10918 145.05312 46.903271
145.09654 145.01711 46.723259
147.13757 145.08069 46.529205
149.12392 145.17465 46.299423
151.05118 145.43845 46.200943
152.79771 145.48642 46.168648
154.53745 145.95859 46.066246
135.974 146.05373 47.91288
137.28209 146.25322 47.898293
139.28304 146.3741 47.764072
141.08353 146.75212 47.730755
143.04948 146.91331 47.538074
145.16632 146.95561 47.298431
147.16797 146.98062 47.1381
149.15421 147.02411 46.896519
151.14507 147.06239 46.677734
153.11076 147.05878 46.494431
155.03854 147.29593 46.320705
157.06972 147.42517 46.198624
158.91614 147.7267 46.122242
160.76562 147.95232 46.109303
141.18097 148.04753 47.973244
143.17778 148.27066 47.837898
145.30191 148.20395 47.695312
147.05719 148.75861 47.687172
149.01559 148.95689 47.495892
151.05894 148.91168 47.287495
153.08495 149.01918 47.121258
155.16019 149.03535 46.864361
157.15784 149.06683 46.676464
159.11079 149.07814 46.427891
161.00171 149.24033 46.306637
162.74763 149.58531 46.229271
164.56087 149.65668 46.140579
167.60881 149.55775 46.05608
147.78519 150.25769 47.944653
149.43816 150.3251 47.832191
151.16307 150.57668 47.769836
153.03766 150.88057 47.694935
155.07283 150.89728 47.505611
157.13017 151.00787 47.242352
159.13736 151.04562 47.038174
161.11018 151.02809 46.778244
163.14828 151.09659 46.56419
165.09422 151.1795 46.298645
167.03085 151.46254 46.202
168.91106 151.74403 46.135555
152.38731 152.05786 47.977486
154.87766 152.47751 47.863449
157.14204 152.5981 47.67691
159.0416 152.92352 47.67828
161.0619 152.91008 47.413204
163.16336 153.01096 47.106266
165.16655 153.0377 46.941349
167.14044 153.09404 46.641705
169.13625 153.12852 46.44128
171.08286 153.22664 46.274467
172.95265 153.39622 46.220337
174.90411 153.82712 46.223755
177.17715 153.98593 46.06955
178.19753 153.79034 46.01255
142.49635 154.58722 47.750587
147.72047 155.77148 47.788292
148.98706 155.32584 47.951889
151.01968 155.31404 47.966438
153.26483 155.49173 47.802681
154.86722 155.43124 47.722881
157.14005 155.48474 47.566296
159.08434 155.15654 47.595154
161.01463 155.194 47.517185
163.06593 154.92444 47.381905
165.0461 154.99991 47.09808
167.04955 154.92395 47.083035
169.05515 154.98676 46.79467
171.07848 154.95776 46.709686
173.04103 154.86075 46.524139
175.022 154.81084 46.453091
177.09029 155.05589 46.40963
178.95598 155.04353 46.573418
180.84009 155.19104 46.297062
182.93033 155.39969 46.183491
184.51999 155.51729 46.361023
144.23663 157.37149 47.939606
146.83234 157.6908 47.816063
149.02953 157.50626 47.760899
151.13031 157.39456 47.702999
152.99957 157.02359 47.733196
154.89243 156.91722 47.64365
156.93669 157.01761 47.464897
158.97278 157.00816 47.312977
160.91838 157.08678 47.066498
162.95148 157.01787 46.797657
164.9388 157.07489 46.754665
166.92793 156.86284 46.440277
168.73587 156.89308 46.22155
170.60562 156.90164 46.233513
172.96194 156.63049 46.129314
174.14449 157.04907 46.045628
176.24483 156.02304 46.061546
139.4709 159.83047 47.8479
141.11786 159.60866 47.59618
143.16757 159.46164 47.621159
145.18228 159.17664 47.57106
147.08208 159.18228 47.32378
149.10808 159.07875 47.313431
151.03844 158.92114 47.263367
153.1235 158.9888 47.106461
155.09085 158.95325 47.244713
157.10173 158.85426 46.976875
159.089 158.98131 46.79649
161.04875 158.9879 46.516026
162.93167 158.75381 46.378094
165.089 158.67569 46.177986
166.72713 158.61392 46.303555
169.02168 158.34633 46.23077
170.16629 158.19038 46.150303
172.65756 158.07248 46.024773
175.11453 158.05307 46.071388
132.96239 161.39314 47.861237
134.45868 161.27658 47.752495
136.77185 161.40138 47.760773
139.17804 161.24254 47.753124
141.14281 161.13 47.705784
142.98778 161.10623 47.380287
144.93661 161.1075 47.094452
146.96484 160.93124 46.987526
148.85515 160.82625 46.783997
150.95934 160.88153 46.646225
152.87111 160.9207 46.427135
154.95135 160.83833 46.52544
156.87033 160.75232 46.39777
158.73148 160.8502 46.293549
160.93172 160.64809 46.152676
162.73625 160.24599 46.116589
165.78143 161.32425 46.055935
131.6917 162.30489 47.683128
134.06877 162.34122 47.471283
137.34154 162.27222 47.755116
139.26921 162.3653 47.275627
141.08707 162.35544 47.295551
143.06804 162.42903 46.631748
144.85828 162.25804 46.931221
146.90187 162.27293 46.633492
149.06148 162.38121 46.401981
150.81465 162.30907 46.398846
152.65564 162.2841 46.296944
154.82912 162.22723 46.489529
156.67215 162.29881 46.358562
158.44934 162.27419 46.126007
160.46303 162.34354 46.084202
97.671532 129.4994 48.140026
97.987137 132.80731 48.021667
98.963356 133.40388 48.262295
100.91846 133.53416 48.152172
102.95139 133.70001 48.119381
97.586365 134.96452 48.420818
98.845238 135.05806 48.840736
100.87397 135.08896 48.584126
102.87319 135.25014 48.434948
104.81743 135.43961 48.316673
106.77807 135.60085 48.193726
108.499 135.88522 48.164448
110.42821 135.96574 48.110428
97.63063 137.03857 49.145447
98.871483 136.97043 49.393017
100.8669 136.99263 49.239765
102.84294 137.0499 48.940197
104.88293 137.10625 48.773949
106.89536 137.06645 48.473888
108.8699 137.20972 48.386131
110.84903 137.29198 48.228737
112.82043 137.69427 48.223553
114.02129 137.96471 48.196915
97.658798 138.35843 49.606575
99.061691 138.40594 49.881809
100.88768 138.77692 49.727791
102.88633 138.93106 49.622284
104.87265 138.97021 49.398575
106.86726 138.99562 49.232594
108.8905 139.0213 48.931801
110.90912 139.15643 48.710278
112.89965 139.08058 48.48901
114.89944 139.16237 48.361206
116.78595 139.3736 48.207638
118.7619 139.57635 48.156769
120.00662 139.99783 48.066463
103.21609 140.24391 49.818279
105.06882 140.54944 49.871792
106.94184 140.81023 49.724045
108.8998 140.89064 49.573391
110.87643 140.96893 49.410667
112.91082 140.97661 49.186161
114.87917 141.08751 48.936092
116.86642 141.04539 48.713116
118.94592 141.05792 48.561512
120.87117 141.16031 48.310204
122.76002 141.4579 48.23177
124.68606 141.84673 48.178547
109.30352 142.34227 49.982971
111.01421 142.5491 49.881832
112.91879 142.82008 49.666615
114.87678 142.9561 49.529308
116.87364 142.98074 49.369152
118.86578 143.01294 49.175659
120.84016 143.07149 48.868759
122.91322 143.0233 48.69445
124.95747 143.11053 48.457764
126.94138 143.28653 48.310814
128.78081 143.53763 48.226166
130.52484 143.68906 48.14238
132.43753 143.59839 48.042007
113.69428 144.08694 49.96249
115.09231 144.23331 49.879974
116.96896 144.56837 49.791649
118.85635 144.91606 49.618229
120.88826 144.94746 49.576885
122.87312 144.99091 49.335468
124.8614 145.02951 49.115047
126.85087 145.06694 48.899933
128.83878 145.10657 48.674923
130.86969 145.23128 48.43335
132.76532 145.32159 48.226772
134.75145 145.65639 48.224659
136.42755 145.44748 48.057384
119.68809 146.10217 49.905144
120.99879 146.39209 49.940689
123.074 146.52121 49.768421
124.92862 146.90996 49.729294
126.87965 146.96999 49.490677
128.8694 147.0071 49.277111
130.89397 147.05981 48.993748
132.91261 147.07301 48.741146
134.83406 147.13081 48.509762
136.82236 147.16551 48.379257
138.75391 147.29756 48.197723
140.51309 147.70876 48.137653
142.03362 147.60669 48.101425
125.47745 148.12233 49.831566
127.1412 148.51665 49.848194
129.02907 148.74258 49.702759
130.87662 148.96155 49.590012
132.85306 149.01585 49.300369
134.93646 149.00513 49.096981
136.91866 149.12149 48.969444
138.91451 149.02098 48.729633
140.90842 149.08543 48.473717
142.80461 149.25204 48.355782
144.81352 149.17964 48.206226
146.78979 149.40663 48.134209
131.14256 150.3878 49.87701
133.02446 150.48741 49.843781
134.93073 150.84389 49.679379
136.87025 150.98117 49.516708
138.90266 150.97571 49.34235
140.86049 151.0441 49.142555
142.84067 151.09383 48.873013
144.92836 150.99487 48.682777
146.81467 151.14319 48.486889
148.77896 151.25272 48.35564
150.81389 151.35757 48.237331
152.77765 151.90787 48.281593
130.62256 153.93506 49.133072
135.4709 152.12503 49.890503
137.14717 152.26289 49.84325
138.91713 152.47673 49.780533
140.97203 152.74434 49.678875
142.89316 152.92039 49.487915
144.88623 153.00204 49.395546
146.90611 153.01308 49.147396
148.87819 153.0665 49.01638
150.88461 153.02298 48.707848
152.9303 153.15489 48.525467
154.90298 153.22502 48.339874
156.61742 153.50514 48.197361
158.63232 153.64355 48.028625
129.29012 155.3837 49.95153
131.44844 154.98541 49.877766
132.8795 155.15982 49.604263
135.12155 155.32646 49.475636
137.10257 155.20558 49.460346
139.03809 155.30643 49.08466
141.06697 155.1869 49.160915
143.09213 155.15286 49.058411
145.03943 155.14082 48.887203
147.01617 154.97778 48.829735
148.99921 154.99162 48.664612
151.06537 154.94464 48.686901
152.89607 154.69009 48.782284
155.13078 154.63043 48.752625
156.84891 154.46097 48.475262
158.95084 154.37978 48.375
161.02336 154.51959 48.312611
162.49338 154.64169 48.219738
164.50737 154.81311 48.138409
126.78351 157.62549 49.914757
129.3488 157.36795 49.857738
131.18762 157.26271 49.725906
132.97968 157.04178 49.694878
134.9785 157.0461 49.479351
137.03201 157.0273 49.358006
138.98799 157.05757 49.179615
140.97099 156.99373 49.049381
142.98209 156.93803 48.8409
145.01645 156.95946 48.559013
147.02618 156.77252 48.453873
148.94208 156.65079 48.384441
150.89507 156.68115 48.261784
152.86807 156.78456 48.159054
155.87978 157.62444 48.439445
98.691978 159.032 49.789326
101.07613 159.64622 49.646992
102.72305 159.52031 49.626862
107.44726 159.7132 49.585316
109.09566 159.64954 49.769749
111.20433 159.66219 49.701363
113.07336 159.70241 49.223011
115.06541 159.51451 49.551964
116.35297 159.74393 49.800926
121.16011 159.47906 49.638725
123.07829 159.4471 49.507881
125.12486 159.33781 49.69772
126.95639 159.11282 49.6577
128.903 159.01753 49.715012
130.92805 159.11807 49.390339
