# 3D Systems, Inc.
# New Model
VERSION 0.7
FIELDS x y z x_normal y_normal z_normal
SIZE 4 4 4 4 4 4 
TYPE F F F F F F
COUNT 1 1 1 1 1 1 
WIDTH 810
HEIGHT 1
VIEWPOINT 0 0 0 1 0 0 0
POINTS 810
DATA ascii
-54.3672600 83.1415250 -30.4524570 0.00000 0.00000 0.00000
-54.3603860 82.0854110 -30.2131440 0.00000 0.00000 0.00000
-54.3592490 80.4143910 -29.9255120 0.00000 0.00000 0.00000
-54.3592380 84.3656230 -30.5802710 0.00000 0.00000 0.00000
-54.3554880 83.7622300 -30.4452170 0.00000 0.00000 0.00000
-54.3519970 81.0303570 -29.9598030 0.00000 0.00000 0.00000
-54.3501820 83.3123250 -30.3210110 0.00000 0.00000 0.00000
-54.3458980 82.4051820 -30.1306110 0.00000 0.00000 0.00000
-54.3458370 82.8612210 -30.2055950 0.00000 0.00000 0.00000
-54.3456840 84.0769960 -30.4056550 0.00000 0.00000 0.00000
-54.3396110 83.9318390 -30.3247910 0.00000 0.00000 0.00000
-54.3392410 80.7398450 -29.7923160 0.00000 0.00000 0.00000
-54.3387370 83.6289060 -30.2664170 0.00000 0.00000 0.00000
-54.3375280 82.2622990 -30.0286460 0.00000 0.00000 0.00000
-54.3313640 84.8526760 -30.4002170 0.00000 0.00000 0.00000
-54.2493170 78.6949310 -30.0557980 0.00000 0.00000 0.00000
-54.2337760 80.6875310 -30.2407110 0.00000 0.00000 0.00000
-54.2327770 80.5365980 -30.2064020 0.00000 0.00000 0.00000
-54.2268640 82.6704100 -30.5044160 0.00000 0.00000 0.00000
-54.2204860 79.7894130 -29.9679680 0.00000 0.00000 0.00000
-54.2149730 79.3389360 -29.8419210 0.00000 0.00000 0.00000
-54.2117730 80.2547910 -29.9637200 0.00000 0.00000 0.00000
-54.1755980 82.5744630 -30.0101070 0.00000 0.00000 0.00000
-54.1752550 81.9666140 -29.9063070 0.00000 0.00000 0.00000
-54.1701200 84.1006090 -30.2115710 0.00000 0.00000 0.00000
-54.1231690 77.9054570 -30.1878280 0.00000 0.00000 0.00000
-54.1136890 78.3712770 -30.1765840 0.00000 0.00000 0.00000
-54.1089670 78.2240750 -30.1082970 0.00000 0.00000 0.00000
-54.0988580 80.0588300 -30.3175930 0.00000 0.00000 0.00000
-54.0987280 78.6907730 -30.0901360 0.00000 0.00000 0.00000
-54.0905110 78.0909120 -29.9144100 0.00000 0.00000 0.00000
-54.0893630 80.3728330 -30.2811110 0.00000 0.00000 0.00000
-54.0892140 80.6769710 -30.3299960 0.00000 0.00000 0.00000
-54.0866930 78.8552780 -30.0052870 0.00000 0.00000 0.00000
-54.0855260 79.6167760 -30.1203440 0.00000 0.00000 0.00000
-54.0666690 79.4844130 -29.9228840 0.00000 0.00000 0.00000
-54.0632900 79.9442060 -29.9674800 0.00000 0.00000 0.00000
-54.0581280 81.9261700 -30.2470970 0.00000 0.00000 0.00000
-54.0553280 81.1690980 -30.0958560 0.00000 0.00000 0.00000
-54.0541500 79.1932300 -29.7581730 0.00000 0.00000 0.00000
-54.0526850 82.5400240 -30.2979050 0.00000 0.00000 0.00000
-54.0522350 78.5866090 -29.6400320 0.00000 0.00000 0.00000
-54.0496560 80.8710480 -29.9937860 0.00000 0.00000 0.00000
-54.0494160 79.0460050 -29.6897430 0.00000 0.00000 0.00000
-54.0480120 81.3289720 -30.0541730 0.00000 0.00000 0.00000
-54.0434800 82.2460400 -30.1635930 0.00000 0.00000 0.00000
-54.0413930 80.2714460 -29.8177030 0.00000 0.00000 0.00000
-54.0390510 83.7707370 -30.3743650 0.00000 0.00000 0.00000
-54.0324330 83.0181350 -30.1883450 0.00000 0.00000 0.00000
-54.0279270 83.9350280 -30.2979680 0.00000 0.00000 0.00000
-54.0277370 84.3911210 -30.3715420 0.00000 0.00000 0.00000
-54.0267750 81.0475080 -29.8099210 0.00000 0.00000 0.00000
-54.0258980 83.6333080 -30.2292080 0.00000 0.00000 0.00000
-54.0198940 82.7277980 -30.0236070 0.00000 0.00000 0.00000
-54.0100980 84.5627980 -30.2357120 0.00000 0.00000 0.00000
-54.0047340 83.2005540 -29.9606090 0.00000 0.00000 0.00000
-54.0046540 82.4402540 -29.8341980 0.00000 0.00000 0.00000
-54.0032310 83.3542630 -29.9720230 0.00000 0.00000 0.00000
-53.9981380 84.7281880 -30.1516820 0.00000 0.00000 0.00000
-53.9884720 84.1308670 -29.9629520 0.00000 0.00000 0.00000
-53.9200250 78.5634540 -29.8429300 0.00000 0.00000 0.00000
-53.9006040 80.4089510 -29.9673400 0.00000 0.00000 0.00000
-53.8878630 81.3349380 -30.0019050 0.00000 0.00000 0.00000
-53.8817330 82.7099690 -30.1719530 0.00000 0.00000 0.00000
-53.8628690 81.8180010 -29.8494660 0.00000 0.00000 0.00000
-53.8520550 82.1338810 -29.8011720 0.00000 0.00000 0.00000
-53.8487210 84.2665180 -30.1222440 0.00000 0.00000 0.00000
-53.7974510 78.0742800 -30.0574760 0.00000 0.00000 0.00000
-53.7958490 78.6842190 -30.1432300 0.00000 0.00000 0.00000
-53.7776300 79.3112950 -30.0778270 0.00000 0.00000 0.00000
-53.7720600 80.6855620 -30.2528860 0.00000 0.00000 0.00000
-53.7712360 78.8616260 -29.9444120 0.00000 0.00000 0.00000
-53.7636680 78.4130020 -29.8002800 0.00000 0.00000 0.00000
-53.7577820 77.9625090 -29.6713830 0.00000 0.00000 0.00000
-53.7562450 80.0939870 -30.0087340 0.00000 0.00000 0.00000
-53.7551800 79.4866940 -29.8987050 0.00000 0.00000 0.00000
-53.7547720 79.0307310 -29.8197060 0.00000 0.00000 0.00000
-53.7529450 82.2260670 -30.3297540 0.00000 0.00000 0.00000
-53.7496300 81.3175050 -30.1492310 0.00000 0.00000 0.00000
-53.7449760 81.0183410 -30.0567570 0.00000 0.00000 0.00000
-53.7408910 79.9579540 -29.8440170 0.00000 0.00000 0.00000
-53.7383610 81.9377440 -30.1470760 0.00000 0.00000 0.00000
-53.7358930 80.4195710 -29.8738440 0.00000 0.00000 0.00000
-53.7357670 80.8760300 -29.9479470 0.00000 0.00000 0.00000
-53.7331050 81.6392750 -30.0491560 0.00000 0.00000 0.00000
-53.7314300 82.4013370 -30.1592810 0.00000 0.00000 0.00000
-53.7236750 81.8014600 -29.9884910 0.00000 0.00000 0.00000
-53.7227630 83.6269380 -30.2810000 0.00000 0.00000 0.00000
-53.7180900 82.8719410 -30.1132370 0.00000 0.00000 0.00000
-53.7173160 84.3928910 -30.3568080 0.00000 0.00000 0.00000
-53.7116390 83.0310210 -30.0796740 0.00000 0.00000 0.00000
-53.7078550 82.5789340 -29.9700810 0.00000 0.00000 0.00000
-53.7010920 84.1068880 -30.1592900 0.00000 0.00000 0.00000
-53.6992420 83.8048550 -30.0923480 0.00000 0.00000 0.00000
-53.6964650 83.1996540 -29.9668580 0.00000 0.00000 0.00000
-53.6681020 84.5996700 -29.9347760 0.00000 0.00000 0.00000
-53.6672360 84.7527160 -29.9519900 0.00000 0.00000 0.00000
-53.6229970 78.2465210 -29.9002530 0.00000 0.00000 0.00000
-53.5832560 78.8958360 -29.6397950 0.00000 0.00000 0.00000
-53.5808180 81.0284730 -29.9685550 0.00000 0.00000 0.00000
-53.5772210 81.3364870 -29.9860130 0.00000 0.00000 0.00000
-53.5719760 79.5162580 -29.6376970 0.00000 0.00000 0.00000
-53.5693320 84.2337650 -30.3901210 0.00000 0.00000 0.00000
-53.5630040 80.1343610 -29.6565420 0.00000 0.00000 0.00000
-53.5546070 82.1211930 -29.9061450 0.00000 0.00000 0.00000
-53.5443460 82.7407000 -29.9132980 0.00000 0.00000 0.00000
-53.5352860 83.3589710 -29.9313130 0.00000 0.00000 0.00000
-53.5338670 83.8167950 -29.9935870 0.00000 0.00000 0.00000
-53.5240020 84.7401350 -30.0543900 0.00000 0.00000 0.00000
-53.4723850 79.1550290 -30.0850350 0.00000 0.00000 0.00000
-53.4599270 80.2325360 -30.1474000 0.00000 0.00000 0.00000
-53.4555360 80.8454060 -30.2077050 0.00000 0.00000 0.00000
-53.4537240 78.8699570 -29.8660090 0.00000 0.00000 0.00000
-53.4472620 79.9415660 -29.9826930 0.00000 0.00000 0.00000
-53.4447710 80.4004900 -30.0352060 0.00000 0.00000 0.00000
-53.4370040 79.3436360 -29.7896790 0.00000 0.00000 0.00000
-53.4357380 81.4746170 -30.1285610 0.00000 0.00000 0.00000
-53.4350470 78.4324950 -29.6217140 0.00000 0.00000 0.00000
-53.4349940 79.0413510 -29.7214200 0.00000 0.00000 0.00000
-53.4343530 82.6924510 -30.3160710 0.00000 0.00000 0.00000
-53.4300730 80.1116100 -29.8520950 0.00000 0.00000 0.00000
-53.4288250 82.5463940 -30.2410870 0.00000 0.00000 0.00000
-53.4224890 81.7928920 -30.0587120 0.00000 0.00000 0.00000
-53.4192730 84.0769350 -30.4046270 0.00000 0.00000 0.00000
-53.4174500 83.9269410 -30.3631780 0.00000 0.00000 0.00000
-53.4164470 79.8214570 -29.6786610 0.00000 0.00000 0.00000
-53.4157180 81.1916660 -29.8973640 0.00000 0.00000 0.00000
-53.4108960 84.2381670 -30.3538670 0.00000 0.00000 0.00000
-53.4090920 81.9593200 -29.9624810 0.00000 0.00000 0.00000
-53.4085920 80.5905690 -29.7327480 0.00000 0.00000 0.00000
-53.4064330 83.3309100 -30.1635130 0.00000 0.00000 0.00000
-53.4016340 83.6402510 -30.1701090 0.00000 0.00000 0.00000
-53.3990360 84.5552900 -30.2966120 0.00000 0.00000 0.00000
-53.3925250 81.3684080 -29.7124810 0.00000 0.00000 0.00000
-53.3918460 84.7152860 -30.2565840 0.00000 0.00000 0.00000
-53.3905220 82.8919680 -29.9445530 0.00000 0.00000 0.00000
-53.3898430 83.1969070 -29.9884590 0.00000 0.00000 0.00000
-53.3663640 83.5267410 -29.8261110 0.00000 0.00000 0.00000
-53.3264270 78.5376820 -30.0615140 0.00000 0.00000 0.00000
-53.3047330 78.1032490 -29.7904590 0.00000 0.00000 0.00000
-53.2954180 78.4170680 -29.7562940 0.00000 0.00000 0.00000
-53.2666050 79.5119630 -29.6710430 0.00000 0.00000 0.00000
-53.2599410 79.2143860 -29.5608060 0.00000 0.00000 0.00000
-53.2594990 80.8890080 -29.8318710 0.00000 0.00000 0.00000
-53.2275770 83.5094760 -29.9685310 0.00000 0.00000 0.00000
-53.2153850 82.3054500 -29.6585450 0.00000 0.00000 0.00000
-53.2150190 84.1316680 -29.9551120 0.00000 0.00000 0.00000
-53.2149580 84.5880280 -30.0294930 0.00000 0.00000 0.00000
-53.1641310 79.1539000 -30.0904390 0.00000 0.00000 0.00000
-53.1234590 80.4130100 -29.9235730 0.00000 0.00000 0.00000
-53.1222340 81.0228270 -30.0123980 0.00000 0.00000 0.00000
-53.1128200 78.1407170 -29.4529880 0.00000 0.00000 0.00000
-53.1089060 82.2538450 -30.0919720 0.00000 0.00000 0.00000
-53.1055110 81.6490100 -29.9615820 0.00000 0.00000 0.00000
-53.1044920 82.4106750 -30.0771690 0.00000 0.00000 0.00000
-53.1031380 82.1079100 -30.0150640 0.00000 0.00000 0.00000
-53.1026730 82.8689040 -30.1356390 0.00000 0.00000 0.00000
-53.0967220 84.0918580 -30.2815860 0.00000 0.00000 0.00000
-53.0927660 84.4002760 -30.2958490 0.00000 0.00000 0.00000
-53.0908620 80.9036330 -29.7047860 0.00000 0.00000 0.00000
-53.0905690 82.5777280 -29.9767360 0.00000 0.00000 0.00000
-53.0900920 81.9696810 -29.8726140 0.00000 0.00000 0.00000
-53.0742680 83.6601870 -30.0046250 0.00000 0.00000 0.00000
-53.0651170 82.7572480 -29.7724670 0.00000 0.00000 0.00000
-53.0636020 83.9760670 -29.9584960 0.00000 0.00000 0.00000
-53.0604400 84.2837680 -29.9799100 0.00000 0.00000 0.00000
-53.0485500 83.2316820 -29.6981790 0.00000 0.00000 0.00000
-53.0323140 84.7711790 -29.8015920 0.00000 0.00000 0.00000
-53.0066300 78.0916750 -29.8883510 0.00000 0.00000 0.00000
-52.9879150 78.8715440 -29.8447550 0.00000 0.00000 0.00000
-52.9860310 79.6343310 -29.9525180 0.00000 0.00000 0.00000
-52.9828000 79.1811370 -29.8486270 0.00000 0.00000 0.00000
-52.9810330 78.4219130 -29.7080060 0.00000 0.00000 0.00000
-52.9787330 80.7068790 -30.0614260 0.00000 0.00000 0.00000
-52.9775010 81.6207960 -30.1998960 0.00000 0.00000 0.00000
-52.9718740 78.7356490 -29.6755310 0.00000 0.00000 0.00000
-52.9715810 80.1057430 -29.8973830 0.00000 0.00000 0.00000
-52.9712980 81.7794490 -30.1690810 0.00000 0.00000 0.00000
-52.9653090 79.0467990 -29.6663680 0.00000 0.00000 0.00000
-52.9645310 79.5042570 -29.7342320 0.00000 0.00000 0.00000
-52.9543530 78.2966160 -29.4430330 0.00000 0.00000 0.00000
-52.9543270 79.3625030 -29.6175230 0.00000 0.00000 0.00000
-52.9481470 83.9333040 -30.3098550 0.00000 0.00000 0.00000
-52.9292300 83.6497800 -30.0900900 0.00000 0.00000 0.00000
-52.9211850 84.7231830 -30.1922090 0.00000 0.00000 0.00000
-52.8999600 82.6162870 -29.6526260 0.00000 0.00000 0.00000
-52.8940930 84.4487990 -29.8990760 0.00000 0.00000 0.00000
-52.8560870 77.7830200 -29.8739620 0.00000 0.00000 0.00000
-52.7854310 81.6603470 -29.8628100 0.00000 0.00000 0.00000
-52.7788700 82.2759930 -29.9035850 0.00000 0.00000 0.00000
-52.7778630 82.5813830 -29.9443490 0.00000 0.00000 0.00000
-52.7754210 83.0404360 -29.9971450 0.00000 0.00000 0.00000
-52.7732160 81.3688200 -29.7034780 0.00000 0.00000 0.00000
-52.7704470 82.7414780 -29.9027820 0.00000 0.00000 0.00000
-52.7699740 83.1984410 -29.9732170 0.00000 0.00000 0.00000
-52.7696690 83.8072890 -30.0700550 0.00000 0.00000 0.00000
-52.7674710 83.3532870 -29.9756720 0.00000 0.00000 0.00000
-52.7598080 84.2743910 -30.0563240 0.00000 0.00000 0.00000
-52.7532840 84.7378850 -30.0725040 0.00000 0.00000 0.00000
-52.7475550 82.4615710 -29.6477430 0.00000 0.00000 0.00000
-52.7396320 82.9267350 -29.6514240 0.00000 0.00000 0.00000
-52.7342150 84.6067200 -29.8767660 0.00000 0.00000 0.00000
-52.7331540 83.6947940 -29.7179010 0.00000 0.00000 0.00000
-52.7283060 83.5478360 -29.6495150 0.00000 0.00000 0.00000
-52.6937450 77.7905200 -29.8037550 0.00000 0.00000 0.00000
-52.6915360 78.7059780 -29.9333080 0.00000 0.00000 0.00000
-52.6808930 79.4777070 -29.9624160 0.00000 0.00000 0.00000
-52.6721380 78.1166230 -29.6600230 0.00000 0.00000 0.00000
-52.6671710 78.4261250 -29.6653540 0.00000 0.00000 0.00000
-52.6670840 79.7962190 -29.8885630 0.00000 0.00000 0.00000
-52.6636120 80.2563550 -29.9321140 0.00000 0.00000 0.00000
-52.6478120 80.4248960 -29.8155860 0.00000 0.00000 0.00000
-52.6455460 79.0570530 -29.5712890 0.00000 0.00000 0.00000
-52.6414340 80.7359390 -29.8082450 0.00000 0.00000 0.00000
-52.6407280 78.9096600 -29.5032620 0.00000 0.00000 0.00000
-52.6366920 80.1319430 -29.6662860 0.00000 0.00000 0.00000
-52.6362610 81.1979370 -29.8366030 0.00000 0.00000 0.00000
-52.6221240 80.6037670 -29.6105730 0.00000 0.00000 0.00000
-52.6187900 83.4989850 -30.0533290 0.00000 0.00000 0.00000
-52.5626720 84.3208160 -29.6758370 0.00000 0.00000 0.00000
-52.5442890 77.9373630 -29.8739830 0.00000 0.00000 0.00000
-52.5276180 78.4107280 -29.7996120 0.00000 0.00000 0.00000
-52.5167500 79.0306170 -29.8019490 0.00000 0.00000 0.00000
-52.4907190 79.6660920 -29.6688790 0.00000 0.00000 0.00000
-52.4891200 82.7115550 -30.1514930 0.00000 0.00000 0.00000
-52.4873960 79.3649370 -29.5894890 0.00000 0.00000 0.00000
-52.4460980 83.0618740 -29.8172320 0.00000 0.00000 0.00000
-52.4445880 83.9766010 -29.9527760 0.00000 0.00000 0.00000
-52.4394910 84.4386290 -29.9817910 0.00000 0.00000 0.00000
-52.4348260 83.3783870 -29.7663290 0.00000 0.00000 0.00000
-52.4229430 83.2389300 -29.6354450 0.00000 0.00000 0.00000
-52.4201130 84.3075710 -29.7840810 0.00000 0.00000 0.00000
-52.3694080 77.9573060 -29.6925930 0.00000 0.00000 0.00000
-52.3600460 78.7280040 -29.7333130 0.00000 0.00000 0.00000
-52.3585210 78.2727280 -29.6451930 0.00000 0.00000 0.00000
-52.3465960 78.8938290 -29.6382310 0.00000 0.00000 0.00000
-52.3410910 79.3562320 -29.6636960 0.00000 0.00000 0.00000
-52.3375890 80.2733380 -29.7814640 0.00000 0.00000 0.00000
-52.3354340 82.5583950 -30.1344470 0.00000 0.00000 0.00000
-52.3315660 81.0406950 -29.8519040 0.00000 0.00000 0.00000
-52.3282090 79.0646970 -29.4992030 0.00000 0.00000 0.00000
-52.3273540 81.5017240 -29.8888360 0.00000 0.00000 0.00000
-52.3222500 80.1368410 -29.6199720 0.00000 0.00000 0.00000
-52.3184130 80.5976100 -29.6602570 0.00000 0.00000 0.00000
-52.3166010 82.7305760 -29.9915470 0.00000 0.00000 0.00000
-52.3156200 82.4272610 -29.9331930 0.00000 0.00000 0.00000
-52.3100550 84.7153780 -30.2556190 0.00000 0.00000 0.00000
-52.3072130 82.2839580 -29.8335270 0.00000 0.00000 0.00000
-52.3015140 80.7673800 -29.5345130 0.00000 0.00000 0.00000
-52.2983860 81.9888150 -29.7052900 0.00000 0.00000 0.00000
-52.2979580 84.5764770 -30.1231900 0.00000 0.00000 0.00000
-52.2884830 81.8469770 -29.5922580 0.00000 0.00000 0.00000
-52.1892660 79.0485690 -29.6390090 0.00000 0.00000 0.00000
-52.1869700 78.4416580 -29.5193350 0.00000 0.00000 0.00000
-52.1822660 79.8170700 -29.7007980 0.00000 0.00000 0.00000
-52.1775360 80.7354580 -29.8075080 0.00000 0.00000 0.00000
-52.1723750 80.4362720 -29.7120480 0.00000 0.00000 0.00000
-52.1702840 78.1536100 -29.3213060 0.00000 0.00000 0.00000
-52.1595800 83.4938890 -30.0940300 0.00000 0.00000 0.00000
-52.1547620 83.9555210 -30.1255320 0.00000 0.00000 0.00000
-52.1541710 79.6933980 -29.4261820 0.00000 0.00000 0.00000
-52.1502800 84.1125110 -30.1104720 0.00000 0.00000 0.00000
-52.1140400 82.6291120 -29.5407660 0.00000 0.00000 0.00000
-52.1036300 83.4016490 -29.5722390 0.00000 0.00000 0.00000
-52.0985980 84.4729310 -29.7010710 0.00000 0.00000 0.00000
-52.0666850 77.9502490 -29.7501010 0.00000 0.00000 0.00000
-52.0625530 78.7156980 -29.8372840 0.00000 0.00000 0.00000
-52.0438730 78.2775120 -29.5971780 0.00000 0.00000 0.00000
-52.0434460 79.1916960 -29.7420650 0.00000 0.00000 0.00000
-52.0363430 78.1326680 -29.5055940 0.00000 0.00000 0.00000
-52.0337450 81.4851230 -30.0274640 0.00000 0.00000 0.00000
-52.0308800 79.0520710 -29.6057970 0.00000 0.00000 0.00000
-52.0291440 79.3584290 -29.6399400 0.00000 0.00000 0.00000
-52.0235630 80.4300770 -29.7638510 0.00000 0.00000 0.00000
-52.0221860 78.9084930 -29.5038760 0.00000 0.00000 0.00000
-52.0164380 81.8076020 -29.9235080 0.00000 0.00000 0.00000
-52.0153850 80.8952790 -29.7655890 0.00000 0.00000 0.00000
-52.0125350 82.7248990 -30.0374070 0.00000 0.00000 0.00000
-52.0092660 82.2717670 -29.9341870 0.00000 0.00000 0.00000
-52.0085980 81.0545650 -29.7301710 0.00000 0.00000 0.00000
-52.0071330 80.2946400 -29.5933550 0.00000 0.00000 0.00000
-51.9977070 79.8472900 -29.4354040 0.00000 0.00000 0.00000
-51.9964030 83.9595110 -30.0923560 0.00000 0.00000 0.00000
-51.9944310 82.8963090 -29.9016570 0.00000 0.00000 0.00000
-51.9938430 83.2013470 -29.9459510 0.00000 0.00000 0.00000
-51.9915540 83.8125610 -30.0246490 0.00000 0.00000 0.00000
-51.9870720 83.5129850 -29.9354440 0.00000 0.00000 0.00000
-51.9849970 82.6018370 -29.7685470 0.00000 0.00000 0.00000
-51.9795720 84.7385480 -30.0669140 0.00000 0.00000 0.00000
-51.9737700 81.2429580 -29.4461000 0.00000 0.00000 0.00000
-51.9613910 84.1494670 -29.8068470 0.00000 0.00000 0.00000
-51.9520000 82.4844060 -29.4512500 0.00000 0.00000 0.00000
-51.8917310 80.1020430 -29.9163340 0.00000 0.00000 0.00000
-51.8911210 79.4936600 -29.8119950 0.00000 0.00000 0.00000
-51.8532940 78.7700730 -29.3533760 0.00000 0.00000 0.00000
-51.8485760 83.6478200 -30.1031480 0.00000 0.00000 0.00000
-51.8464580 79.0816960 -29.3423820 0.00000 0.00000 0.00000
-51.8324740 81.9903720 -29.6887990 0.00000 0.00000 0.00000
-51.8121830 81.4022290 -29.4103470 0.00000 0.00000 0.00000
-51.7564320 78.1029280 -29.7657830 0.00000 0.00000 0.00000
-51.7528530 77.8018490 -29.6847210 0.00000 0.00000 0.00000
-51.7485850 78.8721540 -29.8200470 0.00000 0.00000 0.00000
-51.7312850 77.9754410 -29.5188790 0.00000 0.00000 0.00000
-51.7294770 79.9573210 -29.8242490 0.00000 0.00000 0.00000
-51.7289280 78.5871580 -29.5969510 0.00000 0.00000 0.00000
-51.7250900 79.2002870 -29.6619450 0.00000 0.00000 0.00000
-51.7152440 80.1240690 -29.7232630 0.00000 0.00000 0.00000
-51.7093320 80.7392580 -29.7698960 0.00000 0.00000 0.00000
-51.7086220 79.8261800 -29.6153550 0.00000 0.00000 0.00000
-51.7036930 79.5264890 -29.5223900 0.00000 0.00000 0.00000
-51.7010230 81.9659420 -29.8941670 0.00000 0.00000 0.00000
-51.6926690 81.3655700 -29.7216090 0.00000 0.00000 0.00000
-51.6914520 80.3006210 -29.5378880 0.00000 0.00000 0.00000
-51.6878400 78.7804870 -29.2586880 0.00000 0.00000 0.00000
-51.6846470 80.9169240 -29.5766560 0.00000 0.00000 0.00000
-51.6836200 81.5272370 -29.6664510 0.00000 0.00000 0.00000
-51.6800730 82.2923810 -29.7586380 0.00000 0.00000 0.00000
-51.6777310 82.5993800 -29.7873670 0.00000 0.00000 0.00000
-51.6770900 83.2090680 -29.8805160 0.00000 0.00000 0.00000
-51.6751710 83.9722370 -29.9870170 0.00000 0.00000 0.00000
-51.6730270 84.2789460 -30.0174660 0.00000 0.00000 0.00000
-51.6726230 81.8432850 -29.6187860 0.00000 0.00000 0.00000
-51.6663440 83.6772310 -29.8597640 0.00000 0.00000 0.00000
-51.6654850 84.5914920 -30.0002990 0.00000 0.00000 0.00000
-51.6552510 82.9276660 -29.6383900 0.00000 0.00000 0.00000
-51.6421280 84.7689970 -29.8189930 0.00000 0.00000 0.00000
-51.5948910 78.4140550 -29.7542970 0.00000 0.00000 0.00000
-51.5485230 80.5930330 -29.6912900 0.00000 0.00000 0.00000
-51.5389980 82.8869480 -29.9774700 0.00000 0.00000 0.00000
-51.5374530 78.3185500 -29.2232700 0.00000 0.00000 0.00000
-51.5347020 81.0641480 -29.6435790 0.00000 0.00000 0.00000
-51.5081980 82.3102040 -29.6075670 0.00000 0.00000 0.00000
-51.4899410 83.7002870 -29.6689110 0.00000 0.00000 0.00000
-51.4834210 83.2502590 -29.5374760 0.00000 0.00000 0.00000
-51.4768750 82.4953610 -29.3564220 0.00000 0.00000 0.00000
-51.4299200 79.3378600 -29.8115440 0.00000 0.00000 0.00000
-51.4270590 78.5791240 -29.6630900 0.00000 0.00000 0.00000
-51.4194220 78.7390440 -29.6205840 0.00000 0.00000 0.00000
-51.4176520 78.1313400 -29.5063670 0.00000 0.00000 0.00000
-51.4055670 80.1239320 -29.7207030 0.00000 0.00000 0.00000
-51.3990860 80.2828220 -29.6883790 0.00000 0.00000 0.00000
-51.3955150 81.0480120 -29.7802640 0.00000 0.00000 0.00000
-51.3814390 80.4530940 -29.5579030 0.00000 0.00000 0.00000
-51.3800430 79.0830150 -29.3236100 0.00000 0.00000 0.00000
-51.3788030 80.7604830 -29.5840440 0.00000 0.00000 0.00000
-51.3766710 81.5243300 -29.6885760 0.00000 0.00000 0.00000
-51.3704340 79.5498960 -29.3131370 0.00000 0.00000 0.00000
-51.3697360 79.8554230 -29.3563580 0.00000 0.00000 0.00000
-51.3691100 83.2073820 -29.8932090 0.00000 0.00000 0.00000
-51.3671190 82.1434940 -29.7032240 0.00000 0.00000 0.00000
-51.3616070 82.9107510 -29.7780320 0.00000 0.00000 0.00000
-51.3597030 84.1308670 -29.9583740 0.00000 0.00000 0.00000
-51.3589020 81.6950300 -29.5570850 0.00000 0.00000 0.00000
-51.3551330 84.5924680 -29.9921190 0.00000 0.00000 0.00000
-51.3485790 84.7517550 -29.9592190 0.00000 0.00000 0.00000
-51.3479610 80.6395800 -29.2882800 0.00000 0.00000 0.00000
-51.3468250 82.3169780 -29.5495780 0.00000 0.00000 0.00000
-51.3462940 82.6222150 -29.5942270 0.00000 0.00000 0.00000
-51.3446270 83.9947280 -29.8013360 0.00000 0.00000 0.00000
-51.3442800 83.5382390 -29.7243730 0.00000 0.00000 0.00000
-51.3370900 81.4128040 -29.3160610 0.00000 0.00000 0.00000
-51.3310740 82.7905350 -29.4851280 0.00000 0.00000 0.00000
-51.3255390 83.7104570 -29.5844060 0.00000 0.00000 0.00000
-51.2572140 79.2032850 -29.6287310 0.00000 0.00000 0.00000
-51.2470320 77.8417820 -29.3176040 0.00000 0.00000 0.00000
-51.2433050 80.5883330 -29.7283880 0.00000 0.00000 0.00000
-51.2389760 79.5262530 -29.5180090 0.00000 0.00000 0.00000
-51.2177120 78.9378050 -29.2328380 0.00000 0.00000 0.00000
-51.2082480 81.0811610 -29.4948040 0.00000 0.00000 0.00000
-51.2050740 80.1699830 -29.3191590 0.00000 0.00000 0.00000
-51.2018470 82.1542890 -29.6110730 0.00000 0.00000 0.00000
-51.1833420 83.0877000 -29.5965670 0.00000 0.00000 0.00000
-51.0933990 78.1452100 -29.3769380 0.00000 0.00000 0.00000
-51.0870440 81.3512730 -29.8380200 0.00000 0.00000 0.00000
-51.0851210 78.3057710 -29.3290790 0.00000 0.00000 0.00000
-51.0844800 79.6781160 -29.5449850 0.00000 0.00000 0.00000
-51.0826610 79.0703430 -29.4306130 0.00000 0.00000 0.00000
-51.0780180 80.7511980 -29.6606710 0.00000 0.00000 0.00000
-51.0683590 80.4562680 -29.5269240 0.00000 0.00000 0.00000
-51.0663950 79.3913800 -29.3374560 0.00000 0.00000 0.00000
-51.0662570 78.6292570 -29.2131350 0.00000 0.00000 0.00000
-51.0647740 80.0027010 -29.4217320 0.00000 0.00000 0.00000
-51.0594330 81.2272420 -29.5718120 0.00000 0.00000 0.00000
-51.0573690 82.2957920 -29.7259060 0.00000 0.00000 0.00000
-51.0541270 82.1468280 -29.6729700 0.00000 0.00000 0.00000
-51.0541190 82.6038210 -29.7466580 0.00000 0.00000 0.00000
-51.0473400 81.5443950 -29.5152230 0.00000 0.00000 0.00000
-51.0457040 83.3741910 -29.7959750 0.00000 0.00000 0.00000
-51.0435220 82.9195400 -29.7031540 0.00000 0.00000 0.00000
-51.0393680 82.4668580 -29.5930460 0.00000 0.00000 0.00000
-51.0374070 84.2967300 -29.8709140 0.00000 0.00000 0.00000
-51.0367580 83.9928510 -29.8160970 0.00000 0.00000 0.00000
-51.0353360 83.2327960 -29.6807190 0.00000 0.00000 0.00000
-51.0200200 84.4676060 -29.7434670 0.00000 0.00000 0.00000
-51.0182950 82.0315550 -29.3349060 0.00000 0.00000 0.00000
-51.0149570 82.7970810 -29.4287170 0.00000 0.00000 0.00000
-51.0094410 83.7171710 -29.5280690 0.00000 0.00000 0.00000
-50.9955900 84.7984470 -29.5790560 0.00000 0.00000 0.00000
-50.9950940 84.1895220 -29.4763810 0.00000 0.00000 0.00000
-50.9582440 78.8876040 -29.6714320 0.00000 0.00000 0.00000
-50.9579850 79.0402220 -29.6937350 0.00000 0.00000 0.00000
-50.9561960 78.4324870 -29.5797880 0.00000 0.00000 0.00000
-50.9425430 80.8837360 -29.8537060 0.00000 0.00000 0.00000
-50.9421580 80.4271620 -29.7766510 0.00000 0.00000 0.00000
-50.9217450 79.5334170 -29.4509350 0.00000 0.00000 0.00000
-50.8900760 79.8699720 -29.2234780 0.00000 0.00000 0.00000
-50.8700790 81.5672610 -29.3193190 0.00000 0.00000 0.00000
-50.8534390 82.4990620 -29.3215480 0.00000 0.00000 0.00000
-50.8153080 78.4185940 -29.7007450 0.00000 0.00000 0.00000
-50.7697410 78.0058210 -29.2297990 0.00000 0.00000 0.00000
-50.7671320 79.2281040 -29.4035820 0.00000 0.00000 0.00000
-50.7531780 79.3944020 -29.3064940 0.00000 0.00000 0.00000
-50.7486530 81.2280810 -29.5617200 0.00000 0.00000 0.00000
-50.7470020 80.4677050 -29.4245800 0.00000 0.00000 0.00000
-50.7450330 78.9450150 -29.1618160 0.00000 0.00000 0.00000
-50.7448770 81.6891020 -29.6024420 0.00000 0.00000 0.00000
-50.7426150 81.9961700 -29.6318340 0.00000 0.00000 0.00000
-50.7422600 81.5393980 -29.5550940 0.00000 0.00000 0.00000
-50.7383230 80.9337690 -29.4226170 0.00000 0.00000 0.00000
-50.7347640 83.8324130 -29.8578210 0.00000 0.00000 0.00000
-50.7280350 83.3825300 -29.7256450 0.00000 0.00000 0.00000
-50.7265090 81.0982130 -29.3442540 0.00000 0.00000 0.00000
-50.7243420 83.0816960 -29.6444530 0.00000 0.00000 0.00000
-50.7193570 82.4773640 -29.5028690 0.00000 0.00000 0.00000
-50.7144740 83.5491260 -29.6321240 0.00000 0.00000 0.00000
-50.7103920 84.4675290 -29.7437340 0.00000 0.00000 0.00000
-50.7031360 82.3417360 -29.3370650 0.00000 0.00000 0.00000
-50.6969870 84.6341630 -29.6515880 0.00000 0.00000 0.00000
-50.6941150 84.7895810 -29.6511310 0.00000 0.00000 0.00000
-50.6936230 82.9613800 -29.3524060 0.00000 0.00000 0.00000
-50.6903880 84.0316770 -29.4960160 0.00000 0.00000 0.00000
-50.6424600 78.8932270 -29.6168380 0.00000 0.00000 0.00000
-50.6401210 78.2858580 -29.4984130 0.00000 0.00000 0.00000
-50.6315730 77.9892880 -29.3749660 0.00000 0.00000 0.00000
-50.6275860 79.9747240 -29.6591380 0.00000 0.00000 0.00000
-50.6251410 79.2151410 -29.5152700 0.00000 0.00000 0.00000
-50.6233290 80.8932110 -29.7692240 0.00000 0.00000 0.00000
-50.6126100 81.6658480 -29.7985800 0.00000 0.00000 0.00000
-50.6119960 81.0570600 -29.6951900 0.00000 0.00000 0.00000
-50.6077840 81.3660740 -29.7076190 0.00000 0.00000 0.00000
-50.6045000 79.3880160 -29.3602850 0.00000 0.00000 0.00000
-50.6025050 78.1700520 -29.1466180 0.00000 0.00000 0.00000
-50.5880580 79.7092900 -29.2663760 0.00000 0.00000 0.00000
-50.5734630 80.6387790 -29.2866820 0.00000 0.00000 0.00000
-50.5502660 82.7968220 -29.4283710 0.00000 0.00000 0.00000
-50.4760740 79.8188250 -29.6631810 0.00000 0.00000 0.00000
-50.4423220 78.3274150 -29.1252250 0.00000 0.00000 0.00000
-50.4141690 82.1675800 -29.4935550 0.00000 0.00000 0.00000
-50.4108730 81.2562560 -29.3180240 0.00000 0.00000 0.00000
-50.4080390 84.0026470 -29.7341440 0.00000 0.00000 0.00000
-50.4050180 81.8720860 -29.3652340 0.00000 0.00000 0.00000
-50.4048350 84.7677460 -29.8287200 0.00000 0.00000 0.00000
-50.4046630 81.7199860 -29.3376540 0.00000 0.00000 0.00000
-50.4045870 82.9395680 -29.5328900 0.00000 0.00000 0.00000
-50.4032020 80.6540300 -29.1534670 0.00000 0.00000 0.00000
-50.4009130 82.6385350 -29.4520890 0.00000 0.00000 0.00000
-50.3931240 84.3231200 -29.6538450 0.00000 0.00000 0.00000
-50.3897740 83.1073910 -29.4289860 0.00000 0.00000 0.00000
-50.3881840 84.4807280 -29.6354770 0.00000 0.00000 0.00000
-50.3765370 83.2736280 -29.3387170 0.00000 0.00000 0.00000
-50.3735160 83.5816960 -29.3614920 0.00000 0.00000 0.00000
-50.3238640 78.5966110 -29.4899370 0.00000 0.00000 0.00000
-50.3209300 79.6665190 -29.6358240 0.00000 0.00000 0.00000
-50.3198360 79.5151820 -29.6018810 0.00000 0.00000 0.00000
-50.3124920 79.9797210 -29.6116940 0.00000 0.00000 0.00000
-50.3092650 79.0682750 -29.4369490 0.00000 0.00000 0.00000
-50.3001560 78.4672390 -29.2601340 0.00000 0.00000 0.00000
-50.2948880 80.4545750 -29.5326960 0.00000 0.00000 0.00000
-50.2834780 77.7206570 -28.9932460 0.00000 0.00000 0.00000
-50.2815480 79.4005430 -29.2458990 0.00000 0.00000 0.00000
-50.2795100 82.9085690 -29.7909220 0.00000 0.00000 0.00000
-50.2758100 78.7960590 -29.0983010 0.00000 0.00000 0.00000
-50.2742310 81.3900150 -29.5007170 0.00000 0.00000 0.00000
-50.2585530 81.2534480 -29.3405490 0.00000 0.00000 0.00000
-50.2514650 81.5655980 -29.3281480 0.00000 0.00000 0.00000
-50.2479210 84.4652180 -29.7621440 0.00000 0.00000 0.00000
-50.2296640 82.6552810 -29.3107930 0.00000 0.00000 0.00000
-50.2189520 84.8006900 -29.5605220 0.00000 0.00000 0.00000
-50.1821290 78.1262210 -29.5298770 0.00000 0.00000 0.00000
-50.1611440 77.9940110 -29.3240910 0.00000 0.00000 0.00000
-50.1445240 79.0776900 -29.3516240 0.00000 0.00000 0.00000
-50.1312070 80.9205320 -29.5299020 0.00000 0.00000 0.00000
-50.1159400 81.0883640 -29.4225250 0.00000 0.00000 0.00000
-50.1150280 79.8693080 -29.2190840 0.00000 0.00000 0.00000
-50.1085360 80.3333210 -29.2363470 0.00000 0.00000 0.00000
-50.0788190 81.7359310 -29.1997300 0.00000 0.00000 0.00000
-50.0786930 84.4803310 -29.6384140 0.00000 0.00000 0.00000
-50.0775380 84.0243150 -29.5552020 0.00000 0.00000 0.00000
-50.0737800 83.1135560 -29.3761900 0.00000 0.00000 0.00000
-50.0717620 82.9631730 -29.3343390 0.00000 0.00000 0.00000
-50.0660250 82.3590770 -29.1870520 0.00000 0.00000 0.00000
-50.0623250 83.5828780 -29.3506340 0.00000 0.00000 0.00000
-50.0589520 83.7388760 -29.3459610 0.00000 0.00000 0.00000
-50.0410000 84.8250580 -29.3620610 0.00000 0.00000 0.00000
-50.0239980 77.8241270 -29.4526630 0.00000 0.00000 0.00000
-50.0139850 78.7486650 -29.5128560 0.00000 0.00000 0.00000
-50.0092320 78.4483260 -29.4230290 0.00000 0.00000 0.00000
-50.0039520 79.3683320 -29.5240250 0.00000 0.00000 0.00000
-50.0023350 77.9974670 -29.2902640 0.00000 0.00000 0.00000
-49.9985890 78.3061290 -29.3068350 0.00000 0.00000 0.00000
-49.9917300 79.0753560 -29.3698220 0.00000 0.00000 0.00000
-49.9780080 79.2413020 -29.2759360 0.00000 0.00000 0.00000
-49.9714010 81.9923550 -29.6584130 0.00000 0.00000 0.00000
-49.9694180 80.7748030 -29.4460890 0.00000 0.00000 0.00000
-49.9678380 78.6410370 -29.0905400 0.00000 0.00000 0.00000
-49.9664340 77.7268220 -28.9317950 0.00000 0.00000 0.00000
-49.9662210 79.7104720 -29.2476020 0.00000 0.00000 0.00000
-49.9628030 80.4764400 -29.3402440 0.00000 0.00000 0.00000
-49.9590380 81.2426530 -29.4298840 0.00000 0.00000 0.00000
-49.9538730 82.4675370 -29.5806330 0.00000 0.00000 0.00000
-49.9523280 80.1818240 -29.2011240 0.00000 0.00000 0.00000
-49.9522930 81.5544200 -29.4205700 0.00000 0.00000 0.00000
-49.9501110 79.5737990 -29.0843050 0.00000 0.00000 0.00000
-49.9468540 82.1698300 -29.4713480 0.00000 0.00000 0.00000
-49.9462470 82.7802430 -29.5637300 0.00000 0.00000 0.00000
-49.9309690 84.7774890 -29.7492770 0.00000 0.00000 0.00000
-49.9251860 83.4117970 -29.4799480 0.00000 0.00000 0.00000
-49.9197620 83.7223430 -29.4820420 0.00000 0.00000 0.00000
-49.8113630 80.6252440 -29.3947850 0.00000 0.00000 0.00000
-49.8111840 78.0319750 -28.9784510 0.00000 0.00000 0.00000
-49.7916790 80.7974090 -29.2499200 0.00000 0.00000 0.00000
-49.7858200 81.2608720 -29.2727260 0.00000 0.00000 0.00000
-49.7849240 84.3109590 -29.7524970 0.00000 0.00000 0.00000
-49.7419430 84.6609880 -29.4320220 0.00000 0.00000 0.00000
-49.6989360 79.6680980 -29.6135560 0.00000 0.00000 0.00000
-49.6973000 78.1447530 -29.3558920 0.00000 0.00000 0.00000
-49.6869740 78.9173510 -29.3890780 0.00000 0.00000 0.00000
-49.6856610 78.7661060 -29.3534370 0.00000 0.00000 0.00000
-49.6849710 78.0040440 -29.2256430 0.00000 0.00000 0.00000
-49.6785430 78.3153460 -29.2192210 0.00000 0.00000 0.00000
-49.6718370 80.4572140 -29.5027890 0.00000 0.00000 0.00000
-49.6575930 79.0984730 -29.1612420 0.00000 0.00000 0.00000
-49.6557460 80.0156100 -29.2916410 0.00000 0.00000 0.00000
-49.6543010 79.8644940 -29.2548560 0.00000 0.00000 0.00000
-49.6511690 80.3252110 -29.3010920 0.00000 0.00000 0.00000
-49.6494600 83.2238690 -29.7490920 0.00000 0.00000 0.00000
-49.6491050 79.5644840 -29.1615200 0.00000 0.00000 0.00000
-49.6458090 81.0931550 -29.3769130 0.00000 0.00000 0.00000
-49.6388020 80.6425700 -29.2436960 0.00000 0.00000 0.00000
-49.6377370 82.4737090 -29.5268520 0.00000 0.00000 0.00000
-49.6368520 81.7121890 -29.3974970 0.00000 0.00000 0.00000
-49.6298410 83.7014240 -29.6538600 0.00000 0.00000 0.00000
-49.6256980 81.8759840 -29.3261590 0.00000 0.00000 0.00000
-49.6218870 82.7948840 -29.4396040 0.00000 0.00000 0.00000
-49.6212230 84.6249310 -29.7260230 0.00000 0.00000 0.00000
-49.6211130 82.0331500 -29.3111930 0.00000 0.00000 0.00000
-49.6185530 84.3228990 -29.6544650 0.00000 0.00000 0.00000
-49.6100390 83.4170230 -29.4354230 0.00000 0.00000 0.00000
-49.6007770 84.7988660 -29.5750920 0.00000 0.00000 0.00000
-49.5893750 82.6756520 -29.1364350 0.00000 0.00000 0.00000
-49.5831300 83.5973740 -29.2290500 0.00000 0.00000 0.00000
-49.5829010 84.0551910 -29.3001370 0.00000 0.00000 0.00000
-49.5278430 79.2262040 -29.4018100 0.00000 0.00000 0.00000
-49.5103420 80.1584850 -29.3979530 0.00000 0.00000 0.00000
-49.4886670 82.3151250 -29.5529790 0.00000 0.00000 0.00000
-49.4805870 81.1032100 -29.2892170 0.00000 0.00000 0.00000
-49.4724160 83.2465590 -29.5598280 0.00000 0.00000 0.00000
-49.4027060 77.8244710 -29.4378170 0.00000 0.00000 0.00000
-49.3973270 78.2871860 -29.4647870 0.00000 0.00000 0.00000
-49.3782200 79.6782910 -29.5202660 0.00000 0.00000 0.00000
-49.3648380 78.0131530 -29.1383880 0.00000 0.00000 0.00000
-49.3644100 80.6068650 -29.5480820 0.00000 0.00000 0.00000
-49.3639600 79.5397030 -29.3741000 0.00000 0.00000 0.00000
-49.3557550 78.7848510 -29.1823730 0.00000 0.00000 0.00000
-49.3491550 77.7228320 -28.9556750 0.00000 0.00000 0.00000
-49.3474620 81.0812070 -29.4762020 0.00000 0.00000 0.00000
-49.3470760 78.1827470 -29.0108830 0.00000 0.00000 0.00000
-49.3444400 79.2535860 -29.1586630 0.00000 0.00000 0.00000
-49.3397520 78.4950410 -28.9969540 0.00000 0.00000 0.00000
-49.3316190 80.0290600 -29.1706960 0.00000 0.00000 0.00000
-49.3302420 79.4200060 -29.0616260 0.00000 0.00000 0.00000
-49.3292850 82.0144810 -29.4667450 0.00000 0.00000 0.00000
-49.3263400 82.9323960 -29.5873680 0.00000 0.00000 0.00000
-49.3245930 79.1202320 -28.9647060 0.00000 0.00000 0.00000
-49.3186040 81.7202000 -29.3269330 0.00000 0.00000 0.00000
-49.3162160 80.9597930 -29.1849770 0.00000 0.00000 0.00000
-49.3120730 82.1844020 -29.3440590 0.00000 0.00000 0.00000
-49.3119810 81.5743030 -29.2460350 0.00000 0.00000 0.00000
-49.3093640 84.6269230 -29.7095660 0.00000 0.00000 0.00000
-49.3084490 82.6456600 -29.3860170 0.00000 0.00000 0.00000
-49.3080940 84.0184560 -29.6015950 0.00000 0.00000 0.00000
-49.3040350 82.4976270 -29.3240240 0.00000 0.00000 0.00000
-49.3025250 83.1092680 -29.4083310 0.00000 0.00000 0.00000
-49.2953950 83.5741350 -29.4203360 0.00000 0.00000 0.00000
-49.2832760 84.5017240 -29.4626430 0.00000 0.00000 0.00000
-49.2815280 84.8085330 -29.4962790 0.00000 0.00000 0.00000
-49.2679440 84.3652040 -29.3074820 0.00000 0.00000 0.00000
-49.2227820 78.3056490 -29.2974680 0.00000 0.00000 0.00000
-49.2156300 79.0753480 -29.3579240 0.00000 0.00000 0.00000
-49.2104110 79.5380630 -29.3862900 0.00000 0.00000 0.00000
-49.1887630 79.7117390 -29.2259790 0.00000 0.00000 0.00000
-49.1845130 80.4787670 -29.3111840 0.00000 0.00000 0.00000
-49.1769710 78.6548080 -28.9553300 0.00000 0.00000 0.00000
-49.1689760 84.0019530 -29.7369540 0.00000 0.00000 0.00000
-49.1530040 81.1203080 -29.1397020 0.00000 0.00000 0.00000
-49.1357770 84.3413390 -29.5027120 0.00000 0.00000 0.00000
-49.1201930 82.6793210 -29.1029680 0.00000 0.00000 0.00000
-49.1135290 84.2119220 -29.2889690 0.00000 0.00000 0.00000
-49.1126900 83.9076770 -29.2332630 0.00000 0.00000 0.00000
-49.0597460 78.4656220 -29.2532520 0.00000 0.00000 0.00000
-49.0464060 78.9362260 -29.2125070 0.00000 0.00000 0.00000
-49.0357670 79.8620990 -29.2675760 0.00000 0.00000 0.00000
-49.0338590 80.1691210 -29.2998640 0.00000 0.00000 0.00000
-49.0283390 82.3100740 -29.5924030 0.00000 0.00000 0.00000
-49.0263210 77.7342000 -28.8473430 0.00000 0.00000 0.00000
-49.0238760 81.0943600 -29.3604810 0.00000 0.00000 0.00000
-49.0218160 80.4861070 -29.2459390 0.00000 0.00000 0.00000
-49.0214230 81.5544430 -29.4123520 0.00000 0.00000 0.00000
-49.0199580 81.7084500 -29.4241660 0.00000 0.00000 0.00000
-49.0157550 79.1184160 -28.9759370 0.00000 0.00000 0.00000
-49.0125160 83.8509830 -29.7001930 0.00000 0.00000 0.00000
-49.0124090 80.6479720 -29.1901760 0.00000 0.00000 0.00000
-49.0120320 83.5465470 -29.6476440 0.00000 0.00000 0.00000
-49.0078120 79.4314190 -28.9569130 0.00000 0.00000 0.00000
-49.0022390 81.8787610 -29.2977290 0.00000 0.00000 0.00000
-49.0004230 82.1857150 -29.3307780 0.00000 0.00000 0.00000
-48.9942590 80.3605960 -28.9872190 0.00000 0.00000 0.00000
-48.9931370 82.4981920 -29.3173220 0.00000 0.00000 0.00000
-48.9898800 83.1117020 -29.3866290 0.00000 0.00000 0.00000
-48.9829480 82.9662170 -29.3034460 0.00000 0.00000 0.00000
-48.9825820 84.0343630 -29.4700090 0.00000 0.00000 0.00000
-48.9789160 81.4442900 -29.0266020 0.00000 0.00000 0.00000
-48.9672050 84.5078660 -29.4120430 0.00000 0.00000 0.00000
-48.9599080 83.2948910 -29.1560780 0.00000 0.00000 0.00000
-48.9521370 84.6760860 -29.3082470 0.00000 0.00000 0.00000
-48.9492110 83.7636570 -29.1378900 0.00000 0.00000 0.00000
-48.9481850 84.8327640 -29.2989040 0.00000 0.00000 0.00000
-48.9204670 78.6028670 -29.4111390 0.00000 0.00000 0.00000
-48.9010200 79.5369800 -29.3913960 0.00000 0.00000 0.00000
-48.8860660 78.0251850 -29.0220010 0.00000 0.00000 0.00000
-48.8737560 78.4949040 -28.9901790 0.00000 0.00000 0.00000
-48.8679960 79.2637180 -29.0625270 0.00000 0.00000 0.00000
-48.8631630 78.8103870 -28.9487290 0.00000 0.00000 0.00000
-48.8486900 81.1141430 -29.1894930 0.00000 0.00000 0.00000
-48.8437960 82.6448360 -29.3902070 0.00000 0.00000 0.00000
-48.8420640 82.7991410 -29.3997440 0.00000 0.00000 0.00000
-48.8262670 83.7305300 -29.4110430 0.00000 0.00000 0.00000
-48.8009000 84.8245850 -29.3654170 0.00000 0.00000 0.00000
-48.7383840 79.6966860 -29.3510650 0.00000 0.00000 0.00000
-48.7303620 79.3992540 -29.2346610 0.00000 0.00000 0.00000
-48.7264790 78.6398090 -29.0806750 0.00000 0.00000 0.00000
-48.7256200 80.4720380 -29.3639580 0.00000 0.00000 0.00000
-48.7244910 81.0834120 -29.4511910 0.00000 0.00000 0.00000
-48.7239990 78.3368380 -29.0112170 0.00000 0.00000 0.00000
-48.7223170 77.8803710 -28.9242970 0.00000 0.00000 0.00000
-48.7211880 79.2554780 -29.1327230 0.00000 0.00000 0.00000
-48.7188300 78.1890640 -28.9432070 0.00000 0.00000 0.00000
-48.7123950 78.8059390 -28.9855460 0.00000 0.00000 0.00000
-48.7116850 80.6382980 -29.2701280 0.00000 0.00000 0.00000
-48.7027970 83.5455860 -29.6544880 0.00000 0.00000 0.00000
-48.6996960 81.8708720 -29.3621790 0.00000 0.00000 0.00000
-48.6984560 79.5827330 -28.9885690 0.00000 0.00000 0.00000
-48.6974830 81.7204970 -29.3192520 0.00000 0.00000 0.00000
-48.6951070 83.8584520 -29.6377680 0.00000 0.00000 0.00000
-48.6945610 80.8077550 -29.1492860 0.00000 0.00000 0.00000
-48.6926840 78.9775160 -28.8427680 0.00000 0.00000 0.00000
-48.6890790 80.2025380 -29.0060120 0.00000 0.00000 0.00000
-48.6889950 79.8972700 -28.9568410 0.00000 0.00000 0.00000
-48.6881980 81.2719190 -29.1680050 0.00000 0.00000 0.00000
-48.6851270 82.1906200 -29.2872180 0.00000 0.00000 0.00000
-48.6815450 81.4311450 -29.1358870 0.00000 0.00000 0.00000
-48.6810950 82.6524280 -29.3256820 0.00000 0.00000 0.00000
-48.6680410 83.1233900 -29.2877790 0.00000 0.00000 0.00000
-48.6618420 84.0451660 -29.3804320 0.00000 0.00000 0.00000
-48.6615640 82.9773790 -29.2087330 0.00000 0.00000 0.00000
-48.6551360 83.4417190 -29.2269290 0.00000 0.00000 0.00000
-48.6503640 84.3621220 -29.3317010 0.00000 0.00000 0.00000
-48.6416400 84.8288730 -29.3304290 0.00000 0.00000 0.00000
-48.6022830 78.4574660 -29.3177800 0.00000 0.00000 0.00000
-48.6004750 78.0013280 -29.2299040 0.00000 0.00000 0.00000
-48.5778960 80.0069120 -29.3533920 0.00000 0.00000 0.00000
-48.5759050 79.8562470 -29.3123680 0.00000 0.00000 0.00000
-48.5733530 80.7742540 -29.4358630 0.00000 0.00000 0.00000
-48.5633740 79.4104770 -29.1338920 0.00000 0.00000 0.00000
-48.5472260 83.0885160 -29.5775830 0.00000 0.00000 0.00000
-48.5449140 82.4806980 -29.4614140 0.00000 0.00000 0.00000
-48.5433460 82.9399110 -29.5206600 0.00000 0.00000 0.00000
-48.5289650 84.6323170 -29.6648880 0.00000 0.00000 0.00000
-48.5123100 81.2922740 -28.9925400 0.00000 0.00000 0.00000
-48.5118220 81.4454350 -29.0126020 0.00000 0.00000 0.00000
-48.4901050 83.9095690 -29.2159560 0.00000 0.00000 0.00000
-48.3838230 79.2810060 -28.9035220 0.00000 0.00000 0.00000
-48.3834570 82.7921140 -29.4559650 0.00000 0.00000 0.00000
-48.3816530 79.7412260 -28.9577270 0.00000 0.00000 0.00000
-48.3809090 82.0317460 -29.3137910 0.00000 0.00000 0.00000
-48.3749960 80.9691700 -29.0948620 0.00000 0.00000 0.00000
-48.3737790 83.2595900 -29.4468170 0.00000 0.00000 0.00000
-48.3727870 82.4976810 -29.3177510 0.00000 0.00000 0.00000
-48.3719220 84.7868350 -29.6724410 0.00000 0.00000 0.00000
-48.3684840 84.4853590 -29.5952360 0.00000 0.00000 0.00000
-48.3658710 84.0304410 -29.5008390 0.00000 0.00000 0.00000
-48.3653340 81.5893400 -29.1100200 0.00000 0.00000 0.00000
-48.3637960 83.5748750 -29.4109520 0.00000 0.00000 0.00000
-48.3549350 82.9734800 -29.2396950 0.00000 0.00000 0.00000
-48.3538970 83.4323580 -29.3033890 0.00000 0.00000 0.00000
-48.3525700 81.4493030 -28.9782280 0.00000 0.00000 0.00000
-48.3469700 83.8972090 -29.3174080 0.00000 0.00000 0.00000
-48.3460120 81.7611770 -28.9712560 0.00000 0.00000 0.00000
-48.3308370 84.2189480 -29.2297710 0.00000 0.00000 0.00000
-48.3240470 84.6837770 -29.2449740 0.00000 0.00000 0.00000
-48.2882540 78.6132200 -29.3088130 0.00000 0.00000 0.00000
-48.2671130 79.5492020 -29.2756210 0.00000 0.00000 0.00000
-48.2571910 80.0166780 -29.2644790 0.00000 0.00000 0.00000
-48.2502780 81.3969350 -29.4234200 0.00000 0.00000 0.00000
-48.2491230 80.6350330 -29.2930890 0.00000 0.00000 0.00000
-48.2439770 78.0442890 -28.8393960 0.00000 0.00000 0.00000
-48.2428280 78.8090360 -28.9504930 0.00000 0.00000 0.00000
-48.2381130 82.4770740 -29.4898660 0.00000 0.00000 0.00000
-48.2373240 82.1727140 -29.4350030 0.00000 0.00000 0.00000
-48.2318080 81.7203980 -29.3162380 0.00000 0.00000 0.00000
-48.2273250 79.2820050 -28.8924080 0.00000 0.00000 0.00000
-48.2209970 81.1205060 -29.1287800 0.00000 0.00000 0.00000
-48.1864780 82.0707170 -28.9831390 0.00000 0.00000 0.00000
-48.1856690 83.2928920 -29.1693480 0.00000 0.00000 0.00000
-48.1634980 84.8419040 -29.2240870 0.00000 0.00000 0.00000
-48.1265450 78.3138810 -29.2048870 0.00000 0.00000 0.00000
-48.1124730 79.2432020 -29.2313040 0.00000 0.00000 0.00000
-48.1045720 80.9297490 -29.4300540 0.00000 0.00000 0.00000
-48.1027720 77.7253720 -28.9086380 0.00000 0.00000 0.00000
-48.0956730 81.2436750 -29.4034920 0.00000 0.00000 0.00000
-48.0949480 81.8547590 -29.4937630 0.00000 0.00000 0.00000
-48.0629840 83.7177120 -29.5144900 0.00000 0.00000 0.00000
-48.0494190 81.7471920 -29.0874460 0.00000 0.00000 0.00000
-48.0381740 81.1474300 -28.8966160 0.00000 0.00000 0.00000
-48.0329090 83.5956340 -29.2380240 0.00000 0.00000 0.00000
-48.0135190 83.3099210 -29.0271300 0.00000 0.00000 0.00000
-48.0056690 84.3866350 -29.1299340 0.00000 0.00000 0.00000
-47.9664920 78.7762530 -29.2357040 0.00000 0.00000 0.00000
-47.9616360 79.2388530 -29.2672350 0.00000 0.00000 0.00000
-47.9615170 78.1702040 -29.0976470 0.00000 0.00000 0.00000
-47.9519200 78.4846420 -29.0653500 0.00000 0.00000 0.00000
-47.9438970 80.3244630 -29.2870850 0.00000 0.00000 0.00000
-47.9391170 79.7183990 -29.1507300 0.00000 0.00000 0.00000
-47.9346620 81.2492750 -29.3541430 0.00000 0.00000 0.00000
-47.9327240 78.0444560 -28.8320980 0.00000 0.00000 0.00000
-47.9303700 80.6428910 -29.2218820 0.00000 0.00000 0.00000
-47.9302410 79.1160510 -28.9799730 0.00000 0.00000 0.00000
-47.9301610 82.1693950 -29.4608150 0.00000 0.00000 0.00000
-47.9252010 79.5790330 -29.0100080 0.00000 0.00000 0.00000
-47.9234700 80.1915360 -29.0918250 0.00000 0.00000 0.00000
-47.9105720 81.1202160 -29.1282180 0.00000 0.00000 0.00000
-47.9049220 84.1783370 -29.5621620 0.00000 0.00000 0.00000
-47.9022900 81.4337080 -29.1069740 0.00000 0.00000 0.00000
-47.8995210 82.9630360 -29.3244920 0.00000 0.00000 0.00000
-47.8977890 80.8272860 -28.9729400 0.00000 0.00000 0.00000
-47.8929820 83.7327190 -29.3900240 0.00000 0.00000 0.00000
-47.8800770 82.5245060 -29.0894220 0.00000 0.00000 0.00000
-47.8669550 84.8275830 -29.3405080 0.00000 0.00000 0.00000
-47.8613360 83.9174730 -29.1491110 0.00000 0.00000 0.00000
-47.8606220 82.3911740 -28.9023970 0.00000 0.00000 0.00000
-47.8007930 77.7169040 -28.9787860 0.00000 0.00000 0.00000
-47.7927780 79.4043350 -29.1764510 0.00000 0.00000 0.00000
-47.7714920 78.6608730 -28.8780750 0.00000 0.00000 0.00000
-47.7664720 78.8183820 -28.8601190 0.00000 0.00000 0.00000
-47.7501680 80.2087550 -28.9403740 0.00000 0.00000 0.00000
-47.7437930 83.4213640 -29.3920920 0.00000 0.00000 0.00000
-47.7421380 84.7963710 -29.5944880 0.00000 0.00000 0.00000
-47.7377930 84.6482540 -29.5341660 0.00000 0.00000 0.00000
-47.7328070 82.0583880 -29.0838890 0.00000 0.00000 0.00000
-47.7099490 83.6081470 -29.1332990 0.00000 0.00000 0.00000
-47.7038730 83.9196620 -29.1306250 0.00000 0.00000 0.00000
-47.6995930 84.3820420 -29.1669860 0.00000 0.00000 0.00000
-47.6664960 77.8498840 -29.1772670 0.00000 0.00000 0.00000
-47.6459270 78.7853850 -29.1497630 0.00000 0.00000 0.00000
-47.6456570 79.5491030 -29.2676640 0.00000 0.00000 0.00000
-47.6395800 80.0129320 -29.2890220 0.00000 0.00000 0.00000
-47.6371500 79.2518080 -29.1485900 0.00000 0.00000 0.00000
-47.6358450 77.7256240 -28.8973010 0.00000 0.00000 0.00000
-47.6320760 78.0346760 -28.9139190 0.00000 0.00000 0.00000
-47.6293030 78.4955600 -28.9628960 0.00000 0.00000 0.00000
-47.6241380 78.9586790 -28.9918800 0.00000 0.00000 0.00000
-47.6047480 82.1840820 -29.3346520 0.00000 0.00000 0.00000
-47.6038670 82.9481200 -29.4473760 0.00000 0.00000 0.00000
-47.6031880 80.6587750 -29.0814400 0.00000 0.00000 0.00000
-47.5970460 83.7180100 -29.5105190 0.00000 0.00000 0.00000
-47.5962560 83.4135970 -29.4559210 0.00000 0.00000 0.00000
-47.5949750 81.5830150 -29.1570450 0.00000 0.00000 0.00000
-47.5944560 81.2781220 -29.1046700 0.00000 0.00000 0.00000
-47.5916100 79.9061890 -28.8646160 0.00000 0.00000 0.00000
-47.5911060 81.7395020 -29.1488250 0.00000 0.00000 0.00000
-47.5888600 83.1157610 -29.3462350 0.00000 0.00000 0.00000
-47.5797310 80.9870000 -28.9337560 0.00000 0.00000 0.00000
-47.5771710 80.8367230 -28.8883630 0.00000 0.00000 0.00000
-47.5741200 84.8095250 -29.4873810 0.00000 0.00000 0.00000
-47.5734210 82.3677600 -29.0973780 0.00000 0.00000 0.00000
-47.5730710 80.5351330 -28.8060760 0.00000 0.00000 0.00000
-47.5687220 81.9142380 -28.9861200 0.00000 0.00000 0.00000
-47.5679170 81.4567790 -28.9073100 0.00000 0.00000 0.00000
-47.5420760 82.7043460 -28.8840030 0.00000 0.00000 0.00000
-47.5379260 84.0831220 -29.0655900 0.00000 0.00000 0.00000
-47.5257420 84.7063520 -29.0601060 0.00000 0.00000 0.00000
-47.4927830 78.0195310 -29.0466350 0.00000 0.00000 0.00000
-47.4867590 79.8577730 -29.2845650 0.00000 0.00000 0.00000
-47.4840200 78.3332060 -29.0216580 0.00000 0.00000 0.00000
-47.4543760 79.5832060 -28.9668180 0.00000 0.00000 0.00000
-47.4532930 77.7506030 -28.6695330 0.00000 0.00000 0.00000
-47.4458120 78.6745610 -28.7513750 0.00000 0.00000 0.00000
-47.4362110 78.2250290 -28.5992970 0.00000 0.00000 0.00000
-47.4344480 80.0605390 -28.8729110 0.00000 0.00000 0.00000
-47.4271050 82.9695360 -29.2678070 0.00000 0.00000 0.00000
-47.4168130 84.6590350 -29.4459530 0.00000 0.00000 0.00000
-47.4066010 82.3790660 -29.0011690 0.00000 0.00000 0.00000
-47.3841210 83.4706500 -28.9820790 0.00000 0.00000 0.00000
-47.3798290 83.3221970 -28.9223750 0.00000 0.00000 0.00000
-47.3796080 83.7806630 -28.9925350 0.00000 0.00000 0.00000
-47.3212360 79.2565000 -29.1026730 0.00000 0.00000 0.00000
-47.3155780 78.3452300 -28.9117030 0.00000 0.00000 0.00000
-47.3133350 78.0417180 -28.8450470 0.00000 0.00000 0.00000
-47.3111000 80.9460370 -29.2821690 0.00000 0.00000 0.00000
-47.3103370 79.5723110 -29.0600430 0.00000 0.00000 0.00000
