# .PCD v0.7 - Point Cloud Data file format
VERSION 0.7
FIELDS x y z rgb
SIZE 4 4 4 4
TYPE F F F U
COUNT 1 1 1 1
WIDTH 1120
HEIGHT 1
VIEWPOINT 0 0 0 1 0 0 0
POINTS 1120
DATA ascii
-25.93767 9.1886406 -22.594669 4294967295
-25.926073 9.6557941 -22.584064 4294967295
-25.923666 12.146833 -22.914307 4294967295
-25.916281 10.123004 -22.585201 4294967295
-25.897095 10.590347 -22.525206 4294967295
-25.873047 11.992403 -22.563366 4294967295
-25.869661 12.459678 -22.606218 4294967295
-25.867533 12.771181 -22.635612 4294967295
-25.855879 6.5393057 -22.719721 4294967295
-25.851448 7.4733362 -22.820553 4294967295
-25.848869 7.1618967 -22.760571 4294967295
-25.839746 8.7184753 -22.917284 4294967295
-25.837969 9.0297604 -22.948936 4294967295
-25.815268 6.6937218 -22.477238 4294967295
-25.813675 8.0953712 -22.6614 4294967295
-25.799553 7.6278787 -22.504751 4294967295
-25.797604 11.520163 -23.032185 4294967295
-25.79225 9.807972 -22.759813 4294967295
-25.790697 9.1851454 -22.663296 4294967295
-25.78616 9.3408432 -22.65542 4294967295
-25.785486 10.275067 -22.780678 4294967295
-25.780207 8.5621014 -22.508677 4294967295
-25.779943 10.586484 -22.78787 4294967295
-25.77314 10.742241 -22.765266 4294967295
-25.767445 12.610312 -22.987459 4294967295
-25.761068 9.4965048 -22.513966 4294967295
-25.760105 8.8734293 -22.421246 4294967295
-25.759735 9.9637499 -22.570141 4294967295
-25.7565 11.209553 -22.721979 4294967295
-25.743591 12.299683 -22.789351 4294967295
-25.74358 11.365478 -22.659653 4294967295
-25.733238 11.832836 -22.657295 4294967295
-25.728575 10.431186 -22.432499 4294967295
-25.698307 13.235366 -22.624897 4294967295
-25.695866 12.768245 -22.544214 4294967295
-25.68441 6.8466249 -22.671984 4294967295
-25.675032 8.5591497 -22.848595 4294967295
-25.674482 7.6249623 -22.7155 4294967295
-25.635988 8.0914249 -22.530436 4294967295
-25.634705 7.3125253 -22.414101 4294967295
-25.619963 7.0005164 -22.2752 4294967295
-25.600691 9.6487226 -22.51737 4294967295
-25.581867 11.206361 -22.611212 4294967295
-25.575039 10.739199 -22.502146 4294967295
-25.538216 7.3104186 -22.80994 4294967295
-25.529545 6.3758345 -22.624281 4294967295
-25.528502 6.9987378 -22.703835 4294967295
-25.522396 6.6870856 -22.621105 4294967295
-25.512123 6.5309963 -22.53294 4294967295
-25.506664 8.3997297 -22.756512 4294967295
-25.495182 7.1535673 -22.509472 4294967295
-25.493191 7.9323244 -22.604479 4294967295
-25.493107 7.7765718 -22.582357 4294967295
-25.491369 6.8418961 -22.441591 4294967295
-25.483501 10.1123 -22.843769 4294967295
-25.47991 9.8009195 -22.777365 4294967295
-25.478947 9.1780558 -22.684822 4294967295
-25.472342 8.2434902 -22.512554 4294967295
-25.471809 11.513477 -22.962156 4294967295
-25.469397 11.202192 -22.903402 4294967295
-25.466558 12.447464 -23.05755 4294967295
-25.46599 9.0222321 -22.579308 4294967295
-25.465956 11.35792 -22.902697 4294967295
-25.460012 10.423839 -22.734793 4294967295
-25.455038 10.891018 -22.767296 4294967295
-25.449278 9.3336639 -22.514214 4294967295
-25.449106 11.825282 -22.858307 4294967295
-25.44306 9.6451893 -22.517109 4294967295
-25.435871 13.226682 -22.966738 4294967295
-25.427574 12.604275 -22.826773 4294967295
-25.420532 12.293077 -22.738045 4294967295
-25.411108 13.071898 -22.784901 4294967295
-25.409573 11.047359 -22.494478 4294967295
-25.406765 10.735829 -22.43313 4294967295
-25.39637 12.916691 -22.667946 4294967295
-25.382597 11.670964 -22.406153 4294967295
-25.335667 9.3302889 -22.798685 4294967295
-25.308783 11.977127 -22.991268 4294967295
-25.307568 8.8628979 -22.552277 4294967295
-25.304821 7.4606967 -22.34038 4294967295
-25.286444 10.108955 -22.588194 4294967295
-25.274851 10.576311 -22.577938 4294967295
-25.220541 12.913918 -22.550356 4294967295
-25.220346 12.135023 -22.441277 4294967295
-25.204496 7.4584069 -22.710461 4294967295
-25.198019 7.7697372 -22.711714 4294967295
-25.193705 6.9908667 -22.576109 4294967295
-25.182978 8.5481653 -22.722298 4294967295
-25.177458 6.8346062 -22.449606 4294967295
-25.177225 8.7038355 -22.706697 4294967295
-25.17168 9.7938614 -22.821703 4294967295
-25.167967 10.10528 -22.840805 4294967295
-25.164455 7.9248457 -22.516491 4294967295
-25.161919 9.3266764 -22.694046 4294967295
-25.16176 6.3666263 -22.283525 4294967295
-25.161043 9.0151806 -22.645308 4294967295
-25.154596 8.0804605 -22.474375 4294967295
-25.147753 8.8593082 -22.537947 4294967295
-25.146004 10.728277 -22.785212 4294967295
-25.136667 11.195544 -22.789568 4294967295
-25.13582 9.1707878 -22.504007 4294967295
-25.128622 9.4823351 -22.500628 4294967295
-25.127182 11.351418 -22.749893 4294967295
-25.12224 12.597183 -22.890329 4294967295
-25.109985 12.130405 -22.746641 4294967295
-25.097857 12.909364 -22.776087 4294967295
-25.09726 11.663466 -22.599901 4294967295
-25.096058 10.57301 -22.441288 4294967295
-25.093697 10.261408 -22.382938 4294967295
-25.09206 11.975102 -22.609442 4294967295
-25.08865 11.507864 -22.522789 4294967295
-25.087358 13.22117 -22.751455 4294967295
-25.075491 12.287055 -22.54563 4294967295
-25.071629 6.3652935 -22.718874 4294967295
-25.070299 11.040751 -22.339705 4294967295
-25.049234 6.9875817 -22.660566 4294967295
-25.043776 12.755363 -22.405655 4294967295
-25.042351 13.067022 -22.439577 4294967295
-24.9849 8.5440903 -22.461094 4294967295
-24.984831 6.5181465 -22.180582 4294967295
-24.977676 7.1414213 -22.220636 4294967295
-24.962267 7.7645335 -22.207455 4294967295
-24.957365 8.0761795 -22.218945 4294967295
-24.946791 11.192581 -22.581585 4294967295
-24.895271 12.440063 -22.42197 4294967295
-24.868689 7.1390715 -22.534092 4294967295
-24.868158 7.2948508 -22.552198 4294967295
-24.864981 6.8273582 -22.467165 4294967295
-24.85339 8.8523512 -22.672312 4294967295
-24.850706 8.3850107 -22.590487 4294967295
-24.847775 7.6059752 -22.464016 4294967295
-24.839874 6.5148883 -22.262455 4294967295
-24.833179 9.942584 -22.692867 4294967295
-24.825558 9.007906 -22.514711 4294967295
-24.823532 8.6962748 -22.458633 4294967295
-24.817099 10.254171 -22.632425 4294967295
-24.816862 12.123009 -22.889036 4294967295
-24.806921 9.319418 -22.43783 4294967295
-24.803694 10.098454 -22.524668 4294967295
-24.800447 12.746296 -22.869503 4294967295
-24.794563 8.228363 -22.207592 4294967295
-24.794333 10.565902 -22.528999 4294967295
-24.793447 9.6310329 -22.394178 4294967295
-24.786842 10.721773 -22.502331 4294967295
-24.777788 11.50088 -22.551693 4294967295
-24.776888 11.656684 -22.567417 4294967295
-24.773064 11.189364 -22.478268 4294967295
-24.768526 12.280002 -22.599701 4294967295
-24.760302 13.214858 -22.675909 4294967295
-24.758408 12.591846 -22.577671 4294967295
-24.726692 12.904452 -22.416779 4294967295
-24.721853 7.291491 -22.624846 4294967295
-24.714975 8.3817186 -22.731152 4294967295
-24.713511 13.06073 -22.353537 4294967295
-24.712358 6.3563838 -22.434771 4294967295
-24.710539 7.7585759 -22.616629 4294967295
-24.702169 9.1603394 -22.756357 4294967295
-24.69853 8.2257109 -22.603975 4294967295
-24.672686 8.0694838 -22.416376 4294967295
-24.665592 11.340859 -22.822348 4294967295
-24.664009 10.406404 -22.683203 4294967295
-24.656176 10.873765 -22.697384 4294967295
-24.649815 11.808362 -22.785513 4294967295
-24.622759 12.587786 -22.719286 4294967295
-24.578585 6.8208919 -22.652372 4294967295
-24.525597 7.9102297 -22.462788 4294967295
-24.511831 8.0658197 -22.395966 4294967295
-24.507759 10.870174 -22.756639 4294967295
-24.5061 6.9746137 -22.208694 4294967295
-24.501448 10.247158 -22.630228 4294967295
-24.500212 9.7797823 -22.557846 4294967295
-24.49876 7.5979767 -22.247601 4294967295
-24.494127 11.493391 -22.755156 4294967295
-24.492186 9.1564817 -22.420397 4294967295
-24.489902 10.558818 -22.599167 4294967295
-24.485703 8.5330095 -22.292822 4294967295
-24.479176 8.8446798 -22.293959 4294967295
-24.476175 11.18215 -22.597105 4294967295
-24.468899 10.714826 -22.485973 4294967295
-24.465038 10.091516 -22.375252 4294967295
-24.464636 11.338135 -22.544598 4294967295
-24.461634 8.6886225 -22.159924 4294967295
-24.456078 9.3121691 -22.210297 4294967295
-24.446268 12.584947 -22.598755 4294967295
-24.439701 12.117714 -22.492203 4294967295
-24.431124 13.052819 -22.566147 4294967295
-24.428331 11.650464 -22.354836 4294967295
-24.427044 12.741339 -22.497032 4294967295
-24.406422 6.8167901 -22.559086 4294967295
-24.400908 6.5049744 -22.480801 4294967295
-24.38085 6.3484426 -22.33079 4294967295
-24.366432 7.2831931 -22.367313 4294967295
-24.362736 6.9713597 -22.300659 4294967295
-24.331038 9.464592 -22.441332 4294967295
-24.321085 7.5939074 -22.11978 4294967295
-24.294184 12.737164 -22.656363 4294967295
-24.293657 13.048738 -22.695917 4294967295
-24.187912 9.1494265 -22.49173 4294967295
-24.184986 8.3701477 -22.365702 4294967295
-24.184561 10.084345 -22.599058 4294967295
-24.179451 9.7727242 -22.523487 4294967295
-24.179356 11.019156 -22.694527 4294967295
-24.178299 7.9023995 -22.258533 4294967295
-24.176966 8.0582676 -22.271486 4294967295
-24.174755 10.707629 -22.622211 4294967295
-24.165091 8.2139711 -22.21701 4294967295
-24.164476 9.4610233 -22.384829 4294967295
-24.15941 8.6815968 -22.245104 4294967295
-24.150015 11.331202 -22.549927 4294967295
-24.14473 9.3050776 -22.237123 4294967295
-24.139454 10.552134 -22.375132 4294967295
-24.137737 11.954717 -22.557316 4294967295
-24.137518 13.201078 -22.727537 4294967295
-24.133955 10.863914 -22.382919 4294967295
-24.131763 12.578115 -22.604963 4294967295
-24.129837 12.889774 -22.635571 4294967295
-24.120363 12.422627 -22.510685 4294967295
-24.114561 12.734453 -22.516531 4294967295
-24.113791 13.046121 -22.554525 4294967295
-24.107454 6.3425236 -22.599033 4294967295
-24.077639 6.9648962 -22.494398 4294967295
-24.06797 7.5880065 -22.518446 4294967295
-24.065643 8.522891 -22.632246 4294967295
-24.051344 6.8082647 -22.305019 4294967295
-24.046803 6.4963245 -22.233107 4294967295
-24.038755 8.8342495 -22.5035 4294967295
-24.037361 6.6519313 -22.194271 4294967295
-24.031387 10.080811 -22.628021 4294967295
-24.015789 7.119082 -22.120876 4294967295
-24.012205 11.638985 -22.720011 4294967295
-23.987009 11.951122 -22.602158 4294967295
-23.972643 12.107287 -22.531961 4294967295
-23.970594 9.7692242 -22.197147 4294967295
-23.967152 10.392866 -22.260994 4294967295
-23.944078 6.4944644 -22.58396 4294967295
-23.936197 11.17276 -22.170763 4294967295
-23.894407 7.739892 -22.438728 4294967295
-23.854996 8.2068453 -22.251816 4294967295
-23.853954 8.3627367 -22.266624 4294967295
-23.852123 9.6098051 -22.426445 4294967295
-23.841318 11.479987 -22.614763 4294967295
-23.838251 10.389158 -22.445227 4294967295
-23.830965 8.8302212 -22.18442 4294967295
-23.827101 11.012704 -22.459915 4294967295
-23.824627 11.791967 -22.551304 4294967295
-23.823673 9.1420202 -22.180845 4294967295
-23.820988 12.259536 -22.592407 4294967295
-23.819317 10.70106 -22.36746 4294967295
-23.804741 11.324777 -22.360355 4294967295
-23.80258 10.077563 -22.175079 4294967295
-23.797283 9.7656994 -22.098454 4294967295
-23.795795 13.195272 -22.560555 4294967295
-23.788679 11.169134 -22.236612 4294967295
-23.782354 12.572308 -22.389254 4294967295
-23.776253 10.545549 -22.071686 4294967295
-23.772804 6.4903312 -22.497366 4294967295
-23.771444 6.6461406 -22.51012 4294967295
-23.76651 11.637285 -22.159725 4294967295
-23.761408 12.728828 -22.277302 4294967295
-23.75205 12.885033 -22.239162 4294967295
-23.739618 8.6714172 -22.585964 4294967295
-23.738008 7.8921576 -22.468641 4294967295
-23.729933 7.5802455 -22.374407 4294967295
-23.729635 6.3329735 -22.201117 4294967295
-23.704521 9.9179764 -22.533989 4294967295
-23.700977 8.2032976 -22.275822 4294967295
-23.699028 6.7998228 -22.070562 4294967295
-23.690819 8.3590641 -22.232609 4294967295
-23.689714 6.9555192 -22.032719 4294967295
-23.686941 8.9826775 -22.293633 4294967295
-23.677265 7.7350597 -22.060642 4294967295
-23.662056 12.723616 -22.649347 4294967295
-23.652834 9.2943325 -22.119486 4294967295
-23.607445 7.1098495 -22.534348 4294967295
-23.600151 12.413696 -22.212963 4294967295
-23.516317 10.382192 -22.404903 4294967295
-23.515598 10.693957 -22.443148 4294967295
-23.514313 10.226315 -22.37077 4294967295
-23.497562 11.005937 -22.371429 4294967295
-23.496754 12.408772 -22.558907 4294967295
-23.493338 8.3549128 -21.980593 4294967295
-23.49218 12.720592 -22.572672 4294967295
-23.483017 11.785642 -22.386103 4294967295
-23.482361 13.032599 -22.553144 4294967295
-23.481058 12.097456 -22.416479 4294967295
-23.478868 11.31802 -22.295559 4294967295
-23.471462 9.914608 -22.055828 4294967295
-23.471426 10.850347 -22.184076 4294967295
-23.462765 10.070611 -22.022005 4294967295
-23.457441 6.482965 -22.497795 4294967295
-23.453522 12.254053 -22.263096 4294967295
-23.447643 11.474494 -22.118721 4294967295
-23.424652 7.4173141 -22.418091 4294967295
-23.422571 6.9495625 -22.34071 4294967295
-23.414948 7.7288847 -22.399302 4294967295
-23.412907 9.2875452 -22.600229 4294967295
-23.403666 8.9757786 -22.498861 4294967295
-23.402628 6.7930541 -22.192787 4294967295
-23.392393 8.0402765 -22.299017 4294967295
-23.381628 8.819706 -22.337709 4294967295
-23.38105 8.1960163 -22.248461 4294967295
-23.380253 7.1043386 -22.093624 4294967295
-23.355021 10.22281 -22.3615 4294967295
-23.347458 9.9110088 -22.270775 4294967295
-23.33526 8.6632977 -22.022238 4294967295
-23.328684 10.534827 -22.237318 4294967295
-23.321318 9.5991163 -22.062225 4294967295
-23.275 6.6343765 -22.362671 4294967295
-23.243452 6.4774189 -22.141439 4294967295
-23.235382 8.504427 -22.368269 4294967295
-23.209997 7.8802719 -22.121996 4294967295
-23.181215 13.337002 -22.687904 4294967295
-23.178507 12.402019 -22.54258 4294967295
-23.177616 9.9075041 -22.194954 4294967295
-23.17437 12.713861 -22.559143 4294967295
-23.170572 10.219434 -22.193119 4294967295
-23.162148 13.025985 -22.524553 4294967295
-23.160442 11.311134 -22.278671 4294967295
-23.137663 10.531605 -22.027592 4294967295
-23.124443 12.247555 -22.179155 4294967295
-23.121319 6.3189926 -22.345942 4294967295
-23.093441 6.6299486 -22.212347 4294967295
-23.072969 8.5007763 -22.339272 4294967295
-23.070482 8.18888 -22.280819 4294967295
-23.069874 8.0329285 -22.255617 4294967295
-23.067997 10.215632 -22.542795 4294967295
-23.067726 8.656641 -22.327492 4294967295
-23.067553 7.0971007 -22.112726 4294967295
-23.042875 8.8123369 -22.191751 4294967295
-23.037233 7.87637 -22.027859 4294967295
-23.036682 9.4361181 -22.23807 4294967295
-23.036634 9.7480049 -22.280502 4294967295
-23.036301 8.3443384 -22.086079 4294967295
-23.034218 6.9401741 -21.880529 4294967295
-23.027342 7.5641379 -21.922565 4294967295
-23.015493 10.839682 -22.29644 4294967295
-23.012833 9.2800627 -22.065954 4294967295
-23.009138 12.243029 -22.448524 4294967295
-23.008554 11.463497 -22.338043 4294967295
-23.00383 10.683862 -22.201384 4294967295
-22.992783 11.9316 -22.302485 4294967295
-22.970114 12.399993 -22.223377 4294967295
-22.965271 7.0949254 -22.463753 4294967295
-22.960794 11.620349 -22.057673 4294967295
-22.956715 11.776425 -22.053268 4294967295
-22.941139 6.3145232 -22.204626 4294967295
-22.936462 13.336849 -22.139029 4294967295
-22.915501 9.2767706 -22.448397 4294967295
-22.907093 7.4053459 -22.139132 4294967295
-22.875278 10.680076 -22.3867 4294967295
-22.873734 10.524168 -22.35561 4294967295
-22.840101 12.86353 -22.463631 4294967295
-22.840078 10.368465 -22.12192 4294967295
-22.83666 12.084055 -22.335211 4294967295
-22.835417 12.39594 -22.370064 4294967295
-22.826921 11.304492 -22.167048 4294967295
-22.825403 11.928376 -22.242865 4294967295
-22.793724 11.461055 -21.978987 4294967295
-22.77487 8.8056154 -22.492916 4294967295
-22.774233 13.021648 -22.069632 4294967295
-22.764921 6.4661899 -22.11018 4294967295
-22.764374 7.2460895 -22.213442 4294967295
-22.758049 6.6219673 -22.088207 4294967295
-22.747942 7.40167 -22.131201 4294967295
-22.747431 8.3375092 -22.256004 4294967295
-22.743992 7.7135601 -22.148981 4294967295
-22.740091 9.2731333 -22.33777 4294967295
-22.722431 8.961112 -22.183821 4294967295
-22.717957 8.025075 -22.027571 4294967295
-22.710295 7.5568328 -21.915251 4294967295
-22.707943 10.832613 -22.348576 4294967295
-22.70282 10.208855 -22.230965 4294967295
-22.693995 11.300619 -22.324715 4294967295
-22.681324 10.676937 -22.159575 4294967295
-22.678999 9.740943 -22.01688 4294967295
-22.678461 9.5849209 -21.992144 4294967295
-22.674105 13.016312 -22.434107 4294967295
-22.667469 9.4288616 -21.901546 4294967295
-22.652031 6.3080525 -22.372149 4294967295
-22.640999 7.0873771 -22.409306 4294967295
-22.640097 12.705511 -22.177332 4294967295
-22.580523 10.04924 -22.433817 4294967295
-22.568623 6.6172934 -21.889791 4294967295
-22.567579 8.6455908 -22.160517 4294967295
-22.551687 6.9289212 -21.825878 4294967295
-22.536854 8.333169 -21.924538 4294967295
-22.530718 11.921022 -22.376406 4294967295
-22.501198 10.205558 -21.956232 4294967295
-22.49815 10.985737 -22.043711 4294967295
-22.495432 10.829745 -22.005295 4294967295
-22.494644 12.545759 -22.234911 4294967295
-22.493582 12.701759 -22.249548 4294967295
-22.490305 12.077928 -22.14366 4294967295
-22.48439 13.169958 -22.255724 4294967295
-22.441074 7.7065582 -22.230137 4294967295
-22.440107 6.6145349 -22.074886 4294967295
-22.439976 6.3024807 -22.031429 4294967295
-22.439892 6.9265566 -22.116158 4294967295
-22.437832 9.2660751 -22.422821 4294967295
-22.42495 8.6421671 -22.256695 4294967295
-22.415079 7.3939757 -22.024195 4294967295
-22.410185 9.109973 -22.227873 4294967295
-22.404427 8.0178776 -22.042528 4294967295
-22.393932 10.201785 -22.274954 4294967295
-22.381987 10.513808 -22.242559 4294967295
-22.381001 8.4856443 -21.959314 4294967295
-22.368422 9.889884 -22.072149 4294967295
-22.368336 13.165106 -22.51899 4294967295
-22.351782 12.541914 -22.32991 4294967295
-22.348938 11.606147 -22.184235 4294967295
-22.341249 10.982239 -22.050728 4294967295
-22.338068 9.7338686 -21.860216 4294967295
-22.316263 11.762815 -22.000437 4294967295
-22.306314 8.0152874 -22.417984 4294967295
-22.269331 8.7945766 -22.292486 4294967295
-22.23579 6.9215822 -21.826511 4294967295
-22.219143 12.069989 -22.424911 4294967295
-22.203527 11.914397 -22.305765 4294967295
-22.17753 12.850932 -22.270603 4294967295
-22.156948 11.135163 -21.90736 4294967295
-22.151175 13.007786 -22.126764 4294967295
-22.125969 6.2951484 -22.04328 4294967295
-22.12319 7.0752163 -22.13229 4294967295
-22.122452 7.5432339 -22.191517 4294967295
-22.118507 6.9190617 -22.081673 4294967295
-22.105621 8.9469252 -22.277632 4294967295
-22.101871 8.1668863 -22.147757 4294967295
-22.097086 8.4788465 -22.160357 4294967295
-22.094423 6.7623081 -21.909531 4294967295
-22.0888 9.7267733 -22.278715 4294967295
-22.085426 7.6984816 -21.980921 4294967295
-22.08326 10.350695 -22.329134 4294967295
-22.081127 7.2301769 -21.890129 4294967295
-22.080015 10.662653 -22.351376 4294967295
-22.079517 8.7906971 -22.092922 4294967295
-22.076862 9.2587481 -22.140148 4294967295
-22.076242 9.4147606 -22.157539 4294967295
-22.073576 10.038777 -22.225965 4294967295
-22.066463 9.8827915 -22.160175 4294967295
-22.066048 10.974749 -22.306515 4294967295
-22.055647 11.13087 -22.262705 4294967295
-22.042543 9.1025171 -21.904003 4294967295
-22.038494 13.002884 -22.410664 4294967295
-22.036287 12.379107 -22.311766 4294967295
-22.028601 11.59932 -22.157297 4294967295
-22.026642 10.507117 -21.996058 4294967295
-22.024912 11.911416 -22.176765 4294967295
-22.022915 12.223471 -22.206831 4294967295
-22.004761 10.195107 -21.816521 4294967295
-21.994192 11.443908 -21.920708 4294967295
-21.984261 12.848653 -22.050137 4294967295
-21.958609 8.4754915 -22.282286 4294967295
-21.951418 9.0993586 -22.322386 4294967295
-21.901888 10.659349 -22.225466 4294967295
-21.895845 8.6307926 -21.911201 4294967295
-21.872997 12.375831 -22.278856 4294967295
-21.868658 12.84391 -22.315542 4294967295
-21.825865 6.4443245 -22.163485 4294967295
-21.82486 13.313417 -22.105793 4294967295
-21.823595 6.9123139 -22.213062 4294967295
-21.819382 12.221197 -21.922703 4294967295
-21.806231 8.6279478 -22.338404 4294967295
-21.801548 7.2237768 -22.117916 4294967295
-21.787169 8.9397516 -22.261938 4294967295
-21.783543 7.6914983 -22.069284 4294967295
-21.777792 9.5636988 -22.288412 4294967295
-21.77161 8.1594362 -22.058565 4294967295
-21.767029 7.5350833 -21.944929 4294967295
-21.766855 8.4714708 -22.071392 4294967295
-21.764891 9.2516403 -22.165401 4294967295
-21.749737 8.0030041 -21.900764 4294967295
-21.744591 10.031765 -22.144993 4294967295
-21.744158 10.343818 -22.184801 4294967295
-21.742079 11.747826 -22.36305 4294967295
-21.741701 9.8757362 -22.105713 4294967295
-21.736931 12.527781 -22.437157 4294967295
-21.731997 9.4075623 -21.981394 4294967295
-21.729687 11.124058 -22.200769 4294967295
-21.70993 11.592457 -22.141296 4294967295
-21.700829 11.90471 -22.127031 4294967295
-21.697693 12.840919 -22.234964 4294967295
-21.686161 12.217139 -22.078054 4294967295
-21.652796 8.3124313 -22.3242 4294967295
-21.60631 10.184177 -22.289364 4294967295
-21.584196 6.2817059 -21.620403 4294967295
-21.55875 10.964717 -22.099298 4294967295
-21.507864 12.526381 -21.994822 4294967295
-21.473745 8.4645576 -22.214329 4294967295
-21.473248 9.0886211 -22.296112 4294967295
-21.472942 6.7479062 -21.975836 4294967295
-21.464439 7.3720145 -22.007839 4294967295
-21.462751 8.6204615 -22.167149 4294967295
-21.461008 6.4353271 -21.859085 4294967295
-21.458109 7.996181 -22.053354 4294967295
-21.444128 9.2444887 -22.136183 4294967295
-21.443977 6.9031734 -21.816788 4294967295
-21.440388 9.8686409 -22.197809 4294967295
-21.431143 10.180737 -22.182764 4294967295
-21.430449 10.960856 -22.284544 4294967295
-21.41847 12.365046 -22.401009 4294967295
-21.41502 11.741153 -22.294703 4294967295
-21.411669 9.5565224 -21.976727 4294967295
-21.407614 8.77598 -21.845343 4294967295
-21.402296 10.649092 -22.067036 4294967295
-21.402069 11.585386 -22.192961 4294967295
-21.398798 10.493052 -22.024057 4294967295
-21.398363 11.117316 -22.106256 4294967295
-21.396086 9.4003839 -21.858566 4294967295
-21.392286 13.301775 -22.365541 4294967295
-21.384197 11.897834 -22.12429 4294967295
-21.379646 10.337093 -21.883713 4294967295
-21.378431 12.054017 -22.109676 4294967295
-21.366978 12.678531 -22.123367 4294967295
-21.360701 10.024921 -21.723412 4294967295
-21.344751 7.0572004 -22.203817 4294967295
-21.344072 6.2769232 -22.093544 4294967295
-21.328129 7.6809688 -22.185381 4294967295
-21.300781 9.3970222 -22.248791 4294967295
-21.288338 7.5240502 -21.916941 4294967295
-21.25507 12.049765 -22.325453 4294967295
-21.238125 12.830261 -22.326284 4294967295
-21.222647 9.2406244 -21.742302 4294967295
-21.220873 12.362677 -22.155611 4294967295
-21.205582 13.143383 -22.166739 4294967295
-21.149244 7.9890594 -22.098433 4294967295
-21.134375 7.3643818 -21.921391 4294967295
-21.133804 7.2082486 -21.896641 4294967295
-21.131456 8.925251 -22.115301 4294967295
-21.120462 9.3933926 -22.110714 4294967295
-21.120424 10.329706 -22.237646 4294967295
-21.112019 10.797882 -22.249111 4294967295
-21.111637 10.01765 -22.140776 4294967295
-21.110683 9.7055178 -22.092466 4294967295
-21.110167 6.8953266 -21.707577 4294967295
-21.108768 8.4567404 -21.910992 4294967295
-21.100636 11.422168 -22.263315 4294967295
-21.093937 9.0810785 -21.90383 4294967295
-21.072544 12.983117 -22.301125 4294967295
-21.072168 9.8616457 -21.87487 4294967295
-21.068014 11.890944 -22.124712 4294967295
-21.061567 13.295541 -22.27549 4294967295
-21.05991 12.203265 -22.116888 4294967295
-21.056658 10.642363 -21.884729 4294967295
-21.056099 12.671554 -22.156857 4294967295
-21.052544 11.266884 -21.944038 4294967295
-21.037029 12.51603 -22.017488 4294967295
-21.019943 13.14094 -21.996416 4294967295
-21.012074 7.5176349 -22.164356 4294967295
-21.008478 7.20541 -22.099714 4294967295
-20.995144 6.4245143 -21.911186 4294967295
-20.985407 7.8292456 -22.041573 4294967295
-20.984762 9.0778141 -22.207045 4294967295
-20.96253 7.6726832 -21.878702 4294967295
-20.939289 8.9214001 -21.904312 4294967295
-20.919203 9.5458345 -21.864714 4294967295
-20.889906 9.2334089 -21.640953 4294967295
-20.869057 12.200648 -21.914581 4294967295
-20.862993 6.4216704 -22.071733 4294967295
-20.853168 12.35719 -21.837471 4294967295
-20.82897 13.294827 -21.814917 4294967295
-20.813831 8.6058989 -22.064127 4294967295
-20.811968 7.3569283 -21.883207 4294967295
-20.807791 7.0445261 -21.815023 4294967295
-20.801762 7.8251319 -21.883623 4294967295
-20.791882 9.2301283 -22.013115 4294967295
-20.78816 10.166694 -22.11714 4294967295
-20.783117 9.3862047 -21.980122 4294967295
-20.774996 10.947195 -22.141621 4294967295
-20.771683 8.76159 -21.82473 4294967295
-20.760351 10.010693 -21.924097 4294967295
-20.757187 7.9804983 -21.629194 4294967295
-20.750378 12.040162 -22.137697 4294967295
-20.745165 12.976691 -22.232479 4294967295
-20.74247 11.884254 -22.067669 4294967295
-20.742085 9.0737009 -21.684126 4294967295
-20.740543 9.5422449 -21.73814 4294967295
-20.737055 10.479237 -21.843658 4294967295
-20.73535 11.416071 -21.960169 4294967295
-20.735165 9.6984186 -21.726074 4294967295
-20.728588 11.103912 -21.876045 4294967295
-20.722719 13.289586 -22.136181 4294967295
-20.717152 12.353179 -21.974779 4294967295
-20.717049 11.72867 -21.889448 4294967295
-20.712221 6.4182138 -22.116873 4294967295
-20.710997 10.791807 -21.724991 4294967295
-20.707172 11.572712 -21.807264 4294967295
-20.70117 12.50974 -21.897238 4294967295
-20.680651 6.2610359 -21.900749 4294967295
-20.663321 7.8218699 -22.005352 4294967295
-20.662346 8.7584639 -22.126272 4294967295
-20.651514 6.8847423 -21.805471 4294967295
-20.628771 8.445857 -21.876715 4294967295
-20.593309 10.475615 -21.932972 4294967295
-20.581717 11.100272 -21.946089 4294967295
-20.541628 12.194055 -21.846935 4294967295
-20.537498 7.3506017 -22.141138 4294967295
-20.529587 13.287449 -21.92079 4294967295
-20.513584 12.975682 -21.779795 4294967295
-20.469027 8.7545385 -21.909412 4294967295
-20.467505 8.2860489 -21.836582 4294967295
-20.465982 7.1927156 -21.679125 4294967295
-20.462585 9.8474531 -22.01774 4294967295
-20.462387 7.8174291 -21.741585 4294967295
-20.460066 9.2229156 -21.917635 4294967295
-20.455935 10.315832 -22.040192 4294967295
-20.43589 7.9731579 -21.599419 4294967295
-20.431641 10.003661 -21.848236 4294967295
-20.427069 11.87734 -22.073809 4294967295
-20.426725 10.628318 -21.902544 4294967295
-20.411432 11.096954 -21.871788 4294967295
-20.405445 9.6913176 -21.644539 4294967295
-20.401485 11.721742 -21.895119 4294967295
-20.401381 9.3788643 -21.577175 4294967295
-20.391182 12.346577 -21.91625 4294967295
-20.390158 13.283397 -22.036804 4294967295
-20.386089 10.784899 -21.673382 4294967295
-20.385321 12.034409 -21.837868 4294967295
-20.381933 11.409758 -21.732399 4294967295
-20.381281 6.2542052 -22.004896 4294967295
-20.371765 12.97175 -21.881283 4294967295
-20.340799 13.128955 -21.711779 4294967295
-20.340302 7.6583314 -21.942848 4294967295
-20.336891 6.8774352 -21.816179 4294967295
-20.327408 8.9072323 -22.032558 4294967295
-20.312281 9.2193966 -21.981741 4294967295
-20.308268 6.4079351 -21.576555 4294967295
-20.290781 7.5010934 -21.61693 4294967295
-20.273415 10.937057 -21.975113 4294967295
-20.271099 9.3753929 -21.749525 4294967295
-20.26473 11.561729 -22.006227 4294967295
-20.256105 12.030297 -22.016588 4294967295
-20.251173 11.093498 -21.859467 4294967295
-20.246588 9.0628319 -21.556446 4294967295
-20.242947 12.342888 -21.977936 4294967295
-20.190702 7.4987211 -21.974478 4294967295
-20.162445 6.2484117 -21.631815 4294967295
-20.138531 8.591032 -21.801769 4294967295
-20.138348 7.3413405 -21.631628 4294967295
-20.122938 11.089602 -22.043911 4294967295
-20.119797 8.1221437 -21.623289 4294967295
-20.113846 9.9965954 -21.840246 4294967295
-20.1129 9.6842232 -21.792196 4294967295
-20.112267 9.2156191 -21.724922 4294967295
-20.106575 10.933669 -21.922319 4294967295
-20.106316 13.119391 -22.216301 4294967295
-20.104895 10.465178 -21.848637 4294967295
-20.100079 12.026805 -22.030241 4294967295
-20.098053 11.246107 -21.912233 4294967295
-20.092493 12.495388 -22.047026 4294967295
-20.089596 11.402409 -21.88142 4294967295
-20.085144 11.714827 -21.896332 4294967295
-20.074183 12.808196 -21.976862 4294967295
-20.066601 9.5279436 -21.486694 4294967295
-20.066294 9.8404722 -21.527069 4294967295
-20.054146 6.4025788 -21.959463 4294967295
-20.05024 12.965112 -21.851019 4294967295
-20.040648 7.3391066 -22.003258 4294967295
-20.039259 12.653066 -21.74139 4294967295
-20.034742 7.1828098 -21.945919 4294967295
-20.028755 7.651145 -21.972504 4294967295
-20.015049 8.900095 -22.057245 4294967295
-20.010902 7.0260119 -21.778536 4294967295
-20.006315 8.4315624 -21.940369 4294967295
-20.00293 7.806808 -21.835171 4294967295
-19.99964 9.0561247 -21.983843 4294967295
-19.977333 8.743598 -21.804819 4294967295
-19.97294 9.3683252 -21.862312 4294967295
-19.962139 10.773862 -21.986025 4294967295
-19.943659 11.711037 -21.999346 4294967295
-19.87933 11.399805 -21.562801 4294967295
-19.866056 8.1158895 -22.008251 4294967295
-19.860062 13.275194 -21.698067 4294967295
-19.853794 6.8661585 -21.764387 4294967295
-19.810863 10.926434 -22.049883 4294967295
-19.8029 10.614209 -21.958967 4294967295
-19.789896 9.0522099 -21.668394 4294967295
-19.78084 10.301997 -21.781738 4294967295
-19.7792 11.551535 -21.940437 4294967295
-19.776394 12.020084 -21.986528 4294967295
-19.775877 11.239235 -21.877922 4294967295
-19.773148 9.2083616 -21.586935 4294967295
-19.773108 12.64477 -22.050768 4294967295
-19.769501 9.5208616 -21.606821 4294967295
-19.765636 13.269559 -22.089394 4294967295
-19.757401 11.395725 -21.785921 4294967295
-19.754456 12.176774 -21.873367 4294967295
-19.753117 11.864419 -21.822987 4294967295
-19.753094 9.9896431 -21.569675 4294967295
-19.740875 12.958077 -21.895721 4294967295
-19.738262 12.333378 -21.795368 4294967295
-19.730988 10.458571 -21.497652 4294967295
-19.678759 7.6431713 -21.767183 4294967295
-19.671803 8.8927069 -21.893295 4294967295
-19.670164 7.9554515 -21.756784 4294967295
-19.665325 7.3304043 -21.642853 4294967295
-19.651699 7.4863534 -21.580595 4294967295
-19.644817 8.5800171 -21.686132 4294967295
-19.634903 8.2673836 -21.583332 4294967295
-19.630501 10.923204 -21.914837 4294967295
-19.628069 8.4235601 -21.562628 4294967295
-19.622444 8.7360392 -21.570421 4294967295
-19.620533 9.9860353 -21.727434 4294967295
-19.617975 9.673562 -21.669632 4294967295
-19.581249 9.8298464 -21.466213 4294967295
-19.578297 13.111005 -21.890942 4294967295
-19.545647 11.393137 -21.459538 4294967295
-19.450468 8.8886061 -21.508366 4294967295
-19.448954 10.763757 -21.752016 4294967295
-19.441851 9.2011385 -21.497927 4294967295
-19.430593 12.326284 -21.850666 4294967295
-19.430338 12.17008 -21.828039 4294967295
-19.416521 9.6699905 -21.406553 4294967295
-19.416039 11.389186 -21.635454 4294967295
-19.4112 11.076717 -21.563784 4294967295
-19.399456 11.545744 -21.555359 4294967295
-19.39736 13.264595 -21.774349 4294967295
-19.396069 7.6365728 -21.97386 4294967295
-19.381929 7.9486814 -21.92976 4294967295
-19.377882 7.3237691 -21.820868 4294967295
-19.369297 8.7294617 -21.958 4294967295
-19.361982 13.109549 -21.537504 4294967295
-19.348923 7.7918606 -21.707479 4294967295
-19.346727 8.2605543 -21.757257 4294967295
-19.339819 8.4167013 -21.73621 4294967295
-19.337248 8.8853846 -21.783705 4294967295
-19.33569 9.9788742 -21.921574 4294967295
-19.329239 9.1977949 -21.776995 4294967295
-19.325773 9.3540125 -21.776932 4294967295
-19.30298 8.5725269 -21.532709 4294967295
-19.301552 11.69738 -21.945126 4294967295
-19.295544 10.603969 -21.761166 4294967295
-19.291307 12.634724 -22.009016 4294967295
-19.29039 11.072724 -21.792931 4294967295
-19.284575 9.8227301 -21.589035 4294967295
-19.254459 10.760626 -21.531902 4294967295
-19.247618 12.792219 -21.763988 4294967295
-19.211544 12.9496 -21.565355 4294967295
-19.158007 8.1002073 -21.551247 4294967295
-19.145496 7.7873669 -21.433001 4294967295
-19.132692 10.912989 -21.77603 4294967295
-19.122889 12.787791 -21.968847 4294967295
-19.11367 10.288092 -21.576141 4294967295
-19.111019 9.1939135 -21.412647 4294967295
-19.110968 12.007032 -21.791178 4294967295
-19.107155 11.694622 -21.72591 4294967295
-19.102163 11.225913 -21.632416 4294967295
-19.100174 11.382219 -21.641356 4294967295
-19.098143 11.069687 -21.586914 4294967295
-19.092886 9.6628761 -21.365477 4294967295
-19.087957 10.757204 -21.482862 4294967295
-19.076431 13.257961 -21.749485 4294967295
-19.072681 11.538984 -21.49519 4294967295
-19.072542 10.601021 -21.368027 4294967295
-19.059099 12.164515 -21.496784 4294967295
-19.041834 7.7847614 -21.765787 4294967295
-19.029188 12.946954 -21.420151 4294967295
-19.028315 8.409544 -21.767748 4294967295
-19.020638 7.9406395 -21.658005 4294967295
-19.004065 9.034337 -21.70451 4294967295
-18.995899 10.284338 -21.823133 4294967295
-18.99382 8.565402 -21.579161 4294967295
-18.985506 10.753127 -21.823082 4294967295
-18.983181 9.3467827 -21.619688 4294967295
-18.976013 8.0962048 -21.407833 4294967295
-18.975193 8.7215147 -21.487007 4294967295
-18.974316 9.6593409 -21.607901 4294967295
-18.961754 9.5030222 -21.510548 4294967295
-18.930288 12.941662 -21.782135 4294967295
-18.910173 11.691909 -21.491766 4294967295
-18.861092 13.256546 -21.404139 4294967295
-18.854139 8.874548 -21.73485 4294967295
-18.833271 10.437082 -21.818409 4294967295
-18.779711 9.9684591 -21.430504 4294967295
-18.779554 12.625519 -21.786879 4294967295
-18.774145 12.156866 -21.69105 4294967295
-18.768307 9.4993849 -21.298246 4294967295
-18.768091 10.750221 -21.46516 4294967295
-18.752962 11.532093 -21.478542 4294967295
-18.750761 12.313735 -21.570297 4294967295
-18.746948 13.251617 -21.673292 4294967295
-18.744087 11.844929 -21.466778 4294967295
-18.743324 10.594099 -21.293941 4294967295
-18.734316 12.783128 -21.533674 4294967295
-18.727221 10.90703 -21.238337 4294967295
-18.699341 9.6522541 -21.86162 4294967295
-18.688618 8.558321 -21.649662 4294967295
-18.684532 8.0893517 -21.561888 4294967295
-18.658335 11.058745 -21.802301 4294967295
-18.658167 9.0269737 -21.528234 4294967295
-18.651049 10.121144 -21.632166 4294967295
-18.640701 12.77777 -21.926521 4294967295
-18.640196 10.902698 -21.671476 4294967295
-18.601227 9.8085823 -21.288424 4294967295
-18.571945 12.467159 -21.46837 4294967295
-18.493658 11.36787 -21.806541 4294967295
-18.480087 8.8668909 -21.388601 4294967295
-18.450239 12.931594 -21.75399 4294967295
-18.448919 11.212259 -21.515118 4294967295
-18.446629 13.087986 -21.753153 4294967295
-18.442938 12.775534 -21.688873 4294967295
-18.440199 9.8050327 -21.273392 4294967295
-18.438953 9.1793985 -21.181841 4294967295
-18.437231 10.743346 -21.381464 4294967295
-18.427824 11.525293 -21.42959 4294967295
-18.411316 11.83834 -21.371803 4294967295
-18.408579 12.151139 -21.397266 4294967295
-18.403234 13.245755 -21.511944 4294967295
-18.400526 12.464076 -21.390591 4294967295
-18.394125 8.3950834 -21.763781 4294967295
-18.365309 9.0199633 -21.67367 4294967295
-18.353823 8.8635635 -21.58333 4294967295
-18.344728 9.3324814 -21.59136 4294967295
-18.338097 9.1761208 -21.530334 4294967295
-18.334057 9.6451101 -21.568884 4294967295
-18.330492 10.114087 -21.610302 4294967295
-18.329903 11.833288 -21.837473 4294967295
-18.326891 10.739356 -21.672476 4294967295
-18.299557 10.426929 -21.465513 4294967295
-18.298649 9.4886999 -21.334112 4294967295
-18.272755 10.270716 -21.28273 4294967295
-18.220268 12.930427 -21.322779 4294967295
-18.203897 13.087354 -21.244997 4294967295
-18.187241 9.7978754 -21.660261 4294967295
-18.172041 10.423192 -21.652494 4294967295
-18.140417 11.517827 -21.60866 4294967295
-18.10733 11.831151 -21.451223 4294967295
-18.105585 12.612969 -21.545557 4294967295
-18.104996 11.049282 -21.332298 4294967295
-18.102602 13.238402 -21.611446 4294967295
-18.033587 8.8563471 -21.563654 4294967295
-18.024168 8.54354 -21.465048 4294967295
-18.022629 10.263295 -21.686275 4294967295
-18.008036 9.16889 -21.451754 4294967295
-17.999504 10.732443 -21.609955 4294967295
-17.98942 10.888889 -21.570234 4294967295
-17.983971 8.6995106 -21.243996 4294967295
-17.975574 10.107158 -21.382132 4294967295
-17.973862 9.0122814 -21.225075 4294967295
-17.973091 12.296181 -21.660547 4294967295
-17.962179 9.4815216 -21.217653 4294967295
-17.949093 9.9508247 -21.201784 4294967295
-17.94828 10.420116 -21.25979 4294967295
-17.947409 12.765882 -21.568909 4294967295
-17.942703 11.358643 -21.352001 4294967295
-17.915363 10.576811 -21.082657 4294967295
-17.889994 12.141814 -21.139698 4294967295
-17.880741 13.237172 -21.230803 4294967295
-17.823151 9.6344051 -21.356297 4294967295
-17.822321 9.3215828 -21.309408 4294967295
-17.791794 12.136947 -21.503008 4294967295
-17.773399 9.4778833 -21.036343 4294967295
-17.76825 12.763075 -21.445375 4294967295
-17.765574 13.075918 -21.471184 4294967295
-17.764559 11.668333 -21.276585 4294967295
-17.758865 12.606952 -21.368065 4294967295
-17.756411 10.886232 -21.122873 4294967295
-17.724161 12.451467 -21.138681 4294967295
-17.721945 9.0055494 -21.61697 4294967295
-17.708948 8.8490915 -21.518034 4294967295
-17.680767 10.099996 -21.516359 4294967295
-17.664186 8.692275 -21.228458 4294967295
-17.663715 11.194714 -21.560558 4294967295
-17.66227 10.725621 -21.489107 4294967295
-17.65756 9.6308384 -21.314316 4294967295
-17.652416 9.16152 -21.220634 4294967295
-17.645714 10.412966 -21.347912 4294967295
-17.645372 12.133216 -21.576094 4294967295
-17.642513 12.758688 -21.642654 4294967295
-17.633003 13.071669 -21.627472 4294967295
-17.627293 12.60277 -21.530457 4294967295
-17.624971 10.569549 -21.244408 4294967295
-17.614611 11.351851 -21.286936 4294967295
-17.596745 11.821482 -21.242588 4294967295
-17.596497 10.256806 -21.031687 4294967295
-17.558277 9.3146362 -21.628008 4294967295
-17.526157 11.034586 -21.665613 4294967295
-17.521931 9.1580868 -21.389309 4294967295
-17.487263 9.6272659 -21.244356 4294967295
-17.420984 13.069997 -21.307711 4294967295
-17.417734 12.913662 -21.267328 4294967295
-17.399176 8.9983311 -21.582903 4294967295
-17.389944 9.6237574 -21.611265 4294967295
-17.386642 8.8418541 -21.487007 4294967295
-17.372431 10.40562 -21.611004 4294967295
-17.360649 9.3109083 -21.394205 4294967295
-17.351076 11.344037 -21.608685 4294967295
-17.346693 9.7801437 -21.373438 4294967295
-17.346128 10.24939 -21.432783 4294967295
-17.345354 10.874987 -21.511763 4294967295
-17.341139 11.187812 -21.528364 4294967295
-17.337502 9.1543627 -21.23481 4294967295
-17.322643 11.500888 -21.459566 4294967295
-17.307682 9.9366465 -21.160988 4294967295
-17.302927 12.439721 -21.467094 4294967295
-17.300419 11.970552 -21.389385 4294967295
-17.291315 12.127181 -21.355856 4294967295
-17.272076 11.814705 -21.199001 4294967295
-17.263617 10.562869 -20.981094 4294967295
-17.233562 13.224002 -21.156971 4294967295
-17.173031 9.4636812 -21.241905 4294967295
-17.099384 10.872456 -20.990187 4294967295
-17.094419 12.124619 -21.127775 4294967295
-17.038944 9.4601707 -21.388586 4294967295
-17.014231 9.7730398 -21.282963 4294967295
-17.01071 9.1471395 -21.178419 4294967295
-17.002857 11.493978 -21.444834 4294967295
-16.998875 11.650469 -21.441975 4294967295
-16.996763 9.6165609 -21.1579 4294967295
-16.996386 10.711876 -21.301849 4294967295
-16.995331 10.086016 -21.212025 4294967295
-16.987307 11.181347 -21.310366 4294967295
-16.983267 13.21494 -21.557699 4294967295
-16.976648 10.868547 -21.205046 4294967295
-16.974314 12.746001 -21.44171 4294967295
-16.969662 10.39913 -21.100723 4294967295
-16.966143 12.589804 -21.372139 4294967295
-16.917801 12.904152 -21.125795 4294967295
-16.905746 13.061038 -21.074833 4294967295
-16.832249 9.7694941 -21.144266 4294967295
-16.812149 11.178085 -21.212463 4294967295
-16.804104 12.273555 -21.310669 4294967295
-16.803137 12.430038 -21.325783 4294967295
-16.79854 11.647771 -21.194073 4294967295
-16.720901 9.4530258 -21.384335 4294967295
-16.707434 11.017421 -21.512798 4294967295
-16.668997 10.39196 -21.200888 4294967295
-16.663439 10.861485 -21.230433 4294967295
-16.654419 9.6094036 -21.009905 4294967295
-16.649332 11.957078 -21.292597 4294967295
-16.648483 12.113568 -21.308413 4294967295
-16.646446 12.583009 -21.35886 4294967295
-16.645164 9.7659483 -20.97575 4294967295
-16.64481 11.174711 -21.161427 4294967295
-16.640381 12.896097 -21.364538 4294967295
-16.633549 11.644414 -21.157078 4294967295
-16.631865 11.800952 -21.167927 4294967295
-16.630932 13.052853 -21.329243 4294967295
-16.620363 10.235704 -20.890903 4294967295
-16.552044 10.701031 -21.49069 4294967295
-16.50741 10.231938 -21.163223 4294967295
-16.467558 9.7623959 -20.864088 4294967295
-16.458778 12.110827 -21.124792 4294967295
-16.4555 12.423947 -21.147039 4294967295
-16.369532 9.4457922 -21.182907 4294967295
-16.353008 10.228378 -21.189152 4294967295
-16.349264 10.697929 -21.22946 4294967295
-16.347782 12.575635 -21.470627 4294967295
-16.347599 11.167439 -21.282089 4294967295
-16.336889 10.384992 -21.114443 4294967295
-16.33403 11.011114 -21.180843 4294967295
-16.32168 12.889303 -21.357651 4294967295
-16.305998 9.6022339 -20.827139 4294967295
-16.304806 9.7588358 -20.84091 4294967295
-16.296221 12.420522 -21.144342 4294967295
-16.292934 11.794443 -21.041525 4294967295
-16.292084 10.541875 -20.86974 4294967295
-16.28899 13.046813 -21.184847 4294967295
-16.28455 11.481472 -20.950161 4294967295
-16.273582 12.264544 -20.989389 4294967295
-16.227301 10.694069 -21.44733 4294967295
-16.195202 11.476821 -21.361477 4294967295
-16.189762 11.946346 -21.391741 4294967295
-16.174965 13.198434 -21.470707 4294967295
-16.17211 9.1289473 -20.912466 4294967295
-16.055279 9.9081984 -21.264833 4294967295
-16.046303 10.690759 -21.315825 4294967295
-16.046104 11.629645 -21.439465 4294967295
-16.045908 11.160229 -21.375906 4294967295
-16.03882 11.94272 -21.438038 4294967295
-16.035305 9.5951481 -21.105175 4294967295
-16.031473 9.7516956 -21.103344 4294967295
-16.026928 9.125433 -20.993227 4294967295
-16.025316 10.221349 -21.1294 4294967295
-16.01409 10.37796 -21.08387 4294967295
-16.004362 10.847705 -21.088835 4294967295
-15.994163 13.195763 -21.3407 4294967295
-15.990879 11.474102 -21.09243 4294967295
-15.988547 11.787244 -21.120279 4294967295
-15.983072 12.883105 -21.233595 4294967295
-15.980375 12.100512 -21.113626 4294967295
-15.963822 12.570581 -21.078293 4294967295
-15.957372 11.004831 -20.832026 4294967295
-15.95446 13.040526 -21.085432 4294967295
-15.90234 9.59161 -21.257755 4294967295
-15.891625 10.374199 -21.2985 4294967295
-15.862099 12.565599 -21.415398 4294967295
-15.840346 9.7481432 -20.912743 4294967295
-15.832764 11.157478 -21.055237 4294967295
-15.831099 9.4348984 -20.816561 4294967295
-15.7416 9.901083 -21.287867 4294967295
-15.73685 9.5880327 -21.218321 4294967295
-15.727549 9.7445669 -21.184299 4294967295
-15.715085 10.214232 -21.173223 4294967295
-15.710451 10.996956 -21.249842 4294967295
-15.705786 10.527387 -21.160011 4294967295
-15.7016 12.562213 -21.405497 4294967295
-15.696998 9.274786 -20.941927 4294967295
-15.693454 11.623333 -21.232853 4294967295
-15.692719 11.153723 -21.166174 4294967295
-15.684875 13.032185 -21.369345 4294967295
-15.676555 12.406362 -21.23724 4294967295
-15.664816 10.371088 -20.897873 4294967295
-15.659432 13.18952 -21.240328 4294967295
-15.654803 10.84102 -20.901274 4294967295
-15.64899 11.937325 -21.012566 4294967295
-15.639951 12.720459 -21.063276 4294967295
-15.632667 11.781054 -20.895649 4294967295
-15.535016 12.715496 -21.380693 4294967295
-15.521581 9.7410145 -20.907015 4294967295
-15.51476 9.271101 -20.804541 4294967295
-15.512006 10.680733 -20.97537 4294967295
-15.50987 12.090009 -21.149778 4294967295
-15.505565 9.4277191 -20.771231 4294967295
-15.500149 10.054314 -20.822504 4294967295
-15.403574 9.737442 -21.147337 4294967295
-15.389976 9.5808544 -21.046701 4294967295
-15.380641 12.398926 -21.365509 4294967295
-15.380519 11.146651 -21.198763 4294967295
-15.369157 12.712269 -21.339594 4294967295
-15.36888 10.833653 -21.088896 4294967295
-15.361642 9.424181 -20.859493 4294967295
-15.359752 9.2675304 -20.827621 4294967295
-15.359253 13.182133 -21.34371 4294967295
-15.346689 12.243221 -21.145432 4294967295
-15.334506 10.050784 -20.78318 4294967295
-15.324787 10.677468 -20.809183 4294967295
-15.324603 10.364153 -20.766558 4294967295
-15.318055 11.304142 -20.852728 4294967295
-15.315187 13.026992 -21.064299 4294967295
-15.313235 11.617504 -20.865963 4294967295
-15.311994 11.930799 -20.900204 4294967295
-15.298594 12.557643 -20.90461 4294967295
-15.232448 11.143006 -21.262182 4294967295
-15.221918 11.925895 -21.304159 4294967295
-15.218216 11.612878 -21.240969 4294967295
-15.205631 10.360373 -21.0012 4294967295
-15.203743 10.203767 -20.969374 4294967295
-15.180265 9.8905544 -20.790174 4294967295
-15.178366 12.553167 -21.131823 4294967295
-15.15197 12.710492 -20.997852 4294967295
-15.118674 12.24142 -20.740416 4294967295
-15.068977 10.356701 -21.131685 4294967295
-15.068396 10.200114 -21.107548 4294967295
-15.064016 9.7303152 -21.019686 4294967295
-15.061542 11.139668 -21.191816 4294967295
-15.047204 11.922761 -21.211536 4294967295
-15.041585 11.609716 -21.137178 4294967295
-15.03931 10.67013 -20.999449 4294967295
-15.034524 9.4169931 -20.805481 4294967295
-15.012563 10.043692 -20.75985 4294967295
-15.008629 12.706622 -21.089413 4294967295
-15.003574 10.513776 -20.769457 4294967295
-15.003038 12.236936 -20.994488 4294967295
-14.996121 11.453874 -20.850292 4294967295
-14.985162 12.394007 -20.910587 4294967295
-14.983574 13.177213 -21.004993 4294967295
-14.967154 13.021102 -20.888155 4294967295
-14.879062 9.7267513 -20.867535 4294967295
-14.852115 11.136844 -20.896559 4294967295
-14.837253 9.256567 -20.560833 4294967295
-14.826014 12.547215 -20.930552 4294967295
-14.825835 10.667094 -20.680723 4294967295
-14.796542 12.391309 -20.737585 4294967295
-14.78604 12.861681 -20.738411 4294967295
-14.729511 10.19312 -20.984791 4294967295
-14.711482 11.289727 -21.024536 4294967295
-14.70337 11.446486 -20.997902 4294967295
-14.70075 9.2530746 -20.692547 4294967295
-14.697492 10.976625 -20.901445 4294967295
-14.697316 9.7231846 -20.734665 4294967295
-14.695291 11.916536 -21.012888 4294967295
-14.682638 10.506733 -20.752583 4294967295
-14.681622 12.230114 -20.974539 4294967295
-14.677456 12.543499 -20.991657 4294967295
-14.670537 13.013604 -21.01342 4294967295
-14.667142 10.820277 -20.703566 4294967295
-14.657581 12.857351 -20.917114 4294967295
-14.655242 12.700758 -20.882751 4294967295
-14.654696 12.387429 -20.838133 4294967295
-14.648062 11.6041 -20.695807 4294967295
-14.629417 12.074626 -20.649164 4294967295
-14.611066 13.328879 -20.707867 4294967295
-14.588601 9.719615 -21.028049 4294967295
-14.583184 9.4063215 -20.955065 4294967295
-14.575299 10.97268 -21.116102 4294967295
-14.557635 9.562933 -20.826811 4294967295
-14.553946 10.189648 -20.888124 4294967295
-14.499395 9.2492971 -20.44581 4294967295
-14.384059 12.53597 -21.13522 4294967295
-14.382648 9.2458916 -20.692493 4294967295
-14.381762 10.969576 -20.914978 4294967295
-14.374366 11.753008 -20.975389 4294967295
-14.368747 10.342928 -20.756453 4294967295
-14.366567 11.126446 -20.847242 4294967295
-14.365366 9.402564 -20.612576 4294967295
-14.363811 12.066544 -20.955351 4294967295
-14.36323 10.656387 -20.765736 4294967295
-14.356199 13.006656 -21.035194 4294967295
-14.349233 12.850216 -20.973978 4294967295
-14.339488 9.559268 -20.48263 4294967295
-14.336334 11.910444 -20.774782 4294967295
-14.322823 11.597258 -20.654766 4294967295
-14.318586 13.321201 -20.857767 4294967295
-14.316998 12.224302 -20.703671 4294967295
-14.308195 11.283988 -20.52824 4294967295
-14.250196 10.18249 -20.971304 4294967295
-14.248695 9.8691559 -20.921225 4294967295
-14.244695 11.27909 -21.084055 4294967295
-14.221489 10.025908 -20.78377 4294967295
-14.219613 9.7124758 -20.731491 4294967295
-14.167966 10.339629 -20.514055 4294967295
-14.166535 10.809958 -20.56782 4294967295
-14.161549 12.534205 -20.766397 4294967295
-14.137967 12.848321 -20.670774 4294967295
-14.048368 11.589522 -20.908955 4294967295
-14.035762 11.903145 -20.87715 4294967295
-14.028353 10.649479 -20.668793 4294967295
-14.005062 9.2384396 -20.347498 4294967295
-14.0048 10.963238 -20.573475 4294967295
-14.004732 12.687423 -20.800489 4294967295
