# .PCD v0.7 - Point Cloud Data file format
VERSION 0.7
FIELDS x y z rgb
SIZE 4 4 4 4
TYPE F F F U
COUNT 1 1 1 1
WIDTH 1133
HEIGHT 1
VIEWPOINT 0 0 0 1 0 0 0
POINTS 1133
DATA ascii
29.790405 20.122509 -15.160877 4294967295
29.804358 21.084404 -15.21399 4294967295
29.824205 17.069168 -15.352725 4294967295
29.830654 21.727034 -15.178844 4294967295
29.842505 18.350857 -15.424754 4294967295
29.844152 15.148438 -15.047882 4294967295
29.84481 19.311438 -15.526155 4294967295
29.852501 18.031227 -15.346286 4294967295
29.858248 18.992126 -15.433419 4294967295
29.859632 19.472452 -15.483153 4294967295
29.864294 15.6297 -15.019789 4294967295
29.875061 17.391926 -15.178659 4294967295
29.877583 17.552198 -15.186697 4294967295
29.8825 19.794115 -15.425275 4294967295
29.88916 16.431623 -15.009107 4294967295
29.902868 18.674585 -15.211283 4294967295
29.931168 20.918257 -15.352874 4294967295
29.975424 15.464049 -15.22349 4294967295
30.028782 14.98549 -14.946692 4294967295
30.030468 20.109915 -15.53154 4294967295
30.042658 16.908236 -15.111172 4294967295
30.062727 18.350704 -15.194451 4294967295
30.072403 17.870754 -15.09885 4294967295
30.07987 20.433546 -15.36382 4294967295
30.086979 21.074518 -15.40832 4294967295
30.103512 20.915627 -15.321336 4294967295
30.110846 15.779701 -15.381613 4294967295
30.111794 15.139311 -15.303746 4294967295
30.114788 21.556999 -15.348583 4294967295
30.117794 19.154835 -15.058705 4294967295
30.118301 20.276102 -15.186089 4294967295
30.12381 17.060986 -15.475788 4294967295
30.139318 16.421318 -15.337616 4294967295
30.148783 21.719816 -15.226257 4294967295
30.152115 15.300902 -15.155186 4294967295
30.162346 16.582468 -15.260732 4294967295
30.165157 17.383224 -15.341525 4294967295
30.167929 18.664192 -15.477911 4294967295
30.180668 19.305315 -15.499098 4294967295
30.183485 18.02466 -15.339574 4294967295
30.185921 19.465736 -15.495831 4294967295
30.191509 15.943097 -15.065971 4294967295
30.19763 18.986172 -15.391914 4294967295
30.202684 20.747524 -15.574273 4294967295
30.202772 17.705427 -15.222736 4294967295
30.213953 20.428165 -15.490683 4294967295
30.215538 19.147394 -15.336259 4294967295
30.218662 19.788074 -15.397262 4294967295
30.225571 15.624051 -14.887884 4294967295
30.238226 21.710703 -15.538063 4294967295
30.240421 19.629379 -15.288709 4294967295
30.242359 21.550936 -15.502482 4294967295
30.275425 18.510323 -15.014367 4294967295
30.283388 17.057369 -15.496769 4294967295
30.287731 15.936872 -15.349458 4294967295
30.328833 19.781214 -15.622848 4294967295
30.347744 14.978181 -14.990209 4294967295
30.355581 20.103163 -15.549198 4294967295
30.379015 16.901796 -15.082687 4294967295
30.384045 18.023291 -15.191276 4294967295
30.385071 20.905706 -15.519639 4294967295
30.397602 21.707125 -15.560196 4294967295
30.398466 21.5471 -15.538155 4294967295
30.408812 21.3878 -15.476917 4294967295
30.412548 16.743155 -14.925467 4294967295
30.439924 21.069899 -15.311356 4294967295
30.447386 20.269619 -15.188106 4294967295
30.451822 16.413769 -15.407295 4294967295
30.467747 15.934071 -15.28606 4294967295
30.476904 15.45398 -15.19278 4294967295
30.484055 17.215857 -15.366451 4294967295
30.496721 17.056339 -15.29564 4294967295
30.497105 15.134369 -15.072316 4294967295
30.500889 17.536963 -15.333838 4294967295
30.512329 15.615508 -15.064827 4294967295
30.515755 19.459242 -15.494072 4294967295
30.519196 19.939764 -15.535259 4294967295
30.534073 20.581175 -15.547674 4294967295
30.538513 19.300571 -15.381593 4294967295
30.540562 18.820284 -15.317715 4294967295
30.542439 15.296213 -14.9034 4294967295
30.548342 19.621464 -15.377936 4294967295
30.550587 18.660725 -15.257826 4294967295
30.556265 16.09791 -14.938676 4294967295
30.556929 17.379644 -15.083798 4294967295
30.569023 20.743801 -15.421816 4294967295
30.569136 17.70067 -15.070324 4294967295
30.575884 18.181635 -15.097883 4294967295
30.582594 19.783861 -15.254934 4294967295
30.585484 21.705793 -15.464654 4294967295
30.609406 15.609452 -15.344296 4294967295
30.650028 16.732134 -15.305857 4294967295
30.689173 16.413553 -15.107308 4294967295
30.703848 16.894808 -15.102149 4294967295
30.710548 17.535913 -15.148387 4294967295
30.726521 17.857138 -15.119406 4294967295
30.726629 20.099537 -15.377522 4294967295
30.729637 19.459124 -15.291246 4294967295
30.733366 20.740568 -15.423585 4294967295
30.747192 18.178673 -15.07104 4294967295
30.751013 18.49931 -15.092218 4294967295
30.777365 15.445992 -15.312396 4294967295
30.781733 21.705114 -15.334869 4294967295
30.782734 20.423759 -15.183002 4294967295
30.784567 18.981958 -15.009181 4294967295
30.794138 16.08724 -15.317061 4294967295
30.794968 17.04809 -15.424406 4294967295
30.799938 21.546364 -15.241319 4294967295
30.803804 16.247797 -15.295659 4294967295
30.813944 15.607545 -15.179982 4294967295
30.821318 18.810789 -15.518787 4294967295
30.829618 19.131512 -15.52148 4294967295
30.835546 17.210203 -15.275538 4294967295
30.84656 18.652157 -15.396286 4294967295
30.85103 19.292963 -15.451683 4294967295
30.851656 17.691517 -15.264508 4294967295
30.854033 18.332293 -15.328554 4294967295
30.854286 20.574095 -15.585897 4294967295
30.869612 18.012821 -15.227408 4294967295
30.871231 16.571121 -15.054531 4294967295
30.878702 19.775156 -15.393004 4294967295
30.879601 20.736023 -15.500036 4294967295
30.882334 17.372711 -15.101089 4294967295
30.885109 15.930788 -14.923413 4294967295
30.89707 18.975492 -15.224998 4294967295
30.942404 21.060936 -15.278174 4294967295
30.944914 19.459085 -15.083188 4294967295
30.986094 18.487257 -15.481736 4294967295
30.996666 21.385443 -15.091529 4294967295
31.008875 21.706856 -15.078158 4294967295
31.024088 15.766079 -15.01147 4294967295
31.035658 21.052425 -15.572851 4294967295
31.038282 17.52911 -15.15608 4294967295
31.039387 16.888317 -15.077692 4294967295
31.041412 21.373085 -15.586058 4294967295
31.041862 16.567982 -15.030563 4294967295
31.045645 18.971222 -15.291885 4294967295
31.048283 15.606776 -14.893319 4294967295
31.050724 19.452053 -15.326334 4294967295
31.051832 20.573217 -15.450934 4294967295
31.052355 15.286395 -14.839605 4294967295
31.055119 20.092997 -15.382054 4294967295
31.058165 17.209669 -15.037269 4294967295
31.060898 18.651756 -15.192165 4294967295
31.086353 19.294117 -15.16118 4294967295
31.086458 18.172554 -15.031525 4294967295
31.089191 19.935118 -15.22333 4294967295
31.08947 19.134098 -15.129892 4294967295
31.096981 18.814102 -15.062043 4294967295
31.103987 19.775892 -15.143965 4294967295
31.124376 21.699816 -15.281511 4294967295
31.131481 17.361961 -15.43231 4294967295
31.133892 20.899508 -15.150068 4294967295
31.144068 15.440481 -15.159112 4294967295
31.145287 21.2208 -15.140088 4294967295
31.149181 20.259645 -15.01329 4294967295
31.157982 15.921625 -15.157213 4294967295
31.174185 16.883526 -15.20126 4294967295
31.174875 19.446199 -15.493582 4294967295
31.177628 16.56328 -15.150187 4294967295
31.19099 20.247931 -15.519518 4294967295
31.208012 16.083904 -14.969786 4294967295
31.211174 17.686382 -15.141339 4294967295
31.215311 21.210476 -15.530169 4294967295
31.216684 16.404778 -14.971017 4294967295
31.216702 17.846889 -15.137056 4294967295
31.219202 18.327663 -15.182127 4294967295
31.221409 20.730499 -15.449773 4294967295
31.248562 18.489553 -15.079815 4294967295
31.270761 19.612539 -15.117683 4294967295
31.27725 21.054937 -15.257067 4294967295
31.316582 17.840101 -15.404044 4294967295
31.364473 18.803812 -15.317899 4294967295
31.369167 17.202015 -15.114157 4294967295
31.373856 16.401033 -15.002636 4294967295
31.38097 18.64459 -15.231673 4294967295
31.388174 15.279692 -14.814587 4294967295
31.392418 20.087048 -15.350623 4294967295
31.398182 21.368811 -15.474457 4294967295
31.399733 19.927353 -15.302137 4294967295
31.403339 16.562599 -14.899897 4294967295
31.407196 18.005159 -15.050119 4294967295
31.422529 20.56971 -15.282269 4294967295
31.43166 21.050972 -15.300092 4294967295
31.442188 19.289204 -15.053942 4294967295
31.448055 19.449829 -15.048293 4294967295
31.457621 16.394093 -15.335663 4294967295
31.461555 15.75352 -15.245755 4294967295
31.464035 20.732897 -15.130236 4294967295
31.464415 19.771406 -15.017984 4294967295
31.471296 17.035412 -15.353255 4294967295
31.476606 15.273464 -15.128615 4294967295
31.482069 21.695684 -15.166842 4294967295
31.48348 16.555418 -15.247919 4294967295
31.484186 17.997076 -15.410948 4294967295
31.490261 21.536077 -15.114755 4294967295
31.496593 16.075352 -15.138751 4294967295
31.503368 20.080162 -15.571816 4294967295
31.503656 15.594934 -15.054416 4294967295
31.522072 18.159325 -15.273865 4294967295
31.531122 17.518957 -15.162963 4294967295
31.567841 19.443695 -15.233525 4294967295
31.575626 18.643023 -15.109366 4294967295
31.57781 19.123869 -15.155732 4294967295
31.578299 18.322678 -15.061516 4294967295
31.599157 20.887764 -15.270953 4294967295
31.64838 15.911168 -15.173872 4294967295
31.655043 20.250721 -14.967902 4294967295
31.660051 20.411356 -14.965793 4294967295
31.676718 19.7572 -15.499982 4294967295
31.70846 16.073872 -14.945871 4294967295
31.713188 17.997206 -15.147738 4294967295
31.71777 21.041363 -15.479122 4294967295
31.718023 21.52187 -15.533348 4294967295
31.718288 19.439514 -15.292726 4294967295
31.719778 17.677063 -15.083848 4294967295
31.733406 18.799545 -15.157015 4294967295
31.734753 15.754335 -14.80113 4294967295
31.737957 20.402063 -15.322674 4294967295
31.739386 17.036955 -14.929674 4294967295
31.745815 15.434107 -14.718851 4294967295
31.747423 20.723146 -15.320742 4294967295
31.754765 18.320005 -15.014137 4294967295
31.761944 20.243504 -15.205932 4294967295
31.771658 18.481241 -14.963314 4294967295
31.778597 19.924135 -15.100804 4294967295
31.783136 19.283348 -15.008451 4294967295
31.788212 21.206808 -15.208866 4294967295
31.792656 21.687853 -15.245946 4294967295
31.800156 16.548038 -15.301142 4294967295
31.802242 20.887346 -15.114504 4294967295
31.814945 17.670103 -15.369518 4294967295
31.814955 17.029324 -15.295783 4294967295
31.820955 17.350019 -15.308049 4294967295
31.823275 21.369709 -15.083614 4294967295
31.833609 18.151672 -15.348336 4294967295
31.833675 16.389292 -15.145379 4294967295
31.848394 16.71043 -15.121928 4294967295
31.853577 17.992552 -15.248125 4294967295
31.87985 18.634926 -15.214218 4294967295
31.889242 15.750484 -14.843958 4294967295
31.903679 19.91824 -15.264047 4294967295
31.932503 21.52252 -15.330276 4294967295
31.97872 16.224794 -15.208141 4294967295
31.985916 20.564922 -15.001056 4294967295
32.015713 15.264681 -14.946164 4294967295
32.017662 19.270864 -15.398739 4294967295
32.019642 17.027836 -15.132768 4294967295
32.032288 19.592188 -15.375741 4294967295
32.038788 20.71398 -15.478054 4294967295
32.038857 15.586137 -14.888279 4294967295
32.039371 17.990341 -15.162581 4294967295
32.039597 17.189054 -15.069543 4294967295
32.045094 16.387897 -14.954911 4294967295
32.046722 19.913544 -15.353536 4294967295
32.046959 16.067377 -14.91041 4294967295
32.05616 20.234604 -15.351773 4294967295
32.060947 18.953066 -15.184837 4294967295
32.06826 16.549217 -14.878521 4294967295
32.073986 18.793585 -15.113072 4294967295
32.077312 15.427251 -14.712428 4294967295
32.078934 21.19751 -15.369125 4294967295
32.084019 17.672142 -14.943048 4294967295
32.095028 17.833025 -14.91643 4294967295
32.101276 21.519646 -15.314593 4294967295
32.103184 18.154089 -14.919921 4294967295
32.112347 20.558985 -15.158813 4294967295
32.120358 20.880087 -15.162886 4294967295
32.171017 21.685303 -15.047848 4294967295
32.199284 15.261886 -14.869917 4294967295
32.226372 18.629282 -15.146017 4294967295
32.227257 15.583578 -14.792375 4294967295
32.246834 16.386076 -14.804474 4294967295
32.286545 20.075558 -15.065897 4294967295
25.229305 22.597826 -15.94874 4294967295
25.230629 21.958887 -15.868436 4294967295
25.232113 22.757828 -15.955395 4294967295
25.232641 22.278595 -15.897149 4294967295
25.240919 24.356039 -16.104303 4294967295
25.241821 23.87694 -16.044477 4294967295
25.253813 22.120617 -15.787939 4294967295
25.258142 24.038269 -15.993353 4294967295
25.263657 23.559523 -15.913796 4294967295
25.272129 22.921183 -15.802921 4294967295
25.285971 23.242039 -15.781052 4294967295
25.343254 22.430609 -16.144659 4294967295
25.376787 24.509895 -16.243818 4294967295
25.421991 23.07659 -15.882911 4294967295
25.446459 24.676691 -15.964933 4294967295
25.454895 23.559017 -15.79833 4294967295
25.469452 23.720209 -15.75481 4294967295
25.507252 21.948315 -16.089325 4294967295
25.516039 23.546251 -16.238224 4294967295
25.521605 23.227354 -16.177204 4294967295
25.536396 22.589762 -16.039524 4294967295
25.543224 23.069603 -16.06632 4294967295
25.545971 22.111311 -15.942724 4294967295
25.54863 23.389582 -16.080534 4294967295
25.557354 22.911129 -15.987384 4294967295
25.559036 24.508709 -16.16662 4294967295
25.582888 23.712317 -15.971662 4294967295
25.593237 24.352392 -16.002087 4294967295
25.593309 24.671919 -16.039064 4294967295
25.597378 22.275471 -15.741993 4294967295
25.605837 22.755667 -15.761852 4294967295
25.610315 24.034519 -15.891939 4294967295
25.634626 23.877069 -15.769575 4294967295
25.639845 22.421656 -16.279766 4294967295
25.669907 24.021301 -16.337931 4294967295
25.818232 22.10034 -16.181814 4294967295
25.838552 22.261793 -16.113914 4294967295
25.864565 24.340675 -16.245316 4294967295
25.875263 23.862534 -16.1439 4294967295
25.875622 23.06381 -16.049234 4294967295
25.879251 21.945681 -15.903358 4294967295
25.88291 22.585144 -15.962314 4294967295
25.890215 24.662708 -16.173391 4294967295
25.900743 23.385658 -15.979546 4294967295
25.905443 22.906717 -15.903639 4294967295
25.908836 21.788309 -15.75874 4294967295
25.930967 22.429508 -15.739063 4294967295
25.945438 23.709457 -15.826553 4294967295
25.947355 23.230152 -15.762481 4294967295
25.957691 24.030285 -15.81167 4294967295
26.089872 22.26609 -15.743321 4294967295
26.102806 24.345005 -15.930501 4294967295
26.133841 23.388977 -15.686769 4294967295
26.146791 21.93437 -16.1623 4294967295
26.186003 24.333948 -16.274902 4294967295
26.186441 23.695057 -16.198606 4294967295
26.196934 21.778721 -15.930639 4294967295
26.20298 22.578207 -15.998045 4294967295
26.225616 22.73999 -15.920503 4294967295
26.233696 23.37994 -15.960664 4294967295
26.236624 24.179182 -16.041313 4294967295
26.244017 23.860315 -15.972679 4294967295
26.24646 22.102472 -15.757463 4294967295
26.253103 24.660187 -16.027174 4294967295
26.256638 23.062403 -15.82597 4294967295
26.276346 23.224039 -15.760875 4294967295
26.339956 22.093412 -16.057978 4294967295
26.365765 24.01296 -16.171764 4294967295
26.428604 22.42058 -15.719007 4294967295
26.434031 24.499046 -15.937998 4294967295
26.456207 22.902624 -15.657741 4294967295
26.496752 21.929884 -16.070948 4294967295
26.49725 23.048304 -16.199047 4294967295
26.539928 24.330427 -16.166971 4294967295
26.544443 23.691748 -16.073435 4294967295
26.549574 24.1716 -16.1075 4294967295
26.550722 24.651047 -16.158428 4294967295
26.552031 22.573784 -15.911043 4294967295
26.570847 22.095863 -15.775455 4294967295
26.592798 24.495476 -15.96155 4294967295
26.602123 22.738016 -15.717332 4294967295
26.613056 23.218624 -15.726831 4294967295
26.616362 23.378801 -15.731434 4294967295
26.701252 24.007561 -16.142286 4294967295
26.704033 22.090134 -15.907351 4294967295
26.709091 22.729874 -15.960334 4294967295
26.718113 23.050322 -15.959338 4294967295
26.798895 23.8571 -15.710372 4294967295
26.827682 22.083612 -16.079351 4294967295
26.830509 22.882793 -16.160334 4294967295
26.835978 22.723492 -16.118622 4294967295
26.840889 22.404327 -16.060677 4294967295
26.850718 23.52376 -16.149227 4294967295
26.852924 23.044586 -16.084131 4294967295
26.868275 24.643923 -16.20509 4294967295
26.881491 24.485462 -16.130629 4294967295
26.883608 23.367001 -15.991558 4294967295
26.911568 24.168798 -15.966292 4294967295
26.913839 23.849339 -15.9195 4294967295
26.926163 22.571518 -15.718615 4294967295
27.032465 24.00174 -16.131266 4294967295
27.06094 22.086233 -15.787942 4294967295
27.061146 24.643789 -16.084457 4294967295
27.197681 22.080805 -15.904577 4294967295
27.201183 22.400806 -15.926958 4294967295
27.207508 24.15955 -16.104631 4294967295
27.211361 24.31974 -16.106949 4294967295
27.217928 23.201536 -15.949202 4294967295
27.22047 22.882053 -15.901313 4294967295
27.233185 22.24365 -15.773325 4294967295
27.257893 22.725466 -15.724823 4294967295
27.260015 23.844904 -15.845956 4294967295
27.264166 22.566101 -15.67976 4294967295
27.283792 23.367432 -15.689878 4294967295
27.381313 23.518074 -15.990516 4294967295
27.51033 22.872431 -16.065159 4294967295
27.53879 24.153736 -16.093853 4294967295
27.547028 22.555918 -15.873514 4294967295
27.547577 22.076302 -15.81549 4294967295
27.551676 23.035961 -15.909652 4294967295
27.551966 23.835312 -16.001265 4294967295
27.565041 23.516806 -15.909087 4294967295
27.582722 22.399073 -15.70465 4294967295
27.58889 23.199202 -15.771546 4294967295
27.594126 24.638762 -15.916624 4294967295
27.607258 24.000467 -15.787074 4294967295
27.614069 23.361416 -15.684112 4294967295
27.632586 24.482691 -15.736181 4294967295
27.728035 24.312977 -16.007891 4294967295
27.738792 22.715082 -15.777033 4294967295
27.739895 22.075483 -15.698129 4294967295
27.768898 22.557756 -15.631848 4294967295
27.776333 22.23847 -15.563431 4294967295
27.784821 23.358919 -15.657728 4294967295
27.789906 24.478962 -15.766319 4294967295
27.794998 23.199888 -15.596363 4294967295
27.858742 21.908684 -15.871242 4294967295
27.867308 24.147646 -16.094988 4294967295
27.87903 23.82905 -16.008652 4294967295
27.881336 23.509518 -15.961867 4294967295
27.893064 22.871004 -15.838377 4294967295
27.941799 23.994921 -15.763566 4294967295
27.942011 22.715355 -15.614183 4294967295
27.96459 24.636894 -15.742079 4294967295
28.003851 22.383596 -16.007973 4294967295
28.05018 23.02717 -15.887741 4294967295
28.116444 23.672937 -15.6839 4294967295
28.12969 24.314034 -15.702547 4294967295
28.133204 23.194555 -15.557913 4294967295
28.15143 24.63611 -15.648453 4294967295
28.191694 23.022041 -15.98394 4294967295
28.194208 22.382675 -15.899238 4294967295
28.203035 23.662613 -16.010557 4294967295
28.221144 24.623642 -16.0459 4294967295
28.223141 23.344671 -15.889214 4294967295
28.243229 24.306032 -15.916274 4294967295
28.276161 22.22962 -15.537126 4294967295
28.280085 22.549942 -15.557784 4294967295
28.281166 23.50993 -15.664552 4294967295
28.293285 21.911013 -15.428222 4294967295
28.294254 22.871166 -15.535491 4294967295
28.296906 23.991323 -15.654236 4294967295
28.310492 22.072453 -15.374639 4294967295
28.312836 22.712776 -15.439041 4294967295
28.360216 22.059853 -15.855695 4294967295
28.381104 22.861248 -15.86091 4294967295
28.403036 24.142633 -15.917375 4294967295
28.426746 24.464794 -15.855198 4294967295
28.427372 23.025282 -15.685726 4294967295
28.435452 23.665884 -15.72606 4294967295
28.442398 22.226633 -15.530077 4294967295
28.459728 21.908022 -15.420404 4294967295
28.462448 22.548355 -15.483212 4294967295
28.462973 24.628332 -15.722093 4294967295
28.478601 22.389698 -15.397026 4294967295
28.484001 23.350367 -15.485713 4294967295
28.495445 24.311548 -15.549084 4294967295
28.542833 22.378103 -15.816898 4294967295
28.586748 24.141445 -15.837086 4294967295
28.607721 22.863598 -15.601096 4294967295
28.644207 23.986965 -15.578284 4294967295
28.669863 23.349222 -15.39683 4294967295
28.757278 24.458895 -15.849144 4294967295
28.764566 23.659765 -15.726075 4294967295
28.776125 23.180849 -15.622201 4294967295
28.816208 24.624695 -15.621545 4294967295
28.828011 23.985744 -15.498115 4294967295
28.863791 22.53113 -15.869184 4294967295
28.898199 23.653835 -15.85522 4294967295
28.906204 22.05476 -15.6366 4294967295
28.915195 24.135309 -15.839851 4294967295
28.94088 22.697729 -15.565974 4294967295
28.954933 24.299122 -15.692578 4294967295
28.955568 22.378912 -15.467616 4294967295
29.070539 23.331551 -15.78578 4294967295
29.076698 23.49209 -15.778618 4294967295
29.117701 22.535629 -15.496588 4294967295
29.126377 22.696423 -15.478938 4294967295
29.132328 24.617361 -15.67637 4294967295
29.133862 23.017181 -15.484781 4294967295
29.138428 23.817825 -15.558353 4294967295
29.154758 22.218603 -15.305038 4294967295
29.190632 24.463058 -15.41487 4294967295
29.252043 22.04985 -15.567262 4294967295
29.268829 23.971573 -15.719505 4294967295
29.32267 23.496462 -15.439796 4294967295
29.354288 23.819561 -15.345186 4294967295
29.399134 23.965281 -15.862287 4294967295
29.402786 23.325674 -15.773092 4294967295
29.406742 23.806013 -15.812144 4294967295
29.41923 23.007122 -15.667696 4294967295
29.426607 24.127882 -15.766527 4294967295
29.433455 24.448545 -15.775057 4294967295
29.464357 22.851028 -15.461472 4294967295
29.465267 21.890589 -15.346611 4294967295
29.485729 22.212471 -15.298514 4294967295
29.56933 22.362663 -15.654141 4294967295
29.581579 22.043596 -15.566244 4294967295
29.590656 22.684547 -15.602526 4294967295
29.667921 23.491766 -15.374013 4294967295
29.73634 22.83984 -15.69983 4294967295
29.740986 23.320324 -15.736016 4294967295
29.783945 23.164124 -15.539235 4294967295
29.785152 24.12459 -15.64519 4294967295
29.788353 24.605032 -15.687377 4294967295
29.803978 22.205282 -15.345095 4294967295
29.809195 23.966806 -15.526929 4294967295
29.818211 23.487377 -15.43402 4294967295
29.819633 23.007187 -15.372617 4294967295
29.826021 23.808294 -15.438604 4294967295
29.874165 22.514391 -15.774154 4294967295
29.920139 22.038069 -15.528064 4294967295
30.004478 24.286861 -15.437281 4294967295
30.098917 24.277065 -15.72852 4294967295
30.103077 23.317108 -15.600422 4294967295
30.118759 22.357918 -15.424572 4294967295
30.138889 22.199461 -15.322707 4294967295
30.141024 23.800831 -15.498736 4294967295
30.153128 23.161474 -15.374669 4294967295
30.162308 23.962931 -15.429093 4294967295
30.180799 23.484238 -15.297057 4294967295
30.181309 24.445114 -15.40587 4294967295
30.245211 23.151945 -15.67544 4294967295
30.290958 24.596806 -15.652464 4294967295
30.31632 22.677824 -15.325826 4294967295
30.32469 24.119776 -15.457538 4294967295
30.371248 22.345257 -15.742986 4294967295
30.385038 22.666517 -15.722928 4294967295
30.395624 23.787767 -15.808429 4294967295
30.410872 22.188463 -15.56076 4294967295
30.429482 23.150587 -15.59467 4294967295
30.451399 23.47274 -15.541041 4294967295
30.457125 22.832792 -15.443495 4294967295
30.477549 23.635239 -15.451466 4294967295
30.487347 24.596886 -15.52181 4294967295
30.494627 22.996193 -15.307 4294967295
30.497677 24.277641 -15.442194 4294967295
30.503139 22.035851 -15.160936 4294967295
30.503151 23.957884 -15.382634 4294967295
30.531141 24.441015 -15.322416 4294967295
30.574715 23.786041 -15.749121 4294967295
30.618826 24.270424 -15.622441 4294967295
30.629591 22.349911 -15.356428 4294967295
30.737064 24.10288 -15.795914 4294967295
30.755226 23.144077 -15.610319 4294967295
30.762012 22.023836 -15.453123 4294967295
30.781336 22.665983 -15.447284 4294967295
30.78717 22.506334 -15.40476 4294967295
30.798227 23.788416 -15.50685 4294967295
30.800335 23.468342 -15.461245 4294967295
30.829483 24.592066 -15.470292 4294967295
30.843132 22.99164 -15.229392 4294967295
30.864019 23.954697 -15.254075 4294967295
30.895802 22.818684 -15.673158 4294967295
30.916548 22.340118 -15.532349 4294967295
30.972376 24.426771 -15.542282 4294967295
31.044361 21.853638 -15.629252 4294967295
31.051453 22.654707 -15.692284 4294967295
31.073162 23.136871 -15.658285 4294967295
31.086103 24.098635 -15.715693 4294967295
31.095015 22.017824 -15.439248 4294967295
31.114511 23.781063 -15.561939 4294967295
31.12019 23.461306 -15.501693 4294967295
31.12702 22.500946 -15.362896 4294967295
31.147894 23.623974 -15.406162 4294967295
31.150791 24.264894 -15.468037 4294967295
31.171097 22.825073 -15.218441 4294967295
31.197958 23.948975 -15.237112 4294967295
31.201012 24.429892 -15.27991 4294967295
31.298611 24.580517 -15.575017 4294967295
31.308998 23.300207 -15.38481 4294967295
31.408672 23.131208 -15.634148 4294967295
31.410625 22.650986 -15.570833 4294967295
31.417416 22.811703 -15.561391 4294967295
31.456818 23.455774 -15.473361 4294967295
31.470339 22.976431 -15.362541 4294967295
31.471544 22.175518 -15.26539 4294967295
31.479807 23.778215 -15.41586 4294967295
31.494392 24.260134 -15.411295 4294967295
31.51442 22.499519 -15.126235 4294967295
31.51709 23.300961 -15.207491 4294967295
31.588039 23.930075 -15.666716 4294967295
31.60775 22.650599 -15.438476 4294967295
31.624336 24.413925 -15.573159 4294967295
31.672995 24.578802 -15.392095 4294967295
31.691196 23.458935 -15.188424 4294967295
31.703514 22.81897 -15.064149 4294967295
31.706848 24.101364 -15.197986 4294967295
31.76351 22.646711 -15.475926 4294967295
31.770676 23.608355 -15.557099 4294967295
31.775532 23.929121 -15.574047 4294967295
31.780569 22.007339 -15.332335 4294967295
31.802475 23.290842 -15.389999 4294967295
31.828392 24.735046 -15.449656 4294967295
31.849447 24.576893 -15.345 4294967295
31.873516 23.777948 -15.154277 4294967295
31.90695 22.801949 -15.582199 4294967295
31.928766 24.245285 -15.658641 4294967295
32.019051 23.132057 -15.160292 4294967295
32.05838 24.738396 -15.183622 4294967295
32.105515 21.840429 -15.334092 4294967295
32.108898 23.442787 -15.50438 4294967295
32.109875 24.083605 -15.574031 4294967295
32.112946 22.962549 -15.432612 4294967295
32.114845 22.64229 -15.388014 4294967295
32.130642 23.92535 -15.470742 4294967295
32.138157 22.163517 -15.237465 4294967295
32.16346 24.24885 -15.373435 4294967295
32.186958 24.411324 -15.295819 4294967295
32.192684 22.488544 -15.05139 4294967295
32.19603 23.610855 -15.166656 4294967295
32.201279 22.80987 -15.053089 4294967295
32.293442 0.1811804 -14.101352 4294967295
32.298714 -3.5007215 -14.330181 4294967295
32.337349 -2.2208343 -14.319531 4294967295
32.34845 0.0235312 -14.532004 4294967295
32.352425 -4.3075957 -14.018351 4294967295
32.357887 -1.5808296 -14.309237 4294967295
32.36314 -2.5436909 -14.177226 4294967295
32.368103 0.50336778 -14.506933 4294967295
32.37191 -0.77986622 -14.344018 4294967295
32.373859 -0.298839 -14.391311 4294967295
32.375229 -3.9887416 -13.961925 4294967295
32.375626 -3.6678429 -13.997174 4294967295
32.397949 -0.14001609 -14.311265 4294967295
32.404949 -3.1889484 -13.932526 4294967295
32.408676 0.34051529 -14.322679 4294967295
32.409229 -0.94286573 -14.17302 4294967295
32.409237 -3.0288258 -13.933414 4294967295
32.410358 -4.1524029 -13.799799 4294967295
32.41172 -1.4243655 -14.107559 4294967295
32.422218 -0.62288588 -14.156784 4294967295
32.440826 -2.068433 -13.914829 4294967295
32.475258 0.1759479 -14.032116 4294967295
32.484901 -3.0257101 -14.297866 4294967295
32.487015 -3.8279316 -14.197152 4294967295
32.497738 -2.2247744 -14.337502 4294967295
32.535934 -2.3881936 -14.163059 4294967295
32.580727 0.65673441 -14.330066 4294967295
32.591225 -2.7135677 -13.900341 4294967295
32.598991 -0.3069919 -14.144993 4294967295
32.616234 -1.1105207 -13.982454 4294967295
32.646088 -3.1901348 -14.294162 4294967295
32.676838 -1.58855 -14.352779 4294967295
32.684166 -2.8724661 -14.175591 4294967295
32.684608 -3.6747372 -14.081719 4294967295
32.686604 -3.9958365 -14.036742 4294967295
32.68861 -2.3915241 -14.212694 4294967295
32.689701 -3.3542671 -14.097755 4294967295
32.697357 -1.9109154 -14.232239 4294967295
32.6987 -1.1089184 -14.3188 4294967295
32.707024 -1.2699286 -14.266434 4294967295
32.715641 -2.7145884 -14.065559 4294967295
32.718117 -0.3081874 -14.331656 4294967295
32.719585 -0.78954017 -14.270432 4294967295
32.744755 -0.95172238 -14.149343 4294967295
32.758514 -3.0391009 -13.853757 4294967295
32.759907 0.33086199 -14.234838 4294967295
32.766476 -0.15089869 -14.152812 4294967295
32.766678 0.4908914 -14.225638 4294967295
32.773697 -0.47230399 -14.086521 4294967295
32.774574 -0.63283873 -14.064527 4294967295
32.808437 0.64885592 -14.073758 4294967295
32.823734 -3.3559754 -14.223397 4294967295
32.831856 -3.5171084 -14.171882 4294967295
32.833393 -2.5546496 -14.276048 4294967295
32.902142 -1.7577453 -14.087873 4294967295
32.903656 -4.1654091 -13.805494 4294967295
32.904713 -1.4369936 -14.114211 4294967295
32.92804 -3.6859632 -13.761328 4294967295
32.977844 -3.840693 -14.21189 4294967295
33.010986 -3.5226882 -14.113711 4294967295
33.025303 -3.0425043 -14.110617 4294967295
33.033394 -1.9199384 -14.20648 4294967295
33.03632 -0.31582549 -14.37855 4294967295
33.041359 -1.7600874 -14.192443 4294967295
33.041428 -2.2414715 -14.136971 4294967295
33.042294 -1.4392551 -14.225437 4294967295
33.042309 -4.0068994 -13.930928 4294967295
33.047085 -2.5628633 -14.077122 4294967295
33.049877 -2.0816584 -14.120963 4294967295
33.071819 0.0027447001 -14.27085 4294967295
33.080814 0.64395672 -14.30784 4294967295
33.084545 -0.9608736 -14.108644 4294967295
33.090267 0.32249361 -14.23258 4294967295
33.092621 -1.60342 -14.002155 4294967295
33.10519 -1.2833223 -13.987792 4294967295
33.120537 -0.160841 -14.054175 4294967295
33.131866 -0.80364269 -13.934427 4294967295
33.135357 -0.48283151 -13.957041 4294967295
33.154373 -2.5625553 -14.311478 4294967295
33.161324 0.47866341 -13.961802 4294967295
33.161358 -2.2422545 -14.319856 4294967295
33.176994 -3.2061954 -14.145901 4294967295
33.244114 -3.6934686 -13.817648 4294967295
33.305145 -3.2074375 -14.295188 4294967295
33.326935 -1.9257363 -14.353732 4294967295
33.33392 -3.0493963 -14.196641 4294967295
33.34164 -3.8524272 -14.073334 4294967295
33.350307 -1.7670592 -14.277157 4294967295
33.352161 -1.4463072 -14.306398 4294967295
33.353874 0.1578114 -14.483263 4294967295
33.362995 -4.1753397 -13.949745 4294967295
33.368156 -0.16392609 -14.388497 4294967295
33.37714 -0.96673751 -14.260087 4294967295
33.380924 -2.7322907 -14.042436 4294967295
33.383583 -2.0905185 -14.105191 4294967295
33.385918 -3.3747537 -13.948556 4294967295
33.404755 -1.6106285 -14.074351 4294967295
33.407978 -2.2529099 -13.987684 4294967295
33.438026 0.63403088 -14.196685 4294967295
33.464741 -0.81228667 -13.922652 4294967295
33.473701 -3.532979 -14.243451 4294967295
33.53878 -0.81027991 -14.291781 4294967295
33.568233 -0.97278571 -14.153899 4294967295
33.577438 -3.0602505 -13.877495 4294967295
33.587543 -1.455678 -14.020377 4294967295
33.596237 -3.7041183 -13.727612 4294967295
33.602612 0.30891439 -14.161485 4294967295
33.61047 -2.2601211 -13.835386 4294967295
33.623127 -0.17391071 -14.023103 4294967295
33.651524 -3.3779688 -14.20938 4294967295
33.653091 -3.2176323 -14.221395 4294967295
33.656555 0.62670892 -13.979431 4294967295
33.666256 -4.021194 -14.076122 4294967295
33.678596 -3.0592825 -14.136348 4294967295
33.680218 -0.81289363 -14.387006 4294967295
33.680538 -1.1338025 -14.348977 4294967295
33.682518 -3.5411093 -14.065314 4294967295
33.69136 0.46983081 -14.48882 4294967295
33.691425 -2.5788519 -14.139458 4294967295
33.691864 -1.2950622 -14.284692 4294967295
33.701279 -0.4934198 -14.338399 4294967295
33.718185 -1.4574378 -14.159622 4294967295
33.737869 -2.2614865 -13.987918 4294967295
33.739151 -1.9405242 -14.019486 4294967295
33.741959 -1.6196841 -14.044872 4294967295
33.75811 -0.33668071 -14.126439 4294967295
33.764122 -0.65811151 -14.06531 4294967295
33.768833 -0.97949201 -14.009449 4294967295
33.77243 -2.424746 -13.829411 4294967295
33.80611 0.1418426 -13.987049 4294967295
33.843246 -2.5821092 -14.192638 4294967295
33.853809 -2.1014764 -14.20498 4294967295
33.870266 -0.016516 -14.377126 4294967295
33.875702 -3.2268105 -13.987691 4294967295
33.907295 0.30212051 -14.263962 4294967295
33.953941 -1.7879834 -13.836217 4294967295
33.988544 0.45772001 -13.953431 4294967295
33.988857 -2.2639318 -14.307618 4294967295
33.996189 -3.7089202 -14.112684 4294967295
34.005508 -3.2281952 -14.130074 4294967295
34.015488 -4.0316625 -13.997858 4294967295
34.03558 -1.1440496 -14.247151 4294967295
34.058941 -0.82467723 -14.189395 4294967295
34.059063 -2.9115717 -13.950122 4294967295
34.060982 -2.4300771 -13.997457 4294967295
34.062897 -1.7880703 -14.063191 4294967295
34.06599 -1.4672388 -14.087405 4294967295
34.068386 -2.7517724 -13.930771 4294967295
34.068413 -0.98584151 -14.13271 4294967295
34.077259 -0.0233569 -14.207125 4294967295
34.086399 -0.66602248 -14.096702 4294967295
34.086906 -3.5562127 -13.763951 4294967295
34.090618 0.61784452 -14.226574 4294967295
34.091225 -0.34528559 -14.113923 4294967295
34.106853 0.13530751 -14.105824 4294967295
34.110363 -0.1859892 -14.054897 4294967295
34.223183 -4.0398378 -13.825215 4294967295
34.232761 -2.1137974 -14.006882 4294967295
34.238464 -4.2018027 -13.745073 4294967295
34.240932 0.13305029 -14.230917 4294967295
34.249081 -3.3997173 -13.794005 4294967295
34.283951 -1.7965157 -13.836755 4294967295
34.304054 -1.1555717 -13.829005 4294967295
34.314056 -0.51385278 -13.862066 4294967295
34.319427 -3.075022 -14.213185 4294967295
34.324841 0.44902039 -13.928701 4294967295
34.34573 -2.916672 -14.12534 4294967295
34.354858 -3.3990359 -14.033423 4294967295
34.362206 -2.7574787 -14.077176 4294967295
34.363392 -3.7208748 -13.962247 4294967295
34.375027 -1.6347498 -14.153892 4294967295
34.388947 -4.0442781 -13.822327 4294967295
34.397888 -2.1180897 -14.00654 4294967295
34.405743 -0.9948107 -14.103335 4294967295
34.426559 -0.67513549 -14.056041 4294967295
34.426907 -1.3174108 -13.981194 4294967295
34.442593 0.1265973 -14.083121 4294967295
34.448475 -1.8007452 -13.839061 4294967295
34.448879 -2.4432237 -13.763978 4294967295
34.467457 -0.035526302 -13.964417 4294967295
34.504543 -3.8837082 -14.040252 4294967295
34.516506 -2.2793448 -14.175484 4294967295
34.518639 -1.1559287 -14.29529 4294967295
34.546501 -0.3552981 -14.27468 4294967295
34.554722 -0.034807298 -14.278234 4294967295
34.559689 0.60690677 -14.331585 4294967295
34.573318 -2.4443319 -13.92801 4294967295
34.604816 -3.0893061 -13.727561 4294967295
34.637165 -4.2062836 -14.134161 4294967295
34.638371 -0.68249458 -13.867619 4294967295
34.651348 0.119707 -13.907083 4294967295
34.660618 -3.5662062 -14.113017 4294967295
34.661911 -2.6031454 -14.217846 4294967295
34.676102 -2.2832174 -14.197359 4294967295
34.705887 -0.68016082 -14.260777 4294967295
34.708813 -1.3224696 -14.175632 4294967295
34.70945 -2.767494 -14.007986 4294967295
34.721661 -3.0896511 -13.922085 4294967295
34.723358 -3.4109828 -13.87855 4294967295
34.737801 -0.52175492 -14.150601 4294967295
34.742718 -3.8944976 -13.745491 4294967295
34.746826 -0.2012473 -14.15093 4294967295
34.749191 -1.8070964 -13.957954 4294967295
34.757629 -2.4501431 -13.850574 4294967295
34.776665 -1.0061016 -13.939042 4294967295
34.776791 -3.2548547 -13.681618 4294967295
34.779278 -2.1305804 -13.800067 4294967295
34.805397 0.59799832 -14.006808 4294967295
34.861019 -1.6468705 -14.190692 4294967295
34.873619 0.2785393 -14.359989 4294967295
34.8848 -2.130316 -14.039983 4294967295
34.88546 -0.36428151 -14.239032 4294967295
34.89233 -1.3280332 -14.101383 4294967295
34.909439 -0.0447344 -14.17924 4294967295
34.915581 -3.7389035 -13.732684 4294967295
34.917854 0.43639341 -14.200396 4294967295
34.949234 -1.8139653 -13.817393 4294967295
34.967251 -0.2089864 -13.928342 4294967295
34.9748 -3.8946357 -14.140275 4294967295
34.977406 0.1116031 -13.924192 4294967295
34.987885 -3.093039 -14.179311 4294967295
34.989864 -0.85300881 -13.764002 4294967295
35.015057 -3.5769997 -14.015059 4294967295
35.016735 -2.4531732 -14.136639 4294967295
35.025082 -2.614392 -14.084749 4294967295
35.030632 -1.9725746 -14.135758 4294967295
35.044121 -1.6524559 -14.118198 4294967295
35.047298 -1.3315626 -14.142095 4294967295
35.049366 -3.2587161 -13.913778 4294967295
35.062359 0.1123848 -14.246523 4294967295
35.063427 -0.048225101 -14.223903 4294967295
35.069145 -2.9391222 -13.870933 4294967295
35.069973 -1.0120192 -14.087615 4294967295
35.072868 -0.69107068 -14.112652 4294967295
35.105343 -2.2994754 -13.798761 4294967295
35.109287 -3.4243913 -13.654515 4294967295
35.110542 0.59115589 -14.107919 4294967295
35.112026 -0.53308767 -13.973621 4294967295
35.213066 -0.5330711 -14.231038 4294967295
35.24762 -3.1051772 -13.799044 4294967295
35.249573 -3.7479529 -13.717861 4294967295
35.24963 -3.9086208 -13.6993 4294967295
35.268417 -2.785568 -13.752192 4294967295
35.27729 -2.1436427 -13.789893 4294967295
35.296101 -1.181116 -13.824369 4294967295
35.308056 -1.9853075 -13.684685 4294967295
35.309116 -0.21812209 -13.882115 4294967295
35.323692 0.26289341 -13.878605 4294967295
35.345901 -4.2281742 -13.939155 4294967295
35.353951 -3.9076676 -13.943511 4294967295
35.357792 -3.4261794 -13.983059 4294967295
35.358234 0.4214687 -13.758294 4294967295
35.365723 -1.6603578 -14.15276 4294967295
35.398735 0.42475459 -14.258497 4294967295
35.410076 -2.7879992 -13.846583 4294967295
35.418377 -2.1460962 -13.8866 4294967295
35.421944 -2.4676528 -13.835634 4294967295
35.424286 -3.5924671 -13.697933 4294967295
35.427593 -0.70115209 -14.014537 4294967295
35.431389 0.58338863 -14.145885 4294967295
35.43457 -0.54100329 -14.004894 4294967295
35.450569 -3.1126251 -13.647477 4294967295
35.493256 -0.3842009 -13.787885 4294967295
35.499336 -3.749718 -14.040977 4294967295
35.513294 -0.064127199 -13.744191 4294967295
35.530205 -1.3434325 -14.191962 4294967295
35.549297 -1.5053791 -14.097148 4294967295
35.554798 -1.1845875 -14.111729 4294967295
35.562279 -3.9158182 -13.77036 4294967295
35.610092 -1.6704165 -13.835242 4294967295
35.615303 -3.599031 -13.59447 4294967295
35.619385 -2.4744818 -13.706388 4294967295
35.620636 -2.1532114 -13.738027 4294967295
35.624508 -3.1176796 -13.612566 4294967295
35.626282 -0.86827201 -13.861986 4294967295
35.643787 -1.8335738 -13.681914 4294967295
35.647102 -0.3876712 -13.833542 4294967295
35.655632 0.57575768 -13.909307 4294967295
35.662472 -0.067311801 -13.80862 4294967295
35.681038 0.41358551 -13.789227 4294967295
35.682491 -3.2737994 -14.023705 4294967295
35.710773 -4.2400446 -13.800588 4294967295
35.741413 -4.0820961 -13.696215 4294967295
35.741669 -1.5115992 -13.988228 4294967295
35.744598 -2.6363158 -13.848305 4294967295
35.752026 -1.6729851 -13.928461 4294967295
35.759472 -2.7981675 -13.770447 4294967295
35.760139 -1.9948856 -13.859362 4294967295
35.769978 0.25335741 -14.07636 4294967295
35.776093 -1.19276 -13.887077 4294967295
35.787464 -3.4432607 -13.585102 4294967295
35.808365 -0.71296948 -13.812864 4294967295
35.812641 -0.0705593 -13.869023 4294967295
35.839951 -3.1168966 -14.072789 4294967295
35.854771 -3.5999887 -13.958608 4294967295
35.874386 -3.9229696 -13.843539 4294967295
35.904423 -2.3188941 -13.90648 4294967295
35.941631 -3.4466794 -13.629501 4294967295
35.943565 -1.8398545 -13.804887 4294967295
35.951466 -0.073096 -13.974693 4294967295
35.951687 -1.5190861 -13.809041 4294967295
35.955502 -2.8049593 -13.647281 4294967295
35.965359 -0.71664232 -13.845934 4294967295
35.966774 -2.1629875 -13.675461 4294967295
35.966972 -2.4844332 -13.63804 4294967295
35.967293 0.56853342 -13.984662 4294967295
35.969063 -1.1989466 -13.776196 4294967295
35.975204 -2.9672751 -13.550179 4294967295
35.976074 -0.235314 -13.858026 4294967295
35.983257 0.2462607 -13.884241 4294967295
35.996361 0.084778003 -13.813553 4294967295
36.005623 -0.39790621 -13.721606 4294967295
36.008503 0.40542439 -13.801654 4294967295
36.017147 -2.1585472 -14.134478 4294967295
36.017429 -3.2828705 -14.005279 4294967295
36.019497 -4.2468877 -13.887228 4294967295
36.021931 -3.1226144 -14.005599 4294967295
36.021988 -2.4801347 -14.078553 4294967295
36.032806 -3.9267528 -13.870644 4294967295
36.050636 -1.8398292 -14.037299 4294967295
36.057487 -2.6435578 -13.918435 4294967295
36.05904 -4.0897293 -13.747519 4294967295
36.085934 -3.6099713 -13.69498 4294967295
36.112793 -1.2016901 -13.862247 4294967295
36.202477 -1.5218822 -14.127239 4294967295
36.225483 -0.077946499 -14.200064 4294967295
36.231606 0.56408161 -14.248797 4294967295
36.279869 0.2399573 -14.019725 4294967295
36.286098 -3.9388094 -13.519071 4294967295
36.286888 -2.8136735 -13.644045 4294967295
36.286983 0.72148752 -14.046219 4294967295
36.326 -1.0485545 -13.689323 4294967295
36.32756 0.076363102 -13.811205 4294967295
36.330978 -0.56671059 -13.724366 4294967295
36.347431 -3.1308875 -14.025145 4294967295
36.352425 -3.773901 -13.932084 4294967295
36.37328 -4.2577529 -13.794065 4294967295
36.390503 -0.082128897 -14.200864 4294967295
36.393246 -2.4919348 -13.915657 4294967295
36.403366 -1.6893674 -13.966753 4294967295
36.404564 -1.5287933 -13.980265 4294967295
36.407612 -3.2965264 -13.766923 4294967295
36.412994 -3.6183989 -13.708881 4294967295
36.417732 -2.1724603 -13.854631 4294967295
36.429516 -1.0485473 -13.93569 4294967295
36.450268 -0.72859168 -13.889573 4294967295
36.461746 0.074091598 -13.935293 4294967295
36.463226 -2.3366501 -13.654986 4294967295
36.465786 -0.40822801 -13.86432 4294967295
36.467293 -2.015486 -13.675366 4294967295
36.512802 -0.25052691 -13.695259 4294967295
36.530266 -2.6546953 -14.009831 4294967295
36.538509 -3.4586978 -13.885595 4294967295
36.571949 -3.1400869 -13.788993 4294967295
36.594288 -2.1776104 -13.809755 4294967295
36.596046 -0.73151731 -13.967317 4294967295
36.601795 -3.3032727 -13.651829 4294967295
36.606461 -1.0535905 -13.88928 4294967295
36.612301 -2.9826493 -13.646574 4294967295
36.626328 0.71266532 -14.011335 4294967295
36.638199 -1.2164989 -13.744636 4294967295
36.646561 0.22940651 -13.87594 4294967295
36.650467 -0.25297099 -13.805539 4294967295
36.655815 -0.092588298 -13.802544 4294967295
36.673012 -4.1031227 -13.934894 4294967295
36.703094 -2.8202796 -13.961407 4294967295
36.719032 -3.3036327 -13.843174 4294967295
36.727818 -2.5008683 -13.899612 4294967295
36.74173 -0.41312051 -14.081871 4294967295
36.770267 -1.218431 -13.877005 4294967295
36.780483 -3.9518058 -13.525541 4294967295
36.787846 -4.2740221 -13.45967 4294967295
36.797668 0.065385699 -13.914283 4294967295
36.826141 -1.0615668 -13.673086 4294967295
36.921585 -4.1148376 -13.60371 4294967295
36.92181 -2.02525 -13.840413 4294967295
36.932106 -0.258266 -14.000507 4294967295
36.93446 -2.5083954 -13.73532 4294967295
36.94141 -1.0623727 -13.872195 4294967295
36.943535 0.062392399 -13.991663 4294967295
36.944866 -1.2233278 -13.84019 4294967295
36.948689 -0.74143988 -13.879827 4294967295
36.949539 -1.5451096 -13.785068 4294967295
36.95726 0.38294569 -13.973683 4294967295
36.974098 -0.58239561 -13.797155 4294967295
36.99662 0.5413385 -13.835642 4294967295
37.00058 -2.8351586 -13.436012 4294967295
37.006351 -3.7907712 -13.960248 4294967295
37.01897 -0.4245595 -13.637194 4294967295
37.022999 -0.90717828 -13.566337 4294967295
37.040421 -3.1508641 -13.898046 4294967295
37.044857 -2.6691277 -13.935228 4294967295
37.058533 -3.313067 -13.807862 4294967295
37.069901 -2.8318217 -13.817541 4294967295
37.073856 -3.6358206 -13.71049 4294967295
37.098743 -1.3874985 -13.867471 4294967295
37.134777 0.53875929 -13.943707 4294967295
37.162331 -0.1058366 -13.761302 4294967295
37.25676 -2.6771135 -13.750484 4294967295
37.258881 -0.74853408 -13.961226 4294967295
37.261604 0.2154735 -14.059985 4294967295
37.263966 -1.5524771 -13.84977 4294967295
37.267124 -3.8033366 -13.581514 4294967295
37.268665 -0.1063487 -13.99548 4294967295
37.273438 -1.8746426 -13.775679 4294967295
37.273773 -1.2317063 -13.847401 4294967295
37.28178 -3.483001 -13.559924 4294967295
37.294106 -2.8408413 -13.584117 4294967295
37.299591 -1.7157959 -13.690248 4294967295
37.302753 -0.26921511 -13.84211 4294967295
37.310593 -3.9678984 -13.390834 4294967295
37.315689 0.051462501 -13.827351 4294967295
37.316086 -2.3601711 -13.551773 4294967295
37.32159 -1.3958153 -13.639569 4294967295
37.332108 -0.59262502 -13.689209 4294967295
37.345596 0.3711701 -13.745353 4294967295
37.353905 -1.0764672 -13.547996 4294967295
37.36871 0.53058738 -13.672011 4294967295
37.376488 -1.8743398 -14.022609 4294967295
37.389103 -2.6788361 -13.881368 4294967295
37.400425 -3.9657207 -13.690449 4294967295
37.406879 -2.1980283 -13.865708 4294967295
37.427227 -0.27082801 -14.004188 4294967295
37.43924 -0.91449189 -13.883595 4294967295
37.442673 0.5317536 -14.034295 4294967295
37.579964 -3.1674466 -13.725698 4294967295
37.589306 -2.6858954 -13.743487 4294967295
37.599232 -1.4005878 -13.850235 4294967295
37.60107 -3.6515527 -13.587399 4294967295
37.601665 -2.3653176 -13.731086 4294967295
37.605713 -3.9735622 -13.532509 4294967295
37.625854 -2.0455863 -13.671884 4294967295
37.63134 -1.7244154 -13.686692 4294967295
37.642101 -3.0116906 -13.49804 4294967295
37.651291 -3.4949565 -13.406879 4294967295
37.658897 -1.083187 -13.65069 4294967295
37.66264 0.2028617 -13.781939 4294967295
37.671524 -0.44083321 -13.673762 4294967295
37.67881 -0.76291871 -13.608434 4294967295
37.689407 -1.8894726 -13.438676 4294967295
37.704571 -0.1213074 -13.579562 4294967295
37.732368 0.52033472 -13.54266 4294967295
37.754478 -2.8509738 -13.726191 4294967295
37.798683 -1.4072474 -13.715697 4294967295
37.809216 0.68208069 -13.911302 4294967295
37.821529 -2.534626 -13.497625 4294967295
37.863979 -3.0115876 -13.928836 4294967295
37.866932 -1.7337762 -13.409446 4294967295
37.868092 -1.2512794 -13.459641 4294967295
37.879135 -0.44776291 -13.507285 4294967295
37.916103 -2.6942234 -13.759469 4294967295
37.919823 -3.4984634 -13.653562 4294967295
37.940823 -0.1238122 -13.95371 4294967295
37.951782 -3.3403041 -13.545577 4294967295
37.95314 -2.0539036 -13.686187 4294967295
37.954552 -0.28542551 -13.881272 4294967295
37.955059 -2.8580987 -13.587386 4294967295
37.956505 -0.76785141 -13.81884 4294967295
37.959488 -0.92882699 -13.788829 4294967295
37.959507 -3.8234644 -13.46032 4294967295
37.960205 -1.732824 -13.694782 4294967295
37.96759 -2.3766143 -13.592633 4294967295
37.98402 0.67738032 -13.874398 4294967295
37.990559 -3.6652453 -13.355932 4294967295
37.994789 -2.5395446 -13.466987 4294967295
38.002525 0.51553339 -13.78313 4294967295
38.008945 -3.1841385 -13.338071 4294967295
38.013332 0.193295 -13.703988 4294967295
38.022148 -1.2547411 -13.504953 4294967295
38.025116 -1.898391 -13.420231 4294967295
38.042465 -3.0169785 -13.877171 4294967295
38.049538 0.0302663 -13.542833 4294967295
38.049763 -1.09578 -13.414192 4294967295
38.078438 -2.0552094 -13.844666 4294967295
38.085545 -1.7341989 -13.853092 4294967295
38.090939 -0.60928053 -13.959453 4294967295
38.103054 -1.2531316 -13.838745 4294967295
38.131668 0.35271311 -13.908244 4294967295
38.169857 -0.45360929 -13.666484 4294967295
38.185226 -2.3849087 -13.386931 4294967295
38.226707 -3.8267686 -13.711825 4294967295
38.235405 -3.9883192 -13.659315 4294967295
38.246506 -3.667645 -13.652034 4294967295
38.251942 -2.2208858 -13.794683 4294967295
38.254303 -2.5426466 -13.748921 4294967295
38.255363 -2.0603564 -13.799434 4294967295
38.258286 -2.8645606 -13.696766 4294967295
38.275959 -1.579486 -13.772975 4294967295
38.278053 -0.45414719 -13.892319 4294967295
38.289753 0.34896949 -13.937379 4294967295
38.29108 -1.2589514 -13.749854 4294967295
38.292778 -4.1541486 -13.414923 4294967295
38.299141 -3.1895072 -13.499278 4294967295
38.305637 -3.029176 -13.491912 4294967295
38.314434 -3.512501 -13.402527 4294967295
38.314667 -0.2956928 -13.766326 4294967295
38.319839 -1.1001139 -13.654791 4294967295
38.323582 0.186167 -13.785906 4294967295
38.334129 0.50715017 -13.78082 4294967295
38.343224 -1.9060156 -13.471462 4294967295
38.353306 -0.78068238 -13.559419 4294967295
38.356022 -0.1374632 -13.621658 4294967295
38.371559 -1.7471962 -13.378062 4294967295
38.376873 -1.425787 -13.393599 4294967295
38.385361 -2.8658464 -13.847974 4294967295
38.415363 -3.3506598 -13.675177 4294967295
38.48069 0.66487002 -13.873698 4294967295
38.522152 -2.2330742 -13.382398 4294967295
38.535133 -0.78599602 -13.495416 4294967295
38.557251 -3.9963036 -13.695156 4294967295
38.55896 0.0168922 -13.492821 4294967295
38.562263 -0.30509189 -13.443347 4294967295
38.580044 -3.0333095 -13.714833 4294967295
38.583138 0.4981215 -13.4524 4294967295
38.603874 -2.5527194 -13.675778 4294967295
38.60725 -3.1963391 -13.589604 4294967295
38.613182 -0.4628526 -13.876031 4294967295
38.63015 -2.2330461 -13.608891 4294967295
38.637119 -0.30357569 -13.800157 4294967295
38.641529 -2.0730445 -13.582377 4294967295
38.646854 -0.94750232 -13.688992 4294967295
38.652615 0.0170909 -13.775681 4294967295
38.668667 -1.431556 -13.548573 4294967295
38.670891 -1.7534609 -13.503368 4294967295
38.686016 0.1758996 -13.662606 4294967295
38.687202 0.49752101 -13.694397 4294967295
38.68932 -1.9156903 -13.412676 4294967295
