# .PCD v0.7 - Point Cloud Data file format
VERSION 0.7
FIELDS x y z rgb
SIZE 4 4 4 4
TYPE F F F U
COUNT 1 1 1 1
WIDTH 1121
HEIGHT 1
VIEWPOINT 0 0 0 1 0 0 0
POINTS 1121
DATA ascii
-61.560928 68.311508 -30.593264 4294967295
-61.558506 69.222816 -30.729134 4294967295
-61.556828 66.648399 -30.256193 4294967295
-61.551311 66.805305 -30.226286 4294967295
-61.540119 68.180489 -30.352547 4294967295
-61.534836 70.307022 -30.673412 4294967295
-61.515022 70.0242 -30.416233 4294967295
-61.420879 64.659782 -30.087017 4294967295
-61.41486 68.606567 -30.721485 4294967295
-61.396633 67.41214 -30.320461 4294967295
-61.393791 68.475891 -30.478701 4294967295
-61.393368 69.536919 -30.661665 4294967295
-61.39032 68.933937 -30.523399 4294967295
-61.388771 68.783943 -30.480768 4294967295
-61.384731 68.030106 -30.305511 4294967295
-61.382027 70.15432 -30.652451 4294967295
-61.369698 70.318359 -30.552843 4294967295
-61.367409 69.259895 -30.342062 4294967295
-61.361267 70.629982 -30.519941 4294967295
-61.360867 69.721161 -30.355316 4294967295
-61.328503 63.541714 -30.524836 4294967295
-61.321007 64.306419 -30.581814 4294967295
-61.304996 64.01786 -30.36438 4294967295
-61.299564 64.174446 -30.335501 4294967295
-61.298759 63.871902 -30.273745 4294967295
-61.2943 65.846817 -30.575832 4294967295
-61.291637 65.394615 -30.468349 4294967295
-61.289577 64.638489 -30.313547 4294967295
-61.282658 66.009361 -30.483416 4294967295
-61.282284 65.25174 -30.34585 4294967295
-61.274536 67.532578 -30.667633 4294967295
-61.268661 67.689804 -30.634251 4294967295
-61.263969 66.9366 -30.45261 4294967295
-61.256096 65.731148 -30.15807 4294967295
-61.252621 66.189377 -30.202772 4294967295
-61.249439 66.798927 -30.277182 4294967295
-61.249313 67.102264 -30.329393 4294967295
-61.245632 69.68206 -30.746058 4294967295
-61.242855 67.411705 -30.316805 4294967295
-61.225521 70.611305 -30.700712 4294967295
-61.189365 70.345039 -30.277725 4294967295
-61.141853 63.722488 -30.211008 4294967295
-61.134029 64.942848 -30.344833 4294967295
-61.100502 67.248642 -30.403164 4294967295
-61.09322 68.013611 -30.462364 4294967295
-61.083195 69.841988 -30.680292 4294967295
-61.055302 69.263672 -30.289099 4294967295
-61.05302 70.023888 -30.39929 4294967295
-61.050922 70.480698 -30.457945 4294967295
-60.993004 65.385345 -30.550804 4294967295
-60.991692 64.780151 -30.430767 4294967295
-60.984039 63.877209 -30.192768 4294967295
-60.98074 63.728493 -30.13245 4294967295
-60.97892 64.336899 -30.22065 4294967295
-60.972923 64.645729 -30.212955 4294967295
-60.968204 64.953415 -30.218246 4294967295
-60.963535 67.535172 -30.623981 4294967295
-60.956886 67.086861 -30.476377 4294967295
-60.956844 65.87394 -30.262611 4294967295
-60.954998 65.572342 -30.190475 4294967295
-60.9436 68.160736 -30.527699 4294967295
-60.942722 65.280357 -30.012079 4294967295
-60.938911 66.800781 -30.240084 4294967295
-60.938606 66.497757 -30.183626 4294967295
-60.929096 68.781212 -30.48675 4294967295
-60.925621 67.875023 -30.291445 4294967295
-60.924995 67.420708 -30.205101 4294967295
-60.919514 68.942245 -30.415894 4294967295
-60.904633 69.108559 -30.291149 4294967295
-60.901024 70.627991 -30.520914 4294967295
-60.88517 69.582787 -30.173164 4294967295
-60.884377 70.341698 -30.298367 4294967295
-60.879292 70.195213 -30.219973 4294967295
-60.818924 65.555321 -30.367056 4294967295
-60.800999 66.785202 -30.398026 4294967295
-60.796108 65.273117 -30.082006 4294967295
-60.794746 64.819191 -29.988228 4294967295
-60.793453 67.398857 -30.427931 4294967295
-60.787189 66.949966 -30.284456 4294967295
-60.773392 67.569771 -30.250874 4294967295
-60.764069 69.852951 -30.555477 4294967295
-60.719147 70.049538 -30.12639 4294967295
-60.676064 63.724606 -30.154924 4294967295
-60.666817 65.55323 -30.380451 4294967295
-60.66515 64.189598 -30.124121 4294967295
-60.660801 64.041794 -30.053423 4294967295
-60.658302 63.8923 -30.001484 4294967295
-60.657417 64.651779 -30.125593 4294967295
-60.652645 65.41468 -30.210281 4294967295
-60.650364 64.96167 -30.107334 4294967295
-60.650314 66.781776 -30.426012 4294967295
-60.649796 64.355247 -29.995106 4294967295
-60.645756 66.027817 -30.246885 4294967295
-60.643303 66.636772 -30.328415 4294967295
-60.641171 67.093712 -30.386578 4294967295
-60.640442 66.487816 -30.272814 4294967295
-60.63892 67.24749 -30.390377 4294967295
-60.634186 67.555275 -30.395584 4294967295
-60.633297 66.949562 -30.280228 4294967295
-60.633175 65.736145 -30.066221 4294967295
-60.632725 67.405045 -30.354219 4294967295
-60.630039 65.132072 -29.928013 4294967295
-60.629356 68.621178 -30.532717 4294967295
-60.625706 68.321548 -30.442625 4294967295
-60.618317 69.693039 -30.606953 4294967295
-60.61372 68.48484 -30.34787 4294967295
-60.609352 67.882469 -30.197319 4294967295
-60.609348 70.005104 -30.569347 4294967295
-60.608471 69.248062 -30.427645 4294967295
-60.598129 70.622612 -30.562057 4294967295
-60.597027 68.956085 -30.258636 4294967295
-60.585766 69.573792 -30.250988 4294967295
-60.572998 70.344742 -30.254677 4294967295
-60.495922 64.051102 -29.938335 4294967295
-60.492146 64.509834 -29.979885 4294967295
-60.472614 65.590057 -29.968506 4294967295
-60.4715 67.714973 -30.329109 4294967295
-60.462097 66.358612 -29.99509 4294967295
-60.444351 67.437584 -30.001818 4294967295
-60.44025 70.323227 -30.464743 4294967295
-60.438393 68.808701 -30.180635 4294967295
-60.381916 63.863003 -30.310408 4294967295
-60.369244 64.329498 -30.262209 4294967295
-60.366207 63.573566 -30.098932 4294967295
-60.364841 65.546959 -30.430035 4294967295
-60.362385 65.39756 -30.378759 4294967295
-60.357601 64.795174 -30.224426 4294967295
-60.356758 65.251053 -30.295488 4294967295
-60.354229 65.8601 -30.376097 4294967295
-60.34721 64.956367 -30.146193 4294967295
-60.34417 66.779427 -30.433783 4294967295
-60.342525 66.022644 -30.284662 4294967295
-60.342312 64.202026 -29.964096 4294967295
-60.338837 64.660484 -30.008709 4294967295
-60.333935 64.057755 -29.853111 4294967295
-60.325462 66.948746 -30.271822 4294967295
-60.322441 66.193054 -30.108755 4294967295
-60.318829 66.651596 -30.151941 4294967295
-60.316406 67.715729 -30.313126 4294967295
-60.309479 68.025711 -30.296368 4294967295
-60.301487 68.336761 -30.268906 4294967295
-60.298672 67.429268 -30.081457 4294967295
-60.297134 69.705788 -30.463566 4294967295
-60.296146 70.009972 -30.506636 4294967295
-60.293682 69.254311 -30.349327 4294967295
-60.292252 67.283638 -29.990257 4294967295
-60.289806 68.954796 -30.257282 4294967295
-60.286633 68.654533 -30.17231 4294967295
-60.283573 69.870857 -30.353533 4294967295
-60.277905 70.483025 -30.402445 4294967295
-60.268208 68.824181 -30.013275 4294967295
-60.266079 70.646515 -30.309935 4294967295
-60.26498 70.344322 -30.245857 4294967295
-60.264969 70.192665 -30.219238 4294967295
-60.225533 64.319786 -30.360426 4294967295
-60.203453 65.553398 -30.350275 4294967295
-60.194965 63.588356 -29.920433 4294967295
-60.157658 68.629936 -30.419474 4294967295
-60.146694 66.819977 -29.991587 4294967295
-60.142857 66.975357 -29.979511 4294967295
-60.138927 69.406448 -30.36367 4294967295
-60.134125 67.590668 -29.997715 4294967295
-60.119576 68.363388 -29.983973 4294967295
-60.045216 66.163651 -30.408436 4294967295
-60.045113 64.039513 -30.037048 4294967295
-60.044125 64.192177 -30.053617 4294967295
-60.043243 64.800034 -30.150625 4294967295
-60.042042 66.621613 -30.455917 4294967295
-60.040062 64.954674 -30.145153 4294967295
-60.038692 65.866302 -30.290131 4294967295
-60.035542 65.262291 -30.152721 4294967295
-60.032757 66.478607 -30.336405 4294967295
-60.026016 65.119209 -30.030718 4294967295
-60.021526 67.247574 -30.35602 4294967295
-60.021217 67.096184 -30.326475 4294967295
-60.010799 65.436676 -29.931028 4294967295
-60.009937 67.713623 -30.319151 4294967295
-60.007294 65.743484 -29.948801 4294967295
-59.99369 68.94265 -30.367792 4294967295
-59.98806 66.97567 -29.967621 4294967295
-59.982338 70.4702 -30.518286 4294967295
-59.978046 68.350998 -30.105276 4294967295
-59.975506 69.415421 -30.264894 4294967295
-59.975414 67.898277 -29.999578 4294967295
-59.973461 69.569115 -30.270819 4294967295
-59.968315 70.029213 -30.298565 4294967295
-59.962212 70.338608 -30.290289 4294967295
-59.908974 63.719547 -30.158478 4294967295
-59.89447 65.553482 -30.330383 4294967295
-59.867821 66.79184 -30.275103 4294967295
-59.865257 64.66938 -29.879585 4294967295
-59.853798 68.32206 -30.39887 4294967295
-59.847088 66.355904 -29.988518 4294967295
-59.83448 67.885414 -30.126572 4294967295
-59.834213 66.671478 -29.912573 4294967295
-59.832272 68.797859 -30.26292 4294967295
-59.830139 69.861671 -30.426334 4294967295
-59.829975 70.165115 -30.477463 4294967295
-59.794994 70.654877 -30.207138 4294967295
-59.7374 63.582706 -29.95195 4294967295
-59.731117 64.195564 -29.994825 4294967295
-59.73008 64.04467 -29.958073 4294967295
-59.712093 65.12355 -29.963291 4294967295
-59.705067 65.281746 -29.919563 4294967295
-59.703426 68.0149 -30.37796 4294967295
-59.70248 66.802017 -30.157604 4294967295
-59.697376 66.958549 -30.133039 4294967295
-59.69521 67.264084 -30.164175 4294967295
-59.685459 68.335464 -30.251537 4294967295
-59.685074 67.577148 -30.115835 4294967295
-59.684875 69.246201 -30.403833 4294967295
-59.684673 66.363205 -29.900808 4294967295
-59.673847 68.801796 -30.214821 4294967295
-59.672859 69.561279 -30.336761 4294967295
-59.665531 70.023514 -30.342789 4294967295
-59.664673 70.631035 -30.439606 4294967295
-59.661999 68.206154 -29.991238 4294967295
-59.660442 68.966484 -30.107569 4294967295
-59.659267 70.333061 -30.333057 4294967295
-59.645718 69.43605 -30.039886 4294967295
-59.605602 63.866158 -30.221735 4294967295
-59.605103 63.714821 -30.190422 4294967295
-59.596947 64.632675 -30.267275 4294967295
-59.591702 65.092644 -30.294083 4294967295
-59.583359 65.555443 -30.290083 4294967295
-59.573109 64.350388 -29.97724 4294967295
-59.570034 66.022865 -30.236469 4294967295
-59.562546 66.33326 -30.214636 4294967295
-59.550167 64.067039 -29.696083 4294967295
-59.54731 68.319954 -30.405325 4294967295
-59.547016 64.829285 -29.796547 4294967295
-59.544235 64.983658 -29.79521 4294967295
-59.53109 66.665947 -29.954269 4294967295
-59.525421 68.189117 -30.161291 4294967295
-59.519436 67.587692 -29.996408 4294967295
-59.515903 70.322281 -30.435108 4294967295
-59.512558 67.44236 -29.901625 4294967295
-59.499001 69.883812 -30.188133 4294967295
-59.498825 68.821671 -30.002071 4294967295
-59.4701 70.519279 -30.006128 4294967295
-59.426579 63.583961 -29.916004 4294967295
-59.424839 65.40731 -30.214525 4294967295
-59.396053 63.91457 -29.66544 4294967295
-59.394402 65.586731 -29.938654 4294967295
-59.389732 66.046486 -29.971218 4294967295
-59.372547 67.884102 -30.116329 4294967295
-59.372265 65.758728 -29.745178 4294967295
-59.36618 69.104202 -30.263512 4294967295
-59.35828 70.022186 -30.342848 4294967295
-59.354324 69.874344 -30.277332 4294967295
-59.34568 70.337982 -30.270462 4294967295
-59.338604 68.827209 -29.937387 4294967295
-59.337856 70.649147 -30.245424 4294967295
-59.333607 69.287453 -29.966686 4294967295
-59.278294 64.337524 -30.100412 4294967295
-59.274769 63.581409 -29.934059 4294967295
-59.270115 64.952072 -30.1245 4294967295
-59.265102 65.411987 -30.153669 4294967295
-59.260853 64.656693 -29.980202 4294967295
-59.257877 63.899979 -29.819269 4294967295
-59.256489 65.116119 -30.015812 4294967295
-59.254337 66.939568 -30.309752 4294967295
-59.253254 65.270866 -30.010061 4294967295
-59.250114 66.639961 -30.215403 4294967295
-59.24958 65.57785 -30.026209 4294967295
-59.247524 65.883362 -30.058424 4294967295
-59.246769 66.187675 -30.103481 4294967295
-59.242317 64.217506 -29.717693 4294967295
-59.228966 67.57029 -30.16362 4294967295
-59.225918 66.510468 -29.949577 4294967295
-59.224606 67.27079 -30.067907 4294967295
-59.220554 68.488831 -30.237894 4294967295
-59.215164 67.127769 -29.948202 4294967295
-59.21014 69.409279 -30.292353 4294967295
-59.207077 67.742653 -29.973211 4294967295
-59.202477 68.657852 -30.085262 4294967295
-59.158562 70.370186 -29.939661 4294967295
-59.128685 63.725716 -30.035034 4294967295
-59.118305 64.645912 -30.089939 4294967295
-59.082909 66.044319 -29.976376 4294967295
-59.082291 64.222145 -29.655247 4294967295
-59.066574 69.247116 -30.365826 4294967295
-59.049255 70.174248 -30.352167 4294967295
-59.037201 67.90892 -29.839848 4294967295
-59.031212 70.343651 -30.200338 4294967295
-59.029709 70.648628 -30.237919 4294967295
-59.029583 69.738144 -30.079399 4294967295
-59.0084 69.606842 -29.844143 4294967295
-59.007553 70.063187 -29.914446 4294967295
-58.984497 63.868359 -30.154367 4294967295
-58.972252 64.182777 -30.086065 4294967295
-58.959198 64.649849 -30.036013 4294967295
-58.95826 64.346954 -29.974325 4294967295
-58.952599 63.744347 -29.813654 4294967295
-58.951424 64.96048 -30.011774 4294967295
-58.949699 65.113876 -30.02099 4294967295
-58.942272 66.63884 -30.209827 4294967295
-58.941669 63.601936 -29.679644 4294967295
-58.936745 64.821671 -29.840891 4294967295
-58.929924 65.739105 -29.930923 4294967295
-58.928513 66.044113 -29.969463 4294967295
-58.92746 66.500618 -30.037682 4294967295
-58.925228 67.261787 -30.146671 4294967295
-58.922539 67.871468 -30.224939 4294967295
-58.920795 66.354866 -29.945801 4294967295
-58.914459 68.94146 -30.328642 4294967295
-58.904938 68.343422 -30.130165 4294967295
-58.904259 69.254738 -30.28056 4294967295
-58.897469 68.654106 -30.109005 4294967295
-58.894451 67.745972 -29.922134 4294967295
-58.894447 67.442245 -29.869677 4294967295
-58.886547 67.145798 -29.739458 4294967295
-58.884766 68.514343 -29.957729 4294967295
-58.878204 70.190536 -30.18115 4294967295
-58.806458 64.040619 -29.940392 4294967295
-58.786186 66.032944 -30.081327 4294967295
-58.780807 65.27845 -29.897602 4294967295
-58.770287 67.565773 -30.186691 4294967295
-58.759251 65.14579 -29.659473 4294967295
-58.750549 66.824806 -29.861929 4294967295
-58.747772 65.763893 -29.651367 4294967295
-58.739273 68.050255 -29.96043 4294967295
-58.706139 69.296593 -29.844278 4294967295
-58.653393 64.798538 -30.077236 4294967295
-58.651516 65.255768 -30.137234 4294967295
-58.649536 64.346306 -29.960983 4294967295
-58.646217 65.108635 -30.05912 4294967295
-58.645023 63.590637 -29.785957 4294967295
-58.639988 65.569778 -30.076458 4294967295
-58.637764 63.900829 -29.767059 4294967295
-58.630886 66.185402 -30.091719 4294967295
-58.630726 64.514748 -29.802597 4294967295
-58.621616 63.762894 -29.582462 4294967295
-58.618328 64.06974 -29.60251 4294967295
-58.617123 67.716309 -30.218042 4294967295
-58.611446 64.683693 -29.639664 4294967295
-58.609707 66.660271 -29.962477 4294967295
-58.607101 65.751221 -29.780073 4294967295
-58.604691 65.905319 -29.782595 4294967295
-58.603188 67.425598 -30.0292 4294967295
-58.601639 66.971428 -29.935638 4294967295
-58.599789 66.517433 -29.839102 4294967295
-58.593555 68.952904 -30.196012 4294967295
-58.592754 67.283379 -29.900824 4294967295
-58.583714 67.595535 -29.864452 4294967295
-58.582634 67.900314 -29.906137 4294967295
-58.574085 70.034157 -30.188042 4294967295
-58.572098 69.125153 -30.011894 4294967295
-58.571026 68.51873 -29.896891 4294967295
-58.565102 70.498268 -30.178362 4294967295
-58.564602 70.650543 -30.199579 4294967295
-58.556332 69.292061 -29.883545 4294967295
-58.550095 69.905525 -29.926939 4294967295
-58.545765 69.605949 -29.832277 4294967295
-58.4823 65.116814 -29.959143 4294967295
-58.481941 66.787575 -30.242685 4294967295
-58.479591 65.271126 -29.958733 4294967295
-58.464054 64.373199 -29.650034 4294967295
-58.435505 66.526161 -29.736364 4294967295
-58.431339 69.871086 -30.26955 4294967295
-58.430855 69.416153 -30.186615 4294967295
-58.428165 66.228905 -29.612341 4294967295
-58.415405 67.304314 -29.670353 4294967295
-58.414368 68.824455 -29.921179 4294967295
-58.337502 64.34848 -29.91601 4294967295
-58.333038 64.504311 -29.898521 4294967295
-58.332073 65.112823 -29.993393 4294967295
-58.330688 63.898563 -29.771275 4294967295
-58.32803 63.74889 -29.7192 4294967295
-58.323982 65.879494 -30.044764 4294967295
-58.311707 65.58667 -29.872849 4294967295
-58.310459 66.499229 -30.017067 4294967295
-58.309155 63.613159 -29.508842 4294967295
-58.305008 65.440704 -29.781403 4294967295
-58.301186 66.811447 -29.978712 4294967295
-58.301113 67.267151 -30.056173 4294967295
-58.287853 68.797966 -30.187363 4294967295
-58.284382 66.067017 -29.684433 4294967295
-58.27771 68.200081 -29.984268 4294967295
-58.273582 67.444397 -29.813736 4294967295
-58.271687 66.686386 -29.664871 4294967295
-58.270874 67.598824 -29.813366 4294967295
-58.270264 66.991615 -29.703146 4294967295
-58.261642 70.644798 -30.244328 4294967295
-58.259224 69.736206 -30.064516 4294967295
-58.256168 68.372131 -29.800262 4294967295
-58.244141 69.59877 -29.891453 4294967295
-58.237633 68.997299 -29.723783 4294967295
-58.232552 70.521233 -29.934784 4294967295
-58.229462 70.06855 -29.826532 4294967295
-58.216221 69.929359 -29.671423 4294967295
-58.208904 70.392242 -29.678295 4294967295
-58.161324 63.911087 -29.619427 4294967295
-58.141884 64.840111 -29.58643 4294967295
-58.138058 65.603493 -29.679449 4294967295
-58.133747 65.455338 -29.61142 4294967295
-58.130226 68.497177 -30.097775 4294967295
-58.128639 65.915886 -29.63983 4294967295
-58.106827 68.822906 -29.922216 4294967295
-58.097145 70.047173 -30.036161 4294967295
-58.011246 64.210922 -29.707882 4294967295
-58.008698 64.517128 -29.735157 4294967295
-58.008457 64.973282 -29.810833 4294967295
-58.007164 65.886108 -29.954283 4294967295
-58.006702 63.910824 -29.611704 4294967295
-58.003742 66.952507 -30.102995 4294967295
-58.003147 64.369957 -29.655216 4294967295
-57.991116 64.684479 -29.590395 4294967295
-57.990868 65.596718 -29.744062 4294967295
-57.987926 65.295341 -29.663462 4294967295
-57.981373 67.732445 -30.015816 4294967295
-57.979012 66.823074 -29.836966 4294967295
-57.971756 67.133575 -29.818529 4294967295
-57.966396 66.226547 -29.610476 4294967295
-57.964424 69.267052 -30.111177 4294967295
-57.962284 66.078224 -29.544529 4294967295
-57.962173 67.902084 -29.855467 4294967295
-57.961666 69.117798 -30.058441 4294967295
-57.954903 67.300941 -29.680929 4294967295
-57.950176 70.647285 -30.206684 4294967295
-57.949738 68.369446 -29.81278 4294967295
-57.949051 68.673958 -29.858082 4294967295
-57.948627 69.889542 -30.06181 4294967295
-57.945244 68.981377 -29.873137 4294967295
-57.940876 69.593163 -29.934671 4294967295
-57.93261 70.056755 -29.932447 4294967295
-57.92197 68.851303 -29.621347 4294967295
-57.91581 69.465034 -29.665575 4294967295
-57.914963 70.529457 -29.839237 4294967295
-57.872986 63.892574 -29.80674 4294967295
-57.870049 63.743103 -29.752279 4294967295
-57.853153 63.605537 -29.56255 4294967295
-57.846893 65.435135 -29.813652 4294967295
-57.84211 66.199188 -29.897167 4294967295
-57.841217 64.83213 -29.654783 4294967295
-57.822884 68.039787 -30.022457 4294967295
-57.820869 68.649216 -30.106752 4294967295
-57.81646 68.50145 -30.038137 4294967295
-57.812725 67.289459 -29.794329 4294967295
-57.795094 70.040443 -30.09078 4294967295
-57.791576 67.764771 -29.667492 4294967295
-57.787971 69.439636 -29.918116 4294967295
-57.758007 69.619987 -29.654079 4294967295
-57.69408 66.648964 -30.030966 4294967295
-57.688023 65.742668 -29.816881 4294967295
-57.686527 65.44001 -29.750572 4294967295
-57.686508 66.199936 -29.880032 4294967295
-57.685059 64.37709 -29.554756 4294967295
-57.683601 64.530411 -29.566603 4294967295
-57.673214 66.971687 -29.881252 4294967295
-57.667137 66.825218 -29.796604 4294967295
-57.665127 66.067024 -29.647522 4294967295
-57.663132 68.500237 -30.043062 4294967295
-57.660789 67.59082 -29.864927 4294967295
-57.654018 68.660629 -29.98097 4294967295
-57.644314 67.149879 -29.628017 4294967295
-57.644226 70.340652 -30.171415 4294967295
-57.643391 67.454742 -29.670984 4294967295
-57.639835 67.913994 -29.714407 4294967295
-57.638107 68.371536 -29.775511 4294967295
-57.63699 69.284279 -29.920225 4294967295
-57.631023 70.201416 -30.018089 4294967295
-57.62178 68.082634 -29.565979 4294967295
-57.617306 68.998848 -29.678356 4294967295
-57.609524 69.76609 -29.732847 4294967295
-57.57233 64.036705 -29.899904 4294967295
-57.559563 64.351669 -29.828598 4294967295
-57.546734 63.906612 -29.627129 4294967295
-57.538845 64.977676 -29.73247 4294967295
-57.53347 67.413887 -30.094931 4294967295
-57.528435 67.570389 -30.072313 4294967295
-57.521809 65.296638 -29.620014 4294967295
-57.521423 65.144928 -29.59038 4294967295
-57.51543 66.062431 -29.688078 4294967295
-57.500954 66.683464 -29.652151 4294967295
-57.498825 66.229256 -29.553925 4294967295
-57.485561 70.040825 -30.07338 4294967295
-57.476879 69.137451 -29.834522 4294967295
-57.47261 70.356987 -30.00041 4294967295
-57.471703 68.534348 -29.681118 4294967295
-57.395889 64.663254 -29.785728 4294967295
-57.373383 67.266846 -30.008955 4294967295
-57.359074 66.063751 -29.66453 4294967295
-57.354515 65.611618 -29.543051 4294967295
-57.350285 68.50351 -29.993773 4294967295
-57.349361 68.048508 -29.907352 4294967295
-57.341793 66.991409 -29.65361 4294967295
-57.332745 66.69545 -29.514851 4294967295
-57.331944 68.824417 -29.869247 4294967295
-57.329559 69.738327 -30.001387 4294967295
-57.329262 68.978882 -29.869301 4294967295
-57.326118 70.197342 -30.045864 4294967295
-57.318729 70.3563 -30.000723 4294967295
-57.312019 69.906853 -29.858742 4294967295
-57.30909 69.301697 -29.727226 4294967295
-57.28997 70.079735 -29.672832 4294967295
-57.245117 64.963692 -29.867146 4294967295
-57.23428 64.364914 -29.659788 4294967295
-57.233059 63.909737 -29.570528 4294967295
-57.232567 65.886658 -29.901716 4294967295
-57.231197 65.279839 -29.785238 4294967295
-57.226585 67.107727 -30.050924 4294967295
-57.221066 64.528343 -29.55884 4294967295
-57.217308 67.723885 -30.065229 4294967295
-57.21516 66.814064 -29.889713 4294967295
-57.212143 67.576637 -29.989908 4294967295
-57.211014 65.449516 -29.617462 4294967295
-57.210892 66.513885 -29.797115 4294967295
-57.197495 65.765526 -29.539457 4294967295
-57.196918 64.853401 -29.378826 4294967295
-57.171833 67.309151 -29.55171 4294967295
-57.16663 67.922104 -29.605173 4294967295
-57.143288 69.007965 -29.562231 4294967295
-57.091118 64.050674 -29.711081 4294967295
-57.074749 63.760403 -29.502707 4294967295
-57.050613 66.062576 -29.658871 4294967295
-57.04306 66.221313 -29.612411 4294967295
-57.038288 66.985847 -29.695747 4294967295
-57.010979 67.314537 -29.486097 4294967295
-57.010368 68.835648 -29.738239 4294967295
-57.010075 67.771606 -29.554869 4294967295
-57.00423 68.993362 -29.705341 4294967295
-57.001984 69.603516 -29.786966 4294967295
-56.99342 69.915565 -29.75666 4294967295
-56.992794 68.091515 -29.441206 4294967295
-56.981136 69.775093 -29.613482 4294967295
-56.974602 70.389412 -29.654144 4294967295
-56.943409 63.892406 -29.744488 4294967295
-56.929466 64.208397 -29.662886 4294967295
-56.928566 63.600773 -29.551125 4294967295
-56.926575 64.515022 -29.686819 4294967295
-56.926437 65.275421 -29.814341 4294967295
-56.918919 64.825752 -29.665236 4294967295
-56.917839 64.066193 -29.526026 4294967295
-56.916653 65.131851 -29.69515 4294967295
-56.915039 64.981178 -29.653982 4294967295
-56.905239 65.750053 -29.689264 4294967295
-56.902817 66.816475 -29.846506 4294967295
-56.892097 67.890152 -29.924503 4294967295
-56.891739 66.218132 -29.637711 4294967295
-56.886684 68.351044 -29.950085 4294967295
-56.886234 66.527145 -29.636688 4294967295
-56.884186 67.593315 -29.797476 4294967295
-56.881878 65.618385 -29.440472 4294967295
-56.859688 70.503647 -30.052977 4294967295
-56.85894 67.159851 -29.479294 4294967295
-56.855446 68.2276 -29.626328 4294967295
-56.848198 68.69043 -29.63443 4294967295
-56.842518 70.367966 -29.863529 4294967295
-56.840607 69.001549 -29.613546 4294967295
-56.825043 69.320129 -29.516624 4294967295
-56.785286 64.351234 -29.781551 4294967295
-56.756176 63.919624 -29.426935 4294967295
-56.754063 65.29052 -29.638554 4294967295
-56.748074 67.27243 -29.916004 4294967295
-56.742359 63.77911 -29.26952 4294967295
-56.718311 65.930138 -29.401028 4294967295
-56.716999 65.474808 -29.311279 4294967295
-56.691189 69.452705 -29.734682 4294967295
-56.676392 70.378761 -29.748209 4294967295
-56.674801 69.315872 -29.553064 4294967295
-56.673397 69.773399 -29.616852 4294967295
-56.669151 70.233551 -29.653627 4294967295
-56.630146 64.04718 -29.718576 4294967295
-56.620316 64.359703 -29.67655 4294967295
-56.611645 63.758541 -29.491272 4294967295
-56.61097 65.128151 -29.716244 4294967295
-56.605522 65.893227 -29.79303 4294967295
-56.603279 64.678444 -29.566055 4294967295
-56.59808 66.203865 -29.773691 4294967295
-56.594845 65.294167 -29.588741 4294967295
-56.592487 65.752525 -29.643465 4294967295
-56.592152 63.927124 -29.331667 4294967295
-56.590405 66.818855 -29.803583 4294967295
-56.579605 66.067986 -29.572477 4294967295
-56.579224 64.851189 -29.363129 4294967295
-56.576561 64.244698 -29.234926 4294967295
-56.57338 66.529785 -29.590458 4294967295
-56.570385 65.010956 -29.30489 4294967295
-56.556824 68.217514 -29.715914 4294967295
-56.553085 67.15625 -29.500525 4294967295
-56.548477 68.833366 -29.739399 4294967295
-56.546879 67.618164 -29.51869 4294967295
-56.546391 69.595459 -29.848038 4294967295
-56.545807 68.379616 -29.636982 4294967295
-56.54501 67.924072 -29.55233 4294967295
-56.542313 69.44722 -29.783636 4294967295
-56.531525 69.153099 -29.62986 4294967295
-56.530006 69.914795 -29.743885 4294967295
-56.499805 70.095154 -29.48296 4294967295
-56.436909 66.969666 -29.83383 4294967295
-56.423019 67.894363 -29.856146 4294967295
-56.412251 65.470123 -29.343386 4294967295
-56.40028 66.3936 -29.384045 4294967295
-56.396824 67.46167 -29.531002 4294967295
-56.371346 68.549561 -29.469353 4294967295
-56.339706 70.556427 -29.503347 4294967295
-56.305115 63.603222 -29.479607 4294967295
-56.295944 64.219589 -29.495478 4294967295
-56.295509 64.980682 -29.619604 4294967295
-56.284481 64.685799 -29.464005 4294967295
-56.283817 63.925419 -29.329432 4294967295
-56.282448 63.774357 -29.2908 4294967295
-56.281132 65.449432 -29.560543 4294967295
-56.275856 66.214638 -29.638887 4294967295
-56.272915 65.608673 -29.508512 4294967295
-56.27169 66.066162 -29.573845 4294967295
-56.257092 67.448067 -29.666576 4294967295
-56.2542 64.8638 -29.20323 4294967295
-56.254185 68.667267 -29.84407 4294967295
-56.254116 67.907005 -29.715317 4294967295
-56.250656 66.541008 -29.451891 4294967295
-56.250576 65.32357 -29.245949 4294967295
-56.242477 67.613251 -29.554079 4294967295
-56.242256 67.157043 -29.47505 4294967295
-56.235874 70.052444 -29.901642 4294967295
-56.223335 67.021652 -29.270567 4294967295
-56.222412 69.456741 -29.67202 4294967295
-56.217773 69.613113 -29.653824 4294967295
-56.210052 69.163918 -29.504009 4294967295
-56.206013 69.015495 -29.440189 4294967295
-56.204456 68.408279 -29.322947 4294967295
-56.19936 68.869431 -29.351704 4294967295
-56.189449 69.943634 -29.437536 4294967295
-56.151722 64.971046 -29.716133 4294967295
-56.150944 64.058891 -29.555109 4294967295
-56.142612 65.891495 -29.783802 4294967295
-56.119846 67.128151 -29.773853 4294967295
-56.104042 64.250526 -29.138103 4294967295
-56.082901 68.225906 -29.604694 4294967295
-56.069576 69.454887 -29.683832 4294967295
-56.067223 68.087898 -29.431276 4294967295
-56.055668 67.793907 -29.271137 4294967295
-56.01244 70.572922 -29.324623 4294967295
-55.987743 64.674332 -29.571121 4294967295
-55.98 63.767677 -29.344664 4294967295
-55.975727 64.988869 -29.509161 4294967295
-55.9743 65.750877 -29.623617 4294967295
-55.97382 66.816101 -29.798092 4294967295
-55.966213 66.974899 -29.752102 4294967295
-55.965851 66.518883 -29.671968 4294967295
-55.962421 65.304596 -29.43507 4294967295
-55.956749 66.070374 -29.509624 4294967295
-55.954151 67.28978 -29.689737 4294967295
-55.952549 67.595413 -29.725809 4294967295
-55.950077 68.358063 -29.830339 4294967295
-55.940891 65.627495 -29.283609 4294967295
-55.933949 69.13308 -29.806446 4294967295
-55.933495 67.764542 -29.572115 4294967295
-55.932632 67.91745 -29.589581 4294967295
-55.930431 68.832123 -29.722246 4294967295
-55.92947 65.941818 -29.227301 4294967295
-55.914597 67.477043 -29.343222 4294967295
-55.911236 69.458084 -29.64399 4294967295
-55.907825 68.244041 -29.407396 4294967295
-55.907333 68.548828 -29.45392 4294967295
-55.902889 70.226311 -29.693312 4294967295
-55.902256 69.922699 -29.636229 4294967295
-55.874413 70.557121 -29.476767 4294967295
-55.849812 64.50766 -29.696964 4294967295
-55.846245 63.902004 -29.561277 4294967295
-55.828953 63.611958 -29.347692 4294967295
-55.815952 66.514412 -29.711058 4294967295
-55.813 64.081955 -29.274548 4294967295
-55.800182 66.984627 -29.639643 4294967295
-55.799309 66.681099 -29.580385 4294967295
-55.798725 65.311905 -29.344982 4294967295
-55.79726 68.052025 -29.790941 4294967295
-55.767075 69.29615 -29.711946 4294967295
-55.766201 67.318939 -29.371826 4294967295
-55.757557 66.869881 -29.214037 4294967295
-55.75219 69.614029 -29.623384 4294967295
-55.751026 70.375633 -29.740089 4294967295
-55.680775 65.432327 -29.709455 4294967295
-55.680531 64.215164 -29.50304 4294967295
-55.660656 63.622723 -29.214685 4294967295
-55.653393 66.21666 -29.580517 4294967295
-55.652866 66.064934 -29.550095 4294967295
-55.651508 66.674774 -29.639412 4294967295
-55.651161 65.305412 -29.406546 4294967295
-55.6507 67.588257 -29.784822 4294967295
-55.649582 64.088753 -29.18749 4294967295
-55.649376 67.893639 -29.823421 4294967295
-55.639107 67.446404 -29.65081 4294967295
-55.638866 67.142319 -29.597527 4294967295
-55.634907 65.167007 -29.228716 4294967295
-55.630981 68.518532 -29.753227 4294967295
-55.626362 65.935593 -29.276314 4294967295
-55.619377 68.985367 -29.721075 4294967295
-55.614994 68.837219 -29.654566 4294967295
-55.61314 68.078125 -29.509733 4294967295
-55.60696 69.300911 -29.655874 4294967295
-55.606274 69.909996 -29.751402 4294967295
-55.603001 68.23938 -29.440327 4294967295
-55.595886 70.071693 -29.679701 4294967295
-55.584373 70.386612 -29.622959 4294967295
-55.583977 69.626236 -29.491791 4294967295
-55.547073 70.573471 -29.299536 4294967295
-55.515717 64.375397 -29.42828 4294967295
-55.511986 64.682976 -29.444405 4294967295
-55.506756 65.144051 -29.471956 4294967295
-55.504963 65.60218 -29.531664 4294967295
-55.498886 64.237198 -29.245457 4294967295
-55.496407 64.543816 -29.273279 4294967295
-55.484295 65.467598 -29.313053 4294967295
-55.474613 68.824059 -29.783045 4294967295
-55.472916 65.781837 -29.257673 4294967295
-55.455261 68.993698 -29.627808 4294967295
-55.453999 66.559486 -29.208387 4294967295
-55.448235 67.782516 -29.358433 4294967295
-55.442493 70.526657 -29.763218 4294967295
-55.437519 68.096497 -29.309336 4294967295
-55.417007 69.180573 -29.296158 4294967295
-55.413433 69.33606 -29.288254 4294967295
-55.393787 70.419693 -29.283176 4294967295
-55.32827 66.686172 -29.499409 4294967295
-55.328026 67.903793 -29.700661 4294967295
-55.328022 65.316238 -29.268011 4294967295
-55.327991 65.620789 -29.318659 4294967295
-55.326477 66.383293 -29.431808 4294967295
-55.326172 64.099358 -29.046995 4294967295
-55.322803 64.711464 -29.117498 4294967295
-55.321907 68.213531 -29.694529 4294967295
-55.321857 66.99617 -29.490557 4294967295
-55.314892 67.458885 -29.501968 4294967295
-55.306919 68.379074 -29.580322 4294967295
-55.302845 66.860519 -29.287926 4294967295
-55.297588 67.321877 -29.315294 4294967295
-55.29504 68.085281 -29.418772 4294967295
-55.294876 68.84642 -29.544434 4294967295
-55.294197 67.781586 -29.360029 4294967295
-55.291504 69.153816 -29.563915 4294967295
-55.279587 69.773361 -29.554628 4294967295
-55.273857 68.713135 -29.3232 4294967295
-55.271233 69.476608 -29.425962 4294967295
-55.270744 70.237991 -29.548582 4294967295
-55.262535 69.94117 -29.421299 4294967295
-55.247604 69.345863 -29.180456 4294967295
-55.225769 64.053864 -29.547873 4294967295
-55.213387 64.520828 -29.50894 4294967295
-55.192635 66.060532 -29.570095 4294967295
-55.188587 64.998344 -29.35449 4294967295
-55.187607 63.628483 -29.11644 4294967295
-55.183777 65.306923 -29.360605 4294967295
-55.163643 65.933121 -29.275059 4294967295
-55.162048 66.391289 -29.336498 4294967295
-55.148602 69.599327 -29.745062 4294967295
-55.105789 70.551598 -29.499676 4294967295
-55.098373 69.797325 -29.303778 4294967295
-55.031075 64.391052 -29.221979 4294967295
-55.014408 65.014221 -29.168919 4294967295
-54.995285 67.010376 -29.321655 4294967295
-54.990593 67.471252 -29.354309 4294967295
-54.988792 69.451599 -29.667475 4294967295
-54.986481 66.408813 -29.138414 4294967295
-54.982086 69.762024 -29.656036 4294967295
-54.981503 67.78376 -29.320757 4294967295
-54.981194 68.545258 -29.444803 4294967295
-54.978813 69.15625 -29.524227 4294967295
-54.978447 68.243233 -29.368557 4294967295
-54.97221 67.182747 -29.133022 4294967295
-54.959618 70.086906 -29.498528 4294967295
-54.955669 68.111145 -29.131973 4294967295
-54.951763 70.398529 -29.476454 4294967295
-54.950966 69.63813 -29.342188 4294967295
-54.946617 69.032997 -29.200377 4294967295
-54.874767 64.544167 -29.228046 4294967295
-54.874538 64.239708 -29.175177 4294967295
-54.870758 65.309044 -29.317762 4294967295
-54.870247 65.157173 -29.287663 4294967295
-54.86813 65.92038 -29.394878 4294967295
-54.867077 65.768997 -29.359783 4294967295
-54.867058 66.378059 -29.461046 4294967295
-54.865276 65.618248 -29.317743 4294967295
-54.84819 66.851089 -29.362488 4294967295
-54.836502 66.708908 -29.22893 4294967295
-54.82679 68.087914 -29.367302 4294967295
-54.824791 70.22065 -29.70356 4294967295
-54.824093 66.110229 -29.012596 4294967295
-54.81226 68.253036 -29.258202 4294967295
-54.797695 69.331985 -29.300966 4294967295
-54.791611 68.8806 -29.168623 4294967295
-54.781406 70.108116 -29.27705 4294967295
-54.7439 64.676155 -29.469273 4294967295
-54.685398 64.877151 -28.95417 4294967295
-54.655689 69.472458 -29.439791 4294967295
-54.65192 69.780342 -29.455639 4294967295
-54.64835 68.71769 -29.24548 4294967295
-54.63834 69.335823 -29.254389 4294967295
-54.637478 69.945702 -29.347702 4294967295
-54.618267 70.115463 -29.195803 4294967295
-54.614052 70.271614 -29.182224 4294967295
-54.563488 65.915421 -29.430031 4294967295
-54.560974 65.308357 -29.305674 4294967295
-54.554955 66.379509 -29.427309 4294967295
-54.549835 65.013 -29.152399 4294967295
-54.54665 64.710922 -29.072409 4294967295
-54.54501 65.778755 -29.234461 4294967295
-54.535221 67.310158 -29.397272 4294967295
-54.527748 64.879005 -28.923506 4294967295
-54.527431 66.555351 -29.199045 4294967295
-54.523018 66.102074 -29.082462 4294967295
-54.522152 68.996429 -29.55504 4294967295
-54.519657 67.932854 -29.355097 4294967295
-54.519566 66.257378 -29.075964 4294967295
-54.519363 66.866943 -29.175312 4294967295
-54.517208 67.782715 -29.307226 4294967295
-54.512287 68.396187 -29.363094 4294967295
-54.50893 68.55143 -29.357477 4294967295
-54.507748 69.7705 -29.548798 4294967295
-54.500816 67.492371 -29.10569 4294967295
-54.486706 68.114113 -29.076918 4294967295
-54.475197 69.647644 -29.223907 4294967295
-54.468311 69.196861 -29.084669 4294967295
-54.467556 70.568336 -29.305298 4294967295
-54.351887 66.572662 -29.003878 4294967295
-54.330093 68.26767 -29.081633 4294967295
-54.314999 70.56604 -29.32184 4294967295
-54.314568 69.95723 -29.2169 4294967295
-54.305916 69.508026 -29.061644 4294967295
-54.302879 69.663109 -29.059031 4294967295
-54.235512 66.691742 -29.37755 4294967295
-54.232243 65.4758 -29.145658 4294967295
-54.229252 65.935402 -29.193968 4294967295
-54.226311 66.394943 -29.242699 4294967295
-54.222622 67.616638 -29.410732 4294967295
-54.221302 67.160873 -29.322945 4294967295
-54.217354 67.468903 -29.337231 4294967295
-54.216953 66.555252 -29.18214 4294967295
-54.214607 68.08049 -29.412968 4294967295
-54.205326 65.345879 -28.873491 4294967295
-54.205029 65.650993 -28.921272 4294967295
-54.204308 69.00325 -29.469872 4294967295
-54.204056 68.851196 -29.442364 4294967295
-54.201687 67.939484 -29.26931 4294967295
-54.199669 67.78891 -29.225582 4294967295
-54.192299 68.252357 -29.233702 4294967295
-54.186695 69.78035 -29.434591 4294967295
-54.181183 70.394394 -29.484926 4294967295
-54.078915 65.62645 -29.180071 4294967295
-54.052685 65.953247 -28.990459 4294967295
-54.041645 67.791313 -29.192034 4294967295
-54.039402 69.316498 -29.42347 4294967295
-54.034321 70.082436 -29.502949 4294967295
-54.032543 69.170311 -29.335581 4294967295
-54.03231 68.713547 -29.257885 4294967295
-53.908566 66.096161 -29.109467 4294967295
-53.907082 67.925682 -29.398006 4294967295
-53.903145 66.710297 -29.160696 4294967295
-53.895485 66.25959 -29.015228 4294967295
-53.886177 65.810097 -28.854685 4294967295
-53.880047 67.644409 -29.100992 4294967295
-53.879074 68.559464 -29.243139 4294967295
-53.877346 68.256264 -29.177052 4294967295
-53.876244 67.342888 -29.015928 4294967295
-53.875996 66.885834 -28.938089 4294967295
-53.87542 69.628983 -29.385962 4294967295
-53.874283 68.106567 -29.123907 4294967295
-53.873699 69.47821 -29.345095 4294967295
-53.860737 69.94677 -29.302349 4294967295
-53.855362 69.189827 -29.127531 4294967295
-53.852783 69.801567 -29.204674 4294967295
-53.83712 70.272728 -29.13731 4294967295
-53.831146 70.582863 -29.133169 4294967295
-53.744492 68.389046 -29.398355 4294967295
-53.744335 68.998405 -29.497433 4294967295
-53.740768 69.45842 -29.540361 4294967295
-53.737885 65.956543 -28.935848 4294967295
-53.735168 66.263718 -28.961424 4294967295
-53.734959 67.026016 -29.085299 4294967295
-53.730927 66.572174 -28.973099 4294967295
-53.711906 67.350586 -28.925718 4294967295
-53.705532 67.965828 -28.9683 4294967295
-53.676556 69.820374 -29.006321 4294967295
-53.611675 66.541618 -29.292822 4294967295
-53.590157 67.321785 -29.222895 4294967295
-53.589298 67.627266 -29.265327 4294967295
-53.58379 67.02243 -29.114817 4294967295
-53.580139 68.092278 -29.257483 4294967295
-53.577991 66.417618 -28.961664 4294967295
-53.575756 69.92408 -29.518866 4294967295
-53.568214 68.407394 -29.199385 4294967295
-53.567364 68.865242 -29.266989 4294967295
-53.566269 67.189789 -28.980785 4294967295
-53.558876 69.482155 -29.290321 4294967295
-53.550362 69.184959 -29.162817 4294967295
-53.548172 70.253441 -29.318651 4294967295
-53.544193 69.647568 -29.182138 4294967295
-53.529896 68.745712 -28.90163 4294967295
-53.520367 70.12603 -29.041151 4294967295
-53.516392 69.824745 -28.954836 4294967295
-53.512077 70.590706 -29.041227 4294967295
-53.440845 68.383102 -29.444584 4294967295
-53.420494 69.162582 -29.385569 4294967295
-53.40221 67.654541 -28.969109 4294967295
-53.401802 67.349976 -28.915209 4294967295
-53.394211 67.966331 -28.946812 4294967295
-53.279919 67.168976 -29.185062 4294967295
-53.278584 67.322517 -29.198072 4294967295
-53.262333 68.250893 -29.201441 4294967295
-53.261745 67.03196 -28.995689 4294967295
-53.257057 66.730988 -28.903128 4294967295
-53.253483 68.868172 -29.221643 4294967295
-53.253448 67.801292 -29.04594 4294967295
-53.250534 69.785004 -29.345219 4294967295
-53.247784 67.958603 -29.019794 4294967295
-53.243137 69.943939 -29.303417 4294967295
-53.242207 69.487633 -29.219906 4294967295
-53.238297 69.033875 -29.1094 4294967295
-53.230022 67.668907 -28.809088 4294967295
-53.21904 68.745819 -28.885233 4294967295
-53.217445 70.424042 -29.146383 4294967295
-53.211765 69.20961 -28.894655 4294967295
-53.209969 69.668579 -28.953588 4294967295
-53.200733 70.591469 -29.020443 4294967295
-53.109955 69.772026 -29.470306 4294967295
-53.090778 70.246109 -29.372414 4294967295
-53.089397 67.961166 -28.984726 4294967295
-52.956711 68.398933 -29.256187 4294967295
-52.948456 67.643852 -29.056946 4294967295
-52.94585 69.170364 -29.283377 4294967295
-52.945564 68.713402 -29.205849 4294967295
-52.943562 68.105408 -29.087879 4294967295
-52.94038 69.784721 -29.334085 4294967295
-52.939911 70.394585 -29.429771 4294967295
-52.939835 67.346237 -28.929327 4294967295
-52.934696 69.484947 -29.232992 4294967295
-52.920364 69.954826 -29.179022 4294967295
-52.915844 70.263672 -29.188328 4294967295
-52.910236 68.896568 -28.912964 4294967295
-52.772961 67.813423 -28.893478 4294967295
-52.744228 69.820778 -28.960106 4294967295
-52.727898 70.597672 -28.938366 4294967295
-52.638325 69.777245 -29.396109 4294967295
-52.63451 68.713699 -29.187502 4294967295
-52.632629 68.410423 -29.120781 4294967295
-52.631157 69.478745 -29.28207 4294967295
-52.618702 69.032295 -29.095739 4294967295
-52.611416 69.648476 -29.130228 4294967295
-52.598343 69.202484 -28.938349 4294967295
-52.594154 69.96859 -29.025496 4294967295
-52.590172 70.429512 -29.06461 4294967295
-52.588379 70.583572 -29.073494 4294967295
-52.586426 70.127892 -28.981222 4294967295
-52.586216 70.280556 -29.004292 4294967295
-52.58247 69.368843 -28.821106 4294967295
-52.434258 68.752388 -28.778847 4294967295
-52.430485 69.823387 -28.919502 4294967295
-52.400963 70.612099 -28.780277 4294967295
-52.297779 68.278419 -28.866171 4294967295
-52.291965 69.96106 -29.087997 4294967295
-52.284912 69.204704 -28.900749 4294967295
-52.284592 69.815041 -28.997387 4294967295
-52.279724 68.751549 -28.779844 4294967295
-52.254028 70.299484 -28.799585 4294967295
-52.241409 70.615761 -28.736849 4294967295
-52.170528 69.62648 -29.333347 4294967295
-52.16172 68.719345 -29.105938 4294967295
-52.136391 69.503731 -29.004835 4294967295
-52.116756 69.978432 -28.904739 4294967295
-51.958473 70.285995 -28.922268 4294967295
-51.95779 69.371239 -28.76729 4294967295
-51.957619 69.676537 -28.815413 4294967295
-51.940392 70.607025 -28.81147 4294967295
-51.936134 70.15303 -28.699238 4294967295
-51.840366 69.03331 -29.047855 4294967295
-51.83691 69.646347 -29.116379 4294967295
-51.822906 69.200867 -28.918003 4294967295
-51.81102 70.584038 -29.03582 4294967295
-51.806572 70.28289 -28.946875 4294967295
-51.67709 70.107674 -29.144836 4294967295
-51.664948 70.27079 -29.062319 4294967295
-51.533531 69.487328 -29.143736 4294967295
-51.530148 69.642769 -29.138617 4294967295
-51.525333 69.951965 -29.145611 4294967295
-51.513706 70.419647 -29.117294 4294967295
-51.512066 70.573593 -29.127554 4294967295
-51.482132 70.294678 -28.81427 4294967295
-51.468323 70.154099 -28.667812 4294967295
-51.296749 70.626007 -28.594305 4294967295
-51.18438 70.283112 -28.917526 4294967295
-51.178951 70.59301 -28.91925 4294967295
-51.173687 70.139786 -28.799009 4294967295
-51.149223 70.466316 -28.633718 4294967295
-51.04377 70.422737 -29.066025 4294967295
-65.459732 75.376465 -30.955746 4294967295
-65.316841 75.061981 -31.011433 4294967295
-65.005333 75.218582 -30.97978 4294967295
-65.000412 74.922134 -30.870712 4294967295
-64.989708 76.294586 -31.003153 4294967295
-64.839348 75.837723 -30.949842 4294967295
-64.69352 75.073235 -30.890629 4294967295
-64.682541 76.143921 -30.964815 4294967295
-64.528206 76.900475 -31.089314 4294967295
-64.392082 75.520218 -31.025028 4294967295
-64.384521 76.435699 -31.108521 4294967295
-64.380371 76.13839 -31.00872 4294967295
-64.380096 74.77832 -30.758131 4294967295
-64.377251 75.083977 -30.782448 4294967295
-64.368355 76.605919 -30.961647 4294967295
-64.365379 77.516068 -31.094591 4294967295
-64.243652 74.607521 -30.91061 4294967295
-64.083252 75.824684 -31.052139 4294967295
-64.076088 74.925964 -30.810677 4294967295
-64.071304 76.292038 -31.006222 4294967295
-64.070442 75.386055 -30.832375 4294967295
-64.069984 75.68895 -30.882368 4294967295
-64.06118 76.606209 -30.952494 4294967295
-64.052544 77.069847 -30.942177 4294967295
-63.946415 74.445137 -30.980154 4294967295
-63.930313 75.219421 -30.94478 4294967295
-63.802197 74.132225 -31.020784 4294967295
-63.757061 76.754013 -31.003962 4294967295
-63.746216 77.220253 -30.970287 4294967295
-63.638779 74.596924 -30.993383 4294967295
-63.634121 74.904594 -30.998407 4294967295
-63.630131 73.699287 -30.737404 4294967295
-63.62801 75.062752 -30.960659 4294967295
-63.626049 75.972046 -31.103596 4294967295
-63.607174 76.296272 -30.957327 4294967295
-63.503078 73.972031 -31.069891 4294967295
-63.490623 74.590805 -31.046669 4294967295
-63.474533 73.398865 -30.657581 4294967295
-63.468052 75.372459 -30.943388 4294967295
-63.466328 75.676842 -30.979588 4294967295
-63.436119 77.677429 -31.013378 4294967295
-63.350819 73.668144 -31.024942 4294967295
-63.343452 73.525085 -30.919708 4294967295
-63.3367 74.591194 -31.038799 4294967295
-63.335354 74.139053 -30.942871 4294967295
-63.331387 74.294739 -30.928061 4294967295
-63.329716 73.086441 -30.69245 4294967295
-63.318642 75.216484 -30.956493 4294967295
-63.315815 75.370926 -30.953758 4294967295
-63.309139 73.411789 -30.528978 4294967295
-63.306149 75.83564 -30.933111 4294967295
-63.295464 76.906425 -31.010557 4294967295
-63.288818 76.309288 -30.831364 4294967295
-63.182846 73.230209 -30.787071 4294967295
-63.179089 72.780411 -30.665756 4294967295
-63.177799 71.116707 -30.352728 4294967295
-63.176258 71.875359 -30.472555 4294967295
-63.17234 74.754539 -30.948055 4294967295
-63.165661 71.583931 -30.30608 4294967295
-63.159557 72.498978 -30.404953 4294967295
-63.15855 72.197266 -30.33984 4294967295
-63.157417 73.863556 -30.627258 4294967295
-63.154163 76.136246 -31.000744 4294967295
-63.140408 76.605766 -30.937088 4294967295
-63.133289 77.067696 -30.943468 4294967295
-63.064007 70.922836 -30.742249 4294967295
-63.052288 71.086601 -30.64583 4294967295
-63.050404 71.996628 -30.789042 4294967295
-63.044567 71.548889 -30.645998 4294967295
-63.041065 73.217117 -30.907913 4294967295
-63.040703 74.125008 -31.066959 4294967295
-63.037857 71.85878 -30.62961 4294967295
-63.03701 72.918991 -30.810827 4294967295
-63.033916 74.283798 -31.02261 4294967295
-63.030491 73.531303 -30.850773 4294967295
-63.029907 73.834503 -30.898932 4294967295
-63.029251 72.473465 -30.647577 4294967295
-63.027615 75.046974 -31.091953 4294967295
-63.027058 72.62719 -30.651625 4294967295
-63.016335 73.092918 -30.620138 4294967295
-63.014465 74.759315 -30.89917 4294967295
-63.012703 75.21505 -30.962057 4294967295
-63.004696 75.526619 -30.931995 4294967295
-63.004517 74.013962 -30.658594 4294967295
-63.003033 73.410225 -30.534286 4294967295
-62.997139 76.29142 -30.988146 4294967295
-62.99242 76.599304 -30.992706 4294967295
-62.965939 77.083717 -30.79537 4294967295
-62.895542 73.510681 -31.043081 4294967295
-62.895386 71.846642 -30.743134 4294967295
-62.882488 73.978844 -30.987244 4294967295
-62.882069 72.012276 -30.630264 4294967295
-62.845325 73.868645 -30.569651 4294967295
-62.845219 74.474144 -30.677027 4294967295
-62.835548 75.695503 -30.792334 4294967295
-62.826866 77.369301 -30.99926 4294967295
-62.817963 76.018143 -30.661879 4294967295
-62.742992 71.542435 -30.698015 4294967295
-62.730034 71.10199 -30.480808 4294967295
-62.727982 71.40699 -30.513515 4294967295
-62.724636 72.167526 -30.61392 4294967295
-62.724476 72.621796 -30.693521 4294967295
-62.721577 72.322189 -30.608931 4294967295
-62.720257 73.534393 -30.81176 4294967295
-62.718063 74.44458 -30.951235 4294967295
-62.71714 72.932457 -30.670773 4294967295
-62.714127 75.507736 -31.099377 4294967295
-62.707355 71.883217 -30.378536 4294967295
-62.706917 71.732239 -30.346798 4294967295
-62.700115 73.707848 -30.627768 4294967295
-62.696259 75.830467 -30.966356 4294967295
-62.693504 74.169212 -30.639706 4294967295
-62.692543 76.137207 -30.981531 4294967295
-62.68927 75.384552 -30.811934 4294967295
-62.688583 76.595459 -31.021235 4294967295
-62.680023 74.940979 -30.633858 4294967295
-62.678825 77.514091 -31.081333 4294967295
-62.676399 75.247726 -30.650066 4294967295
-62.67598 77.36618 -31.024527 4294967295
-62.668713 77.072113 -30.894337 4294967295
-62.663174 77.683563 -30.944557 4294967295
-62.658016 76.781883 -30.728224 4294967295
-62.584648 72.304054 -30.780266 4294967295
-62.577023 70.798172 -30.429939 4294967295
-62.574242 73.979828 -30.968872 4294967295
-62.573437 73.82943 -30.933428 4294967295
-62.557434 74.754875 -30.928366 4294967295
-62.55595 75.815369 -31.101973 4294967295
-62.55389 75.061401 -30.945393 4294967295
-62.545502 76.432182 -31.100895 4294967295
-62.539108 73.261566 -30.466423 4294967295
-62.519947 76.915237 -30.915041 4294967295
-62.445431 71.68309 -30.81901 4294967295
-62.432747 73.209991 -30.956699 4294967295
-62.428749 72.003548 -30.69902 4294967295
-62.402355 73.999809 -30.774841 4294967295
