# .PCD v0.7 - Point Cloud Data file format
VERSION 0.7
FIELDS x y z rgb
SIZE 4 4 4 4
TYPE F F F U
COUNT 1 1 1 1
WIDTH 1147
HEIGHT 1
VIEWPOINT 0 0 0 1 0 0 0
POINTS 1147
DATA ascii
65.783875 76.593834 -14.327129 4294967295
65.81707 77.092918 -14.268083 4294967295
65.851067 78.566887 -14.311116 4294967295
65.870789 75.914444 -14.534027 4294967295
65.874733 76.078163 -14.538263 4294967295
65.878601 77.864975 -14.717189 4294967295
65.881828 76.405342 -14.549346 4294967295
65.919266 78.042137 -14.598287 4294967295
65.920952 79.01667 -14.697295 4294967295
65.926048 78.369278 -14.610436 4294967295
65.932869 76.910652 -14.430535 4294967295
65.933113 77.397812 -14.482058 4294967295
65.939384 77.075363 -14.426148 4294967295
65.951096 75.61808 -14.22979 4294967295
65.955986 78.867317 -14.562396 4294967295
65.956718 77.243988 -14.385456 4294967295
65.96965 77.573425 -14.376993 4294967295
65.971016 76.761971 -14.285163 4294967295
65.986504 76.280273 -14.180843 4294967295
65.99942 78.233826 -14.347004 4294967295
66.018013 75.581329 -14.573355 4294967295
66.062012 75.272102 -14.391002 4294967295
66.125816 75.132034 -14.159733 4294967295
66.160828 75.794067 -14.112212 4294967295
66.175804 78.560646 -14.358723 4294967295
66.186272 78.889313 -14.358561 4294967295
66.210953 79.06086 -14.293355 4294967295
66.214447 76.401939 -14.569925 4294967295
66.215683 75.752998 -14.496038 4294967295
66.21907 78.026848 -14.728815 4294967295
66.230232 76.8946 -14.569393 4294967295
66.250221 79.012177 -14.729185 4294967295
66.258553 75.605728 -14.335051 4294967295
66.267014 76.095886 -14.359078 4294967295
66.269836 77.395927 -14.489163 4294967295
66.27536 78.20974 -14.557875 4294967295
66.280823 75.938377 -14.295391 4294967295
66.285667 77.076874 -14.401292 4294967295
66.285698 77.72641 -14.470968 4294967295
66.293549 75.130753 -14.165547 4294967295
66.324219 77.253159 -14.289708 4294967295
66.344131 78.559715 -14.362618 4294967295
66.359734 75.418739 -14.54598 4294967295
66.363266 76.779869 -14.106661 4294967295
66.39904 75.270142 -14.397054 4294967295
66.42588 78.527 -14.655998 4294967295
66.48307 76.599068 -14.255507 4294967295
66.497192 77.416267 -14.295503 4294967295
66.501945 79.04213 -14.454003 4294967295
66.516922 77.748276 -14.264422 4294967295
66.52462 78.075943 -14.273569 4294967295
66.534996 76.292633 -14.04696 4294967295
66.538414 77.268692 -14.140222 4294967295
66.54007 77.594215 -14.16957 4294967295
66.556625 78.899895 -14.253768 4294967295
66.579567 76.085312 -14.447165 4294967295
66.5858 75.275528 -14.339149 4294967295
66.588577 78.036972 -14.626239 4294967295
66.589546 78.686722 -14.692713 4294967295
66.593323 79.012794 -14.714952 4294967295
66.593964 75.928001 -14.381627 4294967295
66.603081 77.717514 -14.542927 4294967295
66.606178 77.556259 -14.515147 4294967295
66.607544 75.445549 -14.283929 4294967295
66.623756 76.750603 -14.369251 4294967295
66.627228 77.07666 -14.392538 4294967295
66.632751 76.5914 -14.321756 4294967295
66.660751 78.550491 -14.437447 4294967295
66.663788 77.901939 -14.35757 4294967295
66.665428 78.227379 -14.386947 4294967295
66.701874 76.453545 -14.073354 4294967295
66.704567 78.404114 -14.27365 4294967295
66.712502 75.097549 -14.464535 4294967295
66.733871 75.592178 -14.445469 4294967295
66.758537 76.575233 -14.467704 4294967295
66.769653 76.091972 -14.37831 4294967295
66.847198 75.469444 -14.049655 4294967295
66.875877 78.891602 -14.320088 4294967295
66.886459 76.783272 -14.058107 4294967295
66.905861 77.927734 -14.115418 4294967295
66.915703 76.245468 -14.473936 4294967295
66.918579 78.419846 -14.12529 4294967295
66.919456 75.109924 -14.339416 4294967295
66.920944 78.258217 -14.099951 4294967295
66.929131 75.438141 -14.342001 4294967295
66.956398 77.721619 -14.495039 4294967295
66.981071 77.405693 -14.377901 4294967295
66.99308 79.034256 -14.512114 4294967295
67.007408 77.252716 -14.272646 4294967295
67.043114 76.453072 -14.066398 4294967295
67.054344 75.969505 -13.976604 4294967295
67.086868 75.920624 -14.433506 4294967295
67.096977 77.548225 -14.574043 4294967295
67.182564 76.116798 -14.131998 4294967295
67.211212 78.076859 -14.245717 4294967295
67.221077 78.405411 -14.247698 4294967295
67.223793 75.806282 -13.959724 4294967295
67.266426 75.436226 -14.347773 4294967295
67.268272 75.761742 -14.376473 4294967295
67.287186 74.956085 -14.226367 4294967295
67.295891 78.75779 -14.033342 4294967295
67.302177 76.098549 -14.298426 4294967295
67.321892 76.430443 -14.267626 4294967295
67.332504 75.296791 -14.110297 4294967295
67.363831 75.145172 -13.988544 4294967295
67.37011 76.935028 -14.159387 4294967295
67.377846 79.050102 -14.360126 4294967295
67.38324 76.28965 -14.045948 4294967295
67.390144 77.754723 -14.179807 4294967295
67.397606 77.269882 -14.102694 4294967295
67.398094 78.732582 -14.257895 4294967295
67.423393 75.918472 -14.441843 4294967295
67.425255 77.117249 -13.993226 4294967295
67.440163 76.249245 -14.420886 4294967295
67.440994 77.935623 -14.027986 4294967295
67.457497 77.879692 -14.537387 4294967295
67.487251 79.027481 -14.560322 4294967295
67.514206 77.412788 -14.296536 4294967295
67.547653 77.587303 -14.202721 4294967295
67.554253 78.077187 -14.233036 4294967295
67.554756 78.889824 -14.318439 4294967295
67.557114 75.640358 -13.962152 4294967295
67.566818 77.756714 -14.156392 4294967295
67.587044 76.463654 -13.949714 4294967295
67.597206 77.280037 -14.003068 4294967295
67.597382 75.756958 -14.409661 4294967295
67.621239 75.11544 -14.260686 4294967295
67.621452 78.426651 -14.044399 4294967295
67.623543 76.5784 -14.409756 4294967295
67.625801 75.441971 -14.280352 4294967295
67.659546 74.966209 -14.115917 4294967295
67.674522 75.946472 -14.170676 4294967295
67.698524 76.767487 -14.177995 4294967295
67.700798 76.280746 -14.118172 4294967295
67.705574 76.444954 -14.11972 4294967295
67.710739 78.559364 -14.32897 4294967295
67.713959 79.047989 -14.37051 4294967295
67.726791 75.314598 -13.927241 4294967295
67.785316 77.448639 -13.959263 4294967295
67.841141 78.707016 -14.476628 4294967295
67.844513 77.245979 -14.308768 4294967295
67.884575 75.472359 -13.984172 4294967295
67.885796 76.935684 -14.136887 4294967295
67.896126 78.889603 -14.311542 4294967295
67.896507 78.402222 -14.258039 4294967295
67.905159 79.055412 -14.298969 4294967295
67.910942 77.107178 -14.070818 4294967295
67.920975 76.62307 -13.985235 4294967295
67.95237 77.609695 -13.985531 4294967295
67.96006 75.926384 -14.348962 4294967295
67.971947 78.104492 -13.972792 4294967295
67.981354 75.121338 -14.191244 4294967295
67.990524 76.587036 -14.317522 4294967295
68.012665 77.732346 -14.365917 4294967295
68.021919 77.573181 -14.317815 4294967295
68.033493 78.064842 -14.331633 4294967295
68.051468 76.283508 -14.080512 4294967295
68.095749 76.136505 -13.916174 4294967295
68.12281 77.284218 -13.948348 4294967295
68.222885 76.120934 -14.057384 4294967295
68.229057 77.911133 -14.228428 4294967295
68.240051 75.801804 -13.965652 4294967295
68.245338 76.779106 -14.052609 4294967295
68.248718 75.479645 -13.9021 4294967295
68.251099 78.406715 -14.207595 4294967295
68.26358 76.622986 -13.974726 4294967295
68.274353 75.103996 -14.344591 4294967295
68.297791 77.285515 -13.930995 4294967295
68.314354 79.080032 -14.067649 4294967295
68.333916 78.761993 -13.968004 4294967295
68.346977 75.45417 -14.13886 4294967295
68.350098 76.755516 -14.267744 4294967295
68.367134 78.874229 -14.437501 4294967295
68.380287 75.303162 -14.011126 4294967295
68.38092 76.603874 -14.148277 4294967295
68.398323 77.585358 -14.195061 4294967295
68.399895 78.073547 -14.242061 4294967295
68.421127 78.731407 -14.241387 4294967295
68.45639 76.14267 -13.846106 4294967295
68.496368 79.084023 -14.027132 4294967295
68.533447 78.60968 -13.852166 4294967295
68.557449 75.792816 -14.038722 4294967295
68.559151 75.143066 -13.963457 4294967295
68.562622 77.420303 -14.19562 4294967295
68.570793 76.12265 -14.02936 4294967295
68.582642 78.565369 -14.25118 4294967295
68.583969 77.102783 -14.090178 4294967295
68.584679 76.77787 -14.053036 4294967295
68.599014 77.758461 -14.110035 4294967295
68.60038 78.734375 -14.2099 4294967295
68.601288 78.247002 -14.154713 4294967295
68.644379 75.763344 -14.312499 4294967295
68.66256 78.43177 -13.969457 4294967295
68.667961 79.084198 -14.02119 4294967295
68.673409 77.9478 -13.881347 4294967295
68.673836 75.285957 -14.162927 4294967295
68.701027 74.807617 -14.020813 4294967295
68.735573 76.282867 -14.063216 4294967295
68.778763 76.62326 -13.955227 4294967295
68.798912 77.280869 -13.958248 4294967295
68.809433 77.447243 -13.940873 4294967295
68.824394 78.916214 -14.048028 4294967295
68.913193 77.423134 -14.159015 4294967295
68.927887 76.615372 -14.023517 4294967295
68.951141 75.973022 -13.877123 4294967295
68.952034 77.762192 -14.065552 4294967295
68.960678 76.301643 -13.880424 4294967295
68.963234 78.254036 -14.080751 4294967295
68.967278 77.930275 -14.032601 4294967295
68.992805 78.752586 -14.035305 4294967295
69.009857 78.433502 -13.944217 4294967295
69.013367 79.085335 -14.00221 4294967295
69.019218 78.11158 -13.878515 4294967295
69.019287 74.798958 -14.090924 4294967295
69.023895 75.12571 -14.110491 4294967295
69.026268 76.427086 -14.241777 4294967295
69.047226 75.296333 -14.050879 4294967295
69.062111 75.626686 -14.036542 4294967295
69.077499 76.770264 -14.107514 4294967295
69.101471 78.892464 -14.254454 4294967295
69.101921 76.94149 -14.044317 4294967295
69.127281 78.576653 -14.134557 4294967295
69.208206 75.455231 -14.097282 4294967295
69.231339 76.601456 -14.142729 4294967295
69.234367 74.813774 -13.941457 4294967295
69.23909 75.303276 -13.978072 4294967295
69.24173 77.092896 -14.160621 4294967295
69.250046 75.794945 -13.994114 4294967295
69.259354 77.586945 -14.154694 4294967295
69.268204 78.728271 -14.247203 4294967295
69.271301 76.127602 -13.958812 4294967295
69.296036 77.762657 -14.051164 4294967295
69.321098 74.784683 -14.215189 4294967295
69.321884 77.446594 -13.931181 4294967295
69.343285 78.104881 -13.930205 4294967295
69.37149 79.091064 -13.94158 4294967295
69.402016 75.462868 -14.01813 4294967295
69.423416 76.933907 -14.104103 4294967295
69.429573 78.562126 -14.25762 4294967295
69.442444 77.916351 -14.145734 4294967295
69.470459 78.251648 -14.088245 4294967295
69.50309 75.113335 -14.209674 4294967295
69.517319 77.129745 -13.812206 4294967295
69.536278 75.449944 -14.135177 4294967295
69.581963 77.254562 -14.176 4294967295
69.601318 76.936165 -14.077554 4294967295
69.61528 78.729958 -14.222756 4294967295
69.618683 76.454346 -13.968246 4294967295
69.62278 77.594299 -14.076438 4294967295
69.623192 78.407585 -14.161983 4294967295
69.628654 75.969833 -13.883286 4294967295
69.635086 77.436035 -14.018567 4294967295
69.635094 76.785416 -13.949026 4294967295
69.653839 78.255981 -14.043777 4294967295
69.704468 75.448723 -14.140512 4294967295
69.708023 77.787361 -13.813352 4294967295
69.710808 75.125671 -14.084891 4294967295
69.733459 76.109222 -14.114676 4294967295
69.736816 75.947769 -14.086253 4294967295
69.747856 75.62632 -14.015198 4294967295
69.751572 75.302299 -13.968228 4294967295
69.755447 79.106148 -13.796435 4294967295
69.791115 74.82782 -13.786032 4294967295
69.795082 77.26931 -14.033694 4294967295
69.813683 76.299835 -13.868256 4294967295
69.833405 79.072227 -14.098858 4294967295
69.856384 77.128311 -13.814778 4294967295
69.881027 74.962494 -14.066261 4294967295
69.88533 76.427574 -14.208447 4294967295
69.906403 75.459122 -14.035001 4294967295
69.907265 74.808807 -13.962672 4294967295
69.90741 75.947388 -14.0838 4294967295
69.920227 76.765038 -14.128551 4294967295
69.934883 77.258102 -14.132514 4294967295
69.946709 78.07547 -14.18052 4294967295
69.964966 77.756706 -14.085834 4294967295
69.96701 75.805374 -13.870629 4294967295
69.974648 78.573418 -14.140888 4294967295
69.984863 76.136955 -13.846726 4294967295
69.989639 75.162338 -13.726738 4294967295
69.995361 77.116798 -13.9165 4294967295
69.99585 76.954285 -13.897518 4294967295
70.010529 75.6577 -13.710267 4294967295
70.011223 77.610489 -13.916539 4294967295
70.02951 78.430504 -13.94334 4294967295
70.032898 74.630417 -14.090541 4294967295
70.043343 78.76088 -13.932673 4294967295
70.094521 76.278046 -14.061935 4294967295
70.113899 76.447464 -14.015694 4294967295
70.169601 78.093895 -14.006591 4294967295
70.172386 78.908279 -14.084307 4294967295
70.174866 77.93309 -13.971949 4294967295
70.18116 75.331795 -13.673292 4294967295
70.215012 76.645508 -13.70121 4294967295
70.260567 76.113426 -14.057178 4294967295
70.279716 77.584045 -14.150661 4294967295
70.280212 74.981415 -13.87118 4294967295
70.280251 76.933609 -14.079468 4294967295
70.299133 75.63871 -13.878599 4294967295
70.303047 77.266975 -14.039441 4294967295
70.305923 77.918686 -14.099463 4294967295
70.318161 76.296127 -13.885673 4294967295
70.322449 77.761887 -14.027935 4294967295
70.333145 76.789482 -13.888645 4294967295
70.347633 75.167175 -13.667416 4294967295
70.349319 78.259552 -13.991932 4294967295
70.360359 78.426208 -13.973109 4294967295
70.362457 75.497772 -13.653555 4294967295
70.373207 76.640778 -13.739926 4294967295
70.378723 76.47995 -13.704462 4294967295
70.381302 77.457344 -13.800229 4294967295
70.42469 75.785454 -14.041419 4294967295
70.427422 79.101303 -13.82275 4294967295
70.47908 78.081963 -14.106284 4294967295
70.558006 78.923805 -13.934592 4294967295
70.640747 78.729156 -14.20281 4294967295
70.660072 77.759979 -14.035453 4294967295
70.669975 77.600784 -13.985691 4294967295
70.678429 79.068108 -14.114229 4294967295
70.707863 78.590599 -13.965842 4294967295
70.806984 78.951813 -13.676243 4294967295
40.037247 80.482231 -16.783237 4294967295
40.359673 79.353142 -16.697264 4294967295
40.397823 80.975266 -16.730295 4294967295
40.611076 82.601395 -16.730192 4294967295
40.703735 79.357056 -16.654348 4294967295
40.724697 80.008438 -16.645618 4294967295
40.729694 80.492348 -16.680508 4294967295
40.897457 80.331917 -16.657698 4294967295
40.956684 82.92765 -16.718073 4294967295
41.044849 79.680847 -16.659328 4294967295
41.057312 81.292084 -16.791771 4294967295
41.060879 80.490753 -16.687792 4294967295
41.065361 80.332123 -16.652458 4294967295
41.145977 83.419487 -16.684734 4294967295
41.232658 79.689598 -16.577452 4294967295
41.298157 82.288368 -16.614016 4294967295
41.352535 79.34787 -16.721071 4294967295
41.36026 85.368637 -16.717827 4294967295
41.363575 79.834396 -16.732721 4294967295
41.386623 80.647369 -16.734251 4294967295
41.4067 81.459175 -16.747215 4294967295
41.456581 83.087509 -16.735767 4294967295
41.466263 82.610001 -16.644426 4294967295
41.510471 84.71833 -16.708942 4294967295
41.564571 81.133781 -16.744671 4294967295
41.614952 81.959152 -16.641275 4294967295
41.684082 79.988716 -16.799259 4294967295
41.690147 80.312523 -16.812023 4294967295
41.701031 85.693077 -16.725407 4294967295
41.708332 79.517326 -16.652086 4294967295
41.719467 79.843376 -16.645391 4294967295
41.720234 81.128632 -16.786673 4294967295
41.732674 80.491608 -16.666824 4294967295
41.759762 81.306618 -16.65299 4294967295
41.772537 82.597328 -16.748163 4294967295
41.795444 81.643654 -16.552107 4294967295
41.811527 82.775452 -16.61659 4294967295
41.813343 83.740158 -16.717772 4294967295
41.816727 84.544861 -16.794901 4294967295
41.817768 83.581528 -16.682775 4294967295
41.864445 85.37011 -16.701992 4294967295
41.902981 80.171532 -16.616665 4294967295
41.914562 82.264816 -16.806526 4294967295
41.940758 81.955193 -16.670074 4294967295
41.952847 82.121208 -16.641748 4294967295
41.95697 83.086937 -16.73407 4294967295
41.987926 84.225471 -16.74155 4294967295
42.009781 85.03875 -16.747898 4294967295
42.035419 85.371933 -16.685701 4294967295
42.049435 80.00177 -16.676014 4294967295
42.076111 80.495255 -16.627886 4294967295
42.079475 79.5327 -16.506859 4294967295
42.098167 81.629478 -16.669512 4294967295
42.126343 82.605927 -16.66972 4294967295
42.146481 83.900246 -16.736727 4294967295
42.177578 79.502937 -16.769346 4294967295
42.22171 85.862915 -16.664925 4294967295
42.229267 85.70575 -16.617989 4294967295
42.260509 80.18119 -16.524002 4294967295
42.287556 80.996391 -16.510597 4294967295
42.307346 81.647873 -16.506927 4294967295
42.312241 83.417603 -16.686348 4294967295
42.345524 84.557457 -16.685116 4294967295
42.362617 80.152931 -16.770977 4294967295
42.368256 85.049957 -16.652227 4294967295
42.37085 79.674545 -16.685482 4294967295
42.374672 80.318779 -16.742889 4294967295
42.377899 85.857857 -16.705393 4294967295
42.378471 80.481064 -16.746368 4294967295
42.385834 79.841629 -16.646202 4294967295
42.414406 81.299965 -16.699034 4294967295
42.488789 82.939705 -16.594826 4294967295
42.493504 84.06665 -16.702848 4294967295
42.612003 81.795227 -16.635067 4294967295
42.640202 82.28978 -16.581419 4294967295
42.670002 83.910172 -16.647669 4294967295
42.691719 85.044983 -16.690783 4294967295
42.717243 79.679276 -16.635733 4294967295
42.721352 85.701492 -16.649702 4294967295
42.731483 81.613449 -16.797348 4294967295
42.745239 79.851944 -16.546911 4294967295
42.752789 80.498001 -16.590107 4294967295
42.767548 80.022224 -16.479799 4294967295
42.785156 80.83345 -16.502626 4294967295
42.788506 82.441994 -16.669838 4294967295
42.808174 83.575623 -16.720789 4294967295
42.824017 79.171349 -16.810255 4294967295
42.845238 84.074493 -16.633451 4294967295
42.855152 79.987869 -16.781515 4294967295
42.864162 85.208122 -16.687252 4294967295
42.90435 85.869598 -16.606035 4294967295
42.905296 81.134216 -16.71633 4294967295
42.96006 82.765236 -16.687565 4294967295
42.960674 81.801254 -16.577271 4294967295
42.975163 83.414787 -16.701979 4294967295
42.97662 82.290451 -16.570499 4294967295
42.99366 79.332817 -16.816917 4294967295
42.996914 84.388824 -16.727058 4294967295
43.032185 79.99189 -16.742161 4294967295
43.041542 80.317253 -16.742506 4294967295
43.043446 85.85659 -16.711727 4294967295
43.075256 79.528183 -16.524195 4294967295
43.09771 80.823608 -16.582624 4294967295
43.103489 81.308273 -16.614586 4294967295
43.118416 82.439804 -16.683666 4294967295
43.140102 83.735123 -16.744989 4294967295
43.140488 80.520615 -16.383774 4294967295
43.142971 83.254288 -16.680134 4294967295
43.194862 85.367172 -16.716457 4294967295
43.214619 80.480278 -16.736347 4294967295
43.286366 80.993454 -16.517424 4294967295
43.298534 82.927582 -16.686928 4294967295
43.32312 82.61705 -16.557499 4294967295
43.351467 83.915718 -16.593582 4294967295
43.357422 79.826874 -16.755459 4294967295
43.362114 84.402786 -16.607056 4294967295
43.385532 79.999573 -16.666622 4294967295
43.387661 80.321899 -16.694485 4294967295
43.40049 85.063339 -16.533131 4294967295
43.42141 79.532669 -16.476351 4294967295
43.431641 79.215477 -16.401493 4294967295
43.44775 81.794441 -16.627968 4294967295
43.453983 80.671921 -16.478437 4294967295
43.462933 83.569099 -16.768005 4294967295
43.464706 83.409187 -16.743294 4294967295
43.472736 83.091331 -16.676863 4294967295
43.496059 84.387642 -16.732067 4294967295
43.517387 82.146561 -16.39941 4294967295
43.531754 85.207596 -16.686398 4294967295
43.588181 81.139671 -16.65626 4294967295
43.593708 81.784981 -16.707157 4294967295
43.618744 81.635201 -16.594181 4294967295
43.620674 83.082649 -16.748568 4294967295
43.625587 82.602654 -16.676027 4294967295
43.62632 82.76371 -16.691219 4294967295
43.63176 79.3899 -16.293097 4294967295
43.634731 82.28521 -16.6054 4294967295
43.636307 81.321335 -16.491575 4294967295
43.639297 83.251686 -16.695892 4294967295
43.640186 81.966095 -16.54875 4294967295
43.663055 83.583801 -16.641689 4294967295
43.679783 83.752068 -16.596207 4294967295
43.696259 80.310417 -16.789175 4294967295
43.703968 84.084511 -16.540394 4294967295
43.710476 85.534386 -16.677433 4294967295
43.71204 79.513573 -16.639503 4294967295
43.722458 84.414452 -16.506205 4294967295
43.724888 81.286972 -16.78838 4294967295
43.73283 81.772545 -16.812157 4294967295
43.736378 80.48835 -16.655003 4294967295
43.736504 79.845444 -16.582653 4294967295
43.748482 80.17205 -16.57317 4294967295
43.755455 82.103882 -16.762316 4294967295
43.76609 79.214912 -16.398569 4294967295
43.783314 80.830063 -16.512978 4294967295
43.804474 81.482338 -16.50462 4294967295
43.807602 80.036522 -16.331018 4294967295
43.843292 79.658798 -16.79215 4294967295
43.879749 82.962639 -16.38101 4294967295
43.886532 83.2873 -16.391249 4294967295
43.897224 81.610458 -16.803341 4294967295
43.903214 85.224541 -16.543642 4294967295
43.966129 80.675774 -16.434601 4294967295
43.967857 80.194099 -16.374144 4294967295
43.972862 81.321861 -16.480957 4294967295
43.981407 83.254921 -16.664143 4294967295
43.995792 83.58287 -16.645594 4294967295
43.9958 81.814247 -16.447983 4294967295
43.996037 83.743744 -16.662624 4294967295
43.997932 80.36779 -16.278183 4294967295
43.999924 84.388527 -16.719732 4294967295
44.042202 82.799553 -16.380062 4294967295
44.042423 84.890129 -16.612728 4294967295
44.046825 79.352455 -16.617167 4294967295
44.054848 85.217369 -16.601624 4294967295
44.060116 85.702148 -16.635557 4294967295
44.079842 79.205605 -16.47423 4294967295
44.081867 80.010353 -16.556372 4294967295
44.095985 81.624039 -16.682512 4294967295
44.105965 80.181404 -16.48313 4294967295
44.113304 82.113869 -16.670847 4294967295
44.123821 80.993027 -16.505363 4294967295
44.125023 79.867912 -16.375084 4294967295
44.137135 82.928177 -16.670465 4294967295
44.137215 82.445908 -16.616308 4294967295
44.173939 85.195343 -16.782583 4294967295
44.178082 79.497742 -16.76965 4294967295
44.180916 81.339363 -16.325254 4294967295
44.196236 84.723198 -16.644424 4294967295
44.239376 83.616928 -16.355593 4294967295
44.278435 82.755821 -16.749264 4294967295
44.29266 79.385315 -16.318476 4294967295
44.301304 82.605156 -16.644903 4294967295
44.304108 80.676804 -16.418867 4294967295
44.313805 81.967491 -16.525848 4294967295
44.31432 83.093246 -16.649563 4294967295
44.337936 83.586113 -16.614176 4294967295
44.361824 85.526306 -16.739292 4294967295
44.371334 80.472931 -16.77747 4294967295
44.373898 79.670303 -16.678072 4294967295
44.400089 84.739761 -16.505007 4294967295
44.400173 81.610527 -16.794153 4294967295
44.401161 83.775215 -16.393238 4294967295
44.411701 80.168655 -16.589127 4294967295
44.427216 80.979195 -16.620279 4294967295
44.431305 82.106346 -16.730444 4294967295
44.448765 79.541145 -16.377346 4294967295
44.448864 79.219521 -16.341061 4294967295
44.450619 81.310875 -16.567793 4294967295
44.477127 81.483162 -16.485643 4294967295
44.487045 80.039886 -16.286619 4294967295
44.488964 84.061111 -16.728071 4294967295
44.505573 82.782143 -16.521841 4294967295
44.510696 84.231667 -16.664 4294967295
44.561314 85.380249 -16.598587 4294967295
44.562668 84.415901 -16.485807 4294967295
44.567528 79.84198 -16.595013 4294967295
44.638924 81.319771 -16.487154 4294967295
44.639748 80.676804 -16.412268 4294967295
44.641254 82.928864 -16.657772 4294967295
44.646095 82.448601 -16.585703 4294967295
44.648132 83.092697 -16.649771 4294967295
44.653618 79.717575 -16.252237 4294967295
44.654793 80.200676 -16.301647 4294967295
44.664486 82.295845 -16.4984 4294967295
44.670486 81.655113 -16.403992 4294967295
44.683292 81.821533 -16.373634 4294967295
44.69294 84.077515 -16.588444 4294967295
44.704659 85.851692 -16.741571 4294967295
44.715904 83.605293 -16.448038 4294967295
44.722435 79.997269 -16.658169 4294967295
44.732033 79.19735 -16.532312 4294967295
44.739372 85.385147 -16.55691 4294967295
44.740185 84.581299 -16.464146 4294967295
44.743111 85.547691 -16.560759 4294967295
44.744305 84.904869 -16.484505 4294967295
44.747242 81.937172 -16.779873 4294967295
44.76873 81.464172 -16.645109 4294967295
44.823902 84.221939 -16.742102 4294967295
44.830914 81.812782 -16.446671 4294967295
44.840099 81.012459 -16.322351 4294967295
44.861523 79.502777 -16.709133 4294967295
44.864681 83.918602 -16.552635 4294967295
44.882492 82.639648 -16.342045 4294967295
44.896286 80.803726 -16.72167 4294967295
44.91674 80.169273 -16.572943 4294967295
44.940685 84.917992 -16.374012 4294967295
44.97327 81.640923 -16.521507 4294967295
44.975208 82.4459 -16.603867 4294967295
44.975822 84.375755 -16.816669 4294967295
44.976921 80.99913 -16.436022 4294967295
44.977459 82.768524 -16.631256 4294967295
44.988194 81.808243 -16.483257 4294967295
44.993298 80.362671 -16.302612 4294967295
44.996624 84.545906 -16.756319 4294967295
45.009964 81.335083 -16.347498 4294967295
45.020081 84.7173 -16.685991 4294967295
45.029781 84.239197 -16.59572 4294967295
45.030804 83.43544 -16.502216 4294967295
45.035156 83.759079 -16.5217 4294967295
45.035942 83.115997 -16.44702 4294967295
45.047771 85.051483 -16.61767 4294967295
45.056293 83.285881 -16.388367 4294967295
45.056885 82.642593 -16.31439 4294967295
45.068863 85.221909 -16.556252 4294967295
45.073181 80.164421 -16.612469 4294967295
45.082657 80.490067 -16.612671 4294967295
45.08522 83.620506 -16.315372 4294967295
45.104149 85.559715 -16.45937 4294967295
45.106312 80.017632 -16.469915 4294967295
45.110302 79.536758 -16.401112 4294967295
45.112984 81.146324 -16.57032 4294967295
45.147404 79.713249 -16.279467 4294967295
45.155228 81.003616 -16.393515 4294967295
45.16357 82.294121 -16.505575 4294967295
45.199364 81.987976 -16.335125 4294967295
45.203663 82.794289 -16.408617 4294967295
45.206581 85.851723 -16.738192 4294967295
45.243156 79.521996 -16.529415 4294967295
45.272205 85.077339 -16.401966 4294967295
45.297508 80.188332 -16.396873 4294967295
45.307812 80.514458 -16.394011 4294967295
45.311581 83.250504 -16.684521 4294967295
45.312126 83.57238 -16.718309 4294967295
45.318943 81.967026 -16.513514 4294967295
45.323959 82.773468 -16.584269 4294967295
45.324543 84.703598 -16.79707 4294967295
45.342579 85.033363 -16.765182 4294967295
45.346355 80.048111 -16.195381 4294967295
45.347153 81.818405 -16.389608 4294967295
45.350033 85.197556 -16.755106 4294967295
45.352055 79.175613 -16.711655 4294967295
45.35273 81.338127 -16.31488 4294967295
45.35989 81.019386 -16.252119 4294967295
45.376835 81.50943 -16.242254 4294967295
45.382027 83.764305 -16.473711 4294967295
45.384674 85.856651 -16.696705 4294967295
45.392437 82.48172 -16.29122 4294967295
45.400944 84.577171 -16.49229 4294967295
45.402618 80.322533 -16.647228 4294967295
45.409431 79.842941 -16.567898 4294967295
45.41116 84.259979 -16.418093 4294967295
45.412277 84.904045 -16.485571 4294967295
45.422852 85.552368 -16.517559 4294967295
45.425007 83.944359 -16.330236 4294967295
45.429207 84.107147 -16.332384 4294967295
45.431889 79.530685 -16.447746 4294967295
45.43568 82.105698 -16.720179 4294967295
45.446384 85.402191 -16.411293 4294967295
45.455666 83.079315 -16.752655 4294967295
45.467915 80.83287 -16.455877 4294967295
45.493778 79.717567 -16.233316 4294967295
45.526779 85.845108 -16.790331 4294967295
45.569557 85.221191 -16.558254 4294967295
45.570961 83.451973 -16.355904 4294967295
45.615635 79.537262 -16.385002 4294967295
45.630245 81.473953 -16.545187 4294967295
45.656818 80.52002 -16.338066 4294967295
45.666008 83.902397 -16.679766 4294967295
45.66922 83.260414 -16.596102 4294967295
45.673481 84.38826 -16.705484 4294967295
45.677456 84.711723 -16.726402 4294967295
45.689003 82.947372 -16.486135 4294967295
45.693928 83.432198 -16.521402 4294967295
45.70837 81.185722 -16.216427 4294967295
45.716827 85.855484 -16.704201 4294967295
45.723133 81.835854 -16.232771 4294967295
45.724503 82.641129 -16.317223 4294967295
45.73172 85.057915 -16.55887 4294967295
45.734024 85.380714 -16.586063 4294967295
45.738926 83.773941 -16.388578 4294967295
45.741158 80.162842 -16.61223 4294967295
45.747822 84.099739 -16.391064 4294967295
45.752193 82.814194 -16.23134 4294967295
45.754967 85.551117 -16.525503 4294967295
45.766823 79.369308 -16.426514 4294967295
45.78624 80.503654 -16.479156 4294967295
45.789093 81.791801 -16.611721 4294967295
45.795227 82.116165 -16.62455 4294967295
45.808441 79.869446 -16.324327 4294967295
45.808838 82.443802 -16.609383 4294967295
45.811275 85.254822 -16.278694 4294967295
45.811329 79.54882 -16.277678 4294967295
45.812855 80.836746 -16.415268 4294967295
45.819183 80.35672 -16.33782 4294967295
45.822975 81.645561 -16.466909 4294967295
45.831032 80.683586 -16.329256 4294967295
45.847569 81.012482 -16.303146 4294967295
45.873016 81.506195 -16.261562 4294967295
45.91621 79.844109 -16.546352 4294967295
45.936462 84.430992 -16.346407 4294967295
45.990398 80.840836 -16.376129 4294967295
45.991585 80.68042 -16.353771 4294967295
45.996906 84.222221 -16.727697 4294967295
45.998577 83.418663 -16.631966 4294967295
46.002163 81.972252 -16.457445 4294967295
46.005501 79.559715 -16.176317 4294967295
46.010448 82.297653 -16.462255 4294967295
46.011627 82.459068 -16.475742 4294967295
46.01778 85.035843 -16.739101 4294967295
46.021271 81.336807 -16.314325 4294967295
46.028542 84.718964 -16.663067 4294967295
46.032379 81.824394 -16.326485 4294967295
46.032688 82.790085 -16.432756 4294967295
46.034527 83.917221 -16.551197 4294967295
46.055733 85.857368 -16.686663 4294967295
46.066074 85.218521 -16.576401 4294967295
46.094151 85.553055 -16.507219 4294967295
46.108051 80.175888 -16.489429 4294967295
46.114906 83.630981 -16.214741 4294967295
46.127739 83.723366 -16.809507 4294967295
46.147022 80.031387 -16.325821 4294967295
46.150215 84.055023 -16.761293 4294967295
46.156883 79.713646 -16.253128 4294967295
46.176842 83.101555 -16.554447 4294967295
46.199894 81.663284 -16.307199 4294967295
46.214809 82.635414 -16.358856 4294967295
46.241112 80.000282 -16.598627 4294967295
46.27504 79.531822 -16.418198 4294967295
46.280273 80.660347 -16.523926 4294967295
46.288235 85.565109 -16.406704 4294967295
46.290031 84.439171 -16.274689 4294967295
46.30941 81.31636 -16.486681 4294967295
46.314899 85.255241 -16.271305 4294967295
46.320786 81.643059 -16.47999 4294967295
46.330696 83.417252 -16.639786 4294967295
46.33609 79.718277 -16.208036 4294967295
46.338459 81.006912 -16.342402 4294967295
46.345272 84.388992 -16.692696 4294967295
46.351978 85.0355 -16.739197 4294967295
46.357029 85.520386 -16.773994 4294967295
46.36195 82.626404 -16.433641 4294967295
46.366825 84.720406 -16.648022 4294967295
46.370232 81.986229 -16.331139 4294967295
46.376846 82.954773 -16.41382 4294967295
46.382954 85.371231 -16.659376 4294967295
46.385773 79.829613 -16.664349 4294967295
46.390537 83.926414 -16.470074 4294967295
46.392742 82.317894 -16.282875 4294967295
46.399178 82.481651 -16.276747 4294967295
46.403015 79.675957 -16.582121 4294967295
46.416813 83.61615 -16.336199 4294967295
46.417625 83.777466 -16.351055 4294967295
46.439919 85.718872 -16.482573 4294967295
46.453278 80.179726 -16.448225 4294967295
46.467377 80.507515 -16.431395 4294967295
46.47541 81.959167 -16.562414 4294967295
46.475777 83.085556 -16.686235 4294967295
46.479805 80.995567 -16.43869 4294967295
46.481297 85.898636 -16.346058 4294967295
46.506332 81.650635 -16.411293 4294967295
46.509418 84.870102 -16.757469 4294967295
46.519714 79.563736 -16.128708 4294967295
46.576004 82.968491 -16.29454 4294967295
46.579369 84.096741 -16.407238 4294967295
46.623302 85.565102 -16.404421 4294967295
46.6553 85.740578 -16.303028 4294967295
46.660797 82.449486 -16.548048 4294967295
46.676926 83.100182 -16.559469 4294967295
46.67918 84.549324 -16.711971 4294967295
46.681995 84.067886 -16.647848 4294967295
46.688095 81.173668 -16.303225 4294967295
46.689423 81.49617 -16.334063 4294967295
46.691212 84.876495 -16.702908 4294967295
46.703133 82.145927 -16.354517 4294967295
46.719639 85.532898 -16.668533 4294967295
46.723656 82.637726 -16.331701 4294967295
46.724545 82.96006 -16.364168 4294967295
46.728088 85.214874 -16.601299 4294967295
46.730927 83.767677 -16.429802 4294967295
46.745125 83.451996 -16.341146 4294967295
46.752369 79.359604 -16.489822 4294967295
46.786427 85.080154 -16.366137 4294967295
46.796829 84.279823 -16.237963 4294967295
46.796833 81.792091 -16.592419 4294967295
46.799553 79.862068 -16.367739 4294967295
46.803867 80.668617 -16.441082 4294967295
46.814301 80.833977 -16.42012 4294967295
46.816227 82.122269 -16.555969 4294967295
46.817879 79.547783 -16.263721 4294967295
46.818352 80.030899 -16.315615 4294967295
46.82254 84.538521 -16.800545 4294967295
46.824966 80.999451 -16.398285 4294967295
46.833099 82.77327 -16.564659 4294967295
46.840294 84.868217 -16.770227 4294967295
46.84063 80.523186 -16.286299 4294967295
46.842247 83.420959 -16.602114 4294967295
46.904331 85.862518 -16.639179 4294967295
46.908455 80.320015 -16.638147 4294967295
46.934238 83.300346 -16.241844 4294967295
46.946774 81.140747 -16.584959 4294967295
46.968704 81.471939 -16.539127 4294967295
46.982861 83.891747 -16.754507 4294967295
47.003494 82.291573 -16.499102 4294967295
47.006184 82.775558 -16.542725 4294967295
47.006405 81.005135 -16.34527 4294967295
47.006985 83.741478 -16.646954 4294967295
47.01474 80.203712 -16.224865 4294967295
47.027988 82.624084 -16.443762 4294967295
47.029133 84.073112 -16.600348 4294967295
47.03083 83.108192 -16.486813 4294967295
47.033092 81.982407 -16.353273 4294967295
47.046547 85.046455 -16.642815 4294967295
47.072823 82.482529 -16.259159 4294967295
47.074406 81.678123 -16.163853 4294967295
47.087791 85.225914 -16.507378 4294967295
47.094692 83.297104 -16.267223 4294967295
47.095833 85.712433 -16.531086 4294967295
47.104259 84.42836 -16.356789 4294967295
47.107925 85.878868 -16.504017 4294967295
47.125889 79.696922 -16.3797 4294967295
47.127728 81.95089 -16.623032 4294967295
47.135685 79.379044 -16.307539 4294967295
47.139568 80.668427 -16.436083 4294967295
47.141037 80.990959 -16.466366 4294967295
47.143711 80.509209 -16.402813 4294967295
47.144772 84.210983 -16.809772 4294967295
47.151203 81.639091 -16.500063 4294967295
47.153526 84.772346 -16.2094 4294967295
47.160351 81.321075 -16.43034 4294967295
47.162003 83.414055 -16.656462 4294967295
47.201073 82.304375 -16.386265 4294967295
47.222721 84.728394 -16.573858 4294967295
47.24184 79.514259 -16.552122 4294967295
47.262863 83.941299 -16.33544 4294967295
47.334705 80.840813 -16.350246 4294967295
47.335957 80.19735 -16.274122 4294967295
47.336006 81.324318 -16.399023 4294967295
47.346394 85.749916 -16.221827 4294967295
47.352077 84.550407 -16.696594 4294967295
47.352531 79.88224 -16.176836 4294967295
47.355072 82.298363 -16.435442 4294967295
47.357117 80.367233 -16.213434 4294967295
47.36158 85.359276 -16.750624 4294967295
47.37244 85.525085 -16.728189 4294967295
47.377415 79.409447 -16.030802 4294967295
47.384014 82.793846 -16.381626 4294967295
47.389099 83.440033 -16.43421 4294967295
47.397331 83.282639 -16.385805 4294967295
47.401054 79.741386 -15.978782 4294967295
47.40559 84.252228 -16.462336 4294967295
47.40831 85.219307 -16.559406 4294967295
47.418858 82.647942 -16.234442 4294967295
47.421928 85.06443 -16.491024 4294967295
47.433937 84.10376 -16.339296 4294967295
47.439209 81.851448 -16.069536 4294967295
47.44125 83.623901 -16.25856 4294967295
47.453754 79.532372 -16.38611 4294967295
47.461067 80.823181 -16.501877 4294967295
47.461971 81.145477 -16.534237 4294967295
47.490692 85.739365 -16.307405 4294967295
47.492844 83.968697 -16.102856 4294967295
47.497528 81.482521 -16.438103 4294967295
47.50729 83.096405 -16.580484 4294967295
47.532681 83.751358 -16.557777 4294967295
47.540154 81.822716 -16.315762 4294967295
47.592377 79.84201 -16.527822 4294967295
47.604134 84.587883 -16.382212 4294967295
47.616188 79.207977 -16.368158 4294967295
47.622227 84.917984 -16.350872 4294967295
47.649006 81.797409 -16.532251 4294967295
47.653629 82.926102 -16.640076 4294967295
47.663132 84.539627 -16.783348 4294967295
47.67363 79.392693 -16.17313 4294967295
47.674706 85.907799 -16.263548 4294967295
47.682583 81.489761 -16.372143 4294967295
47.682888 83.26075 -16.567411 4294967295
47.692783 84.71373 -16.691393 4294967295
47.695141 80.528931 -16.21846 4294967295
47.709599 81.179184 -16.236338 4294967295
47.715687 85.045845 -16.642292 4294967295
47.726826 85.855652 -16.690271 4294967295
47.730812 82.637558 -16.318485 4294967295
47.735336 83.927666 -16.444578 4294967295
47.742348 85.218742 -16.56143 4294967295
47.742447 83.608765 -16.382544 4294967295
47.74625 84.093483 -16.422014 4294967295
47.748077 79.745667 -15.932948 4294967295
47.755089 80.231903 -15.960589 4294967295
47.76022 82.811325 -16.227419 4294967295
47.761921 79.520622 -16.483475 4294967295
47.761932 80.718071 -15.988838 4294967295
47.767021 85.712791 -16.523632 4294967295
47.775543 83.784302 -16.277834 4294967295
47.787834 84.272865 -16.285889 4294967295
47.79184 79.854988 -16.408417 4294967295
47.795853 80.178642 -16.429264 4294967295
47.802338 85.567665 -16.375031 4294967295
47.803455 85.407127 -16.353048 4294967295
47.822224 80.833687 -16.403055 4294967295
47.822884 81.316956 -16.45417 4294967295
47.829052 84.452156 -16.151115 4294967295
47.843994 83.740707 -16.643759 4294967295
47.85157 82.77816 -16.508654 4294967295
47.860222 80.044464 -16.173111 4294967295
47.901066 81.833298 -16.218376 4294967295
47.934689 82.33091 -16.14752 4294967295
47.946625 83.141441 -16.192642 4294967295
47.960712 82.503197 -16.069077 4294967295
47.975853 82.993042 -16.066633 4294967295
47.977444 81.955147 -16.572563 4294967295
48.006908 84.778778 -16.148188 4294967295
48.010845 85.424904 -16.205044 4294967295
48.018726 80.523529 -16.259291 4294967295
48.022854 80.203156 -16.208319 4294967295
48.027885 79.722061 -16.13615 4294967295
48.03051 84.23185 -16.626171 4294967295
48.032116 82.622597 -16.441814 4294967295
48.033237 81.173813 -16.277044 4294967295
48.035469 79.564125 -16.090248 4294967295
48.037891 85.039993 -16.688072 4294967295
48.038605 84.953979 -16.048801 4294967295
48.04324 82.305344 -16.365004 4294967295
48.044411 83.915993 -16.539108 4294967295
48.051098 84.56292 -16.585758 4294967295
48.065781 79.898857 -16.013853 4294967295
48.068562 81.027672 -16.128567 4294967295
48.080296 80.710426 -16.049471 4294967295
48.082321 81.516747 -16.131252 4294967295
48.087326 81.841042 -16.148462 4294967295
48.092285 79.357071 -16.480831 4294967295
48.096535 82.972527 -16.239386 4294967295
48.104389 83.459145 -16.263893 4294967295
48.11224 85.556229 -16.466875 4294967295
48.122757 81.695038 -15.999601 4294967295
48.12661 80.659256 -16.496746 4294967295
48.138447 85.245865 -16.334356 4294967295
48.138489 83.312912 -16.120012 4294967295
48.141632 85.891518 -16.393967 4294967295
48.151539 82.835236 -16.018206 4294967295
48.15781 79.223007 -16.220858 4294967295
48.157871 80.994408 -16.416943 4294967295
48.160679 81.800644 -16.495766 4294967295
48.166962 84.130905 -16.104036 4294967295
48.21043 83.432167 -16.490425 4294967295
48.251148 83.772011 -16.37575 4294967295
48.267941 85.872894 -16.545652 4294967295
48.27816 82.495132 -16.133253 4294967295
48.283665 80.332603 -16.498817 4294967295
48.291443 79.852814 -16.416607 4294967295
48.308338 82.669235 -16.039654 4294967295
48.320412 81.153053 -16.452383 4294967295
48.346657 84.297203 -16.076666 4294967295
48.350571 79.555161 -16.162666 4294967295
48.351231 82.454315 -16.481342 4294967295
48.355736 82.295227 -16.446894 4294967295
48.359398 84.228912 -16.647358 4294967295
48.361866 81.331604 -16.317245 4294967295
48.373672 80.853386 -16.220144 4294967295
48.375381 82.625732 -16.410078 4294967295
48.377903 80.049728 -16.115314 4294967295
48.393642 81.667198 -16.235664 4294967295
48.412296 84.896317 -16.523579 4294967295
48.413765 81.836838 -16.179258 4294967295
48.413784 80.225761 -16.000721 4294967295
48.413921 84.574974 -16.481922 4294967295
48.422417 82.96814 -16.272232 4294967295
48.455242 85.559616 -16.436537 4294967295
48.46941 80.339897 -16.430779 4294967295
48.472744 83.151024 -16.104399 4294967295
48.479218 84.442734 -16.223265 4294967295
48.482655 83.638687 -16.121382 4294967295
48.485943 85.090096 -16.269821 4294967295
48.489716 81.475586 -16.480732 4294967295
48.491642 83.964859 -16.123913 4294967295
48.503197 79.709724 -16.234848 4294967295
48.512859 84.779823 -16.134872 4294967295
48.51939 85.749443 -16.217834 4294967295
48.548473 79.567307 -16.050051 4294967295
48.550537 83.756088 -16.506165 4294967295
48.554596 79.892067 -16.063156 4294967295
48.56242 83.600235 -16.444553 4294967295
48.570965 79.254288 -15.931415 4294967295
48.586639 82.322136 -16.212622 4294967295
48.587555 80.872528 -16.048689 4294967295
48.598717 81.199478 -16.043217 4294967295
48.61433 80.561455 -15.914269 4294967295
48.618908 82.013695 -16.057999 4294967295
48.62096 81.692291 -16.014748 4294967295
48.677456 83.489212 -16.002785 4294967295
48.680908 79.552475 -16.178904 4294967295
48.684376 83.419205 -16.593996 4294967295
48.691772 80.201332 -16.210211 4294967295
48.697704 82.458778 -16.437992 4294967295
48.703686 81.172813 -16.273325 4294967295
48.711704 79.887383 -16.101122 4294967295
48.714119 82.948982 -16.431023 4294967295
48.720367 80.535431 -16.140558 4294967295
48.722534 82.791557 -16.382206 4294967295
48.722832 83.274857 -16.434595 4294967295
48.726933 84.564987 -16.562084 4294967295
48.727077 81.665955 -16.240679 4294967295
48.735134 83.924423 -16.460602 4294967295
48.737667 80.059258 -16.023321 4294967295
48.739784 83.121132 -16.354361 4294967295
48.740253 84.248772 -16.477404 4294967295
48.75753 83.77314 -16.360329 4294967295
48.772396 80.395981 -15.93107 4294967295
48.782272 80.722427 -15.93037 4294967295
48.783836 82.173431 -16.085167 4294967295
48.78746 82.658386 -16.125319 4294967295
48.79166 85.398956 -16.412954 4294967295
48.791809 85.076866 -16.376766 4294967295
48.797081 82.017937 -16.018557 4294967295
48.798008 84.113022 -16.246984 4294967295
48.801456 82.34211 -16.038111 4294967295
48.816586 84.92675 -16.267746 4294967295
48.833527 81.156654 -16.411531 4294967295
48.875309 85.275085 -16.087275 4294967295
48.877308 80.852882 -16.214787 4294967295
48.914852 81.835358 -16.183622 4294967295
48.914913 79.57943 -15.933726 4294967295
48.931057 84.903122 -16.462664 4294967295
48.936344 84.583305 -16.407585 4294967295
48.952358 81.045479 -15.956464 4294967295
48.983463 83.637268 -16.127352 4294967295
49.01432 80.356529 -16.273127 4294967295
49.018864 79.714012 -16.18512 4294967295
49.022186 81.648468 -16.386772 4294967295
49.035065 81.815002 -16.357248 4294967295
49.043152 82.945953 -16.45225 4294967295
49.043373 82.623917 -16.415808 4294967295
49.051777 81.016563 -16.206722 4294967295
49.058537 84.080048 -16.520428 4294967295
49.062366 82.47097 -16.328192 4294967295
49.065132 81.183289 -16.175449 4294967295
49.078827 80.705627 -16.071634 4294967295
49.080048 80.544991 -16.049311 4294967295
49.081696 82.31813 -16.239332 4294967295
49.096741 83.613464 -16.326616 4294967295
49.10405 82.811058 -16.210649 4294967295
49.106266 84.262016 -16.36289 4294967295
49.110191 80.235184 -15.902835 4294967295
49.110203 84.585938 -16.38405 4294967295
49.113441 83.298485 -16.229609 4294967295
49.1143 79.592102 -15.816398 4294967295
49.114887 84.910187 -16.402485 4294967295
49.11676 79.915512 -15.84302 4294967295
49.133949 85.07972 -16.350277 4294967295
49.149406 83.958641 -16.168755 4294967295
49.178379 80.515831 -16.303276 4294967295
49.19458 82.294548 -16.439735 4294967295
49.195927 83.817749 -15.980011 4294967295
49.297501 81.854919 -16.008392 4294967295
49.297955 81.693932 -15.988905 4294967295
49.342869 83.324989 -16.002251 4294967295
49.361416 83.010582 -15.898519 4294967295
49.365074 79.556679 -16.125685 4294967295
49.372597 80.526573 -16.204983 4294967295
49.377781 79.400734 -16.061237 4294967295
49.382931 84.470818 -15.97997 4294967295
49.386147 81.33786 -16.244333 4294967295
49.388538 79.727455 -16.0574 4294967295
49.399635 81.021255 -16.159218 4294967295
49.403564 82.150833 -16.269505 4294967295
49.411003 80.220207 -16.028425 4294967295
49.418171 82.640434 -16.269361 4294967295
49.426346 81.999367 -16.168129 4294967295
49.430737 82.806946 -16.241096 4294967295
49.430897 80.71199 -16.008904 4294967295
49.436382 80.391899 -15.953128 4294967295
49.446735 83.136093 -16.218039 4294967295
49.478176 84.438904 -16.245249 4294967295
49.480301 84.117538 -16.201832 4294967295
49.487907 82.509079 -15.995774 4294967295
49.50613 83.967628 -16.089304 4294967295
49.515472 85.819511 -15.636199 4294967295
49.525024 83.814659 -16.002209 4294967295
49.535782 79.718719 -16.131622 4294967295
49.548214 84.308395 -15.970634 4294967295
49.60881 81.199501 -16.024271 4294967295
49.631969 82.176392 -16.046284 4294967295
49.638229 81.69545 -15.969903 4294967295
49.663441 83.640572 -16.091286 4294967295
49.684258 80.193886 -16.254665 4294967295
49.685768 81.483437 -16.391548 4294967295
49.708073 83.498672 -15.909969 4294967295
49.710892 83.016174 -15.846182 4294967295
49.715534 81.173683 -16.246969 4294967295
49.718182 79.402061 -16.041393 4294967295
49.733673 82.953766 -16.376369 4294967295
49.740425 83.440018 -16.405056 4294967295
49.762383 80.064941 -15.95077 4294967295
49.764008 82.644478 -16.22974 4294967295
49.764969 82.161415 -16.172815 4294967295
49.771648 81.35836 -16.059326 4294967295
49.772133 80.713791 -15.986307 4294967295
49.780792 80.394966 -15.918981 4294967295
49.788357 81.687767 -16.033772 4294967295
49.792961 85.868324 -15.23382 4294967295
49.798767 83.9487 -16.24493 4294967295
49.802357 82.499672 -16.071556 4294967295
49.808018 82.018471 -15.997406 4294967295
49.819283 84.602303 -16.241062 4294967295
49.820568 82.346214 -15.987087 4294967295
49.836079 84.287292 -16.143997 4294967295
49.848904 80.353447 -16.282845 4294967295
49.868565 81.972885 -16.388889 4294967295
49.868965 84.462868 -16.041464 4294967295
49.876602 84.143761 -15.977908 4294967295
49.88026 83.339149 -15.875463 4294967295
49.888885 85.997505 -15.515016 4294967295
49.898132 81.501945 -16.227365 4294967295
49.904282 79.731583 -16.009037 4294967295
49.91264 83.925163 -16.441227 4294967295
49.947048 83.134315 -16.226452 4294967295
50.00246 82.996895 -16.006031 4294967295
50.011143 79.545166 -16.213079 4294967295
50.030907 83.331573 -15.937631 4294967295
50.038994 84.463715 -16.032688 4294967295
50.04258 85.829742 -15.548742 4294967295
50.04929 85.34864 -15.470732 4294967295
50.053131 81.818642 -16.308737 4294967295
50.055691 80.852791 -16.192625 4294967295
50.057594 83.665588 -15.875666 4294967295
50.066666 80.212624 -16.081333 4294967295
50.071991 79.892426 -16.026264 4294967295
50.074493 85.521172 -15.396341 4294967295
50.074867 84.31813 -15.883751 4294967295
50.085152 80.059036 -15.995966 4294967295
50.09528 82.9646 -16.279301 4294967295
50.095367 80.708084 -16.029831 4294967295
50.096367 82.642738 -16.239744 4294967295
50.096901 81.192329 -16.077631 4294967295
50.104103 82.162498 -16.158092 4294967295
50.10413 83.935333 -16.353716 4294967295
50.105125 81.518166 -16.083166 4294967295
50.111286 83.293793 -16.256405 4294967295
50.170692 82.835655 -15.986014 4294967295
50.203793 79.877342 -16.15687 4294967295
50.228241 79.403755 -16.014196 4294967295
50.250866 83.603798 -16.394161 4294967295
50.25642 85.850075 -15.380433 4294967295
50.278206 85.375473 -15.247333 4294967295
50.304478 82.014839 -16.020601 4294967295
50.314384 81.212799 -15.895457 4294967295
50.343712 79.220955 -16.186504 4294967295
50.349792 82.356491 -15.890794 4294967295
50.363728 79.390259 -16.131277 4294967295
50.364586 80.357674 -16.234867 4294967295
50.382126 80.042534 -16.135311 4294967295
50.388832 81.012405 -16.217579 4294967295
50.406742 79.730202 -16.009937 4294967295
50.407433 81.181335 -16.167519 4294967295
50.417881 83.281013 -16.360598 4294967295
50.423664 85.365417 -15.329202 4294967295
50.435356 84.006027 -15.756547 4294967295
50.435658 82.643921 -16.224672 4294967295
50.442978 82.324646 -16.162401 4294967295
50.445969 85.536705 -15.265565 4294967295
50.45713 81.363289 -16.004065 4294967295
50.465549 83.462669 -16.204609 4294967295
50.467751 82.980003 -16.143229 4294967295
50.479168 82.501205 -16.048229 4294967295
50.496437 82.024773 -15.931886 4294967295
50.50983 83.804192 -16.078749 4294967295
50.530033 84.135422 -16.040672 4294967295
50.533974 79.713295 -16.157055 4294967295
50.539501 79.231949 -16.083559 4294967295
50.554531 82.855789 -15.809037 4294967295
50.560921 82.947945 -16.414442 4294967295
50.562317 81.659233 -16.267155 4294967295
50.598095 79.578209 -15.905576 4294967295
50.617638 85.861115 -15.287413 4294967295
50.624016 80.233849 -15.882287 4294967295
50.637871 80.723366 -15.885169 4294967295
