# .PCD v0.7 - Point Cloud Data file format
VERSION 0.7
FIELDS x y z rgb
SIZE 4 4 4 4
TYPE F F F U
COUNT 1 1 1 1
WIDTH 1143
HEIGHT 1
VIEWPOINT 0 0 0 1 0 0 0
POINTS 1143
DATA ascii
10.544771 14.085135 -17.839766 4294967295
10.545818 15.670786 -18.027269 4294967295
10.561466 14.878644 -17.856884 4294967295
10.562846 16.305759 -18.02356 4294967295
10.57902 15.989433 -17.90844 4294967295
10.584636 11.865201 -17.381159 4294967295
10.594639 16.6245 -17.911421 4294967295
10.598042 10.908058 -17.970718 4294967295
10.610415 17.576796 -17.952162 4294967295
10.611271 16.149572 -17.774872 4294967295
10.629105 14.246602 -17.459282 4294967295
10.670058 13.12912 -17.898994 4294967295
10.674869 14.873329 -18.08783 4294967295
10.700498 11.384952 -17.543127 4294967295
10.770345 17.256224 -17.924536 4294967295
10.772164 15.670299 -17.723515 4294967295
10.779616 16.780962 -17.822948 4294967295
10.781878 16.939688 -17.831482 4294967295
10.78638 17.415733 -17.867907 4294967295
10.787857 10.904705 -17.839569 4294967295
10.796992 17.574957 -17.836937 4294967295
10.801239 11.38061 -17.833961 4294967295
10.815639 13.1252 -17.977407 4294967295
10.817333 12.015211 -17.834766 4294967295
10.832053 14.71119 -18.09207 4294967295
10.83663 15.990596 -17.456919 4294967295
10.841355 12.967268 -17.836552 4294967295
10.842868 13.760231 -17.925562 4294967295
10.845327 13.601727 -17.894701 4294967295
10.847453 15.504485 -18.115391 4294967295
10.848914 15.346013 -18.089256 4294967295
10.855072 12.491753 -17.713972 4294967295
10.857152 12.174535 -17.665655 4294967295
10.859553 13.443542 -17.808193 4294967295
10.863237 13.919449 -17.848475 4294967295
10.864661 16.297945 -18.130171 4294967295
10.871352 15.822642 -18.040869 4294967295
10.871408 11.064126 -17.463514 4294967295
10.875983 14.554256 -17.865141 4294967295
10.903908 11.699304 -17.386749 4294967295
10.912222 15.031467 -17.751518 4294967295
10.91811 15.190331 -17.742918 4294967295
10.920099 16.776476 -17.92584 4294967295
10.921873 12.651847 -17.417259 4294967295
10.938163 11.535287 -17.97241 4294967295
10.94491 16.936411 -17.827818 4294967295
10.951208 14.398316 -17.490238 4294967295
10.954892 11.85267 -17.931818 4294967295
10.957739 15.98528 -17.651775 4294967295
11.022054 13.281457 -17.787577 4294967295
11.07189 13.124115 -17.532948 4294967295
11.086149 16.138931 -17.830986 4294967295
11.090281 10.897318 -17.942848 4294967295
11.091204 11.0559 -17.957706 4294967295
11.106529 15.822634 -17.696321 4294967295
11.113722 14.236189 -17.47003 4294967295
11.11375 17.092073 -17.816044 4294967295
11.115522 15.029703 -17.557707 4294967295
11.115671 15.34706 -17.595469 4294967295
11.116631 14.871064 -17.533239 4294967295
11.130033 17.568882 -17.796875 4294967295
11.142724 16.459028 -17.602375 4294967295
11.153772 12.008324 -17.777742 4294967295
11.171578 16.6192 -17.485409 4294967295
11.180315 11.691464 -17.614048 4294967295
11.181758 15.181025 -18.030033 4294967295
11.185526 13.595241 -17.820122 4294967295
11.187221 11.215538 -17.523777 4294967295
11.189745 10.739489 -17.454176 4294967295
11.200935 11.850452 -17.535971 4294967295
11.203268 12.16785 -17.563416 4294967295
11.209201 15.816522 -17.977474 4294967295
11.210233 16.767998 -18.087868 4294967295
11.212276 14.230577 -17.770821 4294967295
11.220103 14.548113 -17.772337 4294967295
11.225273 13.279064 -17.594173 4294967295
11.227626 12.644393 -17.506168 4294967295
11.249696 17.245892 -17.959463 4294967295
11.256049 17.563444 -17.967939 4294967295
11.267034 14.073738 -17.493317 4294967295
11.270848 13.756444 -17.436865 4294967295
11.28625 17.406601 -17.806368 4294967295
11.297223 11.052742 -17.750912 4294967295
11.315454 16.138817 -17.514925 4294967295
11.322428 12.956624 -17.862652 4294967295
11.333225 11.37044 -17.61964 4294967295
11.36466 15.019873 -17.913387 4294967295
11.383536 13.910131 -17.690001 4294967295
11.395073 16.448677 -17.943008 4294967295
11.414427 13.117577 -17.448374 4294967295
11.419395 16.767162 -17.866894 4294967295
11.436856 16.133482 -17.70784 4294967295
11.43688 15.816153 -17.669298 4294967295
11.437911 15.498851 -17.626015 4294967295
11.446603 17.244551 -17.796415 4294967295
11.446939 16.927277 -17.756413 4294967295
11.450204 17.562038 -17.817877 4294967295
11.464742 10.731901 -17.687538 4294967295
11.497753 15.977685 -17.401844 4294967295
11.497936 13.112073 -17.819351 4294967295
11.506056 13.429548 -17.819544 4294967295
11.522211 11.525891 -17.513027 4294967295
11.522641 12.954041 -17.683882 4294967295
11.525031 12.478081 -17.615011 4294967295
11.533454 14.858103 -17.863438 4294967295
11.538526 12.16096 -17.513077 4294967295
11.541687 11.049959 -17.363693 4294967295
11.543671 11.208716 -17.373571 4294967295
11.558907 17.397001 -18.050859 4294967295
11.558996 11.843868 -17.37829 4294967295
11.559483 12.796224 -17.491287 4294967295
11.562382 14.22455 -17.650524 4294967295
11.564631 14.065946 -17.620737 4294967295
11.568519 15.17678 -17.736883 4294967295
11.578361 14.542472 -17.613762 4294967295
11.585132 13.907904 -17.505066 4294967295
11.609408 14.702318 -17.486898 4294967295
11.629043 11.521575 -17.773848 4294967295
11.63026 16.766407 -17.638525 4294967295
11.656738 16.926527 -17.533215 4294967295
11.657885 11.363282 -17.619036 4294967295
11.661616 16.609341 -17.471857 4294967295
11.668678 11.839478 -17.625891 4294967295
11.671605 16.451115 -17.405666 4294967295
11.675993 14.695315 -17.937016 4294967295
11.695398 12.31602 -17.557873 4294967295
11.705506 15.648225 -17.913485 4294967295
11.720623 16.917875 -17.995977 4294967295
11.749039 13.110829 -17.401747 4294967295
11.763936 14.222426 -17.466169 4294967295
11.766819 15.333555 -17.587038 4294967295
11.767228 14.857441 -17.527515 4294967295
11.784266 17.238672 -17.735443 4294967295
11.789714 11.993907 -17.838827 4294967295
11.790322 16.128149 -17.572617 4294967295
11.79446 16.604473 -17.610777 4294967295
11.798252 15.493618 -17.458559 4294967295
11.798888 17.080805 -17.647573 4294967295
11.801655 17.557032 -17.692165 4294967295
11.805194 11.042169 -17.651003 4294967295
11.805507 15.97015 -17.482084 4294967295
11.81618 15.018101 -17.316706 4294967295
11.828363 11.2011 -17.561382 4294967295
11.829052 12.470601 -17.711681 4294967295
11.830955 11.518533 -17.587601 4294967295
11.837524 12.788125 -17.710279 4294967295
11.850118 11.360065 -17.478411 4294967295
11.868701 13.423637 -17.64068 4294967295
11.869449 16.596626 -18.020857 4294967295
11.870885 12.154013 -17.476877 4294967295
11.871373 13.899774 -17.685707 4294967295
11.876493 13.265151 -17.584909 4294967295
11.877821 12.947765 -17.540287 4294967295
11.880123 11.836693 -17.3951 4294967295
11.882485 16.121418 -17.902155 4294967295
11.883438 17.390404 -18.051113 4294967295
11.884007 15.328259 -17.799099 4294967295
11.884524 15.645588 -17.835039 4294967295
11.908837 13.583486 -17.471464 4294967295
11.917707 14.377414 -17.525805 4294967295
11.92085 14.853684 -17.568636 4294967295
11.923285 15.806003 -17.672348 4294967295
11.944716 14.537108 -17.41824 4294967295
11.946036 14.060878 -17.354446 4294967295
11.968588 15.173055 -17.382998 4294967295
11.969824 16.443079 -17.530762 4294967295
11.971129 12.149343 -17.768169 4294967295
12.023232 14.68931 -17.83073 4294967295
12.044909 13.103097 -17.537289 4294967295
12.111892 11.193475 -17.754015 4294967295
12.126873 12.462996 -17.837202 4294967295
12.150322 17.551846 -17.580399 4294967295
12.15347 11.670064 -17.616758 4294967295
12.154146 12.304865 -17.690289 4294967295
12.155356 13.256955 -17.799652 4294967295
12.162783 11.035296 -17.496416 4294967295
12.170311 12.781282 -17.6721 4294967295
12.170982 16.282896 -17.330101 4294967295
12.174815 13.574836 -17.74687 4294967295
12.17618 11.987849 -17.548731 4294967295
12.196351 15.003626 -17.818567 4294967295
12.200534 12.940701 -17.549734 4294967295
12.202796 12.623286 -17.50078 4294967295
12.207998 15.321437 -17.802382 4294967295
12.20937 15.480165 -17.81513 4294967295
12.21641 14.528328 -17.667145 4294967295
12.216656 16.432467 -17.896027 4294967295
12.218755 14.210992 -17.617819 4294967295
12.218826 13.099887 -17.483242 4294967295
12.222412 17.543257 -18.003233 4294967295
12.237085 14.052869 -17.512817 4294967295
12.237891 16.116171 -17.758305 4294967295
12.249893 16.910189 -17.797977 4294967295
12.252544 14.688371 -17.517149 4294967295
12.268863 16.5938 -17.670862 4294967295
12.286945 14.848428 -17.375277 4294967295
12.29834 17.388985 -17.628786 4294967295
12.30733 16.75453 -17.510017 4294967295
12.322119 11.349137 -17.548906 4294967295
12.346639 17.232973 -17.383602 4294967295
12.36811 11.508472 -17.35289 4294967295
12.384987 13.890209 -17.561533 4294967295
12.394135 13.572993 -17.480408 4294967295
12.400248 12.144135 -17.27924 4294967295
12.423554 15.161519 -17.534536 4294967295
12.444107 16.273645 -17.572626 4294967295
12.446153 15.638739 -17.486391 4294967295
12.45236 14.051117 -17.265625 4294967295
12.452494 11.027764 -17.660103 4294967295
12.463857 16.115847 -17.461136 4294967295
12.464278 12.297511 -17.758293 4294967295
12.466038 11.186616 -17.615967 4294967295
12.474196 15.481181 -17.336105 4294967295
12.481492 11.50425 -17.582062 4294967295
12.486283 11.821774 -17.597994 4294967295
12.488978 11.345608 -17.527914 4294967295
12.489055 10.869363 -17.47007 4294967295
12.491887 16.752357 -17.406794 4294967295
12.493297 13.726385 -17.795115 4294967295
12.499454 17.070335 -17.409771 4294967295
12.517428 11.663492 -17.43329 4294967295
12.529266 14.0449 -17.665409 4294967295
12.529803 12.933789 -17.528784 4294967295
12.533312 12.457599 -17.454899 4294967295
12.537408 15.156143 -17.761475 4294967295
12.539707 15.790998 -17.827351 4294967295
12.540427 16.74305 -17.938887 4294967295
12.546765 16.267368 -17.851849 4294967295
12.552089 13.251862 -17.462997 4294967295
12.553469 14.680628 -17.629002 4294967295
12.55753 14.839509 -17.629189 4294967295
12.566714 16.903112 -17.835318 4294967295
12.574741 14.205134 -17.472166 4294967295
12.577268 17.221064 -17.824354 4294967295
12.579866 16.586411 -17.735615 4294967295
12.621937 17.382303 -17.634996 4294967295
12.628745 15.001039 -17.315773 4294967295
12.6502 17.542686 -17.522226 4294967295
12.669724 12.929743 -17.633772 4294967295
12.670425 12.453552 -17.573046 4294967295
12.676996 14.358376 -17.772181 4294967295
12.687363 15.628281 -17.876982 4294967295
12.688019 11.9776 -17.433472 4294967295
12.722521 17.375465 -17.92359 4294967295
12.752988 13.567002 -17.321894 4294967295
12.782878 14.520853 -17.297411 4294967295
12.783483 16.267639 -17.50532 4294967295
12.784422 17.537741 -17.654144 4294967295
12.787669 16.902922 -17.562407 4294967295
12.794641 16.585749 -17.49159 4294967295
12.800975 12.608086 -17.740709 4294967295
12.811968 17.221794 -17.487415 4294967295
12.817769 12.132243 -17.605005 4294967295
12.823217 11.021007 -17.445576 4294967295
12.842502 11.973912 -17.47057 4294967295
12.859205 11.338981 -17.316101 4294967295
12.862664 13.879515 -17.606352 4294967295
12.865399 12.450678 -17.421288 4294967295
12.865712 13.085805 -17.496422 4294967295
12.868614 13.720942 -17.559484 4294967295
12.87429 11.65681 -17.284082 4294967295
12.882222 14.197649 -17.553511 4294967295
12.88529 14.515272 -17.577503 4294967295
12.886293 17.213558 -17.898184 4294967295
12.888043 13.562737 -17.4498 4294967295
12.891205 15.944176 -17.722221 4294967295
12.894591 12.292443 -17.266071 4294967295
12.900143 14.674573 -17.527451 4294967295
12.903281 16.262203 -17.704254 4294967295
12.906381 16.579813 -17.728094 4294967295
12.910929 14.039807 -17.400606 4294967295
12.917394 15.62787 -17.561954 4294967295
12.928253 17.53336 -17.741064 4294967295
12.929447 14.834455 -17.41007 4294967295
12.943983 15.311439 -17.399801 4294967295
12.960389 11.017167 -17.563215 4294967295
12.961183 11.175927 -17.578657 4294967295
12.965928 15.471179 -17.316725 4294967295
12.98317 16.424917 -17.35132 4294967295
13.099658 17.213085 -17.661343 4294967295
13.129565 15.467831 -17.311708 4294967295
13.136958 17.056366 -17.468721 4294967295
13.139789 15.944788 -17.321571 4294967295
13.151739 11.172634 -17.44779 4294967295
13.155853 10.855076 -17.390383 4294967295
13.161494 11.966702 -17.498085 4294967295
13.163413 11.649157 -17.450897 4294967295
13.178523 13.237265 -17.571949 4294967295
13.181212 12.602216 -17.482925 4294967295
13.19112 12.761225 -17.455992 4294967295
13.199715 14.031728 -17.569078 4294967295
13.200038 16.095409 -17.816193 4294967295
13.201083 15.143078 -17.696604 4294967295
13.203837 17.206528 -17.932364 4294967295
13.209855 15.619672 -17.713213 4294967295
13.21014 12.126345 -17.291012 4294967295
13.213768 13.714592 -17.465496 4294967295
13.22686 16.890364 -17.787176 4294967295
13.235086 13.874043 -17.385529 4294967295
13.235785 14.191692 -17.420553 4294967295
13.237164 16.414679 -17.681936 4294967295
13.239081 16.732273 -17.711277 4294967295
13.243543 14.668387 -17.441893 4294967295
13.251904 14.986318 -17.441292 4294967295
13.25971 13.39824 -17.213652 4294967295
13.260207 11.00973 -17.679508 4294967295
13.266505 16.257349 -17.526487 4294967295
13.276515 15.304943 -17.365185 4294967295
13.279078 11.486176 -17.6492 4294967295
13.289211 16.576077 -17.459249 4294967295
13.296826 17.370499 -17.519522 4294967295
13.316174 17.530415 -17.448778 4294967295
13.352199 14.82173 -17.711142 4294967295
13.396514 13.235209 -17.314178 4294967295
13.40544 13.711976 -17.33012 4294967295
13.413127 17.364569 -17.734221 4294967295
13.427924 13.077144 -17.149195 4294967295
13.448647 11.16515 -17.577887 4294967295
13.464936 16.891056 -17.43648 4294967295
13.466092 11.959252 -17.59252 4294967295
13.474323 11.800603 -17.535225 4294967295
13.484898 13.5473 -17.696407 4294967295
13.485448 16.256723 -17.264795 4294967295
13.485801 12.753505 -17.596664 4294967295
13.485861 11.006722 -17.386112 4294967295
13.486061 12.277165 -17.53812 4294967295
13.487943 16.097973 -17.234087 4294967295
13.491484 11.324424 -17.398262 4294967295
13.49173 11.483245 -17.416241 4294967295
13.500802 14.024044 -17.679983 4294967295
13.513885 12.912939 -17.485519 4294967295
13.530646 13.866199 -17.522478 4294967295
13.532537 15.612798 -17.723927 4294967295
13.544724 12.437125 -17.285131 4294967295
13.549917 14.978428 -17.566917 4294967295
13.55562 16.56641 -17.731577 4294967295
13.556216 14.819873 -17.518602 4294967295
13.558388 13.708216 -17.374722 4294967295
13.562971 15.931695 -17.621071 4294967295
13.563235 14.661325 -17.466944 4294967295
13.566957 17.202021 -17.755455 4294967295
13.567709 14.34384 -17.407967 4294967295
13.569611 13.390841 -17.284435 4294967295
13.575839 15.455881 -17.504087 4294967295
13.577801 16.249964 -17.590553 4294967295
13.58037 17.520288 -17.731514 4294967295
13.587919 13.232456 -17.180403 4294967295
13.688974 11.003498 -17.19795 4294967295
13.710443 11.480388 -17.155823 4294967295
13.730094 12.434043 -17.17948 4294967295
13.761817 13.547046 -17.166348 4294967295
13.762383 15.135804 -17.354866 4294967295
13.769572 14.023958 -17.187778 4294967295
13.784186 16.56641 -17.425903 4294967295
13.815157 10.840711 -17.34729 4294967295
13.821876 16.25054 -17.213209 4294967295
13.822348 11.15847 -17.352219 4294967295
13.826489 12.111544 -17.447666 4294967295
13.826608 13.540804 -17.619005 4294967295
13.829297 17.045353 -17.274422 4294967295
13.833525 13.2234 -17.548809 4294967295
13.835453 12.58819 -17.46349 4294967295
13.856922 11.476598 -17.23041 4294967295
13.859279 13.859366 -17.50606 4294967295
13.864877 12.906518 -17.365553 4294967295
13.872302 14.336243 -17.503111 4294967295
13.877934 11.953558 -17.190495 4294967295
13.883005 16.083502 -17.663666 4294967295
13.884613 15.28959 -17.560757 4294967295
13.889409 17.195248 -17.767694 4294967295
13.891763 13.701501 -17.336683 4294967295
13.897209 12.748386 -17.19685 4294967295
13.901426 14.813777 -17.425701 4294967295
13.903104 15.131517 -17.456144 4294967295
13.908157 17.513845 -17.7192 4294967295
13.911101 14.496427 -17.342745 4294967295
13.917979 16.561607 -17.559235 4294967295
13.925586 15.450129 -17.390371 4294967295
13.930454 16.403406 -17.482456 4294967295
13.932503 15.926984 -17.415689 4294967295
13.94357 14.020853 -17.135237 4294967295
13.960552 11.948692 -17.560234 4294967295
13.963174 12.107539 -17.567205 4294967295
13.987407 16.724009 -17.257338 4294967295
13.992073 17.359802 -17.312178 4294967295
14.014191 11.790698 -17.293211 4294967295
14.016022 14.173346 -17.571152 4294967295
14.027386 15.602949 -17.690437 4294967295
14.029599 10.837519 -17.107374 4294967295
14.065659 16.239893 -17.590015 4294967295
14.112533 14.494349 -17.163462 4294967295
14.140568 11.468902 -17.422255 4294967295
14.150904 10.992444 -17.317265 4294967295
14.159431 13.692861 -17.602346 4294967295
14.176723 14.646253 -17.637028 4294967295
14.181773 12.104965 -17.308374 4294967295
14.188162 11.310606 -17.18342 4294967295
14.189943 13.534906 -17.442453 4294967295
14.192316 12.899538 -17.35515 4294967295
14.193645 13.852705 -17.463535 4294967295
14.196955 12.740772 -17.314653 4294967295
14.208454 13.217679 -17.318844 4294967295
14.210449 11.946554 -17.156898 4294967295
14.221431 15.442093 -17.526159 4294967295
14.222129 14.489042 -17.408436 4294967295
14.224713 16.077543 -17.587339 4294967295
14.228149 12.582547 -17.151569 4294967295
14.231301 15.760189 -17.518787 4294967295
14.239703 13.377393 -17.19371 4294967295
14.242567 14.171984 -17.275951 4294967295
14.246297 13.059726 -17.125088 4294967295
14.252101 16.714201 -17.537331 4294967295
14.256148 16.873247 -17.537743 4294967295
14.257176 17.508612 -17.609318 4294967295
14.263757 15.920506 -17.388151 4294967295
14.283636 16.398073 -17.35371 4294967295
14.290556 17.351669 -17.4363 4294967295
14.292057 11.782848 -17.511511 4294967295
14.315466 13.371569 -17.594334 4294967295
14.322526 11.147807 -17.294689 4294967295
14.348947 11.4659 -17.211018 4294967295
14.362235 12.419522 -17.26425 4294967295
14.363114 14.802516 -17.546373 4294967295
14.38448 17.344498 -17.753048 4294967295
14.390586 16.868429 -17.667723 4294967295
14.425948 14.010276 -17.161385 4294967295
14.483882 12.574028 -17.47213 4294967295
14.485639 11.303102 -17.311468 4294967295
14.495036 10.985405 -17.230028 4294967295
14.500394 12.256623 -17.35795 4294967295
14.503522 17.510109 -17.223801 4294967295
14.508108 11.62118 -17.246126 4294967295
14.512274 11.939049 -17.265091 4294967295
14.520046 13.686934 -17.439102 4294967295
14.524243 14.163642 -17.476984 4294967295
14.525154 13.369334 -17.377443 4294967295
14.5312 13.051716 -17.311459 4294967295
14.534669 14.79942 -17.505264 4294967295
14.538827 15.276124 -17.543324 4294967295
14.542315 14.481977 -17.431929 4294967295
14.561942 15.912515 -17.513206 4294967295
14.562624 12.89355 -17.14769 4294967295
14.564853 15.594925 -17.461678 4294967295
14.567355 13.211533 -17.164061 4294967295
14.57212 16.707251 -17.561699 4294967295
14.575111 17.025089 -17.58606 4294967295
14.575391 17.183941 -17.603838 4294967295
14.578711 16.548735 -17.512308 4294967295
14.582571 16.86664 -17.532673 4294967295
14.583594 16.231249 -17.4517 4294967295
14.585234 13.847768 -17.15806 4294967295
14.592566 17.502586 -17.562946 4294967295
14.605721 14.961002 -17.197292 4294967295
14.61487 17.344988 -17.441269 4294967295
14.68818 11.299967 -17.127842 4294967295
14.694413 15.748939 -17.632961 4294967295
14.707387 11.77706 -17.096703 4294967295
14.73597 13.684999 -17.194098 4294967295
14.80837 16.548744 -17.204498 4294967295
14.815185 11.454871 -17.310881 4294967295
14.821703 10.978202 -17.223747 4294967295
14.825629 11.772824 -17.301008 4294967295
14.826035 11.29609 -17.241964 4294967295
14.841057 14.79186 -17.592171 4294967295
14.842946 13.044363 -17.373917 4294967295
14.849427 12.5678 -17.28697 4294967295
14.856187 11.614336 -17.141548 4294967295
14.866162 14.157265 -17.400677 4294967295
14.869061 12.409269 -17.177717 4294967295
14.872717 12.091442 -17.122789 4294967295
14.874836 15.587479 -17.532318 4294967295
14.876933 15.110955 -17.46554 4294967295
14.881843 13.681028 -17.27149 4294967295
14.889722 13.363386 -17.197178 4294967295
14.891069 15.905931 -17.495893 4294967295
14.894325 13.840323 -17.233217 4294967295
14.91035 13.522897 -17.121496 4294967295
14.916373 14.953588 -17.265385 4294967295
14.918714 14.635807 -17.21652 4294967295
14.926532 16.225359 -17.371199 4294967295
14.926807 17.019848 -17.465199 4294967295
14.927049 17.337624 -17.502192 4294967295
14.927741 16.543222 -17.403753 4294967295
14.942544 15.431447 -17.2024 4294967295
15.005183 17.18302 -17.124521 4294967295
15.012506 17.501371 -17.129034 4294967295
15.016835 11.133853 -17.093836 4294967295
15.021293 11.769744 -17.149607 4294967295
15.031631 15.90155 -17.597435 4294967295
15.036653 13.200538 -17.250614 4294967295
15.092639 17.493357 -17.508137 4294967295
15.150156 16.383875 -17.111109 4294967295
15.150311 10.971013 -17.208881 4294967295
15.155882 12.242517 -17.335699 4294967295
15.164411 16.861542 -17.102921 4294967295
15.189949 13.514643 -17.331923 4294967295
15.192874 13.196867 -17.28043 4294967295
15.207239 13.832994 -17.290781 4294967295
15.209743 12.40248 -17.107899 4294967295
15.211637 14.627761 -17.365839 4294967295
15.21216 12.561502 -17.115866 4294967295
15.213188 13.038424 -17.168301 4294967295
15.219467 14.310182 -17.291887 4294967295
15.244118 14.787877 -17.236092 4294967295
15.246346 17.012877 -17.492437 4294967295
15.248499 13.993211 -17.120789 4294967295
15.252568 14.152316 -17.121191 4294967295
15.26722 15.742517 -17.244532 4294967295
15.26815 17.172956 -17.411634 4294967295
15.274297 14.947977 -17.11689 4294967295
15.275991 16.378716 -17.280531 4294967295
15.276258 15.424982 -17.165051 4294967295
15.277136 15.583987 -17.180075 4294967295
15.281015 11.284933 -17.39349 4294967295
15.285713 16.061268 -17.197922 4294967295
15.295107 17.49231 -17.326288 4294967295
15.303696 16.698009 -17.19175 4294967295
15.306826 16.221233 -17.120279 4294967295
15.320914 10.967474 -17.172735 4294967295
15.339002 11.762483 -17.18512 4294967295
15.342713 11.444603 -17.130045 4294967295
15.347106 11.921569 -17.167057 4294967295
15.380372 13.193987 -17.167101 4294967295
15.387598 16.055075 -17.476648 4294967295
15.394708 17.167664 -17.577316 4294967295
15.430869 16.692848 -17.354845 4294967295
15.48444 11.440753 -17.226206 4294967295
15.494838 13.666002 -17.445042 4294967295
15.523232 12.236181 -17.14399 4294967295
15.528086 13.984841 -17.331121 4294967295
15.531053 14.938504 -17.431709 4294967295
15.535038 12.554373 -17.128073 4294967295
15.542057 13.349424 -17.191143 4294967295
15.550316 15.733874 -17.438793 4294967295
15.551887 16.21068 -17.488684 4294967295
15.556171 14.621561 -17.278864 4294967295
15.564532 15.416622 -17.335787 4294967295
15.566968 16.847055 -17.495865 4294967295
15.584105 16.530085 -17.37953 4294967295
15.606222 15.259361 -17.126257 4294967295
15.606231 10.959896 -17.356215 4294967295
15.628569 11.119045 -17.273197 4294967295
15.632619 16.055502 -17.100805 4294967295
15.639391 16.373831 -17.107927 4294967295
15.644656 17.169083 -17.179029 4294967295
15.66191 11.437346 -17.158951 4294967295
15.666658 17.488297 -17.116589 4294967295
15.677227 12.550412 -17.222164 4294967295
15.688456 13.027565 -17.227959 4294967295
15.715754 12.869219 -17.084284 4294967295
15.716145 14.300096 -17.253712 4294967295
15.718918 16.048595 -17.450247 4294967295
15.762451 15.096685 -17.137449 4294967295
15.801403 17.483397 -17.245029 4294967295
15.817687 17.007299 -17.113672 4294967295
15.827316 11.274796 -17.127939 4294967295
15.846209 14.136612 -17.384022 4294967295
15.857213 12.706219 -17.162724 4294967295
15.876085 13.024644 -17.114681 4294967295
15.878936 13.978683 -17.21578 4294967295
15.881871 13.342796 -17.126333 4294967295
15.897058 14.615222 -17.209213 4294967295
15.90173 15.251321 -17.263964 4294967295
15.902162 15.569281 -17.300016 4294967295
15.90337 15.092408 -17.237473 4294967295
15.904916 14.933484 -17.211411 4294967295
15.944536 15.412066 -17.087839 4294967295
15.945797 16.04817 -17.158155 4294967295
15.955075 17.479567 -17.286985 4294967295
15.960193 11.270866 -17.26429 4294967295
15.968607 16.526297 -17.11124 4294967295
15.984864 10.953141 -17.113842 4294967295
16.147619 11.108537 -17.133097 4294967295
16.156914 11.903666 -17.185808 4294967295
16.157923 17.478512 -17.105103 4294967295
16.165876 13.334702 -17.316011 4294967295
16.186874 12.699242 -17.14448 4294967295
16.198463 14.607475 -17.319742 4294967295
16.202305 15.243488 -17.378244 4294967295
16.203329 13.8127 -17.202618 4294967295
16.225504 15.085428 -17.253746 4294967295
16.228741 16.198421 -17.37199 4294967295
16.230894 16.516451 -17.400188 4294967295
16.232658 14.131629 -17.107206 4294967295
16.235685 15.721806 -17.283424 4294967295
16.245531 17.312006 -17.4286 4294967295
16.260571 15.404849 -17.132267 4294967295
16.273476 16.359541 -17.187574 4294967295
16.277822 15.882674 -17.110817 4294967295
16.294394 16.996666 -17.168463 4294967295
16.313934 12.37698 -17.269173 4294967295
16.339745 12.8545 -17.208839 4294967295
16.341272 11.900434 -17.087934 4294967295
16.34495 12.218551 -17.109209 4294967295
16.348066 13.808683 -17.284969 4294967295
16.369013 14.127316 -17.227781 4294967295
16.375406 13.650472 -17.141754 4294967295
16.470503 12.055334 -17.259632 4294967295
16.506153 13.487077 -17.26865 4294967295
16.515146 14.282306 -17.322742 4294967295
16.526524 12.692474 -17.081264 4294967295
16.536938 14.124011 -17.20487 4294967295
16.539537 14.442122 -17.231039 4294967295
16.570147 15.238344 -17.187075 4294967295
16.57402 17.305521 -17.416245 4294967295
16.593237 15.716401 -17.139269 4294967295
16.602802 16.67104 -17.209782 4294967295
16.633301 11.097687 -17.145962 4294967295
16.63818 17.468094 -17.144243 4294967295
16.638441 11.415794 -17.160608 4294967295
16.654451 11.734064 -17.125959 4294967295
16.698988 13.166306 -17.094847 4294967295
16.701244 13.643495 -17.141556 4294967295
16.715199 13.961988 -17.116261 4294967295
16.716909 14.439164 -17.165438 4294967295
16.717691 15.552337 -17.29472 4294967295
16.737797 15.076077 -17.146685 4294967295
16.782404 16.350416 -17.09638 4294967295
16.793793 16.987221 -17.120697 4294967295
16.799854 12.20728 -17.262049 4294967295
16.852859 13.798716 -17.211708 4294967295
16.877546 14.912733 -17.232725 4294967295
16.889233 16.503365 -17.369492 4294967295
16.894876 14.754333 -17.135311 4294967295
16.904961 16.186094 -17.26038 4294967295
16.936188 16.823763 -17.194942 4294967295
16.961699 17.302273 -17.136415 4294967295
16.966873 11.726715 -17.186413 4294967295
16.96916 11.885782 -17.195026 4294967295
16.991358 13.158453 -17.246313 4294967295
16.994656 12.999505 -17.212442 4294967295
17.020016 13.318216 -17.135662 4294967295
17.028669 14.113703 -17.191345 4294967295
17.06901 15.705653 -17.198566 4294967295
17.105932 16.184494 -17.088551 4294967295
17.18408 14.428069 -17.263292 4294967295
17.20434 13.95157 -17.11492 4294967295
17.271093 16.340305 -17.097826 4294967295
17.320841 12.197181 -17.116196 4294967295
17.355749 15.061076 -17.299738 4294967295
17.466618 11.71613 -17.136824 4294967295
17.534895 14.89921 -17.207922 4294967295
17.542128 14.740405 -17.156393 4294967295
17.615036 17.129957 -17.112083 4294967295
17.642179 12.826262 -17.21261 4294967295
17.692093 14.895561 -17.234058 4294967295
17.734898 15.53357 -17.117172 4294967295
17.770618 10.913311 -17.140837 4294967295
17.82048 12.663981 -17.124783 4294967295
17.869585 14.733573 -17.150059 4294967295
17.887436 15.529728 -17.164448 4294967295
17.897148 16.007423 -17.177572 4294967295
17.898027 15.371062 -17.097921 4294967295
17.900829 16.643936 -17.236729 4294967295
17.923885 16.804184 -17.152054 4294967295
17.940758 17.441488 -17.151945 4294967295
17.955435 11.705382 -17.137295 4294967295
18.009581 14.888376 -17.272465 4294967295
18.023134 14.252503 -17.135948 4294967295
18.077316 17.118534 -17.233231 4294967295
18.089903 16.323633 -17.082161 4294967295
18.147617 13.293323 -17.195496 4294967295
18.151688 12.497898 -17.082682 4294967295
18.158789 12.975392 -17.107561 4294967295
18.193102 15.044797 -17.199507 4294967295
18.220882 15.364102 -17.112764 4294967295
18.228542 16.637308 -17.229696 4294967295
18.231699 15.523669 -17.083174 4294967295
18.244007 17.274492 -17.236004 4294967295
18.254824 17.115965 -17.168612 4294967295
18.255844 17.43424 -17.201857 4294967295
18.3146 12.653469 -17.102201 4294967295
18.334633 14.2451 -17.20149 4294967295
18.361727 14.564229 -17.117933 4294967295
18.375528 15.042104 -17.112825 4294967295
18.385201 16.15633 -17.201832 4294967295
18.408686 16.793917 -17.172272 4294967295
18.626055 12.168712 -17.111197 4294967295
18.653011 13.283202 -17.122923 4294967295
18.667599 13.760998 -17.114389 4294967295
18.669287 14.238441 -17.163515 4294967295
18.712919 15.990517 -17.176319 4294967295
18.72501 16.945839 -17.235617 4294967295
18.732861 16.468843 -17.143892 4294967295
18.763193 17.584419 -17.140615 4294967295
18.877861 15.668925 -17.130531 4294967295
18.885693 16.464985 -17.189987 4294967295
18.907917 17.42094 -17.204105 4294967295
18.920343 16.944153 -17.092028 4294967295
18.996698 13.594943 -17.082781 4294967295
19.023525 14.7099 -17.095301 4294967295
19.052444 16.780077 -17.211748 4294967295
19.209948 16.139851 -17.161568 4294967295
19.21258 15.98081 -17.130983 4294967295
19.218006 16.935995 -17.220018 4294967295
19.235487 17.096052 -17.161076 4294967295
19.265472 17.57519 -17.084211 4294967295
19.350798 15.339709 -17.16666 4294967295
19.379448 16.614252 -17.190121 4294967295
19.58967 17.568432 -17.094475 4294967295
9.480792 17.917154 -17.964436 4294967295
9.4904394 19.027304 -18.053453 4294967295
9.4932003 18.234974 -17.943758 4294967295
9.4964399 18.710726 -17.986189 4294967295
9.497241 17.759653 -17.866539 4294967295
9.5360489 18.079193 -17.71974 4294967295
9.5387764 18.555077 -17.764635 4294967295
9.7016897 18.869019 -17.799759 4294967295
9.7673826 18.38368 -18.201775 4294967295
9.7925777 18.068344 -18.043144 4294967295
9.8120394 19.020681 -18.066097 4294967295
9.8365774 18.229704 -17.852741 4294967295
9.8414354 17.754318 -17.771717 4294967295
9.8436575 18.705833 -17.876865 4294967295
9.8465605 19.340212 -17.940178 4294967295
9.8696451 19.18334 -17.810898 4294967295
9.8778887 18.86677 -17.73304 4294967295
9.8916149 19.502108 -17.744806 4294967295
9.9332304 17.746733 -18.106842 4294967295
10.089785 17.901611 -18.15259 4294967295
10.111237 17.744425 -18.031336 4294967295
10.146042 19.014931 -18.020014 4294967295
10.173615 18.22401 -17.792601 4294967295
10.174374 19.175497 -17.904625 4294967295
10.199448 18.542906 -17.708349 4294967295
10.212406 19.495438 -17.762403 4294967295
10.215635 19.337074 -17.727783 4294967295
10.216516 18.8613 -17.665773 4294967295
10.316871 18.060955 -17.863434 4294967295
10.422966 18.054138 -18.129612 4294967295
10.462307 18.532293 -18.000803 4294967295
10.468353 18.8498 -18.010637 4294967295
10.476805 19.326038 -18.028313 4294967295
10.504104 18.693686 -17.821871 4294967295
10.506797 18.376665 -17.770584 4294967295
10.511864 19.487181 -17.881351 4294967295
10.618385 18.37009 -18.010622 4294967295
10.66981 17.897598 -17.709314 4294967295
10.713902 18.852341 -17.616014 4294967295
10.769111 18.524632 -18.084246 4294967295
10.772069 19.000448 -18.127947 4294967295
10.80075 18.209572 -17.896114 4294967295
10.806395 18.368528 -17.888653 4294967295
10.818126 18.845095 -17.890875 4294967295
10.843675 18.053688 -17.673817 4294967295
10.858087 19.165129 -17.740353 4294967295
10.919037 17.72784 -18.046225 4294967295
11.102264 18.042999 -17.985579 4294967295
11.105675 18.360374 -18.007923 4294967295
11.145584 19.473244 -17.954151 4294967295
11.15711 18.839628 -17.822887 4294967295
11.16643 18.522987 -17.740467 4294967295
11.171651 18.206024 -17.677378 4294967295
11.311905 17.884058 -17.743097 4294967295
11.377536 19.475166 -17.625994 4294967295
11.453435 17.879503 -17.84108 4294967295
11.483833 18.516012 -17.77482 4294967295
11.488059 19.468153 -17.870169 4294967295
11.495772 18.358135 -17.699411 4294967295
11.514152 19.152737 -17.708958 4294967295
11.545742 18.678837 -17.502632 4294967295
11.625317 19.145885 -17.949766 4294967295
11.689557 17.880754 -17.49415 4294967295
11.781019 18.666328 -17.923407 4294967295
11.789466 18.349609 -17.845369 4294967295
11.792596 17.873837 -17.773098 4294967295
11.792942 18.508484 -17.848234 4294967295
11.81197 19.303041 -17.854843 4294967295
11.87603 19.148926 -17.534904 4294967295
11.9031 17.867386 -18.016417 4294967295
11.976614 18.982664 -17.805914 4294967295
12.056582 19.464495 -17.488501 4294967295
12.081899 17.706474 -17.920118 4294967295
12.110028 19.453329 -17.999231 4294967295
12.112209 19.136219 -17.950682 4294967295
12.115856 18.660526 -17.876087 4294967295
12.13175 17.868158 -17.705761 4294967295
12.17204 19.29915 -17.689648 4294967295
12.234328 17.861231 -17.985798 4294967295
12.286347 18.975164 -17.876577 4294967295
12.30089 18.341408 -17.731878 4294967295
12.371001 19.298555 -17.518934 4294967295
12.465956 18.179605 -17.700489 4294967295
12.487358 18.815887 -17.677135 4294967295
12.509145 19.134857 -17.61367 4294967295
12.514853 19.452745 -17.625328 4294967295
12.56313 19.297459 -17.380623 4294967295
12.575073 18.172972 -17.94949 4294967295
12.612246 19.286137 -17.910044 4294967295
12.629797 18.0177 -17.674931 4294967295
12.71242 18.975702 -17.404285 4294967295
12.805263 18.01523 -17.614431 4294967295
12.819843 19.127407 -17.680498 4294967295
12.824535 18.492725 -17.582039 4294967295
12.825306 18.175243 -17.540146 4294967295
12.833042 19.445833 -17.657278 4294967295
12.856069 18.812378 -17.47336 4294967295
12.857266 19.288815 -17.525232 4294967295
12.939196 18.168913 -17.766659 4294967295
13.03599 19.127941 -17.430891 4294967295
13.079857 18.481672 -17.906452 4294967295
13.103235 19.435448 -17.912493 4294967295
13.132355 18.326336 -17.643209 4294967295
13.157525 18.169155 -17.507032 4294967295
13.158728 19.121929 -17.616243 4294967295
13.226283 17.683908 -17.885447 4294967295
13.262668 19.43202 -17.926741 4294967295
13.286871 17.846268 -17.623144 4294967295
13.319491 18.007044 -17.490753 4294967295
13.334236 18.643209 -17.498785 4294967295
13.339499 19.278772 -17.550856 4294967295
13.366133 19.121836 -17.408049 4294967295
13.400293 18.316166 -17.908422 4294967295
13.471856 18.003138 -17.538221 4294967295
13.484227 18.797924 -17.576426 4294967295
13.506643 19.434683 -17.548929 4294967295
13.52 18.164953 -17.334002 4294967295
13.520709 19.118048 -17.445456 4294967295
13.596195 18.315033 -17.753712 4294967295
13.63893 18.952944 -17.632143 4294967295
13.643982 19.429653 -17.666063 4294967295
13.648985 17.683092 -17.432673 4294967295
13.744946 17.834635 -17.760351 4294967295
13.834607 18.793133 -17.460039 4294967295
13.844127 18.95262 -17.435097 4294967295
13.860181 18.477102 -17.303488 4294967295
13.883873 19.273113 -17.28941 4294967295
13.93887 17.992031 -17.634504 4294967295
13.951794 18.310444 -17.612955 4294967295
13.972727 18.788246 -17.573486 4294967295
13.975247 17.835411 -17.44726 4294967295
13.986323 19.424458 -17.587027 4294967295
14.003572 17.678228 -17.29723 4294967295
14.095365 18.941103 -17.777277 4294967295
14.159595 18.627768 -17.442619 4294967295
14.196395 18.153463 -17.215454 4294967295
14.216285 19.426067 -17.276407 4294967295
14.274812 18.621401 -17.661535 4294967295
14.307963 18.941267 -17.546846 4294967295
14.353028 18.467632 -17.281824 4294967295
14.434768 19.411995 -17.769304 4294967295
14.446621 17.665703 -17.504963 4294967295
14.449251 18.460091 -17.588207 4294967295
14.452241 17.983746 -17.517223 4294967295
14.467833 19.096684 -17.578922 4294967295
14.484853 19.256716 -17.519619 4294967295
14.489226 18.78042 -17.442261 4294967295
14.502175 18.940172 -17.401709 4294967295
14.587693 17.978809 -17.642553 4294967295
14.600938 18.932598 -17.695988 4294967295
14.619803 19.251547 -17.647343 4294967295
14.63502 17.66391 -17.386705 4294967295
14.654282 18.300657 -17.374372 4294967295
14.672335 18.142876 -17.272263 4294967295
14.825599 19.092451 -17.430344 4294967295
14.839005 18.457703 -17.292513 4294967295
14.853488 19.253296 -17.321293 4294967295
14.920013 17.654959 -17.572578 4294967295
14.925355 17.972992 -17.586159 4294967295
14.957047 18.928202 -17.555019 4294967295
14.962547 19.246315 -17.567879 4294967295
14.964685 18.610954 -17.481871 4294967295
14.986206 17.817747 -17.287851 4294967295
15.02373 18.296886 -17.172827 4294967295
15.036712 18.138721 -17.094194 4294967295
15.158969 18.291883 -17.299326 4294967295
15.170664 19.405184 -17.379055 4294967295
15.173506 17.656937 -17.156494 4294967295
15.201564 19.089451 -17.199362 4294967295
15.207951 19.248861 -17.189144 4294967295
15.289903 19.398878 -17.578535 4294967295
15.298015 19.081667 -17.503342 4294967295
15.328006 18.130047 -17.251831 4294967295
15.333205 17.971401 -17.208984 4294967295
15.344749 18.607992 -17.232307 4294967295
15.454319 18.124527 -17.418875 4294967295
15.494938 19.398651 -17.385399 4294967295
15.509544 17.968929 -17.147316 4294967295
15.510875 18.922894 -17.255447 4294967295
15.526668 18.446978 -17.126135 4294967295
15.627419 17.962934 -17.352888 4294967295
15.645043 18.281921 -17.310446 4294967295
15.665648 18.760141 -17.273422 4294967295
15.70634 19.398863 -17.163723 4294967295
15.834137 18.916245 -17.266874 4294967295
15.852613 18.758478 -17.163586 4294967295
15.855328 19.235666 -17.208267 4294967295
15.965083 18.116055 -17.317427 4294967295
15.989712 18.435553 -17.243233 4294967295
16.000408 18.754232 -17.232525 4294967295
16.163246 18.114929 -17.156906 4294967295
16.173473 18.274584 -17.129364 4294967295
16.174704 17.956591 -17.085751 4294967295
16.190395 19.388866 -17.185408 4294967295
16.193636 19.071043 -17.13265 4294967295
16.281567 17.949949 -17.340752 4294967295
16.302828 18.746195 -17.339083 4294967295
16.307001 19.541361 -17.415073 4294967295
16.437357 18.264189 -17.411051 4294967295
16.510294 19.063938 -17.174881 4294967295
16.511673 19.382097 -17.2066 4294967295
16.614775 18.897764 -17.421186 4294967295
16.623831 17.626314 -17.228298 4294967295
16.635216 17.945032 -17.214632 4294967295
16.640583 18.740471 -17.285194 4294967295
16.642317 19.535606 -17.372221 4294967295
16.662971 18.582891 -17.164701 4294967295
16.809059 19.373652 -17.336159 4294967295
16.812006 18.260658 -17.190006 4294967295
16.815531 17.624653 -17.098137 4294967295
16.862631 19.536467 -17.112547 4294967295
16.961592 18.415588 -17.26967 4294967295
16.987213 19.05341 -17.229633 4294967295
16.996586 19.372143 -17.225168 4294967295
17.139877 17.617945 -17.105803 4294967295
17.139883 18.572334 -17.219538 4294967295
17.173189 19.369864 -17.16386 4294967295
17.182415 19.529585 -17.141142 4294967295
17.184278 19.211552 -17.094807 4294967295
17.258989 18.407259 -17.398823 4294967295
17.297897 18.250637 -17.204277 4294967295
17.307209 18.092134 -17.143303 4294967295
17.312561 18.728758 -17.194956 4294967295
17.319185 18.88826 -17.184017 4294967295
17.328094 19.525137 -17.219624 4294967295
17.440645 17.768953 -17.238947 4294967295
17.606287 17.606733 -17.208302 4294967295
17.633528 18.244667 -17.16139 4294967295
17.78252 18.717747 -17.281563 4294967295
17.787382 17.922644 -17.165052 4294967295
17.806589 19.196569 -17.230118 4294967295
17.814341 18.878906 -17.157404 4294967295
17.928486 18.2362 -17.301683 4294967295
17.937424 19.032087 -17.356123 4294967295
17.987879 19.353682 -17.167364 4294967295
18.065069 17.595091 -17.344925 4294967295
18.096844 18.07416 -17.259094 4294967295
18.118862 18.711889 -17.235952 4294967295
18.129141 18.553444 -17.170927 4294967295
18.141558 18.872471 -17.153053 4294967295
18.281107 17.753895 -17.12645 4294967295
18.287033 19.345356 -17.288961 4294967295
18.299715 18.709774 -17.156509 4294967295
18.317457 18.870056 -17.095919 4294967295
18.331173 19.507538 -17.110102 4294967295
18.494493 19.345179 -17.090611 4294967295
18.6213 18.702951 -17.177744 4294967295
18.639744 18.863287 -17.114185 4294967295
18.7824 18.062977 -17.111498 4294967295
18.818176 19.49769 -17.12174 4294967295
18.943174 18.059542 -17.122345 4294967295
18.973787 19.334778 -17.136845 4294967295
19.2696 19.32622 -17.273348 4294967295
19.281267 18.372017 -17.108252 4294967295
19.448954 19.005747 -17.163996 4294967295
19.625748 19.480965 -17.160524 4294967295
20.266811 18.352701 -17.082762 4294967295
20.431387 18.508734 -17.096195 4294967295
20.456907 19.46583 -17.096449 4294967295
9.5021315 -7.6111069 -17.07737 4294967295
9.9444294 -3.031641 -17.071329 4294967295
10.161324 -7.6304746 -17.022081 4294967295
10.240006 -4.6243858 -17.013836 4294967295
10.355053 -7.639143 -16.870977 4294967295
10.575115 -3.8405333 -17.057579 4294967295
10.719417 -4.4778852 -17.064684 4294967295
10.80407 -7.4889073 -17.065624 4294967295
10.825569 -6.85674 -17.040743 4294967295
11.027147 -7.1837378 -16.815149 4294967295
11.037953 -6.5499063 -16.840981 4294967295
11.167638 -6.3915577 -17.0133 4294967295
11.172604 -6.0746408 -17.028292 4294967295
11.173808 -7.503788 -16.849571 4294967295
11.196855 -6.7127266 -16.836828 4294967295
11.206276 -5.6022987 -16.926916 4294967295
11.302279 -7.3450971 -17.027424 4294967295
11.484191 -6.3994417 -17.049086 4294967295
11.490318 -7.5117021 -16.885754 4294967295
11.500798 -7.195447 -16.874777 4294967295
11.519037 -7.6742845 -16.731176 4294967295
11.53241 -5.9288712 -16.879498 4294967295
11.536579 -6.0881829 -16.840637 4294967295
11.537118 -5.7706146 -16.876522 4294967295
11.566234 -3.3917956 -17.027523 4294967295
11.669014 -5.7714515 -17.018875 4294967295
11.796319 -6.7243257 -17.067404 4294967295
11.820424 -7.6802096 -16.838923 4294967295
11.822172 -7.3627872 -16.869089 4294967295
11.850003 -6.2544932 -16.872612 4294967295
11.979881 -6.0962138 -17.043388 4294967295
11.982968 -5.7790027 -17.067261 4294967295
12.046786 -3.4040096 -17.05547 4294967295
12.149754 -7.5309563 -16.834541 4294967295
12.16316 -6.8972898 -16.848379 4294967295
12.164501 -5.785645 -16.976332 4294967295
12.167576 -6.103651 -16.923559 4294967295
12.175511 -4.5164337 -17.078114 4294967295
12.177029 -7.216753 -16.744974 4294967295
12.181342 -6.5818419 -16.801468 4294967295
12.181914 -6.2642059 -16.837145 4294967295
12.214066 -5.3148246 -16.801483 4294967295
12.217855 -4.8386722 -16.841255 4294967295
12.296838 -7.3746276 -16.924431 4294967295
12.344616 -5.9509625 -16.873169 4294967295
12.392604 -4.5266347 -16.821011 4294967295
12.396355 -3.8915803 -16.880144 4294967295
12.411612 -3.4165392 -16.866238 4294967295
12.47232 -6.5865808 -16.957977 4294967295
12.476775 -5.4753718 -17.071247 4294967295
12.479758 -7.2228866 -16.846531 4294967295
12.479908 -7.0640502 -16.864994 4294967295
12.488698 -5.0002866 -17.072956 4294967295
12.492786 -5.9536977 -16.938879 4294967295
12.573413 -3.4207642 -16.868441 4294967295
12.596315 -7.380343 -17.040739 4294967295
12.672993 -6.1190715 -16.835674 4294967295
12.682316 -6.437953 -16.753799 4294967295
12.684281 -5.643775 -16.840401 4294967295
12.715571 -3.2642033 -16.981586 4294967295
12.787954 -6.9120235 -16.960651 4294967295
12.794169 -6.5951037 -16.969933 4294967295
12.801263 -7.5491538 -16.821957 4294967295
12.803944 -6.1197538 -16.98175 4294967295
12.817713 -6.7568545 -16.840914 4294967295
12.817716 -5.8036799 -16.955776 4294967295
12.824013 -4.692513 -17.0604 4294967295
12.827627 -4.8517375 -17.024397 4294967295
12.851415 -7.2377782 -16.626171 4294967295
12.862637 -5.0144396 -16.841921 4294967295
12.864023 -3.4259627 -17.026917 4294967295
12.880968 -3.1099155 -16.986179 4294967295
12.89538 -3.7468176 -16.842373 4294967295
13.011436 -5.6528268 -16.828228 4294967295
13.016866 -5.1767797 -16.860348 4294967295
13.037708 -6.2915678 -16.629213 4294967295
13.067777 -3.4343162 -16.833698 4294967295
13.126783 -5.6518092 -17.046764 4294967295
13.132391 -5.9701591 -16.982412 4294967295
13.132607 -5.3347888 -17.057913 4294967295
13.137638 -7.0829191 -16.824076 4294967295
13.14251 -6.7657428 -16.839651 4294967295
13.160231 -4.2258873 -17.06324 4294967295
13.163455 -7.5629482 -16.646463 4294967295
13.164564 -7.4041567 -16.660435 4294967295
13.165434 -4.8618636 -16.962511 4294967295
13.178182 -6.1344423 -16.750122 4294967295
13.194006 -4.547184 -16.867804 4294967295
13.206056 -5.8198552 -16.658642 4294967295
13.211989 -5.0258608 -16.726709 4294967295
13.306943 -6.2937555 -16.887043 4294967295
13.316765 -6.4538302 -16.822252 4294967295
13.352126 -5.1866741 -16.81085 4294967295
13.379101 -3.7593544 -16.857601 4294967295
13.382821 -3.9186409 -16.821184 4294967295
13.413085 -7.2444987 -17.03319 4294967295
13.47295 -5.0275483 -17.02273 4294967295
13.484739 -7.0946283 -16.719484 4294967295
13.491126 -6.3007755 -16.785414 4294967295
13.492424 -4.7119212 -16.970545 4294967295
13.497417 -5.5069408 -16.851782 4294967295
13.499022 -6.7785258 -16.691387 4294967295
13.505564 -5.3489509 -16.833075 4294967295
13.508665 -5.9849963 -16.742205 4294967295
13.52687 -4.8745503 -16.791506 4294967295
13.528781 -4.3979955 -16.839989 4294967295
13.558187 -4.0831995 -16.741714 4294967295
13.560322 -3.1298327 -16.846527 4294967295
13.568928 -3.7664051 -16.730101 4294967295
13.60155 -7.2522616 -16.911602 4294967295
13.618281 -6.1421022 -16.967724 4294967295
13.651091 -7.4174752 -16.662659 4294967295
13.65387 -5.3517389 -16.898195 4294967295
13.693136 -3.6079555 -16.926308 4294967295
13.713794 -3.1332407 -16.887869 4294967295
13.718528 -4.5641503 -16.693916 4294967295
13.801653 -7.4204316 -16.71735 4294967295
13.803661 -6.3081431 -16.841757 4294967295
13.813043 -5.3557477 -16.912895 4294967295
13.823119 -6.6283574 -16.713408 4294967295
13.825128 -5.9928188 -16.780514 4294967295
13.837464 -4.8816986 -16.85708 4294967295
13.8561 -4.7247791 -16.789869 4294967295
13.85977 -6.7918096 -16.524488 4294967295
13.864652 -4.0899282 -16.826677 4294967295
13.882351 -4.4096637 -16.706505 4294967295
13.884099 -3.1382589 -16.85124 4294967295
13.919209 -7.4191871 -16.924744 4294967295
13.962327 -5.9942746 -16.897017 4294967295
13.964697 -7.1070776 -16.752405 4294967295
13.983442 -4.2486525 -17.009321 4294967295
13.988722 -5.3616047 -16.851267 4294967295
14.004131 -7.5890045 -16.512602 4294967295
14.010982 -6.3179069 -16.633698 4294967295
14.011535 -5.5231185 -16.726627 4294967295
14.014931 -3.4573164 -16.959137 4294967295
14.098727 -6.4723353 -16.959766 4294967295
14.146533 -6.1601667 -16.776991 4294967295
14.147054 -7.4319825 -16.621878 4294967295
14.15034 -5.5248222 -16.835739 4294967295
14.154241 -6.6379771 -16.684107 4294967295
14.15446 -4.2538624 -16.969376 4294967295
14.154719 -7.1149764 -16.624622 4294967295
14.167624 -4.7320271 -16.851303 4294967295
14.168603 -4.8910747 -16.827698 4294967295
14.200782 -3.7817857 -16.812637 4294967295
14.204363 -4.1000681 -16.757919 4294967295
14.211675 -5.3727484 -16.571407 4294967295
14.241861 -2.9909427 -16.718334 4294967295
14.245962 -6.9516368 -16.972343 4294967295
14.250089 -7.4288979 -16.896074 4294967295
14.283304 -6.3204846 -16.876249 4294967295
14.321232 -4.5764866 -16.911034 4294967295
14.36476 -6.1711402 -16.519327 4294967295
14.411202 -3.1548443 -16.667633 4294967295
14.435666 -6.482635 -16.903437 4294967295
14.481539 -5.2163744 -16.8445 4294967295
14.484441 -4.2630272 -16.945536 4294967295
14.486712 -5.0579886 -16.839724 4294967295
14.487504 -5.85291 -16.740719 4294967295
14.487678 -3.7865732 -16.987818 4294967295
14.491805 -4.1048508 -16.93066 4294967295
14.508414 -6.3323436 -16.58709 4294967295
14.511729 -3.1532042 -16.953251 4294967295
14.515028 -4.7431159 -16.747347 4294967295
14.52575 -3.3134937 -16.869579 4294967295
14.531547 -3.9499362 -16.766582 4294967295
14.535329 -3.4733865 -16.806368 4294967295
14.559953 -2.9988093 -16.750122 4294967295
14.573517 -7.1197915 -16.940258 4294967295
14.585588 -7.5981393 -16.827482 4294967295
14.599952 -6.6462245 -16.875687 4294967295
14.602805 -5.851872 -16.957838 4294967295
14.619882 -5.2180738 -16.955442 4294967295
14.639589 -5.0612965 -16.88377 4294967295
14.640737 -5.5382996 -16.821301 4294967295
14.682926 -4.2710714 -16.779575 4294967295
14.686979 -7.2929826 -16.3986 4294967295
14.69252 -6.9755435 -16.411228 4294967295
14.7674 -7.1281576 -16.795383 4294967295
14.784414 -7.4482665 -16.678997 4294967295
14.810114 -5.0665321 -16.846626 4294967295
14.81692 -4.4314027 -16.891546 4294967295
14.820528 -6.9757342 -16.57004 4294967295
