# .PCD v0.7 - Point Cloud Data file format
VERSION 0.7
FIELDS x y z rgb
SIZE 4 4 4 4
TYPE F F F U
COUNT 1 1 1 1
WIDTH 1147
HEIGHT 1
VIEWPOINT 0 0 0 1 0 0 0
POINTS 1147
DATA ascii
13.397673 136.07758 -19.027908 4294967295
13.418234 140.70325 -19.485718 4294967295
13.439088 139.92949 -19.293905 4294967295
13.453928 136.7662 -18.843746 4294967295
13.503366 140.62737 -19.072796 4294967295
13.50822 140.94987 -19.088491 4294967295
13.52514 135.5687 -19.141418 4294967295
13.539068 137.32898 -19.286674 4294967295
13.580734 140.54518 -19.47522 4294967295
13.581836 138.64041 -19.241434 4294967295
13.585364 136.73738 -18.996351 4294967295
13.586005 137.05576 -19.031523 4294967295
13.59147 139.60269 -19.311266 4294967295
13.592477 138.80946 -19.211309 4294967295
13.611488 136.4442 -18.83741 4294967295
13.615599 139.94371 -19.237873 4294967295
13.62205 140.10881 -19.227123 4294967295
13.622094 139.31453 -19.131603 4294967295
13.62334 138.3624 -19.01145 4294967295
13.623346 135.35036 -19.427929 4294967295
13.627476 140.74948 -19.278297 4294967295
13.631794 138.21158 -18.953299 4294967295
13.634535 137.89635 -18.902489 4294967295
13.635526 141.07503 -19.279224 4294967295
13.647411 138.06755 -18.862028 4294967295
13.664263 139.83189 -18.993914 4294967295
13.668781 139.04163 -18.877676 4294967295
13.669157 141.26675 -19.1429 4294967295
13.672785 140.31688 -19.011736 4294967295
13.680393 136.83308 -19.335857 4294967295
13.682996 137.15317 -19.361937 4294967295
13.702443 136.53622 -19.195915 4294967295
13.718558 136.07478 -19.064318 4294967295
13.719579 137.50551 -19.231094 4294967295
13.729785 138.62711 -19.317333 4294967295
13.76011 135.79591 -18.834257 4294967295
13.768393 135.96262 -18.815062 4294967295
13.769617 137.39409 -18.980967 4294967295
13.82287 136.17958 -19.360561 4294967295
13.846915 139.53403 -18.871893 4294967295
13.855616 135.41602 -19.114264 4294967295
13.861912 140.66116 -18.936121 4294967295
13.865841 140.50603 -18.898926 4294967295
13.912693 139.28265 -19.308094 4294967295
13.918422 138.01721 -19.129309 4294967295
13.918856 135.95181 -18.879642 4294967295
13.921881 140.08574 -19.36095 4294967295
13.928112 137.39081 -19.008421 4294967295
13.929518 140.56964 -19.382874 4294967295
13.930669 139.61766 -19.263308 4294967295
13.939789 137.71971 -18.992666 4294967295
13.939803 135.81245 -18.763939 4294967295
13.940913 140.73955 -19.349392 4294967295
13.948171 141.22316 -19.373066 4294967295
13.948246 138.99902 -19.106075 4294967295
13.957533 139.48463 -19.120401 4294967295
13.957891 139.80276 -19.156845 4294967295
13.962759 138.53618 -18.981997 4294967295
13.965161 138.85632 -19.009026 4294967295
13.974256 140.29526 -19.138557 4294967295
13.97973 135.85725 -19.35696 4294967295
13.986773 140.94301 -19.157051 4294967295
13.990716 136.18518 -19.3444 4294967295
14.004451 136.83339 -19.357248 4294967295
14.01087 136.52176 -19.289608 4294967295
14.012734 137.15886 -19.357153 4294967295
14.016866 140.49545 -18.961185 4294967295
14.030347 135.42792 -19.066595 4294967295
14.042686 137.02827 -19.20013 4294967295
14.045998 135.60141 -19.01351 4294967295
14.079155 138.65161 -19.222525 4294967295
14.080524 139.76495 -19.34947 4294967295
14.13031 137.58783 -18.853596 4294967295
14.151557 141.10474 -19.17474 4294967295
14.218278 136.40556 -19.072565 4294967295
14.248512 137.38748 -19.047644 4294967295
14.279499 137.09883 -18.866993 4294967295
14.283217 139.32751 -19.116404 4294967295
14.285679 138.53523 -19.009905 4294967295
14.290838 136.63257 -18.75769 4294967295
14.294138 138.06644 -18.913877 4294967295
14.298903 139.66042 -19.082331 4294967295
14.306678 138.87315 -18.951389 4294967295
14.321179 140.63547 -19.094101 4294967295
14.336737 136.0471 -19.245914 4294967295
14.343694 138.74951 -18.762077 4294967295
14.347885 140.18442 -18.914177 4294967295
14.352342 140.8246 -18.969847 4294967295
14.355122 136.85867 -19.256514 4294967295
14.356697 141.14676 -18.9879 4294967295
14.365841 140.04274 -18.812565 4294967295
14.367231 140.52106 -18.863298 4294967295
14.38055 135.92909 -19.02549 4294967295
14.388115 141.01826 -18.824402 4294967295
14.389432 136.25523 -19.022718 4294967295
14.389772 137.68575 -19.192381 4294967295
14.412941 135.48241 -18.819502 4294967295
14.426292 137.0845 -18.948446 4294967295
14.430357 140.4256 -19.3293 4294967295
14.4416 136.463 -18.801966 4294967295
14.450582 139.17378 -19.084209 4294967295
14.478329 139.9951 -19.051891 4294967295
14.484565 138.57037 -18.851961 4294967295
14.499334 136.36545 -19.292271 4294967295
14.499364 137.94841 -18.707819 4294967295
14.564694 140.87338 -18.750387 4294967295
14.581964 136.9196 -18.969999 4294967295
14.592016 139.78983 -19.266193 4294967295
14.601599 136.62007 -18.841822 4294967295
14.619218 137.43153 -18.85607 4294967295
14.624238 138.39015 -18.947174 4294967295
14.624892 139.02664 -19.020264 4294967295
14.633415 140.78317 -19.190372 4294967295
14.644618 135.55557 -19.285015 4294967295
14.653927 138.89534 -18.86801 4294967295
14.654673 137.78299 -18.731394 4294967295
14.656444 140.1696 -19.008654 4294967295
14.657181 139.69339 -18.948202 4294967295
14.657681 138.10388 -18.755644 4294967295
14.661234 140.65111 -19.043747 4294967295
14.685708 135.91154 -19.134598 4294967295
14.707561 136.24974 -19.072409 4294967295
14.717424 136.57683 -19.065205 4294967295
14.722735 136.89967 -19.078875 4294967295
14.73665 138.02528 -19.148151 4294967295
14.740182 137.39288 -19.055922 4294967295
14.741281 135.3273 -18.803694 4294967295
14.758617 137.25127 -18.952394 4294967295
14.772799 137.74153 -18.944424 4294967295
14.776168 136.15474 -18.738802 4294967295
14.779147 138.86032 -19.048424 4294967295
14.786074 139.34378 -19.073717 4294967295
14.790341 135.84987 -18.635761 4294967295
14.801124 137.13219 -18.738501 4294967295
14.817217 141.28116 -19.159161 4294967295
14.867889 140.21713 -18.793892 4294967295
14.876678 140.86172 -18.829708 4294967295
14.926796 139.95923 -19.258808 4294967295
14.927017 136.93925 -18.896729 4294967295
14.928293 136.30446 -18.814842 4294967295
14.929049 138.213 -19.039471 4294967295
14.930558 136.78358 -18.8615 4294967295
14.935197 137.74188 -18.954311 4294967295
14.936659 135.67615 -18.700481 4294967295
14.937384 138.69778 -19.058332 4294967295
14.945493 139.02342 -19.059221 4294967295
14.952587 139.825 -19.121771 4294967295
14.960949 137.28909 -18.779369 4294967295
14.970981 138.41167 -18.866516 4294967295
14.971494 140.63794 -19.130264 4294967295
14.971615 140.79701 -19.148712 4294967295
14.971793 138.09441 -18.824776 4294967295
14.994763 139.54736 -18.890722 4294967295
15.012377 139.40515 -18.791094 4294967295
15.017451 139.25095 -18.748854 4294967295
15.044775 137.37465 -19.167807 4294967295
15.059185 141.19958 -18.786032 4294967295
15.064697 136.28055 -18.943716 4294967295
15.065648 135.48647 -18.844362 4294967295
15.06774 140.25342 -18.632784 4294967295
15.074236 137.08435 -18.995075 4294967295
15.089268 136.14439 -18.812321 4294967295
15.12597 137.76892 -18.834482 4294967295
15.133219 138.41183 -18.87735 4294967295
15.173722 138.92732 -18.749166 4294967295
15.182605 136.2395 -19.156851 4294967295
15.20305 141.18202 -18.881184 4294967295
15.205933 135.78427 -18.993303 4294967295
15.212443 140.71394 -18.781233 4294967295
15.244844 140.42691 -18.595121 4294967295
15.26202 136.15428 -18.775024 4294967295
15.26369 139.4948 -19.166218 4294967295
15.276015 137.12152 -18.825068 4294967295
15.282146 139.98932 -19.138908 4294967295
15.295131 138.88875 -18.946693 4294967295
15.295228 137.61662 -18.794292 4294967295
15.299615 136.50734 -18.641262 4294967295
15.308725 136.83397 -18.637644 4294967295
15.324949 137.96268 -18.696539 4294967295
15.338669 137.8165 -18.614872 4294967295
15.343753 140.68437 -18.933624 4294967295
15.34709 138.77893 -18.69042 4294967295
15.348898 139.73505 -18.796158 4294967295
15.353349 138.62578 -18.642839 4294967295
15.357112 140.53818 -18.853643 4294967295
15.373407 141.03099 -18.83625 4294967295
15.375327 135.79103 -18.971201 4294967295
15.37579 139.44252 -18.635372 4294967295
15.393014 140.89081 -18.727751 4294967295
15.397202 136.7653 -18.985273 4294967295
15.397309 135.3343 -18.813925 4294967295
15.39923 136.29019 -18.919071 4294967295
15.404027 140.26498 -18.601467 4294967295
15.405348 135.65977 -18.81521 4294967295
15.406451 137.40991 -19.019005 4294967295
15.426749 137.74695 -18.964369 4294967295
15.427667 138.38382 -19.036118 4294967295
15.457677 140.47922 -19.146008 4294967295
15.460274 137.30127 -18.754465 4294967295
15.481552 139.707 -18.942223 4294967295
15.527267 139.11421 -18.657778 4294967295
15.552555 138.97906 -18.523445 4294967295
15.560278 137.08423 -19.030121 4294967295
15.598732 138.55133 -19.025677 4294967295
15.611933 137.45053 -18.832687 4294967295
15.6372 136.67874 -18.622631 4294967295
15.639893 136.04482 -18.534407 4294967295
15.644773 139.70811 -18.948786 4294967295
15.645739 137.00488 -18.621689 4294967295
15.645856 137.80043 -18.716078 4294967295
15.647378 138.43816 -18.785078 4294967295
15.64797 139.07497 -18.858305 4294967295
15.659361 140.99431 -19.034161 4294967295
15.659741 139.56331 -18.861626 4294967295
15.661651 137.97435 -18.663095 4294967295
15.672776 138.93938 -18.72632 4294967295
15.701069 140.07988 -18.730335 4294967295
15.710693 135.96036 -18.961918 4294967295
15.72735 141.21875 -18.743547 4294967295
15.737821 135.50826 -18.781506 4294967295
15.738248 136.30389 -18.874418 4294967295
15.739768 137.25948 -18.981316 4294967295
15.748885 140.28465 -18.531548 4294967295
15.761045 140.61458 -18.514153 4294967295
15.764422 140.77698 -18.517763 4294967295
15.772215 138.08499 -18.928492 4294967295
15.778392 138.72694 -18.976263 4294967295
15.780619 135.86586 -18.624607 4294967295
15.795648 139.06133 -18.935686 4294967295
15.808878 136.52843 -18.571873 4294967295
15.825994 140.52159 -18.968363 4294967295
15.83204 139.89113 -18.864977 4294967295
15.845645 135.4583 -19.039906 4294967295
15.910511 136.63136 -18.877682 4294967295
15.911661 136.15526 -18.815563 4294967295
15.941879 135.38765 -18.583315 4294967295
15.949857 138.09956 -18.869497 4294967295
15.951268 136.51007 -18.673414 4294967295
15.952578 135.87485 -18.591578 4294967295
15.953048 136.989 -18.722227 4294967295
15.957234 136.03825 -18.589375 4294967295
15.958461 137.6304 -18.773489 4294967295
15.962556 139.70207 -19.00141 4294967295
15.965803 138.59175 -18.853912 4294967295
15.968737 135.73059 -18.499125 4294967295
15.983152 138.76717 -18.794033 4294967295
16.006004 137.19739 -18.500454 4294967295
16.007818 140.38139 -18.871613 4294967295
16.008764 139.58684 -18.772478 4294967295
16.016603 137.52557 -18.490221 4294967295
16.030983 138.33481 -18.519737 4294967295
16.036528 140.09055 -18.703241 4294967295
16.040424 140.88983 -18.780384 4294967295
16.053911 139.15219 -18.510412 4294967295
16.072737 141.07993 -18.652567 4294967295
16.080692 137.43408 -18.947393 4294967295
16.083967 139.97653 -18.468716 4294967295
16.118404 138.58278 -18.908869 4294967295
16.129118 139.3882 -18.955019 4294967295
16.132555 138.91425 -18.882545 4294967295
16.135626 137.32617 -18.679012 4294967295
16.144819 139.0849 -18.845835 4294967295
16.147745 140.36024 -18.984207 4294967295
16.163412 136.71542 -18.476986 4294967295
16.177317 139.91113 -18.793146 4294967295
16.245167 141.08975 -18.617996 4294967295
16.250536 140.13985 -18.47983 4294967295
16.27688 137.1476 -18.766588 4294967295
16.278465 135.87614 -18.607761 4294967295
16.278784 139.37645 -19.023228 4294967295
16.292505 137.63945 -18.752579 4294967295
16.296728 137.32515 -18.695524 4294967295
16.309906 138.76947 -18.806347 4294967295
16.312635 138.13559 -18.718161 4294967295
16.315571 139.72939 -18.894367 4294967295
16.31916 139.09639 -18.802292 4294967295
16.321007 136.87027 -18.528549 4294967295
16.32593 139.8983 -18.86636 4294967295
16.331181 140.22147 -18.880461 4294967295
16.338793 140.06961 -18.827005 4294967295
16.353081 140.71964 -18.838055 4294967295
16.362656 138.02321 -18.472393 4294967295
16.370543 138.34895 -18.47455 4294967295
16.378443 138.67473 -18.476654 4294967295
16.386059 135.50778 -18.828833 4294967295
16.402161 135.99982 -18.812702 4294967295
16.414309 141.25558 -18.617441 4294967295
16.4259 136.65808 -18.780935 4294967295
16.429104 137.61562 -18.880072 4294967295
16.430387 140.6342 -18.468733 4294967295
16.431084 141.11246 -18.522461 4294967295
16.452475 138.43289 -18.868933 4294967295
16.485989 139.41901 -18.830832 4294967295
16.494976 137.04028 -18.505913 4294967295
16.515339 137.85509 -18.508436 4294967295
16.535095 135.33665 -18.880779 4294967295
16.54517 135.98218 -18.910919 4294967295
16.555798 139.3257 -18.495798 4294967295
16.56801 140.13322 -18.535269 4294967295
16.580351 140.62251 -18.536263 4294967295
16.587366 136.49829 -18.776781 4294967295
16.618387 138.59549 -18.882599 4294967295
16.620581 135.73311 -18.531778 4294967295
16.627708 140.82684 -18.340843 4294967295
16.630503 139.56146 -18.941402 4294967295
16.641939 139.09492 -18.83288 4294967295
16.647766 137.19066 -18.57925 4294967295
16.64876 139.89691 -18.896713 4294967295
16.651104 137.51208 -18.602034 4294967295
16.651838 139.42249 -18.825983 4294967295
16.661077 136.40704 -18.424301 4294967295
16.661751 137.84032 -18.591757 4294967295
16.661789 137.99953 -18.610525 4294967295
16.66304 138.95563 -18.718512 4294967295
16.679956 138.33482 -18.566227 4294967295
16.685041 139.77209 -18.713703 4294967295
16.700769 140.58276 -18.737286 4294967295
16.703533 140.10791 -18.667971 4294967295
16.718628 141.2364 -18.732307 4294967295
16.736153 140.7756 -18.596251 4294967295
16.757517 139.36287 -18.329117 4294967295
16.763268 135.87431 -18.650646 4294967295
16.764389 136.35277 -18.702374 4294967295
16.76552 141.12199 -18.501371 4294967295
16.774683 136.04393 -18.617983 4294967295
16.78219 136.8466 -18.678719 4294967295
16.841145 137.85626 -18.525927 4294967295
16.843433 136.26624 -18.32618 4294967295
16.859814 138.35126 -18.498386 4294967295
16.865898 138.19772 -18.451954 4294967295
16.910553 135.38316 -18.672873 4294967295
16.931101 140.0105 -18.36577 4294967295
16.952421 137.33144 -18.710953 4294967295
16.968702 137.82399 -18.694244 4294967295
16.974684 136.2377 -18.47798 4294967295
16.984634 135.92839 -18.395195 4294967295
16.984961 138.15746 -18.658724 4294967295
16.989635 140.2308 -18.883629 4294967295
16.999197 136.41942 -18.38625 4294967295
17.015657 138.98203 -18.614851 4294967295
17.017424 139.93877 -18.720438 4294967295
17.02021 138.5087 -18.537516 4294967295
17.027044 136.7635 -18.298418 4294967295
17.03546 139.319 -18.56336 4294967295
17.03562 140.59268 -18.714054 4294967295
17.040804 140.12004 -18.633894 4294967295
17.054379 139.81444 -18.534794 4294967295
17.054983 139.49657 -18.494205 4294967295
17.057455 138.38422 -18.350521 4294967295
17.061623 141.09496 -18.653557 4294967295
17.077547 140.79167 -18.543875 4294967295
17.105436 136.84543 -18.707397 4294967295
17.111374 136.37338 -18.623873 4294967295
17.132629 138.78049 -18.811802 4294967295
17.160833 137.05566 -18.47657 4294967295
17.167385 137.38014 -18.484877 4294967295
17.178442 137.70883 -18.472881 4294967295
17.238932 140.31314 -18.503067 4294967295
17.24509 139.20416 -18.342833 4294967295
17.247179 140.48018 -18.484831 4294967295
17.249399 140.80077 -18.512678 4294967295
17.25876 139.37627 -18.300152 4294967295
17.289528 141.15739 -18.369759 4294967295
17.304976 136.0836 -18.456478 4294967295
17.316555 136.5719 -18.461079 4294967295
17.316792 137.04979 -18.51676 4294967295
17.326071 139.12801 -18.720839 4294967295
17.327787 137.85602 -18.561819 4294967295
17.32836 138.17497 -18.597076 4294967295
17.336958 135.79431 -18.274605 4294967295
17.343939 140.09988 -18.75388 4294967295
17.35108 137.71837 -18.43804 4294967295
17.356979 136.76826 -18.29796 4294967295
17.374237 139.33232 -18.522955 4294967295
17.377813 139.9726 -18.582527 4294967295
17.383642 137.42995 -18.25359 4294967295
17.384296 135.3712 -18.765787 4294967295
17.385307 140.45734 -18.605539 4294967295
17.389797 138.86914 -18.396164 4294967295
17.391947 138.07477 -18.291885 4294967295
17.393423 138.55399 -18.342009 4294967295
17.400328 140.79001 -18.575779 4294967295
17.41736 139.05417 -18.291018 4294967295
17.417955 140.32893 -18.439709 4294967295
17.420475 135.88164 -18.659731 4294967295
17.421951 140.96976 -18.497402 4294967295
17.433477 139.86574 -18.313089 4294967295
17.531385 136.30139 -18.198641 4294967295
17.608192 136.22319 -18.594751 4294967295
17.616989 140.20424 -18.267712 4294967295
17.633749 136.08728 -18.461027 4294967295
17.646444 136.73587 -18.479595 4294967295
17.658945 136.4288 -18.385637 4294967295
17.659357 141.04092 -18.171881 4294967295
17.682102 137.08711 -18.357216 4294967295
17.690945 137.4138 -18.35531 4294967295
17.691109 139.00659 -18.543598 4294967295
17.7024 138.69859 -18.455088 4294967295
17.703363 135.83212 -18.110439 4294967295
17.711246 137.75111 -18.301926 4294967295
17.721336 138.55693 -18.351145 4294967295
17.729607 137.2901 -18.162729 4294967295
17.737555 138.25337 -18.240492 4294967295
17.740648 140.8049 -18.529087 4294967295
17.750906 141.13313 -18.520844 4294967295
17.755297 139.7037 -18.330992 4294967295
17.756384 140.18262 -18.382828 4294967295
17.763716 139.23363 -18.236465 4294967295
17.778341 136.38953 -18.590014 4294967295
17.789154 136.87709 -18.598162 4294967295
17.791512 135.60532 -18.436447 4294967295
17.840799 138.67633 -18.574268 4294967295
17.86545 140.61024 -18.690409 4294967295
17.869305 136.15393 -18.144024 4294967295
17.870602 140.13739 -18.610634 4294967295
17.872028 136.31575 -18.150707 4294967295
17.884987 140.78792 -18.621702 4294967295
17.929543 139.39615 -18.251829 4294967295
17.935513 140.3577 -18.338463 4294967295
17.972803 135.78171 -18.381987 4294967295
17.978487 137.22031 -18.526491 4294967295
17.993956 136.91595 -18.419397 4294967295
17.994806 136.12029 -18.321136 4294967295
17.994818 137.71309 -18.50996 4294967295
17.995924 141.21141 -18.162111 4294967295
18.006428 135.49358 -18.193476 4294967295
18.025152 138.05963 -18.411814 4294967295
18.035358 136.47586 -18.177162 4294967295
18.044041 140.6256 -18.629387 4294967295
18.057163 138.88579 -18.362846 4294967295
18.058456 137.61238 -18.205914 4294967295
18.063063 140.96207 -18.581968 4294967295
18.063946 136.82066 -18.086834 4294967295
18.07896 139.86197 -18.37855 4294967295
18.084972 139.07097 -18.25716 4294967295
18.090944 139.55453 -18.287085 4294967295
18.092655 138.4407 -18.147152 4294967295
18.094496 140.51381 -18.384529 4294967295
18.096275 138.28468 -18.112036 4294967295
18.096712 140.19725 -18.336824 4294967295
18.120066 138.78485 -18.062149 4294967295
18.131861 140.07088 -18.1605 4294967295
18.134455 136.41811 -18.472317 4294967295
18.135134 140.39268 -18.183636 4294967295
18.155174 141.2084 -18.188375 4294967295
18.17334 138.36507 -18.524813 4294967295
18.176699 140.90996 -18.054186 4294967295
18.188389 135.82988 -18.155333 4294967295
18.192644 139.65717 -18.58946 4294967295
18.217188 136.17474 -18.064167 4294967295
18.23633 137.94527 -18.186266 4294967295
18.236843 137.46765 -18.127304 4294967295
18.258099 140.9929 -18.447691 4294967295
18.308466 139.44653 -18.033487 4294967295
18.309628 135.79251 -18.351192 4294967295
18.326479 140.73862 -18.104052 4294967295
18.338669 138.68634 -18.561058 4294967295
18.345118 136.30267 -18.249119 4294967295
18.357277 137.42909 -18.326889 4294967295
18.374475 135.69185 -18.042311 4294967295
18.377972 136.81064 -18.158852 4294967295
18.378365 139.20105 -18.440258 4294967295
18.378521 138.08594 -18.307434 4294967295
18.384768 138.5697 -18.336138 4294967295
18.384846 136.97627 -18.147003 4294967295
18.385231 139.52606 -18.447321 4294967295
18.38772 137.29764 -18.171917 4294967295
18.395086 140.80971 -18.554266 4294967295
18.396435 136.18991 -18.000765 4294967295
18.399424 140.01724 -18.440523 4294967295
18.4013 137.62883 -18.148962 4294967295
18.408327 138.9102 -18.268602 4294967295
18.417717 140.67168 -18.434284 4294967295
18.418518 139.87576 -18.336329 4294967295
18.44849 139.74438 -18.183514 4294967295
18.449652 140.38297 -18.253847 4294967295
18.453157 139.11116 -18.087124 4294967295
18.458515 140.23189 -18.195358 4294967295
18.488781 137.71933 -18.51437 4294967295
18.501684 135.97861 -18.249216 4294967295
18.504715 136.77805 -18.330025 4294967295
18.532391 141.25778 -17.978613 4294967295
18.592796 138.61182 -18.144321 4294967295
18.640053 135.47879 -18.311651 4294967295
18.650702 136.28506 -18.358442 4294967295
18.652996 140.1024 -18.045506 4294967295
18.654778 135.81076 -18.28368 4294967295
18.655525 135.97076 -18.299202 4294967295
18.666876 141.07196 -18.096838 4294967295
18.670332 138.5334 -18.534904 4294967295
18.674648 137.42218 -18.383652 4294967295
18.680332 138.22401 -18.452597 4294967295
18.683565 136.1555 -18.19298 4294967295
18.690359 137.75523 -18.351305 4294967295
18.693233 136.483 -18.187574 4294967295
18.708731 136.81586 -18.156181 4294967295
18.709064 138.88783 -18.399914 4294967295
18.721046 139.21761 -18.384218 4294967295
18.724976 137.62759 -18.178061 4294967295
18.732065 140.66188 -18.504835 4294967295
18.734686 139.86766 -18.398851 4294967295
18.740517 137.96062 -18.146482 4294967295
18.743383 137.00681 -18.020485 4294967295
18.743958 141.15102 -18.508404 4294967295
18.746656 140.51622 -18.420933 4294967295
18.759981 140.0506 -18.304949 4294967295
18.834011 135.34772 -18.163902 4294967295
18.854092 136.80023 -18.244143 4294967295
18.885742 137.4666 -18.178576 4294967295
18.891884 135.71861 -17.943722 4294967295
18.939869 139.26982 -18.144951 4294967295
18.942312 138.47496 -18.039759 4294967295
18.945057 139.43404 -18.140709 4294967295
18.9461 138.63788 -18.041754 4294967295
18.976862 141.05788 -18.187716 4294967295
18.97732 135.33043 -18.260847 4294967295
18.97806 135.64981 -18.29525 4294967295
18.998968 136.62485 -18.315281 4294967295
18.999052 135.50932 -18.182962 4294967295
19.002176 140.9222 -18.056152 4294967295
19.028833 139.52043 -18.52162 4294967295
19.040564 136.02492 -18.05476 4294967295
19.041441 140.16946 -18.540918 4294967295
19.043808 136.98433 -18.153439 4294967295
19.05735 139.70624 -18.413628 4294967295
19.070343 140.67447 -18.468922 4294967295
19.070581 138.44342 -18.203981 4294967295
19.08408 138.77466 -18.181641 4294967295
19.084528 138.29683 -18.123083 4294967295
19.086784 136.54503 -17.905624 4294967295
19.103134 137.51666 -17.94602 4294967295
19.103552 137.83595 -17.981882 4294967295
19.104145 137.99596 -17.998098 4294967295
19.119148 139.44475 -18.10107 4294967295
19.131834 140.09427 -18.12007 4294967295
19.144865 140.42529 -18.099831 4294967295
19.158947 139.16266 -17.886326 4294967295
19.159052 136.30391 -18.299854 4294967295
19.183102 137.12257 -18.287153 4294967295
19.195747 138.09038 -18.344002 4294967295
19.213266 140.96767 -17.852238 4294967295
19.218872 139.06789 -18.354288 4294967295
19.230778 138.91948 -18.282558 4294967295
19.265102 136.87819 -17.885004 4294967295
19.267056 140.22829 -18.272133 4294967295
19.292654 139.7738 -18.101883 4294967295
19.31053 138.51453 -17.871656 4294967295
19.312473 139.95164 -18.03269 4294967295
19.313934 140.59085 -18.101601 4294967295
19.321949 141.07669 -18.122545 4294967295
19.328728 136.15096 -18.260714 4294967295
19.342878 135.68549 -18.141375 4294967295
19.351704 137.60625 -18.328213 4294967295
19.365505 140.95799 -17.910248 4294967295
19.365845 136.02498 -18.077076 4294967295
19.368778 139.53438 -18.478411 4294967295
19.374931 137.14919 -18.168604 4294967295
19.381592 135.40132 -17.931787 4294967295
19.390873 139.07664 -18.323877 4294967295
19.392185 140.35291 -18.468706 4294967295
19.394348 137.32626 -18.10125 4294967295
19.411554 136.54457 -17.930651 4294967295
19.417805 136.7097 -17.921741 4294967295
19.418568 135.91295 -17.824129 4294967295
19.434868 138.79831 -18.09096 4294967295
19.448179 140.08617 -18.182608 4294967295
19.482229 139.00137 -17.899618 4294967295
19.484804 136.62326 -18.357328 4294967295
19.485079 135.66718 -18.243155 4294967295
19.525761 138.4137 -18.382803 4294967295
19.546534 140.81567 -17.821634 4294967295
19.585276 137.98987 -18.062471 4294967295
19.592987 137.67796 -17.990614 4294967295
19.600746 139.75804 -18.201059 4294967295
19.632093 139.46809 -18.024456 4294967295
19.654093 135.83235 -18.244797 4294967295
19.655331 141.08446 -18.109835 4294967295
19.659525 140.29094 -17.997068 4294967295
19.661751 139.33595 -17.874174 4294967295
19.671186 136.96358 -18.300816 4294967295
19.674311 136.16934 -18.192873 4294967295
19.690336 135.70541 -18.06542 4294967295
19.698875 136.51033 -18.12171 4294967295
19.699194 138.10487 -18.308521 4294967295
19.702457 135.39732 -17.974062 4294967295
19.703617 137.63066 -18.232471 4294967295
19.70936 136.83868 -18.112926 4294967295
19.710611 140.65749 -17.808369 4294967295
19.713348 139.23369 -18.377583 4294967295
19.729519 137.17584 -18.061293 4294967295
19.731638 138.45338 -18.202507 4294967295
19.749367 137.99121 -18.067524 4294967295
19.76417 137.52623 -17.94549 4294967295
19.77136 140.24385 -18.233702 4294967295
19.792059 138.82768 -17.972631 4294967295
19.794291 139.14873 -18.000414 4294967295
19.796864 138.35356 -17.894865 4294967295
19.800655 139.95206 -18.06638 4294967295
19.804466 140.75299 -18.143646 4294967295
19.813004 140.44197 -18.068205 4294967295
19.818533 136.63103 -18.342016 4294967295
19.823784 138.69725 -17.813337 4294967295
19.852242 137.45856 -18.286961 4294967295
19.861231 139.84856 -17.7794 4294967295
19.888512 137.65092 -18.145336 4294967295
19.909336 139.74278 -18.297846 4294967295
19.915541 139.42963 -18.232784 4294967295
19.922886 137.84164 -18.012115 4294967295
19.9541 141.21933 -18.269278 4294967295
19.988739 138.22067 -17.758495 4294967295
19.994064 140.93762 -18.054981 4294967295
20.004642 141.10699 -18.027048 4294967295
20.011732 140.47549 -17.920408 4294967295
20.016872 137.30099 -18.270636 4294967295
20.024754 138.26469 -18.348646 4294967295
20.027472 136.83224 -18.167381 4294967295
20.031116 135.40027 -17.981976 4294967295
20.03726 136.52213 -18.086514 4294967295
20.040133 138.43816 -18.299515 4294967295
20.048717 137.17035 -18.111124 4294967295
20.050892 135.89641 -17.951017 4294967295
20.082457 140.07143 -18.300646 4294967295
20.099199 138.81108 -18.076223 4294967295
20.099403 139.13025 -18.112946 4294967295
20.102114 139.45171 -18.138601 4294967295
20.104229 138.01814 -17.95994 4294967295
20.110083 140.57538 -18.235083 4294967295
20.111181 140.89532 -18.267843 4294967295
20.114824 137.54919 -17.856678 4294967295
20.117249 137.71092 -17.864782 4294967295
20.167007 140.30913 -17.946081 4294967295
20.1716 136.33723 -18.204103 4294967295
20.178204 139.84082 -17.840183 4294967295
20.180628 140.00262 -17.848301 4294967295
20.213293 139.24501 -18.358503 4294967295
20.216005 137.4935 -18.139734 4294967295
20.222054 136.06349 -17.943798 4294967295
20.230507 141.16589 -17.759802 4294967295
20.251606 139.59912 -18.227085 4294967295
20.263073 138.49321 -18.04487 4294967295
20.265858 139.77171 -18.183023 4294967295
20.31473 137.90202 -17.741693 4294967295
20.335739 140.79338 -17.987635 4294967295
20.344551 135.86806 -18.113651 4294967295
20.358141 141.29285 -17.945267 4294967295
20.359095 135.40254 -17.993139 4294967295
20.361404 140.49805 -17.836809 4294967295
20.378586 138.60971 -18.283121 4294967295
20.384163 137.65796 -18.145782 4294967295
20.38451 137.02031 -18.069065 4294967295
20.385134 139.25351 -18.329433 4294967295
20.395231 138.78436 -18.228561 4294967295
20.399754 136.23642 -17.90786 4294967295
20.400587 135.599 -17.828972 4294967295
20.4048 136.56001 -17.923214 4294967295
20.410202 137.3625 -17.993406 4294967295
20.412735 138.00285 -18.05744 4294967295
20.42063 139.7645 -18.229412 4294967295
20.436075 140.57616 -18.255335 4294967295
20.438559 140.25948 -18.206804 4294967295
20.447792 139.47046 -18.072138 4294967295
20.44906 136.75931 -17.746895 4294967295
20.449606 141.22662 -18.270906 4294967295
20.473612 140.45137 -18.071173 4294967295
20.476625 138.37999 -17.813461 4294967295
20.498459 140.15523 -17.924107 4294967295
20.498657 136.17934 -18.200317 4294967295
20.49869 136.97667 -18.294102 4294967295
20.512108 137.62657 -18.31016 4294967295
20.5172 139.05536 -17.709881 4294967295
20.529932 139.70546 -17.729017 4294967295
20.540905 140.99237 -17.831137 4294967295
20.545689 136.69994 -18.049574 4294967295
20.560831 138.30862 -18.170809 4294967295
20.585747 136.09764 -17.798 4294967295
20.600883 138.82362 -18.050871 4294967295
20.606684 137.23341 -17.837389 4294967295
20.607935 137.3941 -17.850674 4294967295
20.612123 136.4404 -17.719439 4294967295
20.623138 139.96069 -18.084465 4294967295
20.654373 137.91484 -17.702621 4294967295
20.671951 140.80348 -17.963642 4294967295
20.673578 139.68793 -17.824902 4294967295
20.674038 136.19069 -18.155771 4294967295
20.677259 135.55557 -18.066473 4294967295
20.681532 137.31378 -18.254269 4294967295
20.698544 140.6685 -17.827833 4294967295
20.706738 137.65549 -18.180977 4294967295
20.708773 137.49782 -18.153246 4294967295
20.711678 136.38383 -18.008991 4294967295
20.712431 137.18211 -18.099598 4294967295
20.71847 140.20804 -17.683744 4294967295
20.730835 135.76274 -17.849571 4294967295
20.737236 136.7258 -17.934147 4294967295
20.746824 136.09613 -17.816816 4294967295
20.748749 139.12915 -18.165291 4294967295
20.760887 138.66165 -18.055578 4294967295
20.767241 140.26266 -18.215477 4294967295
20.774708 138.35513 -17.957241 4294967295
20.783205 137.0862 -17.769556 4294967295
20.789583 138.20906 -17.873047 4294967295
20.809223 139.50354 -17.93701 4294967295
20.809906 138.06789 -17.764889 4294967295
20.811157 138.86699 -17.853346 4294967295
20.816944 141.10622 -18.090942 4294967295
20.843472 140.17331 -17.861624 4294967295
20.850435 135.72437 -18.050602 4294967295
20.929708 136.59282 -17.796207 4294967295
20.95282 139.96471 -18.089111 4294967295
20.985653 140.47357 -18.001297 4294967295
20.992476 137.92615 -17.67078 4294967295
21.000431 140.32759 -17.917643 4294967295
21.005888 138.25755 -17.649458 4294967295
21.009285 136.51848 -18.17281 4294967295
21.021149 135.73145 -18.026907 4294967295
21.023386 140.66794 -17.854435 4294967295
21.034748 137.01981 -18.117378 4294967295
21.044559 138.46428 -18.243229 4294967295
21.056005 140.21909 -17.654869 4294967295
21.068115 137.68794 -18.046059 4294967295
21.070032 138.32784 -18.112728 4294967295
21.071112 138.8074 -18.164293 4294967295
21.07324 138.01166 -18.06111 4294967295
21.08362 136.74448 -17.865391 4294967295
21.092386 137.39067 -17.902029 4294967295
21.095964 139.14911 -18.092823 4294967295
21.099918 137.23784 -17.850204 4294967295
21.106455 137.56291 -17.859079 4294967295
21.10811 136.44714 -17.720367 4294967295
21.117838 139.3286 -18.015661 4294967295
21.119276 140.12772 -18.10321 4294967295
21.152023 140.7961 -18.034702 4294967295
21.15666 139.84285 -17.901722 4294967295
21.160168 141.12277 -18.036535 4294967295
21.181166 139.06711 -17.700348 4294967295
21.221132 136.0836 -17.912558 4294967295
21.221689 139.74272 -17.597752 4294967295
21.23826 135.62003 -17.781162 4294967295
21.285379 136.93892 -17.724798 4294967295
21.308428 138.55594 -17.811516 4294967295
21.329981 139.37364 -17.810951 4294967295
21.33885 139.22209 -17.753323 4294967295
21.340185 137.78636 -17.578491 4294967295
21.342522 135.8873 -18.086443 4294967295
21.34947 140.02998 -17.800667 4294967295
21.349758 135.57462 -18.017252 4294967295
21.358776 136.69946 -18.109051 4294967295
21.376318 136.07684 -17.957226 4294967295
21.376364 136.39603 -17.994539 4294967295
21.386148 140.54259 -17.696333 4294967295
21.39044 141.1852 -17.752638 4294967295
21.427029 137.07961 -17.847776 4294967295
21.43362 136.92587 -17.800161 4294967295
21.434032 138.68187 -18.004728 4294967295
21.447378 135.82063 -17.608568 4294967295
21.450647 139.01613 -17.969538 4294967295
21.453125 139.65674 -18.033728 4294967295
21.460745 141.25943 -18.187956 4294967295
21.463793 140.94312 -18.137117 4294967295
21.46538 140.1467 -18.036386 4294967295
21.470259 139.51277 -17.940001 4294967295
21.472948 137.59966 -17.703066 4294967295
21.484325 140.32365 -17.972261 4294967295
21.49156 138.25502 -17.696678 4294967295
21.498854 138.58093 -17.702284 4294967295
21.52471 139.40273 -17.682978 4294967295
21.541464 137.03636 -18.070803 4294967295
21.57379 138.18236 -18.06072 4294967295
21.583683 137.71251 -17.961214 4294967295
21.585527 136.43727 -17.803122 4294967295
21.591921 138.35829 -18.000212 4294967295
21.648094 136.33319 -17.510756 4294967295
21.67819 140.99071 -17.923239 4294967295
21.679125 137.95792 -17.562717 4294967295
21.70772 139.90016 -17.662886 4294967295
21.709164 135.92366 -17.929548 4294967295
21.718513 135.45308 -17.832472 4294967295
21.719229 139.27182 -17.537529 4294967295
21.725616 137.05545 -17.988899 4294967295
21.734844 140.40405 -17.600641 4294967295
21.736177 138.02245 -18.055243 4294967295
21.738493 140.72682 -17.622232 4294967295
21.74033 137.38779 -17.962135 4294967295
21.750706 135.64111 -17.710587 4294967295
21.756145 136.44417 -17.780573 4294967295
21.759659 138.52237 -18.008938 4294967295
21.761524 136.76823 -17.794577 4294967295
21.782354 137.58505 -17.797356 4294967295
21.788731 139.18712 -17.956995 4294967295
21.794065 139.35158 -17.95245 4294967295
21.811808 139.0484 -17.8375 4294967295
21.8123 140.32591 -17.985334 4294967295
21.821215 137.93924 -17.665165 4294967295
21.832947 136.99153 -17.501387 4294967295
21.847195 140.99646 -17.90803 4294967295
21.856878 135.59111 -17.96937 4294967295
21.857525 138.77042 -17.600399 4294967295
21.867815 136.55833 -18.034067 4294967295
21.897614 140.08455 -17.575441 4294967295
21.899544 135.948 -17.820681 4294967295
21.970789 136.96919 -17.622318 4294967295
21.999504 136.83504 -17.4783 4294967295
22.014988 137.48776 -17.485765 4294967295
22.015232 140.52229 -17.840906 4294967295
22.032173 137.82263 -17.448305 4294967295
22.034904 137.98482 -17.455147 4294967295
22.038931 139.1066 -17.568855 4294967295
22.040579 140.86487 -17.767897 4294967295
22.057301 140.08163 -17.601257 4294967295
22.057901 135.78436 -17.83296 4294967295
22.078218 141.05913 -17.62257 4294967295
22.084133 138.36177 -18.018372 4294967295
22.086052 140.42735 -17.513409 4294967295
22.107143 137.58423 -17.824465 4294967295
22.125051 136.32271 -17.596527 4294967295
22.125631 136.16351 -17.575254 4294967295
22.12677 138.71944 -17.870102 4294967295
22.127495 139.8376 -17.998079 4294967295
22.128521 136.80489 -17.637627 4294967295
22.139315 137.1339 -17.628077 4294967295
22.141748 136.01802 -17.486275 4294967295
22.144279 140.49144 -17.999914 4294967295
22.144808 138.57603 -17.772795 4294967295
22.149096 136.50371 -17.510487 4294967295
22.150539 140.0182 -17.916456 4294967295
22.151241 138.90118 -17.782244 4294967295
22.180048 141.1628 -17.919102 4294967295
22.180214 139.72586 -17.749744 4294967295
22.234486 139.29588 -17.457142 4294967295
22.282541 138.07443 -17.837673 4294967295
22.28664 139.03607 -17.932198 4294967295
22.351629 138.93503 -17.630718 4294967295
22.354071 137.81905 -17.488939 4294967295
22.358627 138.46213 -17.544062 4294967295
22.3591 140.69864 -17.804281 4294967295
22.360746 137.50548 -17.422409 4294967295
22.364805 138.30792 -17.498446 4294967295
22.372482 138.63432 -17.502514 4294967295
22.388643 140.24644 -17.619579 4294967295
22.391592 139.76988 -17.550543 4294967295
22.396069 139.29465 -17.474855 4294967295
22.404259 139.46184 -17.457962 4294967295
22.415474 140.43065 -17.521616 4294967295
22.419453 140.11472 -17.466831 4294967295
22.436262 140.92896 -17.487419 4294967295
22.441168 136.15436 -17.643059 4294967295
22.444349 136.63629 -17.685408 4294967295
22.465916 137.61368 -17.703999 4294967295
22.47645 139.37978 -17.864172 4294967295
22.482861 140.5033 -17.967361 4294967295
22.493759 137.15929 -17.526781 4294967295
22.498869 138.28201 -17.635672 4294967295
22.503536 139.56396 -17.765198 4294967295
22.510237 140.84764 -17.88587 4294967295
22.521915 141.01801 -17.853861 4294967295
22.529848 139.26831 -17.613411 4294967295
22.545603 136.26245 -17.927284 4294967295
22.561396 136.43605 -17.877407 4294967295
22.572634 139.94608 -17.502422 4294967295
22.617651 139.67952 -18.007414 4294967295
22.629574 139.2113 -17.899523 4294967295
22.63612 135.86302 -17.478014 4294967295
22.637547 137.62144 -17.677752 4294967295
22.667263 137.16862 -17.492563 4294967295
22.672552 137.01355 -17.450872 4294967295
22.688904 139.42456 -17.660721 4294967295
22.699944 141.03189 -17.800005 4294967295
22.701174 138.15749 -17.457678 4294967295
22.701342 135.77719 -17.913582 4294967295
22.713146 140.72449 -17.70528 4294967295
22.725473 138.81844 -17.427092 4294967295
22.747812 140.59633 -17.536125 4294967295
22.749922 137.09741 -17.852495 4294967295
22.761946 140.2896 -17.437344 4294967295
22.764675 136.63138 -17.732382 4294967295
22.77006 139.19113 -18.008335 4294967295
22.770641 135.67828 -17.594227 4294967295
22.778191 138.08069 -17.84214 4294967295
22.783987 135.37047 -17.498901 4294967295
22.793541 136.17763 -17.551029 4294967295
22.802094 139.3797 -17.888157 4294967295
22.812641 140.66673 -17.992086 4294967295
22.815075 137.79416 -17.644773 4294967295
22.825245 139.72 -17.825214 4294967295
22.828621 138.44524 -17.660885 4294967295
22.828642 140.52161 -17.904024 4294967295
22.846796 140.21869 -17.787918 4294967295
22.847399 138.94131 -17.635603 4294967295
22.855579 137.51067 -17.431681 4294967295
22.868734 139.12027 -17.561817 4294967295
22.883692 137.69548 -17.328485 4294967295
22.892498 136.60039 -17.896008 4294967295
22.925121 137.90675 -17.904268 4294967295
22.937004 138.55611 -17.927599 4294967295
22.939741 140.46288 -17.403748 4294967295
22.945581 137.44585 -17.759535 4294967295
22.96829 139.86177 -17.941698 4294967295
22.971024 136.03056 -17.480949 4294967295
22.981447 136.3593 -17.473204 4294967295
22.993444 140.20396 -17.870186 4294967295
23.010693 135.90556 -17.290346 4294967295
23.026287 139.1154 -17.59704 4294967295
23.041517 140.88658 -17.736868 4294967295
23.045998 137.69482 -17.343256 4294967295
23.049765 139.4561 -17.532784 4294967295
23.053734 139.29988 -17.496885 4294967295
23.061165 141.22401 -17.689226 4294967295
23.090117 136.47124 -17.738583 4294967295
23.093002 137.11266 -17.800879 4294967295
23.096193 136.79604 -17.749676 4294967295
23.096495 140.13756 -17.405294 4294967295
23.111601 136.17064 -17.608208 4294967295
23.112858 135.69244 -17.546663 4294967295
23.118212 140.47693 -17.3487 4294967295
23.12656 138.8994 -17.861324 4294967295
23.131252 141.12817 -17.367107 4294967295
23.138882 139.70905 -17.901493 4294967295
23.150091 135.5652 -17.366798 4294967295
23.154881 137.80649 -17.607918 4294967295
23.158031 138.12883 -17.631689 4294967295
23.166666 137.3376 -17.500822 4294967295
23.16769 139.89478 -17.795593 4294967295
23.171505 137.02229 -17.442476 4294967295
23.172316 136.0641 -17.326721 4294967295
23.174349 138.30316 -17.579798 4294967295
23.185648 137.99365 -17.493505 4294967295
23.198189 138.80383 -17.532772 4294967295
23.207478 138.49254 -17.455175 4294967295
23.220835 140.58194 -17.640551 4294967295
23.224318 135.32794 -17.743578 4294967295
23.224579 140.26576 -17.586952 4294967295
23.226643 139.30879 -17.465797 4294967295
23.269623 137.60393 -17.809361 4294967295
23.328825 136.37799 -17.403923 4294967295
23.363008 136.72771 -17.29356 4294967295
23.364731 138.48738 -17.491816 4294967295
23.370871 137.21419 -17.315683 4294967295
23.371265 138.65303 -17.482279 4294967295
23.373415 140.09319 -17.641254 4294967295
23.391108 140.90817 -17.658304 4294967295
23.392693 139.79099 -17.520586 4294967295
23.402689 140.43927 -17.552191 4294967295
23.408674 135.66603 -17.69997 4294967295
23.411797 135.509 -17.667797 4294967295
23.41251 139.0096 -17.341465 4294967295
23.423603 139.33926 -17.33094 4294967295
23.441463 138.091 -17.838623 4294967295
23.445396 137.61528 -17.765604 4294967295
23.449814 137.13992 -17.690481 4294967295
23.45623 139.22227 -17.905649 4294967295
23.461176 140.65211 -17.318251 4294967295
23.461637 136.51123 -17.56469 4294967295
23.463902 137.95119 -17.723091 4294967295
23.475096 140.35733 -17.954992 4294967295
23.480354 138.44513 -17.70812 4294967295
23.508234 136.3923 -17.344807 4294967295
23.516642 137.35873 -17.420662 4294967295
23.52005 141.03705 -17.835766 4294967295
23.526167 136.24817 -17.248676 4294967295
23.52742 139.12633 -17.579737 4294967295
23.565819 137.88182 -17.264452 4294967295
23.574036 140.12717 -17.490713 4294967295
23.61866 141.28656 -17.429037 4294967295
23.640398 139.72055 -17.881893 4294967295
23.64945 140.04819 -17.880224 4294967295
23.66037 135.90315 -17.347456 4294967295
23.660568 140.85696 -17.925678 4294967295
23.662674 136.3847 -17.393576 4294967295
21.236307 111.76434 -17.205463 4294967295
21.859831 109.98656 -17.161123 4294967295
21.872463 110.47438 -17.162161 4294967295
21.889206 111.12481 -17.16398 4294967295
21.902258 111.45339 -17.144457 4294967295
21.913546 111.94041 -17.151375 4294967295
21.916164 112.2616 -17.177416 4294967295
21.946384 113.40099 -17.176624 4294967295
22.025965 110.14794 -17.175591 4294967295
22.045315 110.3212 -17.10988 4294967295
22.211447 110.64226 -17.143234 4294967295
22.225077 111.45023 -17.177471 4294967295
22.280169 113.56549 -17.180866 4294967295
22.380314 109.52807 -16.996225 4294967295
22.394279 110.65575 -17.066492 4294967295
22.42119 112.27177 -17.136566 4294967295
22.442171 112.76589 -17.101421 4294967295
22.466293 113.58182 -17.090061 4294967295
22.528282 110.3155 -17.164907 4294967295
22.549068 110.96885 -17.149372 4294967295
22.573021 111.78426 -17.138794 4294967295
22.600958 112.60271 -17.110914 4294967295
22.617592 113.73261 -17.1696 4294967295
22.692591 109.99654 -17.131466 4294967295
22.70974 110.64733 -17.131805 4294967295
22.729567 111.3001 -17.12052 4294967295
22.748915 111.79294 -17.092615 4294967295
22.770493 112.44719 -17.073751 4294967295
22.781677 112.13571 -16.987772 4294967295
22.895123 109.54435 -16.913542 4294967295
22.901915 111.62564 -17.127224 4294967295
22.906 109.71166 -16.885052 4294967295
22.918455 112.75539 -17.186378 4294967295
22.973186 113.43362 -17.023832 4294967295
23.030342 110.64252 -17.174807 4294967295
23.044365 109.53423 -16.983162 4294967295
23.062878 111.46397 -17.127287 4294967295
23.069616 109.87128 -16.911118 4294967295
23.107168 111.65504 -16.954084 4294967295
23.112667 112.13823 -16.986347 4294967295
23.133497 113.4312 -17.045685 4294967295
23.133787 112.63258 -16.950949 4294967295
23.213192 111.13508 -17.154793 4294967295
23.21855 110.02068 -17.000778 4294967295
23.26026 110.36929 -16.857611 4294967295
23.296377 111.51321 -16.832148 4294967295
23.297667 113.27177 -17.032177 4294967295
23.349346 113.78834 -16.864672 4294967295
23.371664 110.49245 -17.109623 4294967295
23.379021 111.29626 -17.171211 4294967295
23.391197 112.10349 -17.211964 4294967295
23.393427 109.86858 -16.940788 4294967295
23.396267 110.03033 -16.947191 4294967295
23.405945 109.55769 -16.849277 4294967295
23.420336 112.92288 -17.179405 4294967295
23.423779 113.08508 -17.183205 4294967295
23.432951 112.29288 -17.050165 4294967295
23.434263 113.41207 -17.175251 4294967295
23.438896 113.73489 -17.192585 4294967295
23.440981 110.86048 -16.84729 4294967295
23.456905 112.62946 -16.984003 4294967295
23.476723 111.68469 -16.786221 4294967295
23.478024 112.00526 -16.817982 4294967295
23.489643 109.66199 -17.220726 4294967295
23.53898 110.65466 -17.119669 4294967295
23.554968 111.46459 -17.143995 4294967295
23.559841 111.94725 -17.178968 4294967295
23.635475 111.04176 -16.740324 4294967295
21.704885 116.81699 -17.18149 4294967295
21.968052 120.56583 -17.185028 4294967295
21.984219 114.86562 -17.180103 4294967295
22.063793 117.32011 -17.113903 4294967295
22.22714 117.79913 -17.178692 4294967295
22.255568 118.61921 -17.148478 4294967295
22.266972 119.58617 -17.211172 4294967295
22.281984 119.7574 -17.164503 4294967295
22.342192 115.20775 -17.097984 4294967295
22.350916 115.85302 -17.134893 4294967295
22.426142 119.42322 -17.219372 4294967295
22.441357 119.27513 -17.134443 4294967295
22.47138 114.54373 -17.180244 4294967295
22.608606 119.75725 -17.182489 4294967295
22.60911 118.95894 -17.086714 4294967295
22.629028 114.22002 -17.176031 4294967295
22.662371 120.75714 -17.061146 4294967295
22.691227 115.22385 -17.018045 4294967295
22.700027 116.66798 -17.148233 4294967295
22.712305 117.6355 -17.20717 4294967295
22.743326 117.33929 -17.035025 4294967295
22.768713 119.43523 -17.168047 4294967295
22.790306 119.29195 -17.055586 4294967295
22.794863 113.90222 -17.136312 4294967295
22.79611 119.77569 -17.086525 4294967295
22.797539 114.22359 -17.162107 4294967295
22.850395 116.01929 -17.138464 4294967295
22.883276 117.64111 -17.182852 4294967295
22.899481 118.13251 -17.168673 4294967295
22.916708 117.02709 -16.962997 4294967295
22.961189 118.97801 -16.994558 4294967295
22.979107 120.90908 -17.141338 4294967295
22.992922 120.1208 -16.987915 4294967295
22.996094 114.40873 -17.036716 4294967295
22.997271 120.60353 -17.025185 4294967295
23.01544 115.3814 -17.065058 4294967295
23.020542 114.74607 -16.968128 4294967295
23.03059 116.67058 -17.148981 4294967295
23.043558 115.56182 -16.961878 4294967295
23.066298 117.01666 -17.031643 4294967295
23.076355 118.46209 -17.156357 4294967295
23.088366 117.1929 -16.954721 4294967295
23.119965 114.37983 -17.216442 4294967295
23.140245 114.71404 -17.166002 4294967295
23.144178 120.75056 -17.124344 4294967295
23.154005 114.08504 -17.031647 4294967295
23.179831 116.65996 -17.218895 4294967295
23.180145 115.70172 -17.105389 4294967295
23.190405 115.22994 -17.004887 4294967295
23.202448 114.59956 -16.877951 4294967295
23.202969 117.47588 -17.212189 4294967295
23.219004 116.20968 -16.99324 4294967295
23.219728 117.80792 -17.177027 4294967295
23.273956 119.28676 -17.110584 4294967295
23.295006 120.42129 -17.150352 4294967295
23.30941 120.11275 -17.050661 4294967295
23.360577 114.75532 -16.928242 4294967295
23.362553 115.71553 -17.031834 4294967295
23.366421 116.35749 -17.089851 4294967295
23.382578 116.52922 -17.038677 4294967295
23.383728 117.64851 -17.164495 4294967295
23.39641 116.69926 -16.997559 4294967295
23.421429 118.63548 -17.113636 4294967295
23.430593 117.36392 -16.924524 4294967295
23.450396 118.17786 -16.932375 4294967295
23.454054 118.02078 -16.897863 4294967295
23.477381 113.92239 -17.044973 4294967295
23.479584 118.8392 -16.880976 4294967295
23.486637 119.96341 -16.981321 4294967295
23.490007 119.64632 -16.92938 4294967295
23.500614 115.21745 -17.094032 4294967295
23.500744 114.41864 -17.000071 4294967295
23.518093 120.14729 -16.864084 4294967295
23.54225 115.5675 -16.951534 4294967295
23.633244 119.15137 -16.969612 4294967295
23.659105 119.01109 -16.839291 4294967295
23.662642 114.09773 -16.977961 4294967295
22.147196 121.05723 -17.181103 4294967295
22.151436 121.22024 -17.181353 4294967295
22.415857 125.29363 -17.218424 4294967295
22.634804 127.09619 -17.191969 4294967295
22.660872 121.71452 -17.17997 4294967295
22.683681 122.37136 -17.155741 4294967295
22.823143 128.07545 -17.20529 4294967295
22.882378 123.19801 -17.105089 4294967295
22.890896 123.68409 -17.124269 4294967295
22.949087 126.2873 -17.171259 4294967295
22.984756 127.11531 -17.110161 4294967295
23.002523 127.92892 -17.126696 4294967295
23.01759 122.0574 -17.105452 4294967295
23.042873 123.5153 -17.164209 4294967295
23.096146 124.99581 -17.101734 4294967295
23.104813 125.16257 -17.082901 4294967295
23.116056 126.45007 -17.183826 4294967295
23.150074 127.75621 -17.186132 4294967295
23.153793 121.55688 -17.176199 4294967295
23.184248 121.90012 -17.081732 4294967295
23.187572 127.94678 -17.042486 4294967295
23.203176 123.1933 -17.149366 4294967295
23.247896 124.18748 -17.068003 4294967295
23.362017 121.91126 -17.028746 4294967295
23.36256 122.87054 -17.13855 4294967295
23.370165 122.55688 -17.068279 4294967295
23.390192 123.21187 -17.056458 4294967295
23.394093 123.6944 -17.095671 4294967295
23.418354 124.83239 -17.12163 4294967295
23.42285 125.31543 -17.15827 4294967295
23.436552 125.64605 -17.136438 4294967295
23.474098 126.79516 -17.105028 4294967295
23.49214 126.96964 -17.045773 4294967295
23.506666 121.73683 -17.100332 4294967295
