# .PCD v0.7 - Point Cloud Data file format
VERSION 0.7
FIELDS x y z rgb
SIZE 4 4 4 4
TYPE F F F U
COUNT 1 1 1 1
WIDTH 1147
HEIGHT 1
VIEWPOINT 0 0 0 1 0 0 0
POINTS 1147
DATA ascii
47.773712 23.302971 -15.800809 4294967295
47.775753 21.050816 -15.542918 4294967295
47.780022 20.568357 -15.473442 4294967295
47.783215 22.982002 -15.729836 4294967295
47.803204 25.55731 -15.941765 4294967295
47.808422 22.82308 -15.61853 4294967295
47.835011 23.629702 -15.609395 4294967295
47.838875 22.503578 -15.469876 4294967295
47.851101 26.205265 -15.835809 4294967295
47.880135 24.277164 -15.513696 4294967295
47.89201 26.048347 -15.666391 4294967295
47.923588 22.494265 -15.772502 4294967295
47.934559 24.603804 -15.347799 4294967295
47.958183 21.692347 -15.555 4294967295
47.962009 25.250198 -15.317643 4294967295
47.984055 23.142471 -15.620096 4294967295
47.992073 22.982191 -15.572534 4294967295
47.995014 21.855894 -15.436476 4294967295
47.99987 23.465559 -15.597297 4294967295
48.005993 25.39683 -15.789108 4294967295
48.016388 22.018387 -15.375201 4294967295
48.021191 22.823523 -15.446838 4294967295
48.021236 23.789152 -15.553945 4294967295
48.02853 26.203358 -15.79505 4294967295
48.028816 24.272566 -15.579509 4294967295
48.031532 24.594645 -15.605211 4294967295
48.046562 23.308384 -15.406537 4294967295
48.051277 24.757311 -15.550004 4294967295
48.052826 25.722996 -15.651522 4294967295
48.059532 24.114248 -15.447922 4294967295
48.085007 20.560087 -15.576372 4294967295
48.098228 25.083426 -15.411962 4294967295
48.098602 25.244429 -15.428465 4294967295
48.107616 21.205223 -15.564199 4294967295
48.135475 25.891788 -15.363516 4294967295
48.138 22.816549 -15.630516 4294967295
48.141987 21.368494 -15.4549 4294967295
48.143173 20.885721 -15.396874 4294967295
48.17033 22.336208 -15.457292 4294967295
48.238312 20.395098 -15.606905 4294967295
48.299793 25.566582 -15.336016 4294967295
48.307037 22.008966 -15.531544 4294967295
48.307377 26.050299 -15.36161 4294967295
48.307991 21.526205 -15.474403 4294967295
48.311306 21.687386 -15.480021 4294967295
48.312523 24.423096 -15.779252 4294967295
48.323776 22.653961 -15.541149 4294967295
48.3246 24.745934 -15.770348 4294967295
48.324856 21.044464 -15.358441 4294967295
48.336517 23.942423 -15.637009 4294967295
48.337776 22.494072 -15.471539 4294967295
48.354343 23.62203 -15.53541 4294967295
48.356785 24.105059 -15.579989 4294967295
48.363575 25.232155 -15.679964 4294967295
48.372551 25.71574 -15.700397 4294967295
48.395302 22.337383 -15.241059 4294967295
48.399509 23.14274 -15.314893 4294967295
48.401524 24.269825 -15.432564 4294967295
48.411072 21.035898 -15.654864 4294967295
48.411488 25.075563 -15.4851 4294967295
48.412933 22.644934 -15.826585 4294967295
48.416058 21.518951 -15.690042 4294967295
48.423962 23.305693 -15.242398 4294967295
48.428001 25.399017 -15.459842 4294967295
48.459858 22.326658 -15.617609 4294967295
48.500046 20.880823 -15.3084 4294967295
48.50803 23.456936 -15.564794 4294967295
48.52763 20.546741 -15.785263 4294967295
48.556034 24.748627 -15.530504 4294967295
48.604134 22.000021 -15.663713 4294967295
48.626987 20.714029 -15.43652 4294967295
48.627209 24.593884 -15.249948 4294967295
48.627655 21.679827 -15.541225 4294967295
48.632378 25.238461 -15.30236 4294967295
48.635098 22.80695 -15.638774 4294967295
48.644375 23.129534 -15.64027 4294967295
48.652332 21.520586 -15.432323 4294967295
48.664867 21.038477 -15.332485 4294967295
48.670082 25.384594 -15.795421 4294967295
48.671791 23.775497 -15.610588 4294967295
48.683266 22.488693 -15.425388 4294967295
48.684975 23.93754 -15.579825 4294967295
48.70306 21.202045 -15.209445 4294967295
48.717915 22.652306 -15.315451 4294967295
48.737587 23.619921 -15.350084 4294967295
48.738068 26.034704 -15.616214 4294967295
48.739231 23.459042 -15.326157 4294967295
48.743542 24.586433 -15.435299 4294967295
48.744347 25.713377 -15.557341 4294967295
48.752975 23.299122 -15.257596 4294967295
48.758896 24.426764 -15.360818 4294967295
48.762177 24.910076 -15.402313 4294967295
48.766022 20.387108 -15.501997 4294967295
48.770069 22.157726 -15.683462 4294967295
48.790756 22.320177 -15.625069 4294967295
48.790947 23.285759 -15.731467 4294967295
48.810009 26.202623 -15.368873 4294967295
48.822243 22.966351 -15.580467 4294967295
48.874672 20.380238 -15.714948 4294967295
48.882843 21.024395 -15.756237 4294967295
48.952381 22.638529 -15.678654 4294967295
48.952579 25.553263 -15.386004 4294967295
48.96619 21.673824 -15.520735 4294967295
48.971142 22.961847 -15.645285 4294967295
48.972439 24.088484 -15.765429 4294967295
48.975563 23.445023 -15.682551 4294967295
48.984627 22.480003 -15.542105 4294967295
48.986355 24.894283 -15.803418 4294967295
48.993969 20.70973 -15.31133 4294967295
49.000908 21.998253 -15.428612 4294967295
49.00124 23.769007 -15.623736 4294967295
49.005482 21.193541 -15.322503 4294967295
49.008572 24.413433 -15.668139 4294967295
49.014595 25.37961 -15.753033 4294967295
49.032967 24.25456 -15.56051 4294967295
49.040466 25.864841 -15.711376 4294967295
49.046925 23.128744 -15.384176 4294967295
49.049202 24.738899 -15.554303 4294967295
49.078598 20.540272 -15.594863 4294967295
49.078899 26.190437 -15.605666 4294967295
49.080814 20.701363 -15.604547 4294967295
49.08408 21.50629 -15.681746 4294967295
49.098206 26.031307 -15.516785 4294967295
49.108654 23.93891 -15.246246 4294967295
49.118515 20.381809 -15.430148 4294967295
49.127213 25.550991 -15.356509 4294967295
49.15028 25.231009 -15.235926 4294967295
49.186752 23.92845 -15.57178 4294967295
49.209667 22.642244 -15.344748 4294967295
49.231304 21.179903 -15.716844 4294967295
49.284939 24.902981 -15.317886 4294967295
49.285851 25.708267 -15.403772 4294967295
49.287594 21.02269 -15.492141 4294967295
49.289684 20.70084 -15.448777 4294967295
49.296154 21.506227 -15.514213 4294967295
49.303204 26.031982 -15.37568 4294967295
49.305668 22.150833 -15.550607 4294967295
49.316914 22.95656 -15.598481 4294967295
49.319241 22.473799 -15.536415 4294967295
49.321026 23.600758 -15.65473 4294967295
49.321037 22.7959 -15.5655 4294967295
49.330154 21.830601 -15.424947 4294967295
49.334404 20.542669 -15.266568 4294967295
49.339905 24.729063 -15.710228 4294967295
49.354763 23.76449 -15.548633 4294967295
49.356556 23.281643 -15.488522 4294967295
49.366695 23.121433 -15.433438 4294967295
49.367405 25.053434 -15.644894 4294967295
49.374397 25.858919 -15.708389 4294967295
49.375744 24.088226 -15.507249 4294967295
49.380524 26.020464 -15.703729 4294967295
49.381096 25.376629 -15.630294 4294967295
49.394428 20.693634 -15.675685 4294967295
49.409203 24.252073 -15.402191 4294967295
49.414444 25.540693 -15.525665 4294967295
49.421101 24.575163 -15.394169 4294967295
49.474121 23.435598 -15.686277 4294967295
49.478443 24.401672 -15.777389 4294967295
49.505638 25.710228 -15.208631 4294967295
49.555679 21.509422 -15.172849 4294967295
49.570648 20.530046 -15.622211 4294967295
49.625809 23.931057 -15.183127 4294967295
49.626629 22.948477 -15.684305 4294967295
49.627781 21.016699 -15.466125 4294967295
49.63913 23.915247 -15.745412 4294967295
49.651386 20.85722 -15.36171 4294967295
49.661846 21.985134 -15.448186 4294967295
49.662476 22.468229 -15.499376 4294967295
49.676865 24.401337 -15.660555 4294967295
49.682987 24.240871 -15.620288 4294967295
49.684044 23.435957 -15.527267 4294967295
49.685253 23.597063 -15.540663 4294967295
49.68581 25.046034 -15.699074 4294967295
49.696362 21.665491 -15.285932 4294967295
49.700832 21.343664 -15.233862 4294967295
49.718079 24.565887 -15.527306 4294967295
49.725548 25.532614 -15.606905 4294967295
49.731056 22.151175 -15.212206 4294967295
49.731907 22.63447 -15.262603 4294967295
49.742352 23.11849 -15.277819 4294967295
49.754536 22.797268 -15.197471 4294967295
49.767406 25.858557 -15.489143 4294967295
49.769894 25.375664 -15.426536 4294967295
49.806126 26.18434 -15.382922 4294967295
49.866451 24.078205 -15.540728 4294967295
49.872108 20.374191 -15.109888 4294967295
49.894997 25.851875 -15.632253 4294967295
49.935165 23.761787 -15.253407 4294967295
49.936165 25.372601 -15.428038 4294967295
49.939774 21.008844 -15.543662 4294967295
49.946003 26.017729 -15.463327 4294967295
49.952999 21.975761 -15.602169 4294967295
49.965927 24.569857 -15.229902 4294967295
49.987827 23.10537 -15.599437 4294967295
50.001694 23.267466 -15.566503 4294967295
50.003254 20.85195 -15.293446 4294967295
50.005966 24.072851 -15.639959 4294967295
50.02383 25.362368 -15.717128 4294967295
50.024319 21.658718 -15.305474 4294967295
50.025665 22.786232 -15.425322 4294967295
50.026657 21.497805 -15.27909 4294967295
50.027 22.142109 -15.34914 4294967295
50.028416 21.336843 -15.25482 4294967295
50.030602 22.464497 -15.371609 4294967295
50.030872 24.557989 -15.602294 4294967295
50.050056 24.237579 -15.496465 4294967295
50.060558 26.009781 -15.654055 4294967295
50.062229 23.594381 -15.380647 4294967295
50.067329 25.688387 -15.593647 4294967295
50.071129 23.75617 -15.365903 4294967295
50.074879 25.044943 -15.494764 4294967295
50.098988 23.436251 -15.228314 4294967295
50.103489 24.725349 -15.354446 4294967295
50.144581 25.85667 -15.328911 4294967295
50.206127 24.87772 -15.606459 4294967295
50.208462 25.199968 -15.633552 4294967295
50.213623 21.012657 -15.151384 4294967295
50.224991 22.302292 -15.252417 4294967295
50.227825 21.819185 -15.188588 4294967295
50.235058 24.39711 -15.447286 4294967295
50.263084 23.432922 -15.237921 4294967295
50.268299 22.78886 -15.14755 4294967295
50.269321 24.238943 -15.304234 4294967295
50.290619 21.969704 -15.586031 4294967295
50.301765 25.047272 -15.274759 4294967295
50.310295 22.615219 -15.585393 4294967295
50.310463 25.692486 -15.314256 4294967295
50.318218 21.810625 -15.467398 4294967295
50.321766 21.488768 -15.418819 4294967295
50.330715 25.372118 -15.204604 4294967295
50.336403 20.684372 -15.276258 4294967295
50.343899 20.523752 -15.231051 4294967295
50.347004 23.101122 -15.504752 4294967295
50.353271 23.906818 -15.57092 4294967295
50.38303 23.587145 -15.42662 4294967295
50.386559 22.782028 -15.324653 4294967295
50.386864 21.170979 -15.145342 4294967295
50.388077 21.654421 -15.194385 4294967295
50.392921 21.33251 -15.141032 4294967295
50.393467 24.39333 -15.477569 4294967295
50.401112 24.877169 -15.503088 4294967295
50.406654 22.139093 -15.179981 4294967295
50.416286 22.9454 -15.23389 4294967295
50.480389 24.561888 -15.178 4294967295
50.491917 23.418354 -15.619763 4294967295
50.561554 22.296177 -15.241007 4294967295
50.587547 25.359087 -15.484571 4294967295
50.593094 24.070858 -15.321864 4294967295
50.593563 25.198555 -15.444822 4294967295
50.607792 22.944159 -15.14354 4294967295
50.611443 23.589003 -15.201486 4294967295
50.612484 25.844624 -15.447042 4294967295
50.618275 24.717447 -15.301257 4294967295
50.62077 26.167578 -15.452442 4294967295
50.640556 24.397108 -15.18435 4294967295
50.64975 21.643047 -15.456162 4294967295
50.650894 22.126305 -15.505405 4294967295
50.663822 21.482943 -15.387049 4294967295
50.675179 22.450201 -15.452478 4294967295
50.678658 21.161758 -15.297337 4294967295
50.685844 23.09528 -15.484798 4294967295
50.698174 23.579451 -15.493263 4294967295
50.733433 22.615625 -15.257909 4294967295
50.754536 23.26174 -15.252221 4294967295
50.770855 24.390926 -15.317387 4294967295
50.783302 23.747444 -15.200798 4294967295
50.791752 20.832853 -15.457106 4294967295
50.816898 25.361742 -15.256442 4294967295
50.848396 22.93075 -15.482157 4294967295
50.875786 21.160547 -15.186565 4294967295
50.897026 21.645412 -15.162624 4294967295
50.907162 23.740849 -15.357162 4294967295
50.912334 22.774513 -15.23151 4294967295
50.919548 22.613913 -15.187432 4294967295
50.936127 23.904337 -15.269495 4294967295
50.938374 25.998989 -15.492707 4294967295
50.939301 23.421171 -15.204527 4294967295
50.94099 25.677046 -15.447581 4294967295
50.947716 25.35545 -15.387516 4294967295
50.957184 20.829531 -15.461674 4294967295
50.965508 25.19593 -15.304949 4294967295
50.968102 21.796667 -15.528701 4294967295
50.970264 24.712929 -15.23422 4294967295
50.976643 24.068838 -15.139769 4294967295
50.983883 21.314526 -15.417891 4294967295
50.994041 21.476301 -15.398719 4294967295
50.996265 25.521008 -15.22858 4294967295
51.00531 22.765785 -15.500058 4294967295
51.018112 23.088919 -15.489075 4294967295
51.041004 22.124018 -15.299009 4294967295
51.046036 20.996399 -15.156093 4294967295
51.061417 24.7033 -15.50947 4294967295
51.078804 24.221489 -15.392836 4294967295
51.080788 26.154766 -15.599125 4294967295
51.087196 22.2885 -15.148724 4294967295
51.137173 22.437895 -15.591241 4294967295
51.157166 23.244701 -15.607491 4294967295
51.194859 20.830847 -15.203617 4294967295
51.236279 21.800558 -15.159808 4294967295
51.237057 24.86211 -15.495031 4294967295
51.250237 25.990946 -15.571639 4294967295
51.252132 25.02454 -15.458044 4294967295
51.259518 23.73616 -15.28888 4294967295
51.261158 22.124664 -15.104949 4294967295
51.264023 20.499207 -15.522674 4294967295
51.26421 22.608418 -15.147262 4294967295
51.265472 25.83128 -15.498506 4294967295
51.267647 24.381395 -15.330503 4294967295
51.295486 25.51181 -15.353893 4294967295
51.302334 24.223167 -15.186673 4294967295
51.320107 24.547029 -15.157678 4294967295
51.322327 25.191931 -15.220792 4294967295
51.322487 25.353113 -15.238008 4294967295
51.324051 22.919447 -15.571376 4294967295
51.353935 24.371496 -15.622895 4294967295
51.363392 22.116854 -15.33959 4294967295
51.389877 23.40786 -15.385709 4294967295
51.397667 23.086205 -15.321853 4294967295
51.397804 21.152292 -15.10786 4294967295
51.399479 22.602907 -15.261901 4294967295
51.399857 25.986332 -15.633984 4294967295
51.407204 21.475286 -15.109309 4294967295
51.416508 22.765341 -15.21786 4294967295
51.44273 24.056707 -15.264961 4294967295
51.46262 21.142336 -15.478073 4294967295
51.503803 20.983917 -15.310836 4294967295
51.515411 21.951488 -15.375418 4294967295
51.529137 21.469027 -15.272259 4294967295
51.534618 24.852854 -15.625745 4294967295
51.560074 23.082727 -15.337851 4294967295
51.570713 22.43891 -15.228118 4294967295
51.576065 25.178707 -15.51099 4294967295
51.591511 25.82456 -15.526096 4294967295
51.60445 23.569687 -15.230233 4294967295
51.61718 20.816116 -15.486728 4294967295
51.618793 25.343672 -15.373824 4294967295
51.623314 23.732384 -15.179598 4294967295
51.629711 24.538824 -15.245318 4294967295
51.641178 22.106499 -15.541911 4294967295
51.642727 25.990482 -15.358171 4294967295
51.650616 21.462744 -15.436603 4294967295
51.654266 25.024504 -15.209628 4294967295
51.661472 25.508709 -15.236853 4294967295
51.671822 25.670843 -15.217109 4294967295
51.676449 21.303352 -15.325183 4294967295
51.678261 21.786888 -15.37195 4294967295
51.692127 22.59354 -15.410569 4294967295
51.69677 22.755016 -15.411519 4294967295
51.702923 24.527748 -15.584719 4294967295
51.70372 23.72229 -15.492974 4294967295
51.711922 23.4007 -15.427711 4294967295
51.71249 21.144581 -15.176744 4294967295
51.714031 25.012001 -15.597781 4294967295
51.72736 22.273827 -15.247306 4294967295
51.749302 24.048279 -15.363352 4294967295
51.757599 22.920774 -15.20883 4294967295
51.766884 23.08267 -15.192969 4294967295
51.811192 24.2146 -15.156878 4294967295
51.886829 21.464226 -15.185167 4294967295
51.891277 24.52652 -15.50675 4294967295
51.898102 22.43211 -15.251003 4294967295
51.900333 21.303936 -15.118486 4294967295
51.913635 25.172977 -15.496896 4294967295
51.916222 23.884031 -15.34537 4294967295
51.924114 22.917601 -15.210147 4294967295
51.933914 26.141617 -15.530112 4294967295
51.936687 25.819611 -15.484537 4294967295
51.937191 24.046923 -15.28723 4294967295
51.941597 24.691984 -15.342377 4294967295
51.965584 23.726852 -15.148896 4294967295
51.969254 25.339113 -15.31337 4294967295
51.973221 20.649929 -15.387511 4294967295
51.982662 21.456211 -15.442184 4294967295
52.001724 21.940922 -15.426513 4294967295
52.003788 25.987038 -15.259488 4294967295
52.005791 25.503614 -15.198912 4294967295
52.031841 25.667215 -15.122416 4294967295
52.033886 23.554665 -15.487826 4294967295
52.040001 22.427113 -15.341347 4294967295
52.041027 23.071808 -15.408704 4294967295
52.054951 22.911715 -15.340569 4294967295
52.056904 21.783615 -15.209113 4294967295
52.118923 23.239014 -15.144716 4294967295
52.167686 20.970749 -15.323077 4294967295
52.18383 20.810612 -15.246955 4294967295
52.189724 21.133356 -15.26118 4294967295
52.212036 21.940784 -15.269368 4294967295
52.226788 24.84281 -15.535772 4294967295
52.234169 24.198858 -15.438065 4294967295
52.238598 23.393387 -15.333256 4294967295
52.249084 25.650478 -15.544018 4294967295
52.251728 26.134125 -15.587725 4294967295
52.263123 22.428053 -15.138035 4294967295
52.266872 23.234406 -15.213323 4294967295
52.768993 6.9192319 -15.219465 4294967295
52.928596 6.4319916 -15.191728 4294967295
52.940033 6.2706017 -15.132819 4294967295
52.966862 6.9148159 -15.107192 4294967295
53.425278 6.2591019 -15.186353 4294967295
52.276169 12.252197 -15.177444 4294967295
52.29108 13.541695 -15.265628 4294967295
52.300701 7.7361298 -15.193888 4294967295
52.307621 8.0583229 -15.204396 4294967295
52.634598 13.373559 -15.211772 4294967295
52.656967 8.695096 -15.217635 4294967295
52.695782 9.1783962 -15.130931 4294967295
52.755283 11.596259 -15.182666 4294967295
52.758739 11.918652 -15.205702 4294967295
52.761513 11.273949 -15.124729 4294967295
52.813099 13.531395 -15.187321 4294967295
52.862164 9.4969597 -15.167687 4294967295
52.890312 10.786419 -15.208251 4294967295
52.913071 11.270121 -15.179533 4294967295
52.932949 11.915075 -15.178933 4294967295
52.93858 11.592749 -15.123178 4294967295
52.94582 12.237629 -15.168087 4294967295
52.963104 12.721487 -15.15909 4294967295
52.965031 13.043916 -15.187645 4294967295
52.977249 13.527746 -15.196894 4294967295
52.989754 13.205595 -15.116405 4294967295
53.034683 9.3319778 -15.129181 4294967295
53.183022 8.6834764 -15.124511 4294967295
53.2645 11.262876 -15.11539 4294967295
53.277065 12.713895 -15.229829 4294967295
53.444706 7.2258353 -15.222946 4294967295
53.446068 11.742999 -15.115665 4294967295
53.470901 7.7090402 -15.182089 4294967295
53.489697 13.355993 -15.136374 4294967295
52.27692 17.09593 -15.104916 4294967295
52.290062 19.191986 -15.288375 4294967295
52.290939 17.74136 -15.125322 4294967295
52.29845 13.703007 -15.256768 4294967295
52.300594 19.031378 -15.232551 4294967295
52.314587 15.153713 -15.358289 4294967295
52.334377 14.993174 -15.269057 4294967295
52.33503 14.187371 -15.177898 4294967295
52.345608 19.356226 -15.105469 4294967295
52.351379 16.44408 -15.367455 4294967295
52.35762 20.162989 -15.150913 4294967295
52.357674 14.671515 -15.149393 4294967295
52.364422 15.316437 -15.196066 4294967295
52.372978 15.800246 -15.21844 4294967295
52.376656 17.089676 -15.347215 4294967295
52.39045 17.734875 -15.368436 4294967295
52.412796 17.413557 -15.252244 4294967295
52.439896 18.543066 -15.278732 4294967295
52.450764 14.343647 -15.379864 4294967295
52.456123 18.382694 -15.202387 4294967295
52.485062 20.157349 -15.293283 4294967295
52.502254 19.835976 -15.195724 4294967295
52.505337 14.022715 -15.147422 4294967295
52.529575 14.829316 -15.148731 4294967295
52.548458 16.925303 -15.311414 4294967295
52.554031 17.731335 -15.380064 4294967295
52.566032 16.281275 -15.176996 4294967295
52.577801 16.442919 -15.152306 4294967295
52.600075 17.088638 -15.142984 4294967295
52.629475 19.18565 -15.26776 4294967295
52.633904 19.024694 -15.234044 4294967295
52.637802 19.830866 -15.308745 4294967295
52.641827 20.314646 -15.347483 4294967295
52.650436 18.54192 -15.121163 4294967295
52.655613 19.509489 -15.209028 4294967295
52.656521 19.34833 -15.187992 4294967295
52.660458 14.180045 -15.207285 4294967295
52.671379 14.986235 -15.25665 4294967295
52.679619 20.155725 -15.193495 4294967295
52.706474 15.148492 -15.14789 4294967295
52.733067 17.244974 -15.282796 4294967295
52.751625 18.374077 -15.340164 4294967295
52.759335 18.857988 -15.365622 4294967295
52.762001 17.729828 -15.231788 4294967295
52.791744 19.504457 -15.31986 4294967295
52.871754 14.822503 -15.118023 4294967295
52.879238 16.273584 -15.250782 4294967295
52.893925 15.790504 -15.144656 4294967295
52.894821 16.757769 -15.247904 4294967295
52.918953 17.403582 -15.232004 4294967295
52.942104 18.210678 -15.237394 4294967295
52.945049 13.849376 -15.34825 4294967295
52.975391 18.695992 -15.170823 4294967295
52.992275 14.172877 -15.213774 4294967295
53.018913 15.624385 -15.277587 4294967295
53.092522 16.433096 -15.101513 4294967295
53.096195 19.496201 -15.425336 4294967295
53.10173 18.690563 -15.316761 4294967295
53.102772 17.078453 -15.135613 4294967295
53.130505 18.85326 -15.231042 4294967295
53.133537 20.143095 -15.362035 4294967295
53.148781 19.982792 -15.289504 4294967295
53.153831 19.176954 -15.182652 4294967295
53.161045 14.008159 -15.189084 4294967295
53.16349 19.822426 -15.218889 4294967295
53.169777 14.975604 -15.264112 4294967295
53.170296 14.492018 -15.209033 4294967295
53.200653 15.943804 -15.259542 4294967295
53.205166 20.308622 -15.122289 4294967295
53.209499 16.588932 -15.298677 4294967295
53.232082 15.622447 -15.111114 4294967295
53.23489 18.040764 -15.367038 4294967295
53.23735 16.106339 -15.145393 4294967295
53.245686 17.718872 -15.292801 4294967295
53.251778 17.074278 -15.199974 4294967295
53.257374 19.331392 -15.428123 4294967295
53.263443 18.525747 -15.317668 4294967295
53.286289 18.365667 -15.217864 4294967295
53.299545 18.850029 -15.223451 4294967295
53.305542 20.14012 -15.343777 4294967295
53.321011 19.979815 -15.270496 4294967295
53.326469 19.657665 -15.215419 4294967295
53.342682 13.843717 -15.118249 4294967295
53.344879 19.819962 -15.16704 4294967295
53.347092 14.488739 -15.173347 4294967295
53.351768 15.778571 -15.298395 4294967295
53.355949 15.133875 -15.212456 4294967295
53.415497 16.42577 -15.140515 4294967295
53.437355 17.87784 -15.221637 4294967295
53.447498 17.394569 -15.13203 4294967295
53.476021 19.16967 -15.22472 4294967295
52.278919 24.524973 -15.311911 4294967295
52.309048 24.043869 -15.149772 4294967295
52.321205 25.334675 -15.247986 4294967295
52.353085 20.646322 -15.22058 4294967295
52.354225 21.129969 -15.269753 4294967295
52.355858 20.807693 -15.228334 4294967295
52.362514 22.258787 -15.36414 4294967295
52.366047 25.983686 -15.157084 4294967295
52.383118 23.06617 -15.378542 4294967295
52.389191 21.777109 -15.214524 4294967295
52.42062 22.746628 -15.207633 4294967295
52.423656 23.875278 -15.320985 4294967295
52.454304 25.167414 -15.352444 4294967295
52.545723 22.579161 -15.340771 4294967295
52.547211 22.740456 -15.35315 4294967295
52.551575 21.128731 -15.159846 4294967295
52.559753 22.096584 -15.236888 4294967295
52.563293 21.451958 -15.153084 4294967295
52.564362 22.419333 -15.255778 4294967295
52.584137 22.904432 -15.237721 4294967295
52.593708 24.194826 -15.345248 4294967295
52.593838 23.066387 -15.220487 4294967295
52.600666 23.872995 -15.284651 4294967295
52.60149 24.840252 -15.388206 4294967295
52.612019 23.712696 -15.225949 4294967295
52.617874 25.970009 -15.453391 4294967295
52.626637 25.326054 -15.350801 4294967295
52.632538 24.359282 -15.222986 4294967295
52.634861 20.475391 -15.390353 4294967295
52.640041 25.004822 -15.26696 4294967295
52.662041 25.81291 -15.276417 4294967295
52.663261 20.960707 -15.341221 4294967295
52.664536 25.490683 -15.231925 4294967295
52.669682 21.283491 -15.35358 4294967295
52.699829 22.252684 -15.351429 4294967295
52.747604 21.933643 -15.143748 4294967295
52.843258 21.764278 -15.382778 4294967295
52.868671 25.813555 -15.133704 4294967295
52.885101 20.638512 -15.107867 4294967295
52.891445 23.863293 -15.439959 4294967295
52.909534 25.476587 -15.552267 4294967295
52.927055 22.415083 -15.15206 4294967295
52.935501 25.801304 -15.494314 4294967295
52.936012 24.350563 -15.332797 4294967295
52.937588 22.899609 -15.167396 4294967295
52.938416 23.22216 -15.199918 4294967295
52.948799 23.384212 -15.180288 4294967295
52.971321 24.676012 -15.241217 4294967295
53.000889 22.082798 -15.451656 4294967295
53.001644 26.129883 -15.291818 4294967295
53.010307 21.277491 -15.329084 4294967295
53.013126 25.324682 -15.161773 4294967295
53.021 20.955763 -15.255131 4294967295
53.021996 21.600685 -15.322521 4294967295
53.03936 25.972155 -15.138372 4294967295
53.054237 21.764112 -15.224277 4294967295
53.059589 22.409409 -15.275999 4294967295
53.061008 23.215597 -15.359605 4294967295
53.135567 24.995193 -15.286659 4294967295
53.138641 23.866686 -15.151413 4294967295
53.150471 24.190189 -15.144362 4294967295
53.171589 20.790257 -15.296207 4294967295
53.198959 21.114466 -15.233304 4294967295
53.203079 21.437204 -15.253975 4294967295
53.210125 23.211084 -15.423758 4294967295
53.215961 22.566687 -15.33184 4294967295
53.219353 23.534206 -15.426062 4294967295
53.219471 20.632023 -15.106363 4294967295
53.224453 24.50178 -15.514128 4294967295
53.236927 23.69681 -15.38067 4294967295
53.238892 22.084635 -15.196231 4294967295
53.242317 22.891102 -15.272616 4294967295
53.244007 21.762478 -15.142368 4294967295
53.2449 22.730057 -15.245601 4294967295
53.267487 24.666641 -15.377295 4294967295
53.269634 24.989264 -15.405045 4294967295
53.27882 24.183899 -15.283381 4294967295
53.286507 23.378246 -15.167074 4294967295
53.294888 25.47517 -15.367554 4294967295
53.311157 20.624077 -15.376801 4294967295
53.320641 20.947083 -15.378213 4294967295
53.329861 25.155792 -15.206473 4294967295
53.355263 21.916658 -15.360282 4294967295
53.357368 25.642086 -15.160901 4294967295
53.362465 25.319967 -15.107114 4294967295
53.423256 23.211508 -15.258073 4294967295
53.431747 22.567102 -15.156651 4294967295
53.462582 25.955896 -15.418369 4294967295
53.489716 25.635904 -15.285562 4294967295
53.495087 21.58917 -15.422225 4294967295
37.526276 6.7939806 -15.068691 4294967295
37.737251 6.7892489 -14.88828 4294967295
38.448685 6.9334197 -14.70985 4294967295
36.721333 7.7756629 -15.094235 4294967295
37.259521 8.0846558 -14.962299 4294967295
37.453911 7.7594495 -14.810772 4294967295
37.700405 7.1109295 -15.070123 4294967295
37.742149 7.9128466 -14.996473 4294967295
37.805298 8.3938236 -14.801983 4294967295
37.812481 8.2331858 -14.75542 4294967295
37.89378 8.2301931 -15.08686 4294967295
37.910999 8.390542 -15.037203 4294967295
37.911098 7.5879245 -14.94575 4294967295
37.96299 8.0689497 -14.795871 4294967295
38.098591 7.5837827 -14.858536 4294967295
38.221653 6.938386 -14.952216 4294967295
38.249542 7.2590237 -14.878901 4294967295
38.250996 7.5801225 -14.909595 4294967295
38.281418 8.382596 -14.880943 4294967295
38.307987 7.7399511 -14.703613 4294967295
38.314884 8.0610914 -14.712907 4294967295
38.396767 8.0581722 -15.04123 4294967295
38.408714 7.7369442 -14.957906 4294967295
44.458771 0.2026007 -15.060209 4294967295
45.291565 -0.30105081 -14.992696 4294967295
38.547085 6.7701888 -14.954845 4294967295
38.566261 6.9304013 -14.897749 4294967295
39.06057 6.2764249 -14.832694 4294967295
39.181416 6.5946302 -15.043445 4294967295
39.199558 6.2731009 -14.936182 4294967295
39.202358 6.1124468 -14.907063 4294967295
39.346199 6.7513242 -15.064105 4294967295
39.381908 6.5900478 -14.906466 4294967295
39.549774 6.5861125 -14.897135 4294967295
39.561466 6.2646184 -14.815204 4294967295
39.57489 6.7462525 -14.817302 4294967295
39.810944 5.7768712 -15.078343 4294967295
39.831688 6.0975485 -15.033847 4294967295
39.849594 6.7395515 -15.036692 4294967295
39.864849 6.2574143 -14.922862 4294967295
39.884319 6.8995252 -14.919633 4294967295
39.889912 6.5781536 -14.861565 4294967295
40.011406 6.4145331 -15.014729 4294967295
40.22427 6.5703077 -14.848831 4294967295
40.282246 6.7298698 -14.641691 4294967295
40.342884 6.0854764 -14.976715 4294967295
40.53141 6.884294 -14.978182 4294967295
40.53167 6.4023457 -14.922812 4294967295
40.535133 6.2416148 -14.891243 4294967295
40.584595 6.7226458 -14.753829 4294967295
40.862934 6.2338738 -14.904317 4294967295
40.882816 6.5548158 -14.863592 4294967295
40.939209 6.7144332 -14.66349 4294967295
40.99268 6.2307506 -15.042974 4294967295
41.002213 6.3911939 -15.024218 4294967295
41.037888 6.8724885 -14.940615 4294967295
41.225418 6.3860903 -14.801732 4294967295
41.226921 6.7074838 -14.832132 4294967295
41.339661 6.5439315 -15.018229 4294967295
41.523804 6.539669 -14.946887 4294967295
41.613243 6.8594456 -14.638388 4294967295
41.689083 6.3750787 -14.930297 4294967295
41.933647 6.8518801 -14.681164 4294967295
42.216141 6.684247 -14.851438 4294967295
42.978462 6.0231342 -15.033731 4294967295
43.140797 6.340765 -15.082911 4294967295
43.496372 6.4932179 -15.009597 4294967295
43.729164 3.9159262 -15.097302 4294967295
44.257008 4.7067194 -15.07198 4294967295
44.591835 4.5378513 -15.042337 4294967295
44.783512 5.4979792 -15.052817 4294967295
44.79821 6.3016872 -15.087204 4294967295
45.008484 2.2776363 -15.096621 4294967295
45.11092 5.4901919 -15.069683 4294967295
45.295605 6.2899556 -15.088983 4294967295
45.314487 6.7720909 -15.071768 4294967295
38.56105 7.7332797 -15.009149 4294967295
38.571728 8.0542526 -15.00361 4294967295
38.58952 7.4117556 -14.861012 4294967295
38.600269 8.2145233 -14.909776 4294967295
38.630489 7.0898919 -14.663788 4294967295
38.664337 7.8926096 -14.621919 4294967295
38.719067 7.0873203 -14.965334 4294967295
38.773136 8.3712301 -14.8988 4294967295
38.927551 7.2433453 -14.814754 4294967295
38.927761 8.3675213 -14.94119 4294967295
38.973118 7.724575 -14.690814 4294967295
39.049568 7.0795999 -14.966613 4294967295
39.128323 7.5602283 -14.712946 4294967295
39.201965 7.5576553 -15.072095 4294967295
39.206539 7.878716 -15.090543 4294967295
39.221313 8.1996794 -15.069104 4294967295
39.236122 7.2359853 -14.902226 4294967295
39.305386 7.7168884 -14.685974 4294967295
39.443474 8.1953115 -14.847672 4294967295
39.461494 7.5525126 -14.704643 4294967295
39.574268 7.0675292 -14.85604 4294967295
39.602291 8.3521929 -14.891992 4294967295
39.619835 7.548768 -14.732753 4294967295
39.624672 7.8700299 -14.750209 4294967295
39.652363 8.1910706 -14.678517 4294967295
39.667206 7.7088208 -14.566126 4294967295
39.728672 7.3850932 -14.935637 4294967295
39.840992 8.0263157 -14.570557 4294967295
39.84795 7.7047882 -14.507116 4294967295
39.870125 7.2209964 -15.011183 4294967295
39.888733 8.0237732 -15.029446 4294967295
39.918339 7.3808832 -14.841619 4294967295
39.919331 7.862803 -14.8922 4294967295
39.983505 8.3441353 -14.696829 4294967295
40.073242 7.8591118 -14.937459 4294967295
40.158173 7.6973805 -14.589029 4294967295
40.184902 8.3400087 -14.557691 4294967295
40.210182 7.2131348 -14.976105 4294967295
40.229649 7.5341153 -14.936735 4294967295
40.230534 7.0521598 -14.878898 4294967295
40.245243 8.3371363 -14.966824 4294967295
40.276974 7.3727679 -14.734733 4294967295
40.311653 8.0151291 -14.67257 4294967295
40.397526 8.1749887 -14.357124 4294967295
40.466534 7.6899967 -14.678065 4294967295
40.468781 8.3328114 -14.741893 4294967295
40.494881 7.2073808 -14.513635 4294967295
40.503853 7.8502665 -14.551381 4294967295
40.536732 8.0106554 -14.441913 4294967295
40.558174 8.4928055 -14.413138 4294967295
40.581005 7.8474884 -14.894629 4294967295
40.596497 7.2045355 -14.762055 4294967295
40.600876 8.168622 -14.853832 4294967295
40.661919 7.3642583 -14.526522 4294967295
40.697269 8.6499805 -14.534553 4294967295
40.724827 7.3619342 -14.924674 4294967295
40.910786 7.6791563 -14.882162 4294967295
40.931499 7.1967502 -14.74768 4294967295
40.973328 8.1605768 -14.69455 4294967295
40.979473 8.6427298 -14.725121 4294967295
40.983078 7.5174608 -14.584343 4294967295
41.003883 7.8387294 -14.540087 4294967295
41.004868 8.4817934 -14.608772 4294967295
41.040432 7.1937895 -14.967 4294967295
41.040588 7.9991007 -14.41621 4294967295
41.046185 8.3206596 -14.430804 4294967295
41.047035 7.3543587 -14.959574 4294967295
41.104069 7.5142341 -14.757228 4294967295
41.13002 8.156847 -14.729381 4294967295
41.161472 8.3172989 -14.62593 4294967295
41.191967 7.8346267 -14.453727 4294967295
41.203327 8.6385269 -14.500423 4294967295
41.220291 8.4775915 -14.416744 4294967295
41.227844 7.8323445 -14.955276 4294967295
41.25103 7.3499298 -14.81145 4294967295
41.285084 7.670917 -14.71617 4294967295
41.418091 7.1853232 -14.788052 4294967295
41.450859 8.9559202 -14.221071 4294967295
41.507381 7.5055304 -14.479822 4294967295
41.511803 7.6662831 -14.480885 4294967295
41.518211 8.3094454 -14.528595 4294967295
41.546169 8.6308498 -14.456984 4294967295
41.559563 7.0211277 -14.863346 4294967295
41.621597 7.8239279 -14.714783 4294967295
41.637344 8.1452847 -14.690292 4294967295
41.638248 8.9520254 -14.138124 4294967295
41.671898 7.9841332 -14.539057 4294967295
41.761173 7.4989128 -14.779366 4294967295
41.76239 8.9484501 -14.299047 4294967295
41.785526 8.1416388 -14.757987 4294967295
41.80706 7.0158687 -14.548441 4294967295
41.825768 7.337194 -14.512625 4294967295
41.827641 8.7843914 -14.668265 4294967295
41.835556 8.4627476 -14.60161 4294967295
41.85215 9.1058559 -14.610118 4294967295
41.924702 8.6229172 -14.276613 4294967295
41.940559 9.2663822 -14.288003 4294967295
41.943729 7.1732697 -14.678562 4294967295
41.971058 8.4591846 -14.718157 4294967295
41.986122 7.6550469 -14.569798 4294967295
42.06839 7.9757571 -14.289634 4294967295
42.082348 7.3305964 -14.800991 4294967295
42.084129 7.8128347 -14.848391 4294967295
42.105492 7.169466 -14.69401 4294967295
42.108799 8.9408016 -14.242855 4294967295
42.132416 9.2625284 -14.188272 4294967295
42.160439 7.4902601 -14.519078 4294967295
42.183414 8.4549999 -14.539328 4294967295
42.186607 8.776639 -14.563232 4294967295
42.189133 8.1332703 -14.481192 4294967295
42.200188 7.0060096 -14.948805 4294967295
42.205238 8.9373703 -14.509771 4294967295
42.245132 9.419796 -14.410817 4294967295
42.257912 7.4873633 -14.781477 4294967295
42.308544 7.808291 -14.623318 4294967295
42.418011 8.2897243 -14.257503 4294967295
42.434933 7.1617632 -14.702303 4294967295
42.446423 7.6439919 -14.712454 4294967295
42.457088 9.0940742 -14.19802 4294967295
42.459347 7.3221931 -14.62676 4294967295
42.474094 7.9652753 -14.642509 4294967295
42.496166 8.1258698 -14.575968 4294967295
42.499477 9.0908089 -14.671717 4294967295
42.507298 7.8040547 -14.497158 4294967295
42.522915 7.1591392 -15.000444 4294967295
42.525364 8.6081543 -14.518281 4294967295
42.528648 8.9298382 -14.54183 4294967295
42.55064 9.251461 -14.493704 4294967295
42.592014 9.7340279 -14.389369 4294967295
42.654106 9.4120951 -14.115231 4294967295
42.697952 7.4766068 -15.001043 4294967295
42.700314 8.2825375 -14.447489 4294967295
42.76527 7.9580598 -14.797656 4294967295
42.770321 9.0865879 -14.269793 4294967295
42.794518 9.5693274 -14.231383 4294967295
42.820107 7.7966018 -14.569798 4294967295
42.827534 8.2790718 -14.595575 4294967295
42.832653 10.374127 -14.175795 4294967295
42.864597 8.9222403 -14.526054 4294967295
42.864693 9.2439718 -14.561812 4294967295
42.873478 7.4726162 -14.963804 4294967295
42.87677 10.052275 -13.970739 4294967295
42.957787 7.6322684 -14.659616 4294967295
42.987568 9.887476 -14.164137 4294967295
43.016029 7.9532843 -14.473124 4294967295
43.044071 9.7227859 -14.564624 4294967295
43.091415 9.4009275 -14.347615 4294967295
43.094963 9.0790539 -14.297925 4294967295
43.10627 10.366469 -14.39924 4294967295
43.108669 9.2399435 -14.263619 4294967295
43.137123 10.688471 -14.317506 4294967295
43.149532 9.5617762 -14.143619 4294967295
43.155499 8.5931797 -14.646428 4294967295
43.157516 9.8837328 -14.149255 4294967295
43.161949 8.27141 -14.585707 4294967295
43.18251 10.20575 -14.089916 4294967295
43.203655 11.010847 -14.099498 4294967295
43.210052 8.9145908 -14.474274 4294967295
43.22665 9.8799229 -14.519256 4294967295
43.235329 7.6252799 -14.866572 4294967295
43.270828 7.4639816 -14.713126 4294967295
43.295147 8.1070471 -14.692538 4294967295
43.326805 10.684894 -14.227309 4294967295
43.327801 11.328762 -14.29576 4294967295
43.330433 8.7501764 -14.630138 4294967295
43.349762 11.489947 -14.23003 4294967295
43.362049 13.582611 -14.417926 4294967295
43.387226 10.197956 -14.576005 4294967295
43.423283 10.519887 -14.474626 4294967295
43.435017 13.423289 -14.121553 4294967295
43.440876 7.4600658 -14.697343 4294967295
43.445274 7.7816997 -14.71665 4294967295
43.455402 10.841919 -14.388278 4294967295
43.479176 9.7152452 -14.171258 4294967295
43.488922 11.807902 -14.368833 4294967295
43.50491 11.164208 -14.235671 4294967295
43.530586 13.096227 -14.354474 4294967295
43.543571 13.257462 -14.323048 4294967295
43.545036 11.48658 -14.118834 4294967295
43.549973 9.0678864 -14.462082 4294967295
43.580536 13.580251 -14.218312 4294967295
43.590111 8.9067554 -14.291128 4294967295
43.590893 12.936423 -14.106601 4294967295
43.594452 8.0997238 -14.816469 4294967295
43.60014 10.194345 -14.397311 4294967295
43.602688 9.5505495 -14.315412 4294967295
43.64764 8.7426729 -14.686157 4294967295
43.663006 7.7772279 -14.519466 4294967295
43.66357 10.6775 -14.209882 4294967295
43.669914 10.516535 -14.167665 4294967295
43.681789 10.033532 -14.068274 4294967295
43.694202 11.80473 -14.219605 4294967295
43.701984 13.575644 -14.388526 4294967295
43.729797 8.5812101 -14.355438 4294967295
43.739227 13.254498 -14.210649 4294967295
43.742157 11.322176 -13.982832 4294967295
43.742493 11.161123 -13.963485 4294967295
43.744282 12.127431 -14.065023 4294967295
43.747532 7.7743731 -14.829271 4294967295
43.750294 9.7077579 -14.403729 4294967295
43.752533 8.2568016 -14.864318 4294967295
43.755154 12.610714 -14.077807 4294967295
43.760403 11.638935 -14.581738 4294967295
43.761406 9.2248735 -14.307312 4294967295
43.775879 10.995381 -14.450708 4294967295
43.77903 10.029683 -14.330466 4294967295
43.779354 9.0638285 -14.220958 4294967295
43.792419 10.512621 -14.333647 4294967295
43.793083 8.5781488 -14.746181 4294967295
43.7971 10.834577 -14.351932 4294967295
43.808277 12.283274 -14.471778 4294967295
43.812958 11.3176 -14.345725 4294967295
43.820221 12.766299 -14.480474 4294967295
43.824608 9.3823109 -14.716468 4294967295
43.829285 12.927414 -14.46404 4294967295
43.834751 12.122707 -14.353052 4294967295
43.844131 8.7386827 -14.570126 4294967295
43.856316 10.186691 -14.68607 4294967295
43.871593 10.347624 -14.646024 4294967295
43.876411 13.41128 -14.33895 4294967295
43.877808 9.5431042 -14.532256 4294967295
43.912472 13.573092 -14.219868 4294967295
43.91507 12.445945 -14.083645 4294967295
43.92709 12.118015 -14.63344 4294967295
43.936066 13.090508 -14.076004 4294967295
43.942558 13.405495 -14.718898 4294967295
43.992065 8.4132042 -14.602764 4294967295
43.993324 10.026016 -14.147234 4294967295
43.994553 8.0913706 -14.557261 4294967295
44.022575 10.509188 -14.090182 4294967295
44.028606 11.636424 -14.193578 4294967295
44.084038 9.5392847 -14.379641 4294967295
44.103539 12.436363 -14.630109 4294967295
44.11116 10.022202 -14.330733 4294967295
44.114361 12.758387 -14.625079 4294967295
44.116455 13.080263 -14.653183 4294967295
44.123585 10.344196 -14.319624 4294967295
44.128185 9.7002268 -14.230019 4294967295
44.141125 11.793124 -14.415323 4294967295
44.149746 13.563757 -14.580913 4294967295
44.150917 10.827309 -14.269939 4294967295
44.153065 10.988322 -14.279828 4294967295
44.154434 12.59815 -14.454942 4294967295
44.1675 8.5702257 -14.585048 4294967295
44.179089 11.954593 -14.289234 4294967295
44.180756 9.0528917 -14.588816 4294967295
44.182583 13.242565 -14.420238 4294967295
44.184383 8.8919544 -14.557026 4294967295
44.206512 12.115982 -14.203172 4294967295
44.228367 12.921478 -14.210401 4294967295
44.242142 12.277545 -14.085955 4294967295
44.281292 10.823377 -14.405668 4294967295
44.286678 11.14536 -14.421288 4294967295
44.289948 8.8884859 -14.786326 4294967295
44.294006 11.306397 -14.411516 4294967295
44.305447 12.916177 -14.54837 4294967295
44.308922 8.4056988 -14.660364 4294967295
44.320206 10.340574 -14.20398 4294967295
44.330776 9.0491762 -14.649581 4294967295
44.343506 7.1166148 -15.014206 4294967295
44.389435 12.434665 -14.175822 4294967295
44.393261 9.6927452 -14.48481 4294967295
44.397015 13.562041 -14.273312 4294967295
44.397919 13.240006 -14.233812 4294967295
44.404205 10.175616 -14.497387 4294967295
44.427395 11.141461 -14.517619 4294967295
44.430737 8.4022493 -14.827828 4294967295
44.437904 10.819613 -14.441765 4294967295
44.443729 8.7238903 -14.814633 4294967295
44.466156 12.751515 -14.550944 4294967295
44.478512 13.073665 -14.540169 4294967295
44.478546 11.302886 -14.341827 4294967295
44.481194 9.0454588 -14.708779 4294967295
44.497494 12.430101 -14.396195 4294967295
44.517372 9.5280876 -14.625803 4294967295
44.533577 10.171793 -14.636488 4294967295
44.540081 12.108708 -14.198817 4294967295
44.540997 13.396945 -14.339547 4294967295
44.542885 12.591865 -14.242274 4294967295
44.552216 11.137432 -14.673988 4294967295
44.574635 10.332855 -14.499063 4294967295
44.592049 12.103456 -14.631267 4294967295
44.600388 9.6852989 -14.958008 4294967295
44.621136 11.781924 -14.485163 4294967295
44.678173 9.8461771 -14.681792 4294967295
44.685883 10.328944 -14.706635 4294967295
44.704655 13.554321 -14.367267 4294967295
44.717503 13.071516 -14.264602 4294967295
44.7201 10.168108 -14.559229 4294967295
44.735653 8.8773899 -14.984261 4294967295
44.740421 9.5242376 -14.410325 4294967295
44.740627 9.1990519 -15.001437 4294967295
44.7537 12.90441 -14.738237 4294967295
44.765671 10.490203 -14.422894 4294967295
44.773468 11.134196 -14.465443 4294967295
44.773827 9.359808 -14.893962 4294967295
44.77887 12.422027 -14.589077 4294967295
44.78294 13.226859 -14.663702 4294967295
44.795879 9.0379639 -14.774643 4294967295
44.796677 10.812369 -14.341666 4294967295
44.806355 13.549273 -14.611205 4294967295
44.806988 10.164187 -14.858617 4294967295
44.810402 11.617538 -14.379821 4294967295
44.810452 11.295516 -14.343605 4294967295
44.819557 12.583673 -14.453255 4294967295
44.821388 13.066677 -14.500358 4294967295
44.86985 9.6814852 -14.567117 4294967295
44.870434 12.101387 -14.206878 4294967295
44.881393 12.417383 -14.829453 4294967295
44.933208 9.516922 -14.937089 4294967295
44.946743 9.8386536 -14.921963 4294967295
44.960712 11.935686 -14.475876 4294967295
44.992802 10.643213 -14.838048 4294967295
45.020981 10.482432 -14.713701 4294967295
45.04224 12.252762 -14.831364 4294967295
45.057774 11.448319 -14.682799 4294967295
45.062099 13.379479 -14.882347 4294967295
45.079163 11.609498 -14.620085 4294967295
45.08176 12.092402 -14.66425 4294967295
45.084389 13.540887 -14.816257 4294967295
45.085705 10.965671 -14.523415 4294967295
45.098549 12.736483 -14.672882 4294967295
45.10833 12.414721 -14.599998 4294967295
45.132385 10.639363 -14.938024 4294967295
45.141182 11.932219 -14.422055 4294967295
45.148407 10.15674 -14.823669 4294967295
45.157356 9.5130663 -14.717978 4294967295
45.158474 12.576537 -14.428802 4294967295
45.163769 12.898662 -14.444831 4294967295
45.164234 10.478616 -14.79995 4294967295
45.168621 12.409411 -14.999178 4294967295
45.178875 13.374825 -15.068391 4294967295
45.186119 10.961502 -14.771395 4294967295
45.218662 10.800776 -14.630711 4294967295
45.244583 10.317961 -14.478998 4294967295
45.253849 12.893623 -14.731891 4294967295
45.276165 10.313795 -14.986094 4294967295
45.293148 9.6702566 -14.850219 4294967295
45.364937 10.796947 -14.705649 4294967295
45.365364 12.728087 -14.91978 4294967295
45.365593 13.371689 -14.990812 4294967295
45.371544 11.762658 -14.788641 4294967295
45.376122 10.475088 -14.627553 4294967295
39.663868 16.873619 -14.968543 4294967295
40.021606 17.832041 -14.974823 4294967295
40.124043 16.540497 -15.075657 4294967295
40.478386 17.016636 -15.040998 4294967295
40.511063 16.696693 -14.877993 4294967295
40.511467 17.982265 -15.021492 4294967295
40.533199 17.501251 -14.882824 4294967295
40.675282 16.853922 -14.902153 4294967295
40.843071 17.172033 -14.93064 4294967295
40.850494 16.529461 -14.829401 4294967295
41.001495 16.203951 -14.850448 4294967295
41.030704 16.848143 -14.809988 4294967295
41.162472 16.682518 -14.923484 4294967295
41.175804 18.451015 -15.071203 4294967295
41.185688 17.487217 -14.924367 4294967295
41.189552 16.201391 -14.764535 4294967295
41.192631 16.844561 -14.825101 4294967295
41.308231 16.196079 -14.946599 4294967295
41.468819 16.19243 -14.966779 4294967295
41.477428 16.835693 -15.00598 4294967295
41.486359 17.478981 -15.043949 4294967295
41.502132 16.515266 -14.87456 4294967295
41.507488 17.319244 -14.944415 4294967295
41.522915 16.033785 -14.740117 4294967295
41.529282 17.641775 -14.896622 4294967295
41.558685 17.000031 -14.710867 4294967295
41.694088 17.316816 -14.864562 4294967295
41.694809 16.352158 -14.753197 4294967295
41.742813 16.51494 -14.586423 4294967295
41.792038 16.345945 -15.017426 4294967295
41.796364 16.828316 -15.055043 4294967295
41.806705 16.025036 -14.924815 4294967295
41.827995 16.508165 -14.89718 4294967295
41.829556 17.312016 -14.981631 4294967295
41.844055 16.187262 -14.799206 4294967295
41.855339 17.473982 -14.90054 4294967295
41.85799 16.991774 -14.836072 4294967295
41.863998 17.152828 -14.831052 4294967295
41.907444 15.707191 -14.501023 4294967295
42.004047 18.273539 -15.057044 4294967295
42.097168 15.865478 -14.427847 4294967295
42.146549 16.018442 -14.893787 4294967295
42.181911 15.376514 -14.685663 4294967295
42.187202 16.984842 -14.846187 4294967295
42.18998 16.180925 -14.745104 4294967295
42.19339 15.537746 -14.659665 4294967295
42.197323 16.663671 -14.771166 4294967295
42.219273 17.147087 -14.74115 4294967295
42.299187 16.496784 -14.998916 4294967295
42.375877 15.373991 -14.578197 4294967295
42.385845 15.856936 -14.594213 4294967295
42.45409 16.653658 -15.059161 4294967295
42.467659 17.297272 -15.079426 4294967295
42.469563 15.689622 -14.891468 4294967295
42.491768 16.494452 -14.896727 4294967295
42.516068 16.334629 -14.785549 4294967295
42.517616 17.138769 -14.869969 4294967295
42.526531 15.369981 -14.636999 4294967295
42.535412 15.209418 -14.584885 4294967295
42.540073 16.818117 -14.747791 4294967295
42.544441 15.853198 -14.622605 4294967295
42.565689 15.532214 -14.505015 4294967295
42.594757 16.01598 -14.44787 4294967295
42.607098 15.685125 -15.000191 4294967295
42.60944 16.167517 -15.045408 4294967295
42.621124 16.007196 -14.982622 4294967295
42.696011 14.883996 -14.569448 4294967295
42.787899 16.968431 -15.087749 4294967295
42.805874 15.522029 -14.856503 4294967295
42.822914 17.291561 -14.989971 4294967295
42.837212 15.362281 -14.718589 4294967295
42.841122 16.64913 -14.848125 4294967295
42.841843 18.096437 -15.007895 4294967295
42.844227 15.040798 -14.655626 4294967295
42.872414 16.16786 -14.674286 4294967295
42.878155 15.685452 -14.598133 4294967295
42.89291 15.203276 -14.487488 4294967295
42.893375 16.812199 -14.666387 4294967295
42.898315 14.720695 -14.412604 4294967295
42.908234 15.847449 -14.501169 4294967295
42.914101 14.882112 -14.370296 4294967295
42.919498 16.33061 -14.512299 4294967295
43.001041 17.127913 -14.925521 4294967295
43.011234 16.002502 -14.760199 4294967295
43.06443 14.395306 -14.376314 4294967295
43.09716 16.1667 -14.450007 4294967295
43.103584 15.040295 -14.298973 4294967295
43.150299 15.837189 -14.845045 4294967295
43.155952 14.711415 -14.697103 4294967295
43.15649 16.802404 -14.929702 4294967295
43.188797 16.642935 -14.78837 4294967295
43.190197 14.551543 -14.548322 4294967295
43.194157 15.677929 -14.659605 4294967295
43.194252 17.44742 -14.857818 4294967295
43.197025 14.390829 -14.504192 4294967295
43.227127 14.069779 -14.353149 4294967295
43.2356 15.196633 -14.447254 4294967295
43.242184 13.909204 -14.277609 4294967295
43.251411 16.484638 -14.531388 4294967295
43.264496 15.992603 -15.060649 4294967295
43.276051 16.314634 -15.052668 4294967295
43.318924 16.155506 -14.871185 4294967295
43.327682 17.120865 -14.946047 4294967295
43.330692 14.386385 -14.627794 4294967295
43.341408 15.030263 -14.659132 4294967295
43.420952 14.227939 -14.265512 4294967295
43.422836 15.988859 -15.089733 4294967295
43.429943 15.194068 -14.339592 4294967295
43.438015 14.70288 -14.88764 4294967295
43.439785 16.311106 -15.061251 4294967295
43.459702 17.115942 -15.075568 4294967295
43.469181 16.955555 -15.021438 4294967295
43.487774 15.347874 -14.770244 4294967295
43.492496 14.060936 -14.607906 4294967295
43.502525 15.509254 -14.732103 4294967295
43.512394 17.279146 -14.892951 4294967295
43.514442 14.866079 -14.614532 4294967295
43.516254 14.383398 -14.553478 4294967295
43.537895 16.475901 -14.705641 4294967295
