# .PCD v0.7 - Point Cloud Data file format
VERSION 0.7
FIELDS x y z rgb
SIZE 4 4 4 4
TYPE F F F U
COUNT 1 1 1 1
WIDTH 1120
HEIGHT 1
VIEWPOINT 0 0 0 1 0 0 0
POINTS 1120
DATA ascii
-20.24641 120.60296 -23.78796 4294967295
-20.236322 121.54812 -23.852243 4294967295
-20.220325 121.2545 -23.71216 4294967295
-20.214228 122.97371 -23.905993 4294967295
-20.203781 120.80565 -23.547667 4294967295
-20.201292 123.29959 -23.868771 4294967295
-20.195459 124.39574 -23.980131 4294967295
-20.191925 125.17792 -24.063532 4294967295
-20.186583 123.78321 -23.841707 4294967295
-20.154324 126.62191 -24.022366 4294967295
-20.149298 125.38246 -23.823492 4294967295
-20.137383 124.77331 -23.666439 4294967295
-20.102463 121.36539 -23.98983 4294967295
-20.086906 120.91561 -23.831625 4294967295
-20.057125 122.34973 -23.838428 4294967295
-20.047632 122.04894 -23.738333 4294967295
-20.016235 122.70686 -23.630276 4294967295
-19.984556 126.16829 -23.898642 4294967295
-19.977396 125.24236 -23.728846 4294967295
-19.974157 126.33598 -23.856073 4294967295
-19.964729 125.56831 -23.693415 4294967295
-19.962961 127.28303 -23.913626 4294967295
-19.959581 125.72995 -23.682953 4294967295
-19.956234 127.13518 -23.851513 4294967295
-19.950741 121.04686 -23.996918 4294967295
-19.950207 126.83078 -23.772673 4294967295
-19.944376 122.14333 -24.10491 4294967295
-19.936144 121.68558 -23.991674 4294967295
-19.917377 122.01772 -23.919001 4294967295
-19.917257 121.39516 -23.834305 4294967295
-19.910774 120.93522 -23.73171 4294967295
-19.90778 120.62708 -23.671425 4294967295
-19.897364 122.50703 -23.859699 4294967295
-19.895315 124.53281 -24.11998 4294967295
-19.88455 122.98842 -23.844412 4294967295
-19.882231 124.08073 -23.977146 4294967295
-19.879078 120.81435 -23.517035 4294967295
-19.872551 123.46896 -23.834085 4294967295
-19.869852 123.93906 -23.880577 4294967295
-19.859825 124.88449 -23.945261 4294967295
-19.855984 124.42183 -23.85885 4294967295
-19.850971 123.8047 -23.744284 4294967295
-19.848246 122.87337 -23.601675 4294967295
-19.830133 123.36095 -23.554045 4294967295
-19.751852 121.55866 -23.821127 4294967295
-19.74309 123.74784 -24.06131 4294967295
-19.731375 120.49108 -23.54932 4294967295
-19.723639 124.70372 -24.068527 4294967295
-19.716181 125.33478 -24.106934 4294967295
-19.715673 121.13137 -23.537485 4294967295
-19.71549 121.28735 -23.55735 4294967295
-19.712793 121.7576 -23.603855 4294967295
-19.700113 122.55044 -23.631433 4294967295
-19.685715 126.45926 -24.068014 4294967295
-19.668093 123.6766 -23.583055 4294967295
-19.643011 125.8856 -23.72389 4294967295
-19.635963 121.5118 -24.088732 4294967295
-19.634077 120.57994 -23.951502 4294967295
-19.632542 126.98775 -23.806925 4294967295
-19.630987 126.36663 -23.713556 4294967295
-19.617306 121.84373 -24.017023 4294967295
-19.616226 121.06656 -23.905649 4294967295
-19.615025 121.37924 -23.940252 4294967295
-19.61005 122.00742 -23.993795 4294967295
-19.601698 123.10632 -24.089615 4294967295
-19.598499 121.70885 -23.881527 4294967295
-19.582678 122.50486 -23.889984 4294967295
-19.578154 122.19849 -23.820509 4294967295
-19.577238 123.60072 -24.003572 4294967295
-19.576639 122.66728 -23.874178 4294967295
-19.574072 122.98154 -23.900463 4294967295
-19.551918 125.34165 -24.07996 4294967295
-19.550076 123.47552 -23.817251 4294967295
-19.540316 124.57646 -23.904564 4294967295
-19.539957 125.04394 -23.965254 4294967295
-19.536854 124.11326 -23.82062 4294967295
-19.532303 124.74125 -23.876755 4294967295
-19.517147 125.53702 -23.889318 4294967295
-19.49765 126.02646 -23.833563 4294967295
-19.497328 123.84629 -23.538082 4294967295
-19.45639 122.62491 -24.114931 4294967295
-19.448648 126.86156 -23.640242 4294967295
-19.42901 123.90073 -24.116011 4294967295
-19.411852 124.07571 -24.032669 4294967295
-19.399092 123.77869 -23.913233 4294967295
-19.353985 123.05045 -23.534292 4294967295
-19.275278 121.56033 -23.839064 4294967295
-19.274906 120.6263 -23.711182 4294967295
-19.264181 124.06376 -24.1066 4294967295
-19.263081 122.04095 -23.827822 4294967295
-19.258556 122.66885 -23.884104 4294967295
-19.25194 121.43024 -23.676435 4294967295
-19.249681 122.99015 -23.872101 4294967295
-19.244709 123.77427 -23.946581 4294967295
-19.242653 123.30943 -23.871305 4294967295
-19.24165 124.86754 -24.074511 4294967295
-19.239355 122.37868 -23.725683 4294967295
-19.221048 122.24318 -23.593605 4294967295
-19.216047 126.14208 -24.086607 4294967295
-19.214571 124.2753 -23.826504 4294967295
-19.212576 125.36759 -23.960915 4294967295
-19.206116 124.75204 -23.837996 4294967295
-19.197325 126.78629 -24.056753 4294967295
-19.195551 127.0997 -24.087845 4294967295
-19.19035 125.86006 -23.888884 4294967295
-19.177212 123.69417 -23.516041 4294967295
-19.162748 125.11267 -23.616776 4294967295
-19.145807 121.06149 -23.960577 4294967295
-19.142765 126.53753 -23.68401 4294967295
-19.140345 127.31916 -23.774002 4294967295
-19.13336 127.01568 -23.689779 4294967295
-19.105642 123.75269 -24.07272 4294967295
-19.086601 124.24113 -24.020094 4294967295
-19.04685 123.9743 -23.737431 4294967295
-19.028305 126.17576 -23.917973 4294967295
-19.018139 124.47392 -23.626266 4294967295
-18.991325 125.59485 -23.610342 4294967295
-18.97176 121.54579 -23.937315 4294967295
-18.963282 127.34075 -23.670692 4294967295
-18.960091 120.77985 -23.76215 4294967295
-18.946571 122.04066 -23.847605 4294967295
-18.941031 123.75974 -24.044018 4294967295
-18.939968 123.44952 -23.995794 4294967295
-18.932722 122.99041 -23.88924 4294967295
-18.929726 121.12453 -23.620173 4294967295
-18.92502 121.44126 -23.633526 4294967295
-18.92469 120.66259 -23.526936 4294967295
-18.924015 124.55733 -24.045589 4294967295
-18.918093 124.8754 -24.051573 4294967295
-18.915735 122.69775 -23.744648 4294967295
-18.913284 123.32352 -23.81345 4294967295
-18.910543 122.39193 -23.671406 4294967295
-18.905014 124.42299 -23.909765 4294967295
-18.895824 124.12181 -23.812372 4294967295
-18.895189 121.94144 -23.515745 4294967295
-18.890495 126.30804 -24.072769 4294967295
-18.888905 122.26001 -23.519543 4294967295
-18.872787 127.10685 -24.070198 4294967295
-18.871443 125.55111 -23.85306 4294967295
-18.867352 122.59548 -23.430971 4294967295
-18.86614 124.77827 -23.716465 4294967295
-18.864046 126.494 -23.933764 4294967295
-18.863771 124.00195 -23.597565 4294967295
-18.861971 123.69232 -23.544844 4294967295
-18.854212 126.19375 -23.832491 4294967295
-18.839029 126.98993 -23.845224 4294967295
-18.831894 126.84235 -23.781183 4294967295
-18.830732 120.90395 -23.967638 4294967295
-18.80514 121.24333 -23.854759 4294967295
-18.787994 122.97527 -23.980984 4294967295
-18.748409 121.77277 -23.57465 4294967295
-18.733555 125.52791 -23.986408 4294967295
-18.726357 123.66685 -23.692232 4294967295
-18.713074 123.52584 -23.591105 4294967295
-18.712303 124.92891 -23.774532 4294967295
-18.657009 126.23799 -23.607862 4294967295
-18.632946 122.50441 -23.947647 4294967295
-18.609707 121.75111 -23.703045 4294967295
-18.604218 122.84764 -23.816114 4294967295
-18.602043 122.07111 -23.698587 4294967295
-18.597898 124.25647 -23.965918 4294967295
-18.593321 120.83403 -23.478836 4294967295
-18.593222 123.32714 -23.812447 4294967295
-18.591946 124.10738 -23.90914 4294967295
-18.588196 123.02115 -23.74037 4294967295
-18.575384 124.90473 -23.913671 4294967295
-18.56942 121.48349 -23.418203 4294967295
-18.564507 122.26817 -23.493034 4294967295
-18.55714 125.08104 -23.824558 4294967295
-18.549587 126.17996 -23.925165 4294967295
-18.546162 123.69107 -23.570402 4294967295
-18.544188 122.75814 -23.433144 4294967295
-18.5257 127.14181 -23.906456 4294967295
-18.518822 127.30547 -23.88588 4294967295
-18.517986 124.65763 -23.525846 4294967295
-18.513552 124.50674 -23.478214 4294967295
-18.508572 126.84985 -23.761477 4294967295
-18.507248 126.38394 -23.690857 4294967295
-18.502062 120.91685 -23.913902 4294967295
-18.486221 126.71958 -23.605894 4294967295
-18.481771 121.25043 -23.833389 4294967295
-18.473799 126.57791 -23.510147 4294967295
-18.436155 121.7676 -23.62122 4294967295
-18.420206 121.94089 -23.546022 4294967295
-18.403303 123.05038 -23.590363 4294967295
-18.39995 123.67744 -23.653662 4294967295
-18.397703 125.86108 -23.932276 4294967295
-18.39064 125.40174 -23.827179 4294967295
-18.372389 123.5522 -23.466839 4294967295
-18.369816 124.17853 -23.534847 4294967295
-18.362286 125.12206 -23.614769 4294967295
-18.348442 125.2935 -23.552319 4294967295
-18.291803 122.21958 -23.77792 4294967295
-18.285154 121.44776 -23.63364 4294967295
-18.275629 121.14642 -23.534624 4294967295
-18.274025 121.77157 -23.608427 4294967295
-18.270565 120.84018 -23.462431 4294967295
-18.269434 122.08826 -23.622543 4294967295
-18.266375 123.96139 -23.854427 4294967295
-18.25745 123.19226 -23.696499 4294967295
-18.255674 123.81749 -23.769251 4294967295
-18.255072 122.4157 -23.57789 4294967295
-18.246609 124.76241 -23.839882 4294967295
-18.241632 125.07957 -23.851679 4294967295
-18.236942 123.37078 -23.594063 4294967295
-18.232176 125.4018 -23.83654 4294967295
-18.231796 122.75301 -23.479668 4294967295
-18.224566 122.91685 -23.457054 4294967295
-18.222286 126.19193 -23.881372 4294967295
-18.219578 126.81813 -23.948488 4294967295
-18.218254 126.50808 -23.898849 4294967295
-18.217136 123.70445 -23.516718 4294967295
-18.216135 124.32901 -23.594143 4294967295
-18.211809 124.17798 -23.547272 4294967295
-18.197792 126.99877 -23.838463 4294967295
-18.195894 125.28681 -23.597654 4294967295
-18.181402 124.99136 -23.46883 4294967295
-18.170855 125.62676 -23.488897 4294967295
-18.156776 126.73386 -23.550339 4294967295
-18.153559 121.2627 -23.78343 4294967295
-18.150015 121.11074 -23.741304 4294967295
-18.147812 120.64565 -23.665529 4294967295
-18.14324 121.58554 -23.763144 4294967295
-18.134001 123.62092 -23.978594 4294967295
-18.127384 122.69353 -23.813847 4294967295
-18.107014 123.49502 -23.795759 4294967295
-18.098713 124.43905 -23.87097 4294967295
-18.083 120.87153 -23.297112 4294967295
-18.072729 126.80501 -24.027594 4294967295
-18.055361 125.73414 -23.77755 4294967295
-18.048523 127.29993 -23.944893 4294967295
-17.979591 127.06693 -23.489769 4294967295
-17.965075 121.91861 -23.695858 4294967295
-17.950329 121.15531 -23.503271 4294967295
-17.947721 123.80756 -23.841799 4294967295
-17.945686 122.71902 -23.683794 4294967295
-17.943981 124.27913 -23.881853 4294967295
-17.937647 123.35123 -23.718927 4294967295
-17.935858 122.57394 -23.604042 4294967295
-17.930553 120.55301 -23.30131 4294967295
-17.928106 124.14096 -23.765905 4294967295
-17.920958 120.71928 -23.264603 4294967295
-17.92074 122.43462 -23.492586 4294967295
-17.920216 124.77306 -23.801929 4294967295
-17.907631 124.00785 -23.622366 4294967295
-17.897324 123.70751 -23.518925 4294967295
-17.896856 125.57838 -23.766113 4294967295
-17.895391 123.08604 -23.423996 4294967295
-17.89414 124.64632 -23.624865 4294967295
-17.891325 126.0521 -23.79546 4294967295
-17.88538 126.5263 -23.822327 4294967295
-17.881945 126.99766 -23.864223 4294967295
-17.874247 125.13618 -23.568163 4294967295
-17.873466 124.51347 -23.480154 4294967295
-17.87208 127.32053 -23.846792 4294967295
-17.870287 125.91999 -23.648615 4294967295
-17.853867 125.78262 -23.529408 4294967295
-17.848902 125.32048 -23.437162 4294967295
-17.840559 120.94676 -23.783579 4294967295
-17.815577 126.91728 -23.445913 4294967295
-17.805485 122.54314 -23.781784 4294967295
-17.800535 121.3017 -23.5856 4294967295
-17.783737 121.94344 -23.568329 4294967295
-17.761536 123.37064 -23.622849 4294967295
-17.753923 121.81995 -23.36903 4294967295
-17.741451 121.52159 -23.25271 4294967295
-17.733593 127.29781 -23.976036 4294967295
-17.697329 126.71569 -23.675947 4294967295
-17.678152 120.79511 -23.748421 4294967295
-17.666599 125.97087 -23.388058 4294967295
-17.65313 123.00388 -23.890095 4294967295
-17.615871 123.51234 -23.729881 4294967295
-17.609552 124.45441 -23.816936 4294967295
-17.603455 123.37015 -23.63488 4294967295
-17.602835 122.43546 -23.506325 4294967295
-17.602816 123.68259 -23.672676 4294967295
-17.598816 122.12801 -23.440674 4294967295
-17.597149 124.0006 -23.680433 4294967295
-17.588762 121.20322 -23.255682 4294967295
-17.587034 125.10287 -23.765631 4294967295
-17.586948 122.92056 -23.473829 4294967295
-17.580107 122.77213 -23.412128 4294967295
-17.57859 127.13814 -23.985569 4294967295
-17.573526 124.18262 -23.560112 4294967295
-17.570984 124.80902 -23.628155 4294967295
-17.559818 125.44503 -23.644697 4294967295
-17.55661 124.35728 -23.479866 4294967295
-17.553064 123.89342 -23.396244 4294967295
-17.540625 125.3106 -23.509256 4294967295
-17.532654 126.09911 -23.565691 4294967295
-17.522844 125.79829 -23.465498 4294967295
-17.518475 126.58282 -23.543451 4294967295
-17.501383 126.75808 -23.462202 4294967295
-17.494728 120.66595 -23.587965 4294967295
-17.488207 121.14063 -23.611435 4294967295
-17.474354 121.31146 -23.549545 4294967295
-17.469547 122.71965 -23.708027 4294967295
-17.441618 121.65867 -23.395777 4294967295
-17.410343 126.05839 -23.791477 4294967295
-17.408279 121.85072 -23.217627 4294967295
-17.399708 125.75858 -23.686485 4294967295
-17.388676 126.70627 -23.745449 4294967295
-17.388069 126.3952 -23.700249 4294967295
-17.379728 123.75369 -23.296965 4294967295
-17.369465 125.16872 -23.42296 4294967295
-17.357738 127.05305 -23.602604 4294967295
-17.330166 121.91946 -23.727507 4294967295
-17.293442 123.05061 -23.654182 4294967295
-17.279293 123.6897 -23.653025 4294967295
-17.273767 121.66862 -23.349892 4294967295
-17.271614 124.32173 -23.690401 4294967295
-17.268261 126.03998 -23.898954 4294967295
-17.267696 122.14308 -23.376085 4294967295
-17.26745 121.51947 -23.291458 4294967295
-17.255882 121.06394 -23.160135 4294967295
-17.255377 123.40412 -23.469004 4294967295
-17.254528 122.31335 -23.318419 4294967295
-17.253521 124.65356 -23.624212 4294967295
-17.246986 122.94544 -23.356659 4294967295
-17.246271 125.44112 -23.68494 4294967295
-17.243191 123.57344 -23.417202 4294967295
-17.24136 122.48363 -23.260763 4294967295
-17.238012 124.047 -23.448719 4294967295
-17.236944 124.516 -23.504719 4294967295
-17.227739 124.99402 -23.512262 4294967295
-17.218668 125.62786 -23.541374 4294967295
-17.216587 125.31831 -23.487415 4294967295
-17.212828 127.19354 -23.714399 4294967295
-17.212641 126.88196 -23.671736 4294967295
-17.190521 120.65206 -23.682997 4294967295
-17.177502 121.91309 -23.771656 4294967295
-17.171282 121.45216 -23.672359 4294967295
-17.169891 127.08622 -23.438068 4294967295
-17.165583 126.46718 -23.329275 4294967295
-17.156633 120.84424 -23.502111 4294967295
-17.147808 122.41293 -23.657307 4294967295
-17.146921 121.01059 -23.465096 4294967295
-17.145657 123.03883 -23.727583 4294967295
-17.142439 123.50999 -23.770733 4294967295
-17.136124 123.98455 -23.795467 4294967295
-17.119043 122.6001 -23.506973 4294967295
-17.103863 124.9555 -23.728218 4294967295
-17.093515 125.90233 -23.791279 4294967295
-17.029222 126.75409 -23.512966 4294967295
-16.94343 121.52663 -23.269897 4294967295
-16.938656 125.74236 -23.802004 4294967295
-16.926125 123.41727 -23.41629 4294967295
-16.923342 122.79636 -23.316713 4294967295
-16.921806 123.88991 -23.452938 4294967295
-16.917288 124.83062 -23.550657 4294967295
-16.912868 125.14741 -23.565931 4294967295
-16.910297 126.08585 -23.675198 4294967295
-16.908873 124.52801 -23.459181 4294967295
-16.907486 125.30933 -23.554741 4294967295
-16.904242 124.06518 -23.369402 4294967295
-16.89933 126.87773 -23.713863 4294967295
-16.878651 126.58913 -23.549652 4294967295
-16.877253 127.21448 -23.624371 4294967295
-16.875349 124.72102 -23.280926 4294967295
-16.862724 125.98308 -23.372095 4294967295
-16.854637 121.45158 -23.693584 4294967295
-16.852665 122.23318 -23.785583 4294967295
-16.846947 122.70703 -23.813877 4294967295
-16.833019 123.03394 -23.772778 4294967295
-16.830584 121.00955 -23.488674 4294967295
-16.825766 122.10634 -23.60532 4294967295
-16.81996 123.35998 -23.736813 4294967295
-16.81237 121.34098 -23.422134 4294967295
-16.811359 123.99299 -23.768774 4294967295
-16.807594 122.43787 -23.539043 4294967295
-16.798187 121.66817 -23.379507 4294967295
-16.788679 122.61432 -23.44762 4294967295
-16.773314 124.97038 -23.667679 4294967295
-16.762508 127.00919 -23.873207 4294967295
-16.722643 126.74219 -23.595545 4294967295
-16.7024 125.67294 -23.330385 4294967295
-16.701899 125.36147 -23.285904 4294967295
-16.697273 120.98248 -23.647783 4294967295
-16.685858 120.52682 -23.517962 4294967295
-16.674871 122.09801 -23.660213 4294967295
-16.612036 122.94579 -23.391823 4294967295
-16.605492 122.48485 -23.290863 4294967295
-16.603472 125.91844 -23.735012 4294967295
-16.599169 124.67566 -23.543736 4294967295
-16.586796 124.06532 -23.387569 4294967295
-16.584188 126.09587 -23.64164 4294967295
-16.580559 125.788 -23.578714 4294967295
-16.573576 123.14359 -23.18487 4294967295
-16.572355 124.39318 -23.343569 4294967295
-16.571577 125.48604 -23.484106 4294967295
-16.570198 126.26744 -23.579597 4294967295
-16.570009 125.1758 -23.433359 4294967295
-16.548868 126.75922 -23.515596 4294967295
-16.547398 124.57666 -23.216595 4294967295
-16.53961 125.05338 -23.232725 4294967295
-16.527887 121.14989 -23.613855 4294967295
-16.52478 127.09825 -23.41457 4294967295
-16.523903 120.84223 -23.548857 4294967295
-16.506657 122.26427 -23.633337 4294967295
-16.506584 121.48457 -23.529324 4294967295
-16.500872 121.9586 -23.557705 4294967295
-16.493668 123.05804 -23.660131 4294967295
-16.489552 121.65879 -23.449324 4294967295
-16.481756 123.38287 -23.631147 4294967295
-16.481043 122.75981 -23.544071 4294967295
-16.472649 124.48441 -23.722315 4294967295
-16.460419 122.93813 -23.442871 4294967295
-16.440849 121.86706 -23.182077 4294967295
-16.436178 126.7078 -23.796785 4294967295
-16.435972 123.90073 -23.422697 4294967295
-16.424522 127.18864 -23.790066 4294967295
-16.421562 123.60442 -23.29608 4294967295
-16.416771 126.57358 -23.66144 4294967295
-16.411831 125.95522 -23.549398 4294967295
-16.365576 122.4013 -23.76685 4294967295
-16.338678 127.12908 -23.262339 4294967295
-16.325109 123.69261 -23.693607 4294967295
-16.321362 120.73281 -23.278027 4294967295
-16.310284 124.80042 -23.75102 4294967295
-16.299381 121.53643 -23.25182 4294967295
-16.296892 121.07092 -23.174967 4294967295
-16.268122 122.35026 -23.170862 4294967295
-16.264946 124.69428 -23.46282 4294967295
-16.256853 125.0152 -23.456482 4294967295
-16.254429 125.64188 -23.525005 4294967295
-16.250067 125.9587 -23.540686 4294967295
-16.2477 126.89722 -23.650936 4294967295
-16.231956 125.51074 -23.371727 4294967295
-16.230858 126.60408 -23.510204 4294967295
-16.228163 127.23107 -23.577122 4294967295
-16.21417 125.37435 -23.246096 4294967295
-16.199289 126.79536 -23.34473 4294967295
-16.195099 121.32232 -23.561296 4294967295
-16.190704 122.88663 -23.742292 4294967295
-16.174749 122.43596 -23.586191 4294967295
-16.173641 123.37293 -23.703793 4294967295
-16.168324 120.5707 -23.299936 4294967295
-16.164536 122.60294 -23.546684 4294967295
-16.157438 120.89433 -23.277168 4294967295
-16.142221 122.1589 -23.353071 4294967295
-16.13728 123.25638 -23.468832 4294967295
-16.136343 124.19337 -23.587467 4294967295
-16.116453 123.1229 -23.325403 4294967295
-16.099613 123.76537 -23.308971 4294967295
-16.096518 124.54895 -23.39422 4294967295
-16.094179 123.61521 -23.256252 4294967295
-16.093266 127.04852 -23.706123 4294967295
-16.057436 125.21609 -23.246794 4294967295
-16.054033 121.61548 -23.715397 4294967295
-16.043127 121.0032 -23.568491 4294967295
-16.018606 127.28815 -23.287212 4294967295
-16.01 121.81847 -23.476902 4294967295
-15.998437 124.17074 -23.719038 4294967295
-15.988334 124.49369 -23.700956 4294967295
-15.976965 121.38557 -23.220396 4294967295
-15.970666 124.98097 -23.659058 4294967295
-15.952451 123.59675 -23.365776 4294967295
-15.94794 123.13346 -23.277174 4294967295
-15.939133 122.83081 -23.183971 4294967295
-15.925685 125.96655 -23.518574 4294967295
-15.918656 124.10168 -23.229017 4294967295
-15.912261 125.35723 -23.356897 4294967295
-15.911867 125.66976 -23.395952 4294967295
-15.907701 126.45457 -23.474863 4294967295
-15.890838 126.78541 -23.417072 4294967295
-15.888958 125.85114 -23.281908 4294967295
-15.884833 127.1042 -23.42313 4294967295
-15.881789 120.69398 -23.520628 4294967295
-15.865518 120.8672 -23.445656 4294967295
-15.865147 126.65796 -23.245329 4294967295
-15.840055 121.98647 -23.440702 4294967295
-15.836303 121.21024 -23.315285 4294967295
-15.8274 122.46812 -23.428354 4294967295
-15.827271 124.80828 -23.737581 4294967295
-15.826479 122.9372 -23.484953 4294967295
-15.826403 121.84501 -23.339804 4294967295
-15.826299 122.62534 -23.442556 4294967295
-15.821342 121.38219 -23.24803 4294967295
-15.818344 124.1941 -23.602503 4294967295
-15.813274 123.57556 -23.490055 4294967295
-15.799935 122.34151 -23.2463 4294967295
-15.799427 123.43452 -23.388037 4294967295
-15.798834 121.56222 -23.136425 4294967295
-15.792441 125.15845 -23.574358 4294967295
-15.783462 123.13963 -23.252893 4294967295
-15.769501 124.40337 -23.336281 4294967295
-15.761985 124.72371 -23.333483 4294967295
-15.761823 122.85073 -23.084393 4294967295
-15.738507 124.59328 -23.174913 4294967295
-15.735124 125.37748 -23.258427 4294967295
-15.730966 125.06985 -23.192657 4294967295
-15.711635 126.49606 -23.265228 4294967295
-15.676123 123.70824 -23.646568 4294967295
-15.666344 121.06599 -23.238003 4294967295
-15.632659 125.62769 -23.639484 4294967295
-15.632291 122.03876 -23.162176 4294967295
-15.608607 127.21433 -23.704971 4294967295
-15.592797 127.07596 -23.591656 4294967295
-15.583214 125.05778 -23.266941 4294967295
-15.574719 126.78399 -23.444389 4294967295
-15.556649 126.1797 -23.255821 4294967295
-15.554491 126.33818 -23.263834 4294967295
-15.550186 125.8746 -23.176607 4294967295
-15.540661 121.18703 -23.461754 4294967295
-15.538905 122.12508 -23.575331 4294967295
-15.534717 126.98455 -23.230568 4294967295
-15.527512 121.357 -23.405354 4294967295
-15.517919 123.23969 -23.596878 4294967295
-15.51705 121.83628 -23.405998 4294967295
-15.514642 122.61909 -23.495121 4294967295
-15.512658 123.08932 -23.545427 4294967295
-15.505414 120.5999 -23.172606 4294967295
-15.504498 124.03426 -23.621479 4294967295
-15.503545 124.9713 -23.739712 4294967295
-15.491714 123.73605 -23.505323 4294967295
-15.485592 125.45894 -23.69651 4294967295
-15.485571 121.55755 -23.180258 4294967295
-15.479308 126.08984 -23.742262 4294967295
-15.47003 122.51077 -23.213133 4294967295
-15.468041 124.38592 -23.44927 4294967295
-15.461277 122.05174 -23.09989 4294967295
-15.450963 125.653 -23.514416 4294967295
-15.449661 125.18626 -23.44487 4294967295
-15.44813 124.71973 -23.373964 4294967295
-15.436703 125.35653 -23.389647 4294967295
-15.431087 125.98698 -23.439352 4294967295
-15.425645 124.58813 -23.221659 4294967295
-15.425214 126.46166 -23.4669 4294967295
-15.385942 126.81734 -23.278334 4294967295
-15.366479 122.29571 -23.524988 4294967295
-15.359487 127.31512 -23.185448 4294967295
-15.303794 126.42045 -23.694756 4294967295
-15.297343 123.15009 -23.223799 4294967295
-15.295598 126.74155 -23.688105 4294967295
-15.280006 127.07088 -23.638235 4294967295
-15.272616 124.42574 -23.244316 4294967295
-15.24618 125.70356 -23.254864 4294967295
-15.241263 120.85581 -23.544518 4294967295
-15.237181 126.18182 -23.264179 4294967295
-15.234732 127.27728 -23.394304 4294967295
-15.229697 121.18008 -23.518187 4294967295
-15.216755 122.28609 -23.586905 4294967295
-15.203229 126.68772 -23.127666 4294967295
-15.182434 124.66338 -23.695696 4294967295
-15.176414 121.08014 -23.186281 4294967295
-15.174581 122.1749 -23.319962 4294967295
-15.169045 122.02467 -23.267006 4294967295
-15.168159 121.40112 -23.179317 4294967295
-15.165551 121.87226 -23.225967 4294967295
-15.158298 124.22145 -23.492952 4294967295
-15.153202 125.00727 -23.56628 4294967295
-15.133999 127.05683 -23.722158 4294967295
-15.133824 123.46738 -23.246948 4294967295
-15.132848 125.34161 -23.488703 4294967295
-15.129484 124.40874 -23.345352 4294967295
-15.127594 124.87909 -23.396183 4294967295
-15.127522 122.69343 -23.106998 4294967295
-15.124104 123.63396 -23.210821 4294967295
-15.116139 125.98421 -23.473658 4294967295
-15.116075 126.29642 -23.514507 4294967295
-15.115769 123.17448 -23.100264 4294967295
-15.106785 126.77489 -23.522148 4294967295
-15.099232 125.69057 -23.333738 4294967295
-15.091716 125.54269 -23.269251 4294967295
-15.052567 121.66763 -23.481949 4294967295
-15.049022 120.57874 -23.316999 4294967295
-15.039928 120.74438 -23.284567 4294967295
-15.039059 121.36972 -23.361942 4294967295
-15.033589 122.62418 -23.494915 4294967295
-15.012139 123.89571 -23.534685 4294967295
-15.003226 123.28098 -23.400299 4294967295
-14.934631 125.22853 -23.247761 4294967295
-14.929599 124.45322 -23.115353 4294967295
-14.906155 126.35274 -23.226097 4294967295
-14.8931 121.51225 -23.46652 4294967295
-14.886443 121.05097 -23.365961 4294967295
-14.884957 120.74031 -23.316105 4294967295
-14.87932 122.30723 -23.489248 4294967295
-14.864763 120.91759 -23.219084 4294967295
-14.852622 122.8039 -23.395582 4294967295
-14.84808 124.68174 -23.616241 4294967295
-14.837934 122.97569 -23.330658 4294967295
-14.837916 123.44405 -23.392351 4294967295
-14.836786 120.63455 -23.01491 4294967295
-14.833977 124.38486 -23.492983 4294967295
-14.833531 124.22926 -23.469799 4294967295
-14.825647 121.89571 -23.114904 4294967295
-14.821558 121.27529 -23.008654 4294967295
-14.820439 121.74504 -23.063963 4294967295
-14.817247 123.62234 -23.292625 4294967295
-14.815751 122.21854 -23.098488 4294967295
-14.810259 125.97147 -23.560867 4294967295
-14.804411 125.19741 -23.423876 4294967295
-14.802342 121.45172 -22.917347 4294967295
-14.796277 123.33251 -23.129339 4294967295
-14.793077 125.83419 -23.4403 4294967295
-14.791737 127.24043 -23.617807 4294967295
-14.78796 122.56043 -22.977882 4294967295
-14.785425 125.3742 -23.33399 4294967295
-14.774066 124.13726 -23.103071 4294967295
-14.772354 124.60764 -23.154919 4294967295
-14.771717 125.54528 -23.27482 4294967295
-14.760246 126.49468 -23.331661 4294967295
-14.738891 126.8305 -23.248619 4294967295
-14.720723 121.83873 -23.437864 4294967295
-14.67707 123.75845 -23.431076 4294967295
-14.666319 122.9893 -23.265657 4294967295
-14.65006 120.81979 -22.882782 4294967295
-14.618437 122.7279 -22.94611 4294967295
-14.58709 127.2912 -23.361088 4294967295
-14.571433 121.67257 -23.481789 4294967295
-14.569588 121.51841 -23.450504 4294967295
-14.563939 126.69207 -23.144268 4294967295
-14.56283 120.90102 -23.328976 4294967295
-14.560767 120.5909 -23.275841 4294967295
-14.547977 122.16563 -23.407322 4294967295
-14.528358 122.96705 -23.396294 4294967295
-14.52793 121.24986 -23.167473 4294967295
-14.527425 123.90471 -23.514286 4294967295
-14.527269 124.52924 -23.595644 4294967295
-14.523523 123.59668 -23.450508 4294967295
-14.509911 122.67438 -23.248058 4294967295
-14.505603 121.11705 -23.017241 4294967295
-14.499093 123.15437 -23.246998 4294967295
-14.498314 125.80931 -23.592159 4294967295
-14.495583 121.90862 -23.061979 4294967295
-14.491666 124.72378 -23.409622 4294967295
-14.48807 125.19604 -23.450462 4294967295
-14.481638 122.39198 -23.04277 4294967295
-14.480493 125.36039 -23.427073 4294967295
-14.47945 123.80003 -23.215296 4294967295
-14.469299 126.77764 -23.547239 4294967295
-14.45677 124.44912 -23.165985 4294967295
-14.445154 126.49191 -23.36606 4294967295
-14.444468 126.18036 -23.32094 4294967295
-14.437489 127.28104 -23.424448 4294967295
-14.434852 126.03471 -23.244581 4294967295
-14.431857 126.97497 -23.350647 4294967295
-14.429045 124.94766 -23.066847 4294967295
-14.373522 122.33825 -23.346573 4294967295
-14.364261 122.81649 -23.354572 4294967295
-14.355864 123.44999 -23.388144 4294967295
-14.347759 125.80036 -23.649496 4294967295
-14.33751 121.75149 -23.055548 4294967295
-14.325493 120.9829 -22.883001 4294967295
-14.317315 124.11586 -23.247007 4294967295
-14.308249 123.34459 -23.091642 4294967295
-14.298985 122.26077 -22.893936 4294967295
-14.278742 126.65638 -23.352524 4294967295
-14.269605 125.26067 -23.114538 4294967295
-14.249805 120.73991 -23.353796 4294967295
-14.249458 127.15707 -23.244619 4294967295
-14.226914 123.26201 -23.550018 4294967295
-14.224608 127.34065 -23.121286 4294967295
-14.209916 122.34323 -23.328377 4294967295
-14.207508 121.87727 -23.252785 4294967295
-14.19816 120.63744 -23.034222 4294967295
-14.195312 123.60793 -23.408234 4294967295
-14.17859 124.5627 -23.434759 4294967295
-14.178472 121.12664 -22.981913 4294967295
-14.175147 122.69234 -23.168245 4294967295
-14.174115 122.53722 -23.14172 4294967295
-14.163376 121.61116 -22.956209 4294967295
-14.161807 123.17509 -23.15271 4294967295
-14.14647 123.50384 -23.105068 4294967295
-14.143053 125.06949 -23.290823 4294967295
-14.142013 123.97724 -23.14094 4294967295
-14.135145 126.48355 -23.429998 4294967295
-14.135039 126.0152 -23.367754 4294967295
-14.104472 125.42362 -23.108761 4294967295
-14.10126 126.98917 -23.295691 4294967295
-14.100787 126.36491 -23.210758 4294967295
-14.095145 126.83969 -23.239782 4294967295
-14.091963 121.05109 -23.409903 4294967295
-14.087142 125.91113 -23.070187 4294967295
-14.048465 122.97057 -23.404913 4294967295
-14.029926 124.23949 -23.462069 4294967295
-14.02193 125.80936 -23.621159 4294967295
-14.015674 121.28685 -22.989449 4294967295
-14.007031 124.73252 -23.391407 4294967295
-13.995565 123.8077 -23.201954 4294967295
-13.983822 125.53841 -23.360022 4294967295
-13.972649 127.11216 -23.500813 4294967295
-13.960947 124.62586 -23.104668 4294967295
-13.952111 124.4791 -23.033083 4294967295
-13.945201 127.29847 -23.362881 4294967295
-13.909393 121.85658 -23.384855 4294967295
-13.900811 120.61604 -23.171103 4294967295
-13.881088 122.51102 -23.303612 4294967295
-13.879768 122.98095 -23.357569 4294967295
-13.869743 124.24091 -23.463898 4294967295
-13.864087 123.77846 -23.369713 4294967295
-13.859187 124.09603 -23.38249 4294967295
-13.852179 122.38525 -23.116262 4294967295
-13.847629 120.98371 -22.905184 4294967295
-13.842767 125.36298 -23.451942 4294967295
-13.836613 122.71413 -23.067507 4294967295
-13.836257 124.90149 -23.352837 4294967295
-13.835249 121.30917 -22.874807 4294967295
-13.834194 122.09165 -22.971411 4294967295
-13.832439 123.65595 -23.166615 4294967295
-13.829329 124.75275 -23.292353 4294967295
-13.827077 123.50542 -23.115145 4294967295
-13.807765 122.90085 -22.921591 4294967295
-13.806146 125.24632 -23.220224 4294967295
-13.802135 123.37565 -22.95072 4294967295
-13.791863 126.35526 -23.281542 4294967295
-13.783156 125.73984 -23.149235 4294967295
-13.773541 126.21898 -23.155376 4294967295
-13.770261 126.69125 -23.19804 4294967295
-13.737602 127.03944 -23.050817 4294967295
-13.727713 122.1928 -23.303761 4294967295
-13.723844 121.10336 -23.137848 4294967295
-13.715972 123.29848 -23.379698 4294967295
-13.701689 120.65757 -22.948587 4294967295
-13.694664 121.44621 -23.010725 4294967295
-13.683429 123.95782 -23.274286 4294967295
-13.675579 125.0596 -23.37265 4294967295
-13.650213 121.64886 -22.775085 4294967295
-13.650088 125.39945 -23.266886 4294967295
-13.649067 122.58792 -22.891653 4294967295
-13.64787 124.3082 -23.110506 4294967295
-13.642303 122.43873 -22.832151 4294967295
-13.596821 125.30059 -22.939634 4294967295
-13.565439 123.28961 -23.437222 4294967295
-13.564695 121.41598 -23.186937 4294967295
-13.564451 126.89867 -22.958496 4294967295
-13.55438 121.89542 -23.1891 4294967295
-13.550249 121.7435 -23.144821 4294967295
-13.545896 124.55975 -23.488773 4294967295
-13.545206 123.15481 -23.300341 4294967295
-13.529418 120.98382 -22.922398 4294967295
-13.529319 124.73367 -23.413942 4294967295
-13.521723 122.55462 -23.083231 4294967295
-13.521148 123.80515 -23.243961 4294967295
-13.515754 125.52916 -23.438421 4294967295
-13.513788 121.31264 -22.873482 4294967295
-13.507723 121.63156 -22.879612 4294967295
-13.494864 122.27023 -22.887682 4294967295
-13.478398 124.00685 -23.018599 4294967295
-13.478314 126.97547 -23.407648 4294967295
-13.471171 122.92038 -22.833437 4294967295
-13.466847 125.42564 -23.136734 4294967295
-13.464793 126.36533 -23.247936 4294967295
-13.464634 125.11549 -23.082998 4294967295
-13.460189 126.68279 -23.26247 4294967295
-13.459237 124.33984 -22.949421 4294967295
-13.457231 127.31092 -23.327459 4294967295
-13.456924 120.5819 -23.387829 4294967295
-13.451227 125.755 -23.087936 4294967295
-13.396883 122.51877 -23.288708 4294967295
-13.370603 121.13985 -22.953264 4294967295
-13.370562 123.17136 -23.219477 4294967295
-13.349858 124.59943 -23.284985 4294967295
-13.345344 125.85397 -23.422943 4294967295
-13.342492 124.29481 -23.201708 4294967295
-13.319246 126.03837 -23.293621 4294967295
-13.313452 123.54424 -22.932459 4294967295
-13.3126 123.70145 -22.948063 4294967295
-13.310187 126.82932 -23.344051 4294967295
-13.290963 127.31897 -23.295176 4294967295
-13.270033 121.07934 -23.297863 4294967295
-13.252419 127.04849 -23.032991 4294967295
-13.231711 123.77499 -23.426117 4294967295
-13.231707 123.93119 -23.446558 4294967295
-13.226646 121.90557 -23.151352 4294967295
-13.22015 123.16234 -23.27792 4294967295
-13.215446 120.8232 -22.943689 4294967295
-13.210035 121.29771 -22.97411 4294967295
-13.208892 123.64292 -23.274784 4294967295
-13.208843 124.26788 -23.356405 4294967295
-13.203551 121.61703 -22.977884 4294967295
-13.203456 122.55486 -23.100254 4294967295
-13.197539 122.40478 -23.045828 4294967295
-13.196171 125.21868 -23.406588 4294967295
-13.195292 125.37583 -23.422016 4294967295
-13.192632 126.31586 -23.529581 4294967295
-13.185596 121.79201 -22.895372 4294967295
-13.182834 124.92052 -23.289177 4294967295
-13.176085 126.02135 -23.393805 4294967295
-13.169867 126.65292 -23.440046 4294967295
-13.163733 125.56596 -23.261589 4294967295
-13.157779 124.63476 -23.104576 4294967295
-13.152184 124.17183 -23.011051 4294967295
-13.141795 123.55755 -22.869526 4294967295
-13.139038 125.74879 -23.140507 4294967295
-13.133183 127.16148 -23.291241 4294967295
-13.12158 120.75602 -23.326275 4294967295
-13.10693 126.2523 -23.01791 4294967295
-13.078306 120.95687 -23.09881 4294967295
-13.077497 123.14517 -23.380707 4294967295
-13.045716 123.95985 -23.301035 4294967295
-13.037106 123.34393 -23.169868 4294967295
-13.017623 124.45842 -23.201588 4294967295
-13.017345 125.7087 -23.363705 4294967295
-13.01129 121.18237 -22.73534 4294967295
-12.982181 123.08906 -22.814386 4294967295
-12.978648 126.84419 -23.285471 4294967295
-12.955667 124.99334 -22.908318 4294967295
-12.915881 120.80404 -23.068018 4294967295
-12.888713 122.08251 -23.076296 4294967295
-12.881054 124.4346 -23.339323 4294967295
-12.879754 125.06092 -23.413683 4294967295
-12.877799 123.65678 -23.218451 4294967295
-12.877711 121.15599 -22.890589 4294967295
-12.874801 122.40961 -23.037651 4294967295
-12.874597 122.56613 -23.05694 4294967295
-12.872146 121.31808 -22.879215 4294967295
-12.871081 124.28893 -23.261862 4294967295
-12.866797 124.76225 -23.298727 4294967295
-12.864481 122.26405 -22.958168 4294967295
-12.863873 125.85905 -23.425148 4294967295
-12.862213 126.32951 -23.476995 4294967295
-12.847563 123.53234 -23.025116 4294967295
-12.831885 124.95573 -23.119619 4294967295
-12.828369 125.58466 -23.181341 4294967295
-12.824089 127.30818 -23.381836 4294967295
-12.816215 124.65977 -22.989122 4294967295
-12.81464 125.75567 -23.123331 4294967295
-12.813137 126.69502 -23.237463 4294967295
-12.790391 121.39452 -23.350567 4294967295
-12.779252 121.87476 -23.348265 4294967295
-12.771131 120.9456 -23.179228 4294967295
-12.764127 120.79651 -23.118773 4294967295
-12.759944 122.67606 -23.340197 4294967295
-12.759453 123.14528 -23.398705 4294967295
-12.754408 121.58797 -23.165487 4294967295
-12.743314 121.28683 -23.06123 4294967295
-12.724632 123.96314 -23.302099 4294967295
-12.672622 123.54903 -22.943834 4294967295
-12.665995 123.08691 -22.844643 4294967295
-12.659078 126.22086 -23.214111 4294967295
-12.640928 124.677 -22.906073 4294967295
-12.637626 124.99323 -22.928125 4294967295
-12.633413 126.4048 -23.088118 4294967295
-12.601626 127.22083 -23.008991 4294967295
-12.599497 122.5213 -23.320766 4294967295
-12.584748 126.92639 -22.871799 4294967295
-12.572619 127.09591 -22.823053 4294967295
-12.560762 123.03056 -23.161203 4294967295
-12.551275 123.3531 -23.147982 4294967295
-12.548326 120.5419 -22.763247 4294967295
-12.534781 123.21406 -23.033512 4294967295
-12.532347 123.99823 -23.121809 4294967295
-12.531608 125.24939 -23.281036 4294967295
-12.531396 125.40589 -23.300255 4294967295
-12.530321 123.84405 -23.089828 4294967295
-12.528096 124.31535 -23.138449 4294967295
-12.522902 121.81917 -22.781807 4294967295
-12.51652 122.76408 -22.868078 4294967295
-12.508106 123.55473 -22.922319 4294967295
-12.500276 126.84579 -23.306778 4294967295
-12.498772 124.81538 -23.032614 4294967295
-12.494742 122.94319 -22.764359 4294967295
-12.488442 126.70228 -23.218935 4294967295
-12.483118 125.61375 -23.045582 4294967295
-12.482995 125.14484 -22.983572 4294967295
-12.468575 125.94201 -23.003586 4294967295
-12.466749 124.2238 -22.768333 4294967295
-12.45819 126.42222 -23.005718 4294967295
-12.457371 127.04848 -23.082787 4294967295
-12.447431 121.10759 -23.185816 4294967295
-12.42457 121.60003 -23.116894 4294967295
-12.417874 121.91957 -23.119612 4294967295
-12.401933 122.24873 -23.069685 4294967295
-12.401825 122.7178 -23.130339 4294967295
-12.391846 121.32104 -22.889683 4294967295
-12.381804 122.11324 -22.934645 4294967295
-12.364981 125.25749 -23.247332 4294967295
-12.358047 122.45062 -22.840239 4294967295
-12.325974 124.36081 -22.902821 4294967295
-12.307307 121.40069 -23.343412 4294967295
-12.291139 120.79211 -23.16984 4294967295
-12.211071 123.53252 -23.061594 4294967295
-12.209243 121.03227 -22.724518 4294967295
-12.208413 124.31699 -23.148533 4294967295
-12.196011 122.4536 -22.833073 4294967295
-12.191141 124.02249 -23.009552 4294967295
-12.190361 125.58671 -23.209209 4294967295
-12.188462 122.77424 -22.831001 4294967295
-12.183761 123.87387 -22.947195 4294967295
-12.175794 125.75857 -23.146852 4294967295
-12.167534 123.42168 -22.793715 4294967295
-12.162988 127.0229 -23.237356 4294967295
-12.155847 126.09257 -23.074348 4294967295
-12.152548 126.87783 -23.15765 4294967295
-12.145904 120.77795 -23.257511 4294967295
-12.143288 125.01129 -22.860104 4294967295
-12.135267 125.9582 -22.937025 4294967295
-12.134367 124.86433 -22.788994 4294967295
-12.123504 126.59635 -22.951857 4294967295
-12.114215 121.12298 -23.118359 4294967295
-12.090653 122.86684 -23.20896 4294967295
-12.087833 120.68085 -22.907343 4294967295
-12.084399 121.77896 -23.030668 4294967295
-12.078426 121.31599 -22.935547 4294967295
-12.072282 122.26054 -23.023077 4294967295
-12.065756 123.04908 -23.088034 4294967295
-12.05833 124.77647 -23.270239 4294967295
-12.05327 125.71964 -23.363873 4294967295
-12.043853 122.13353 -22.841282 4294967295
-12.033257 123.86482 -23.005587 4294967295
-12.011527 126.38947 -23.208647 4294967295
-12.010483 125.13979 -23.039555 4294967295
-11.966589 125.65558 -22.851732 4294967295
-11.953327 121.90642 -23.219265 4294967295
-11.947325 121.4436 -23.124084 4294967295
-11.926052 123.81048 -23.309248 4294967295
-11.907841 121.64047 -22.920618 4294967295
-11.881133 122.9192 -22.932364 4294967295
-11.874898 126.05286 -23.304735 4294967295
-11.874429 123.55174 -22.975933 4294967295
-11.866699 124.02898 -22.993299 4294967295
-11.863122 124.50188 -23.034197 4294967295
-11.863086 125.4401 -23.156303 4294967295
-11.862742 127.16005 -23.378529 4294967295
-11.862587 125.59698 -23.173859 4294967295
-11.861923 126.53569 -23.292379 4294967295
-11.855844 123.41473 -22.850218 4294967295
-11.851396 124.827 -23.008533 4294967295
-11.848937 123.10906 -22.770277 4294967295
-11.842203 124.68031 -22.93606 4294967295
-11.839599 126.87229 -23.206705 4294967295
-11.834407 125.93968 -23.055002 4294967295
-11.833337 120.6159 -23.28685 4294967295
-11.815413 127.05464 -23.090122 4294967295
-11.807394 121.26761 -23.221451 4294967295
-11.802155 121.89826 -23.273272 4294967295
-11.800746 126.28838 -22.905119 4294967295
-11.798648 121.12021 -23.151562 4294967295
-11.767955 120.83876 -22.937029 4294967295
-11.76774 123.18441 -23.241447 4294967295
-11.755629 121.00772 -22.887619 4294967295
-11.751295 122.73243 -23.087257 4294967295
-11.748274 123.83003 -23.21277 4294967295
-11.743544 121.80211 -22.921116 4294967295
-11.739363 121.49358 -22.856682 4294967295
-11.708432 122.62037 -22.824282 4294967295
-11.702321 126.69261 -23.319447 4294967295
-11.696729 127.01125 -23.328556 4294967295
-11.683508 124.52341 -22.927824 4294967295
-11.660465 125.64264 -22.940121 4294967295
-11.647472 125.49999 -22.846245 4294967295
-11.608852 121.77699 -23.06871 4294967295
-11.594604 122.26077 -23.049267 4294967295
-11.556817 122.14322 -22.815327 4294967295
-11.535686 124.9807 -23.062548 4294967295
-11.528953 126.39522 -23.207754 4294967295
-11.526271 123.89568 -22.866791 4294967295
-11.516202 126.09605 -23.095032 4294967295
-11.506459 126.73198 -23.121452 4294967295
-11.503779 124.07561 -22.760086 4294967295
-11.500619 125.17409 -22.884827 4294967295
-11.491463 125.96593 -22.934948 4294967295
-11.491155 127.21754 -23.096117 4294967295
-11.484288 126.28642 -22.935162 4294967295
-11.482043 125.35014 -22.80027 4294967295
-11.472853 124.89042 -22.687239 4294967295
-11.472234 125.67345 -22.785608 4294967295
-11.47167 121.12904 -23.120497 4294967295
-11.46702 120.82101 -23.053539 4294967295
-11.44951 120.68237 -22.934332 4294967295
-11.434403 122.73097 -23.113674 4294967295
-11.434171 123.04396 -23.153059 4294967295
-11.427902 122.4249 -23.036282 4294967295
-11.425592 121.80164 -22.941826 4294967295
-11.421036 121.96272 -22.93646 4294967295
-11.415983 122.28075 -22.94866 4294967295
-11.407512 121.35079 -22.778687 4294967295
-11.396955 124.64648 -23.146582 4294967295
-11.394531 122.92855 -22.909029 4294967295
-11.394328 124.33646 -23.091066 4294967295
-11.38402 122.62652 -22.808992 4294967295
-11.373022 123.42015 -22.848734 4294967295
-11.370741 125.6124 -23.120819 4294967295
-11.365479 125.46156 -23.070795 4294967295
-11.320827 121.27692 -23.196777 4294967295
-11.318734 121.59177 -23.225657 4294967295
-11.290243 121.93362 -23.105759 4294967295
-11.227235 121.05918 -22.628534 4294967295
-11.198166 125.15733 -22.993816 4294967295
-11.1906 123.91363 -22.788439 4294967295
-11.182389 124.70455 -22.843924 4294967295
-11.181733 125.48751 -22.941954 4294967295
-11.177891 126.743 -23.08304 4294967295
-11.173904 126.12154 -22.979235 4294967295
-11.16076 125.66611 -22.844183 4294967295
-11.160073 121.27853 -23.196852 4294967295
-11.158129 120.81136 -23.124928 4294967295
-11.149801 126.46004 -22.884201 4294967295
-11.119383 120.69413 -22.886496 4294967295
-11.112396 127.28234 -22.775337 4294967295
-11.110557 123.67496 -23.223091 4294967295
-11.105069 121.02152 -22.846601 4294967295
-11.095634 122.75199 -23.017176 4294967295
-11.093451 122.91066 -23.02523 4294967295
-11.091126 124.32069 -23.195093 4294967295
-11.086278 122.60518 -22.944201 4294967295
-11.085643 124.01362 -23.123596 4294967295
-11.082901 121.98284 -22.843861 4294967295
-11.070854 122.46457 -22.837084 4294967295
-11.069279 125.28189 -23.194153 4294967295
-11.06798 123.24982 -22.922579 4294967295
-11.067949 121.84164 -22.73938 4294967295
-11.054894 124.82777 -23.052284 4294967295
-11.035583 123.59628 -22.780989 4294967295
-11.030143 125.63593 -23.014729 4294967295
-11.026032 126.42242 -23.093252 4294967295
-11.019907 123.14297 -22.631781 4294967295
-11.002261 124.2569 -22.674904 4294967295
-10.988042 126.7757 -22.920321 4294967295
-10.971912 127.26231 -22.890646 4294967295
-10.959322 122.25925 -23.094137 4294967295
-10.948922 122.11346 -23.015385 4294967295
-10.939361 121.49742 -22.880367 4294967295
-10.918999 121.67461 -22.786264 4294967295
-10.904537 120.90674 -22.603334 4294967295
-10.86235 122.67157 -22.58993 4294967295
-10.86045 125.02114 -22.884165 4294967295
-10.859501 125.96091 -23.000753 4294967295
-10.857633 124.08514 -22.746397 4294967295
-10.857512 123.77225 -22.705059 4294967295
-10.857296 125.65032 -22.947739 4294967295
-10.854155 126.59235 -23.052004 4294967295
-10.851243 124.5613 -22.771486 4294967295
-10.84568 123.15834 -22.557274 4294967295
-10.836307 127.08067 -23.01276 4294967295
-10.830049 126.30499 -22.876034 4294967295
-10.825062 124.43208 -22.604115 4294967295
-10.822932 126.93845 -22.917368 4294967295
-10.81764 121.61572 -23.120436 4294967295
-10.813311 127.26167 -22.903996 4294967295
-10.81168 126.16793 -22.752583 4294967295
-10.809258 120.84207 -22.971861 4294967295
-10.803679 120.53479 -22.89992 4294967295
-10.78642 123.05536 -23.128006 4294967295
-10.780766 123.53043 -23.157194 4294967295
-10.772311 121.03585 -22.784819 4294967295
-10.768924 121.50875 -22.826752 4294967295
-10.76078 124.02036 -23.106005 4294967295
-10.760698 121.83008 -22.821224 4294967295
-10.760056 122.92603 -22.959803 4294967295
-10.759977 121.9873 -22.837492 4294967295
-10.744311 123.881 -22.993332 4294967295
-10.740633 125.60557 -23.196041 4294967295
-10.739646 122.47753 -22.784359 4294967295
-10.739549 122.63412 -22.804127 4294967295
-10.73099 124.98999 -23.060766 4294967295
-10.723003 124.84189 -22.99567 4294967295
-10.718831 124.68979 -22.951965 4294967295
-10.715395 123.28496 -22.749886 4294967295
-10.71361 122.34763 -22.617962 4294967295
-10.704077 126.89555 -23.153502 4294967295
-10.652345 125.38535 -22.660391 4294967295
-10.625428 126.03987 -22.590744 4294967295
-10.617033 126.36186 -22.584318 4294967295
-10.615709 122.28493 -22.971382 4294967295
-10.587571 124.34776 -23.077606 4294967295
-10.567677 121.70779 -22.621054 4294967295
-10.562599 121.0867 -22.511351 4294967295
-10.51559 125.51825 -22.81662 4294967295
-10.510314 125.21073 -22.746479 4294967295
-10.505612 125.84176 -22.801359 4294967295
-10.499716 126.47403 -22.849554 4294967295
-10.497947 126.63241 -22.859949 4294967295
-10.491999 120.6843 -22.976635 4294967295
-10.468655 123.05467 -23.150274 4294967295
-10.446992 126.9995 -22.615341 4294967295
-10.443889 123.23655 -23.03203 4294967295
-10.44149 127.31849 -22.625156 4294967295
-10.440595 124.02219 -23.115015 4294967295
-10.439621 123.7103 -23.06901 4294967295
-10.437778 122.7734 -22.937 4294967295
-10.435849 121.21032 -22.723301 4294967295
-10.427018 123.41036 -22.957952 4294967295
-10.417838 121.07195 -22.602217 4294967295
-10.411865 120.60824 -22.507893 4294967295
-10.408374 121.55117 -22.610151 4294967295
-10.401784 122.02752 -22.634174 4294967295
-10.400207 125.78519 -23.112267 4294967295
-10.393095 122.97566 -22.707344 4294967295
-10.381666 122.20454 -22.541924 4294967295
-10.381623 123.92667 -22.764936 4294967295
-10.374761 126.9072 -23.111984 4294967295
-10.364076 126.13612 -22.950855 4294967295
-10.358351 124.73347 -22.736252 4294967295
-10.350192 124.27229 -22.629745 4294967295
-10.339223 127.25787 -22.953928 4294967295
-10.327791 121.00217 -22.998632 4294967295
-10.327086 124.60941 -22.541136 4294967295
-10.326188 121.47317 -23.050493 4294967295
-10.308771 121.80372 -22.993731 4294967295
-10.306561 126.0401 -22.609051 4294967295
-10.30432 122.27764 -23.029686 4294967295
-10.304061 120.86954 -22.845753 4294967295
-10.301134 121.65497 -22.93079 4294967295
-10.285231 126.37574 -22.530409 4294967295
-10.274015 120.58662 -22.637295 4294967295
-10.263247 122.47595 -22.82052 4294967295
-10.25204 123.583 -22.899868 4294967295
-10.24578 124.99786 -23.047369 4294967295
-10.221514 126.27505 -23.074057 4294967295
-10.171574 125.23173 -22.653347 4294967295
-10.170148 125.70292 -22.706234 4294967295
-10.170074 120.68761 -22.975885 4294967295
-10.169501 125.54703 -22.682341 4294967295
-10.161757 126.96415 -22.821632 4294967295
-10.152938 126.66037 -22.73185 4294967295
-10.143722 121.18355 -22.889641 4294967295
-10.139743 127.30058 -22.739328 4294967295
-10.123619 122.6124 -22.959873 4294967295
-10.12326 126.5351 -22.545929 4294967295
-10.114252 120.58698 -22.644125 4294967295
-10.113769 121.68331 -22.783329 4294967295
-10.104605 121.53602 -22.711933 4294967295
-10.099012 122.01132 -22.74155 4294967295
-10.094484 121.07652 -22.594646 4294967295
-10.089876 123.74245 -22.91353 4294967295
-10.089553 123.42976 -22.871199 4294967295
-10.080388 122.49989 -22.698471 4294967295
