# .PCD v0.7 - Point Cloud Data file format
VERSION 0.7
FIELDS x y z rgb
SIZE 4 4 4 4
TYPE F F F U
COUNT 1 1 1 1
WIDTH 1146
HEIGHT 1
VIEWPOINT 0 0 0 1 0 0 0
POINTS 1146
DATA ascii
64.024666 77.038567 -16.334866 4294967295
64.037407 81.962418 -16.244482 4294967295
64.045822 80.67067 -16.076571 4294967295
64.079468 78.838676 -16.341511 4294967295
64.086548 81.106529 -16.56152 4294967295
64.175514 80.33152 -16.174095 4294967295
64.17749 78.551468 -15.975649 4294967295
64.191818 76.713776 -16.305517 4294967295
64.206276 81.800217 -16.227127 4294967295
64.220955 77.695312 -16.311747 4294967295
64.243462 79.160034 -16.392616 4294967295
64.248138 78.190819 -16.272297 4294967295
64.248268 77.543488 -16.202143 4294967295
64.258804 78.842117 -16.306013 4294967295
64.266312 81.272179 -16.54199 4294967295
64.272873 81.98806 -16.019808 4294967295
64.277489 76.259079 -15.9641 4294967295
64.284584 76.099716 -15.922692 4294967295
64.286247 77.071732 -16.02169 4294967295
64.289497 81.766556 -16.516075 4294967295
64.289635 79.01548 -16.219444 4294967295
64.2929 78.045479 -16.103857 4294967295
64.298233 79.98983 -16.294994 4294967295
64.298721 79.828171 -16.275921 4294967295
64.307632 80.96447 -16.367805 4294967295
64.316742 81.93898 -16.441628 4294967295
64.317238 79.673309 -16.196039 4294967295
64.321678 80.484314 -16.26819 4294967295
64.340981 79.358482 -16.081091 4294967295
64.354988 76.063858 -16.254778 4294967295
64.366219 78.3964 -15.891339 4294967295
64.368706 78.721191 -15.917833 4294967295
64.386902 77.046387 -16.251728 4294967295
64.390038 81.158058 -16.107357 4294967295
64.397812 76.726639 -16.180092 4294967295
64.443687 78.523903 -16.217112 4294967295
64.477386 80.802589 -16.347425 4294967295
64.502815 79.679161 -16.139786 4294967295
64.505577 78.384941 -15.991066 4294967295
64.506126 77.737442 -15.919491 4294967295
64.520859 80.495468 -16.166107 4294967295
64.524445 81.791901 -16.2934 4294967295
64.53363 76.875969 -16.308771 4294967295
64.534439 79.367241 -15.998354 4294967295
64.537437 78.882568 -15.935956 4294967295
64.545845 80.666916 -16.099331 4294967295
64.550186 78.014824 -16.374907 4294967295
64.551254 77.044197 -16.266819 4294967295
64.553169 80.993546 -16.109503 4294967295
64.554665 77.530968 -16.307579 4294967295
64.555351 76.236389 -16.165913 4294967295
64.564522 79.476517 -16.483366 4294967295
64.568695 77.859787 -16.295158 4294967295
64.576607 77.377121 -16.216257 4294967295
64.583382 78.836273 -16.350201 4294967295
64.603851 81.984688 -16.043333 4294967295
64.608505 80.949562 -16.491978 4294967295
64.615494 76.74369 -16.015579 4294967295
64.615868 81.437859 -16.519436 4294967295
64.619911 77.231003 -16.052988 4294967295
64.639801 77.723984 -16.038273 4294967295
64.651031 78.213852 -16.052711 4294967295
64.661583 76.436424 -15.825461 4294967295
64.687599 76.546356 -16.323961 4294967295
64.688278 81.951462 -16.327957 4294967295
64.696159 78.55439 -15.935583 4294967295
64.753113 80.292633 -16.503956 4294967295
64.756409 80.779335 -16.545086 4294967295
64.758324 76.409904 -16.068501 4294967295
64.773407 81.660675 -16.006598 4294967295
64.779381 80.140762 -16.398199 4294967295
64.810249 76.104645 -15.858899 4294967295
64.825211 76.049072 -16.37673 4294967295
64.830269 81.455078 -16.366318 4294967295
64.83152 78.055664 -15.996404 4294967295
64.837967 79.515358 -16.131479 4294967295
64.860855 78.228409 -15.915115 4294967295
64.862396 76.224197 -16.269091 4294967295
64.866364 79.687958 -16.053364 4294967295
64.872322 77.746727 -15.824255 4294967295
64.872498 78.718582 -15.92821 4294967295
64.879784 81.312286 -16.182396 4294967295
64.890602 79.211205 -15.919572 4294967295
64.898964 79.862183 -15.961132 4294967295
64.902786 77.857399 -16.307392 4294967295
64.909271 81.647507 -16.118067 4294967295
64.912949 77.05175 -16.186167 4294967295
64.913391 77.537544 -16.236917 4294967295
64.924194 79.483871 -16.409502 4294967295
64.940544 78.356903 -16.232687 4294967295
64.955681 76.74337 -16.007662 4294967295
64.959061 76.420723 -15.961447 4294967295
64.971367 79.015892 -16.198748 4294967295
64.986732 75.944748 -15.816133 4294967295
64.988342 77.726822 -16.002342 4294967295
64.997162 80.806427 -16.303549 4294967295
65.000549 80.969604 -16.309584 4294967295
65.001724 80.48439 -16.253395 4294967295
65.009415 76.377625 -16.359898 4294967295
65.025063 81.788483 -16.31426 4294967295
65.095161 80.131599 -16.472153 4294967295
65.159294 80.803436 -16.326448 4294967295
65.167511 79.673241 -16.177013 4294967295
65.173569 79.513588 -16.139269 4294967295
65.174149 79.999573 -16.189552 4294967295
65.175392 80.485779 -16.237579 4294967295
65.179359 78.70607 -16.032761 4294967295
65.179886 76.377609 -16.354477 4294967295
65.181152 81.13559 -16.287857 4294967295
65.188942 80.976669 -16.244312 4294967295
65.199959 78.389771 -15.928762 4294967295
65.206703 81.954964 -16.289127 4294967295
65.206902 79.202171 -15.992515 4294967295
65.216118 78.071754 -15.839656 4294967295
65.218155 77.200691 -16.31303 4294967295
65.235909 76.07386 -16.131618 4294967295
65.249641 79.056122 -15.831566 4294967295
65.252579 76.565544 -16.12788 4294967295
65.261986 81.814453 -16.086151 4294967295
65.262024 76.892769 -16.130985 4294967295
65.268913 79.323692 -16.368912 4294967295
65.278152 77.384354 -16.129068 4294967295
65.298492 77.067863 -16.025988 4294967295
65.300217 80.144852 -16.35088 4294967295
65.301453 80.307198 -16.364147 4294967295
65.313774 77.883125 -16.061745 4294967295
65.319252 81.770889 -16.461021 4294967295
65.327896 78.05024 -16.031776 4294967295
65.333656 76.756622 -15.873152 4294967295
65.379486 81.308403 -16.206808 4294967295
65.389099 78.234688 -15.843802 4294967295
65.403961 77.691917 -16.308552 4294967295
65.429886 78.025177 -16.256409 4294967295
65.476616 76.260765 -15.90828 4294967295
65.487961 78.856155 -16.148743 4294967295
65.490875 77.885567 -16.034533 4294967295
65.503502 79.185806 -16.131441 4294967295
65.532761 76.705566 -16.338614 4294967295
65.533165 81.464081 -16.275618 4294967295
65.53643 79.522003 -16.055866 4294967295
65.537544 78.388596 -15.930301 4294967295
65.544144 80.334702 -16.117044 4294967295
65.56205 78.559616 -15.865568 4294967295
65.56324 77.525978 -16.323475 4294967295
65.568588 80.829865 -16.087318 4294967295
65.580742 81.644341 -16.133604 4294967295
65.584465 76.238358 -16.11319 4294967295
65.588013 81.161232 -16.057037 4294967295
65.590706 76.564445 -16.12709 4294967295
65.595947 77.052109 -16.161726 4294967295
65.603355 81.977013 -16.092638 4294967295
65.605286 76.893547 -16.113031 4294967295
65.611732 79.486511 -16.369762 4294967295
65.628624 80.302315 -16.400166 4294967295
65.643188 75.935326 -15.881631 4294967295
65.654953 77.397346 -15.998855 4294967295
65.672234 80.156876 -16.23674 4294967295
65.684738 78.056091 -15.968701 4294967295
65.734306 77.202408 -16.28159 4294967295
65.743095 81.479454 -16.138653 4294967295
65.767296 75.756821 -16.01461 4294967295
65.783813 78.677681 -16.272409 4294967295
65.814697 76.09758 -15.8907 4294967295
65.819405 76.423241 -15.909767 4294967295
65.82077 79.662964 -16.25309 4294967295
65.834236 80.96344 -16.347172 4294967295
65.834961 78.048691 -16.031691 4294967295
65.8498 76.758118 -15.842829 4294967295
65.850945 79.998169 -16.186932 4294967295
65.8535 76.212624 -16.3437 4294967295
65.854843 78.865883 -16.052122 4294967295
65.876846 81.789421 -16.291571 4294967295
65.880219 76.060219 -16.236935 4294967295
65.883423 77.904396 -15.852098 4294967295
65.888878 79.850449 -16.042643 4294967295
65.896629 78.395294 -15.860113 4294967295
38.519508 84.650002 -18.650448 4294967295
38.530621 82.574707 -18.372253 4294967295
38.574459 87.236343 -18.724894 4294967295
38.579128 85.638344 -18.526096 4294967295
38.596325 87.727036 -18.693737 4294967295
38.615738 87.416451 -18.58189 4294967295
38.616093 85.976089 -18.417969 4294967295
38.622173 85.178543 -18.303911 4294967295
38.631702 82.544838 -18.625286 4294967295
38.650188 86.63279 -18.357176 4294967295
38.653893 83.995071 -18.701225 4294967295
38.66198 84.638824 -18.741884 4294967295
38.664833 84.800156 -18.748806 4294967295
38.678936 83.366608 -18.531345 4294967295
38.68301 82.728302 -18.443211 4294967295
38.695278 87.935524 -18.325775 4294967295
38.704216 83.698387 -18.468853 4294967295
38.71244 86.902748 -18.797838 4294967295
38.722996 85.147606 -18.55814 4294967295
38.738026 86.435043 -18.643959 4294967295
38.741631 85.796616 -18.557697 4294967295
38.742397 82.915573 -18.229628 4294967295
38.74337 84.196793 -18.370348 4294967295
38.743561 85.317375 -18.496002 4294967295
38.757011 83.08239 -18.190699 4294967295
38.767792 87.569664 -18.654284 4294967295
38.768772 85.009132 -18.361597 4294967295
38.774265 84.531418 -18.285986 4294967295
38.77774 88.054626 -18.669668 4294967295
38.77829 85.653999 -18.396719 4294967295
38.786526 86.138176 -18.418783 4294967295
38.792156 83.502075 -18.754793 4294967295
38.798771 86.784393 -18.443289 4294967295
38.805584 87.908218 -18.543104 4294967295
38.835289 84.162086 -18.658945 4294967295
38.848309 87.128548 -18.286312 4294967295
38.857269 85.612541 -18.735727 4294967295
38.860996 82.253296 -18.342148 4294967295
38.863396 88.256752 -18.353931 4294967295
38.8923 87.06942 -18.761696 4294967295
38.940109 83.890671 -18.214483 4294967295
38.975044 82.229469 -18.544331 4294967295
38.990044 82.876465 -18.558138 4294967295
38.9944 86.798584 -18.328056 4294967295
39.003792 87.923935 -18.417862 4294967295
39.01659 84.009003 -18.581129 4294967295
39.018829 82.409401 -18.391932 4294967295
39.026077 88.255081 -18.367212 4294967295
39.030384 83.215073 -18.437208 4294967295
39.038555 82.098152 -18.279032 4294967295
39.060886 86.910599 -18.733503 4294967295
39.062103 83.870049 -18.385948 4294967295
39.062508 83.710136 -18.366327 4294967295
39.070347 82.592941 -18.209446 4294967295
39.074688 86.11702 -18.58963 4294967295
39.080433 84.198753 -18.350718 4294967295
39.096149 85.326828 -18.415907 4294967295
39.099651 87.569534 -18.654886 4294967295
39.100361 83.087067 -18.146791 4294967295
39.104805 86.611641 -18.526592 4294967295
39.11375 84.534531 -18.257175 4294967295
39.114574 84.855171 -18.290071 4294967295
39.125664 87.422104 -18.535673 4294967295
39.129616 87.103851 -18.484215 4294967295
39.135368 82.386681 -18.584246 4294967295
39.144051 85.989998 -18.301744 4294967295
39.162811 86.319229 -18.264866 4294967295
39.165913 85.519943 -18.162533 4294967295
39.211117 85.942772 -18.686579 4294967295
39.259346 86.606049 -18.571285 4294967295
39.270393 83.569107 -18.185532 4294967295
39.271076 87.892242 -18.669994 4294967295
39.278591 85.654663 -18.388266 4294967295
39.307716 87.109604 -18.437458 4294967295
39.3092 84.387894 -18.124908 4294967295
39.316437 87.754272 -18.475729 4294967295
39.317413 86.95417 -18.381733 4294967295
39.343655 88.24791 -18.424107 4294967295
39.352596 87.451584 -18.299158 4294967295
39.363621 83.695427 -18.486542 4294967295
39.366436 82.576035 -18.349344 4294967295
39.395451 85.151001 -18.525255 4294967295
39.402916 84.834328 -18.460186 4294967295
39.405247 85.475792 -18.523281 4294967295
39.405972 83.875092 -18.340096 4294967295
39.406841 84.676064 -18.426908 4294967295
39.407398 85.957054 -18.569027 4294967295
39.407722 82.754944 -18.207006 4294967295
39.415558 82.27803 -18.122417 4294967295
39.416145 86.44146 -18.589157 4294967295
39.438454 87.092499 -18.574682 4294967295
39.439316 84.210808 -18.246693 4294967295
39.44907 83.254326 -18.10054 4294967295
39.455929 88.381638 -18.651094 4294967295
39.463131 83.100578 -18.027861 4294967295
39.469116 86.62693 -18.401567 4294967295
39.48085 85.351341 -18.2117 4294967295
39.481632 84.070267 -18.064301 4294967295
39.505013 86.163635 -18.208111 4294967295
39.506344 85.843918 -18.166859 4294967295
39.519928 82.890274 -18.434084 4294967295
39.526585 82.252861 -18.336109 4294967295
39.540565 83.219917 -18.390079 4294967295
39.543159 86.822617 -18.132191 4294967295
39.590858 87.566086 -18.681749 4294967295
39.642712 86.950714 -18.408602 4294967295
39.647785 83.749657 -18.028181 4294967295
39.655891 85.515579 -18.195187 4294967295
39.656872 88.078484 -18.479893 4294967295
39.659687 85.83773 -18.216536 4294967295
39.662094 86.319389 -18.261307 4294967295
39.663219 84.718063 -18.076561 4294967295
39.663761 85.198914 -18.12858 4294967295
39.667873 82.241394 -18.432108 4294967295
39.669811 85.04155 -18.087069 4294967295
39.67556 86.165627 -18.191044 4294967295
39.676773 87.767891 -18.366676 4294967295
39.677673 82.726143 -18.448208 4294967295
39.678818 84.007385 -18.587959 4294967295
39.701977 87.139404 -18.196829 4294967295
39.7029 87.460228 -18.229322 4294967295
39.712456 84.983536 -18.565742 4294967295
39.749676 84.200294 -18.331379 4294967295
39.756557 85.164322 -18.412868 4294967295
39.758472 83.563736 -18.225157 4294967295
39.772163 83.08947 -18.117981 4294967295
39.777199 87.255669 -18.567202 4294967295
39.809265 83.426849 -18.010256 4294967295
39.831604 82.079956 -18.423027 4294967295
39.85067 87.130928 -18.264603 4294967295
39.858307 84.173492 -18.553888 4294967295
39.873539 83.860321 -18.458889 4294967295
39.880795 82.902855 -18.322657 4294967295
39.907913 83.235535 -18.253698 4294967295
39.914028 87.642143 -18.073294 4294967295
39.918247 82.279137 -18.105505 4294967295
39.930176 88.290939 -18.082884 4294967295
39.941219 85.493187 -18.377089 4294967295
39.961113 84.381287 -18.17391 4294967295
39.963024 85.823792 -18.328743 4294967295
39.965004 88.066711 -18.573339 4294967295
39.975433 84.548134 -18.136503 4294967295
39.975857 85.028931 -18.188944 4294967295
39.977039 88.392822 -18.562796 4294967295
39.985821 85.193794 -18.168407 4294967295
40.00005 86.642258 -18.275574 4294967295
40.002949 86.964012 -18.300388 4294967295
40.00972 87.928314 -18.382317 4294967295
40.026405 83.373672 -18.455963 4294967295
40.027142 86.014336 -18.098612 4294967295
40.027203 82.413239 -18.344765 4294967295
40.034573 85.697388 -18.0338 4294967295
40.057117 83.547874 -18.355179 4294967295
40.066601 84.192833 -18.390577 4294967295
40.069923 87.476875 -18.095324 4294967295
40.070835 82.913483 -18.230032 4294967295
40.077785 82.275879 -18.131044 4294967295
40.081589 84.840378 -18.404675 4294967295
40.090008 82.601799 -18.119816 4294967295
40.099812 84.528542 -18.29817 4294967295
40.100975 83.087387 -18.131472 4294967295
40.119553 86.139442 -18.402006 4294967295
40.149654 83.750542 -18.015278 4294967295
40.189018 86.332619 -18.151472 4294967295
40.197601 87.458229 -18.244427 4294967295
40.198933 86.497566 -18.131155 4294967295
40.206665 87.302383 -18.191381 4294967295
40.227722 82.588669 -18.229757 4294967295
40.267761 83.888443 -18.219179 4294967295
40.271309 85.171555 -18.349585 4294967295
40.285282 87.900734 -18.601738 4294967295
40.29052 85.981453 -18.365435 4294967295
40.29068 84.059196 -18.148643 4294967295
40.303066 86.147568 -18.33499 4294967295
40.309757 82.786011 -17.930748 4294967295
40.319035 87.436607 -18.417402 4294967295
40.322353 84.874985 -18.116377 4294967295
40.324852 87.279228 -18.376932 4294967295
40.339756 85.684288 -18.139236 4294967295
40.35733 86.653976 -18.179472 4294967295
40.363094 86.336258 -18.121168 4294967295
40.385338 82.584541 -18.262693 4294967295
40.405964 87.157974 -18.045708 4294967295
40.407265 84.516655 -18.394165 4294967295
40.412678 87.641991 -18.073839 4294967295
40.413815 88.283554 -18.141516 4294967295
40.416061 82.438202 -18.126066 4294967295
40.4188 87.805206 -18.068218 4294967295
40.423965 85.645569 -18.45575 4294967295
40.427795 83.56501 -18.206861 4294967295
40.430695 82.925476 -18.123617 4294967295
40.43951 85.172356 -18.341755 4294967295
40.464649 84.703468 -18.190712 4294967295
40.468227 86.627525 -18.393 4294967295
40.469582 84.385315 -18.135651 4294967295
40.500561 86.963348 -18.304268 4294967295
40.521305 88.094757 -18.35029 4294967295
40.556965 82.907127 -18.277607 4294967295
40.614655 83.734459 -18.145185 4294967295
40.621044 84.538528 -18.210579 4294967295
40.622597 83.25737 -18.060528 4294967295
40.627747 85.342712 -18.274769 4294967295
40.629677 82.459267 -17.943153 4294967295
40.63615 86.628265 -18.386383 4294967295
40.637421 87.589951 -18.489464 4294967295
40.642441 86.310867 -18.326139 4294967295
40.64954 85.19268 -18.172749 4294967295
40.653641 87.27739 -18.390978 4294967295
40.653717 85.034393 -18.138643 4294967295
40.663086 86.000198 -18.210567 4294967295
40.669365 84.080086 -17.970249 4294967295
40.674335 86.966888 -18.275219 4294967295
40.675968 83.441956 -17.87273 4294967295
40.698963 83.056099 -18.388737 4294967295
40.700382 83.697411 -18.455259 4294967295
40.716629 85.544601 -17.950159 4294967295
40.733597 88.117073 -18.172901 4294967295
40.739933 83.234894 -18.248903 4294967295
40.747871 84.359932 -18.344322 4294967295
40.750034 87.964775 -18.09156 4294967295
40.751003 82.759254 -18.152248 4294967295
40.758606 84.685287 -18.338976 4294967295
40.76865 85.010345 -18.336285 4294967295
40.78315 85.818115 -18.370428 4294967295
40.785122 82.934929 -18.038824 4294967295
40.798061 87.907578 -18.546909 4294967295
40.808994 88.393372 -18.558781 4294967295
40.820034 88.238564 -18.498312 4294967295
40.828289 84.236778 -18.016592 4294967295
40.847107 86.328972 -18.178167 4294967295
40.854046 86.652756 -18.187452 4294967295
40.866104 87.780228 -18.267006 4294967295
40.868221 82.576691 -18.322851 4294967295
40.869202 86.980484 -18.165108 4294967295
40.880489 83.863747 -18.419567 4294967295
40.883385 87.468048 -18.164495 4294967295
40.947319 86.137428 -18.414318 4294967295
40.951061 85.818794 -18.363945 4294967295
40.975365 85.029022 -18.180487 4294967295
40.982906 83.269516 -17.953485 4294967295
40.984093 83.590637 -17.984926 4294967295
40.986172 86.636452 -18.318848 4294967295
40.988495 84.554337 -18.075987 4294967295
41.009239 84.083031 -17.942162 4294967295
41.015076 87.451401 -18.297644 4294967295
41.016029 86.490379 -18.186033 4294967295
41.016113 83.444923 -17.843702 4294967295
41.018631 87.292862 -18.265978 4294967295
41.034237 85.216705 -17.972015 4294967295
41.044937 88.106758 -18.254793 4294967295
41.049942 85.544655 -17.947596 4294967295
41.053253 82.905327 -18.286377 4294967295
41.059731 84.029709 -18.387384 4294967295
41.05991 83.228767 -18.296762 4294967295
41.064278 84.512375 -18.423857 4294967295
41.072601 84.356018 -18.373878 4294967295
41.073879 87.639908 -18.089521 4294967295
41.075726 86.999603 -18.010439 4294967295
41.079533 87.963211 -18.103775 4294967295
41.081394 87.162613 -18.006638 4294967295
41.092251 88.289948 -18.090868 4294967295
41.092957 82.602753 -18.097744 4294967295
41.099651 82.445496 -18.054007 4294967295
41.100685 83.087013 -18.122007 4294967295
41.117134 85.337936 -18.31065 4294967295
41.162373 82.152969 -17.77684 4294967295
41.173763 86.005455 -18.164991 4294967295
41.227058 86.190842 -17.978205 4294967295
41.273331 82.929375 -18.079521 4294967295
41.274307 87.656242 -17.958637 4294967295
41.277046 88.13855 -18.002096 4294967295
41.279854 83.733681 -18.144409 4294967295
41.280563 84.855774 -18.267582 4294967295
41.281467 83.253609 -18.084251 4294967295
41.282761 82.292465 -17.971338 4294967295
41.288002 84.538712 -18.203058 4294967295
41.290077 82.616341 -17.979219 4294967295
41.303883 86.148567 -18.321911 4294967295
41.306419 83.90609 -18.06039 4294967295
41.322819 85.1959 -18.141335 4294967295
41.335678 86.003273 -18.18189 4294967295
41.336857 84.240631 -17.979504 4294967295
41.337624 88.08744 -18.408161 4294967295
41.35294 87.774345 -18.313433 4294967295
41.359787 86.655754 -18.161287 4294967295
41.371368 86.340652 -18.080873 4294967295
41.38456 85.54528 -17.940283 4294967295
41.389931 83.22718 -18.306131 4294967295
41.438808 85.813278 -18.406254 4294967295
41.451103 87.981895 -17.954741 4294967295
41.455795 85.660995 -18.323133 4294967295
41.497253 85.039223 -18.092234 4294967295
41.500431 82.635834 -17.810234 4294967295
41.518661 83.606163 -17.848246 4294967295
41.553528 82.584778 -18.244411 4294967295
41.570847 87.318153 -18.061785 4294967295
41.576817 84.197746 -18.334885 4294967295
41.597679 87.811989 -18.012877 4294967295
41.60479 87.174004 -17.913675 4294967295
41.616302 83.414421 -18.093695 4294967295
41.620502 88.304008 -17.979336 4294967295
41.621189 82.775421 -18.003054 4294967295
41.635849 85.186493 -18.216532 4294967295
41.636177 82.140831 -17.873655 4294967295
41.645424 84.068878 -18.05402 4294967295
41.654224 87.118263 -18.36178 4294967295
41.654938 82.30954 -17.819733 4294967295
41.657532 86.158257 -18.241299 4294967295
41.657864 84.715813 -18.07826 4294967295
41.658894 83.113052 -17.894495 4294967295
41.662029 86.80146 -18.295961 4294967295
41.663231 84.397659 -18.021742 4294967295
41.671349 86.325035 -18.206354 4294967295
41.671352 83.599716 -17.900713 4294967295
41.683716 83.765686 -17.871313 4294967295
41.687035 86.011826 -18.110313 4294967295
41.701031 84.896065 -17.930849 4294967295
41.71236 85.382347 -17.941385 4294967295
41.731003 86.994476 -18.049761 4294967295
41.743015 85.556976 -17.841921 4294967295
41.747822 87.643822 -18.057257 4294967295
41.759998 84.365547 -18.28816 4294967295
41.775108 86.694672 -17.844879 4294967295
41.786209 87.341461 -17.874283 4294967295
41.80687 82.463158 -17.893032 4294967295
41.838055 82.797836 -17.809587 4294967295
41.846306 88.092087 -18.371061 4294967295
41.847931 85.688515 -18.095362 4294967295
41.869957 86.660759 -18.118895 4294967295
41.877537 84.579834 -17.856218 4294967295
41.877666 87.786591 -18.215172 4294967295
41.893509 84.266396 -17.759115 4294967295
41.894341 85.068695 -17.845839 4294967295
41.926979 88.29126 -18.080433 4294967295
41.927921 83.083855 -18.138285 4294967295
41.93541 87.493553 -17.958324 4294967295
41.953873 83.255859 -18.056992 4294967295
41.958157 82.456146 -17.950752 4294967295
41.976299 87.113113 -18.402344 4294967295
41.978096 83.908127 -18.036226 4294967295
41.979374 84.870613 -18.139147 4294967295
41.990444 82.149811 -17.791288 4294967295
41.991673 84.715965 -18.074154 4294967295
41.996567 84.397552 -18.019505 4294967295
41.996597 86.00074 -18.199055 4294967295
41.998638 82.63459 -17.813883 4294967295
42.003757 83.759453 -17.920128 4294967295
42.007084 82.959129 -17.817522 4294967295
42.018677 86.812637 -18.204456 4294967295
42.020008 85.691048 -18.07362 4294967295
42.023026 86.173431 -18.115984 4294967295
42.0257 86.655647 -18.159655 4294967295
42.026535 84.090553 -17.868958 4294967295
42.032227 85.215698 -17.973 4294967295
42.033733 83.452293 -17.769535 4294967295
42.035572 83.613518 -17.780478 4294967295
42.036228 82.256218 -18.270252 4294967295
42.069885 87.798935 -18.116512 4294967295
42.072861 87.319328 -18.051249 4294967295
42.098614 84.04734 -18.229429 4294967295
42.109463 86.374382 -17.803532 4294967295
42.144829 88.316032 -17.884031 4294967295
42.17667 87.770363 -18.344296 4294967295
42.217907 88.110733 -18.222776 4294967295
42.218887 84.743752 -17.841825 4294967295
42.229664 82.909157 -18.238497 4294967295
42.253529 83.240471 -18.183311 4294967295
42.263802 86.208176 -17.831999 4294967295
42.267639 88.294991 -18.050882 4294967295
42.268078 82.124733 -18.002066 4294967295
42.274578 86.854858 -17.862719 4294967295
42.281567 84.856209 -18.255846 4294967295
42.286613 83.736351 -18.110905 4294967295
42.297035 84.542702 -18.160902 4294967295
42.312069 82.464996 -17.870058 4294967295
42.315739 82.627014 -17.874004 4294967295
42.320148 83.110107 -17.911072 4294967295
42.326321 87.121201 -18.336388 4294967295
42.32687 85.518387 -18.154799 4294967295
42.335674 85.843132 -18.157106 4294967295
42.343445 85.205391 -18.055639 4294967295
42.343544 88.251434 -18.396324 4294967295
42.350941 83.925903 -17.88335 4294967295
42.366905 86.499092 -18.109774 4294967295
42.369839 87.462486 -18.206303 4294967295
42.376404 86.984604 -18.127413 4294967295
42.381481 84.421005 -17.8207 4294967295
42.390789 82.265381 -18.18659 4294967295
42.402809 87.798889 -18.116457 4294967295
42.414982 83.398315 -18.219986 4294967295
42.430614 82.603745 -18.070616 4294967295
42.456985 83.89827 -18.113688 4294967295
42.457409 85.181015 -18.255665 4294967295
42.489727 85.035599 -18.114525 4294967295
42.500084 84.398941 -18.003241 4294967295
42.518944 87.774834 -18.308268 4294967295
42.524982 83.768738 -17.836481 4294967295
42.530525 87.299377 -18.210314 4294967295
42.554482 84.584206 -17.813822 4294967295
42.579754 86.841583 -17.968878 4294967295
42.580875 86.200516 -17.892797 4294967295
42.581367 82.596497 -18.130213 4294967295
42.582802 83.238426 -18.196537 4294967295
42.585548 86.04229 -17.857031 4294967295
42.611031 87.658394 -17.939472 4294967295
42.611595 82.930672 -18.050961 4294967295
42.617493 86.378082 -17.771202 4294967295
42.628616 82.296799 -17.914318 4294967295
42.630157 83.901123 -18.087942 4294967295
42.638847 85.989395 -18.288111 4294967295
42.660408 84.716682 -18.062469 4294967295
42.662235 82.472122 -17.804184 4294967295
42.670898 87.9282 -18.381353 4294967295
42.674576 84.40242 -17.972628 4294967295
42.687714 85.210342 -18.012342 4294967295
42.688271 84.087875 -17.884562 4294967295
42.688427 84.889908 -17.973726 4294967295
42.689133 87.135277 -18.222254 4294967295
42.698963 83.771904 -17.807926 4294967295
42.705269 85.6996 -17.999329 4294967295
42.710281 85.862312 -17.998196 4294967295
42.714737 82.26091 -18.220028 4294967295
42.71582 82.74231 -18.269718 4294967295
42.721409 87.310913 -18.11734 4294967295
42.730972 88.117271 -18.170656 4294967295
42.735188 86.515511 -17.97517 4294967295
42.741623 82.112488 -18.09976 4294967295
42.760979 83.724464 -18.205507 4294967295
42.767303 86.691002 -17.870848 4294967295
42.810028 87.834259 -17.833878 4294967295
42.817818 86.476112 -18.29421 4294967295
42.818245 82.627602 -17.86199 4294967295
42.866154 87.621262 -18.235941 4294967295
42.896824 85.229836 -17.850182 4294967295
42.912064 86.19944 -17.8999 4294967295
42.920799 88.128418 -18.081978 4294967295
42.921593 87.968414 -18.061016 4294967295
42.932251 86.369301 -17.84107 4294967295
42.934933 82.444817 -18.033367 4294967295
42.937988 87.494995 -17.944862 4294967295
42.949024 82.932198 -18.033617 4294967295
42.949371 84.535889 -18.211647 4294967295
42.991741 83.592896 -17.942993 4294967295
42.994263 86.801376 -18.292101 4294967295
43.004578 84.079903 -17.948021 4294967295
43.009197 83.279922 -17.840746 4294967295
43.010513 85.044975 -18.033091 4294967295
43.017426 85.68969 -18.078568 4294967295
43.017773 88.255493 -18.364126 4294967295
43.019604 87.454689 -18.267538 4294967295
43.02433 87.937965 -18.303368 4294967295
43.024906 85.853539 -18.068089 4294967295
43.024925 86.976151 -18.193535 4294967295
43.028584 83.769928 -17.820892 4294967295
43.031979 84.252754 -17.861811 4294967295
43.039787 86.662399 -18.101221 4294967295
43.04483 82.259148 -18.23024 4294967295
43.053913 85.225334 -17.886101 4294967295
43.056469 87.151398 -18.09165 4294967295
43.062016 83.068405 -18.254612 4294967295
43.065823 84.909935 -17.804964 4294967295
43.067566 82.58989 -18.179741 4294967295
43.090824 83.722664 -18.216925 4294967295
43.111744 84.373512 -18.209192 4294967295
43.12418 85.822243 -18.323315 4294967295
43.158779 82.790833 -17.851255 4294967295
43.201515 82.970322 -17.7069 4294967295
43.208069 85.379906 -17.951088 4294967295
43.213715 84.740784 -17.857908 4294967295
43.232193 85.711899 -17.895376 4294967295
43.232765 82.268364 -18.148573 4294967295
43.239624 85.233994 -17.81337 4294967295
43.243576 87.642273 -18.067369 4294967295
43.24427 86.038376 -17.885414 4294967295
43.246471 85.076683 -17.769424 4294967295
43.251083 87.004158 -17.967155 4294967295
43.253426 87.326111 -17.994135 4294967295
43.259842 87.810417 -18.023569 4294967295
43.263641 88.293472 -18.062937 4294967295
43.266037 84.207451 -18.237425 4294967295
43.277161 87.176888 -17.88612 4294967295
43.281124 86.536919 -17.799341 4294967295
43.297195 85.344124 -18.244705 4294967295
43.301147 84.383751 -18.122175 4294967295
43.307163 83.424133 -17.991802 4294967295
43.314396 82.62529 -17.874699 4294967295
43.320347 83.75087 -17.977644 4294967295
43.325516 85.036392 -18.101461 4294967295
43.327305 85.839111 -18.18429 4294967295
43.331554 82.472458 -17.791668 4294967295
43.341934 87.449562 -18.308014 4294967295
43.342808 84.723511 -18.000023 4294967295
43.346233 86.168648 -18.148359 4294967295
43.347225 82.96077 -17.786015 4294967295
43.361572 84.09034 -17.85713 4294967295
43.368141 85.216362 -17.957733 4294967295
43.375053 83.615059 -17.752188 4294967295
43.376366 88.267731 -18.267078 4294967295
43.382763 83.297577 -17.687069 4294967295
43.400745 86.675301 -17.995447 4294967295
43.440857 84.692108 -18.259527 4294967295
43.475849 86.311745 -18.306107 4294967295
43.493069 83.913864 -17.97209 4294967295
43.515045 87.292274 -18.265123 4294967295
43.55175 84.261276 -17.785583 4294967295
43.577637 87.642647 -18.063921 4294967295
43.594437 83.723915 -18.200916 4294967295
43.599854 82.603653 -18.054998 4294967295
43.601807 82.444122 -18.029682 4294967295
43.615223 87.8209 -17.939508 4294967295
43.61729 87.180023 -17.859982 4294967295
43.630665 85.664787 -18.278711 4294967295
43.637981 84.064308 -18.071892 4294967295
43.640476 85.990051 -18.277399 4294967295
43.64888 84.871254 -18.120214 4294967295
43.657215 86.799667 -18.30361 4294967295
43.659424 88.323357 -17.825911 4294967295
43.660435 83.111839 -17.879381 4294967295
43.662399 88.003784 -17.778795 4294967295
43.665348 84.237091 -17.986221 4294967295
43.667313 85.360893 -18.104202 4294967295
43.669922 83.27652 -17.86138 4294967295
43.671543 86.164841 -18.177753 4294967295
43.672993 87.44854 -18.315546 4294967295
43.675579 82.155762 -17.714483 4294967295
43.679466 84.724785 -17.986542 4294967295
43.703018 84.414604 -17.861553 4294967295
43.706074 87.303764 -18.172476 4294967295
43.721989 85.546471 -17.915192 4294967295
43.757084 83.401215 -18.179653 4294967295
43.767502 87.011772 -17.904242 4294967295
43.780422 85.175865 -18.288368 4294967295
43.792526 86.542023 -17.7558 4294967295
43.798908 88.310387 -17.928774 4294967295
43.814327 82.624603 -17.873575 4294967295
43.850075 86.00988 -18.114573 4294967295
43.869423 86.660538 -18.113066 4294967295
43.889465 87.151199 -18.09104 4294967295
43.898239 86.994881 -18.039961 4294967295
43.90469 82.269867 -18.125767 4294967295
43.908333 86.197311 -17.912258 4294967295
43.908417 87.480988 -18.055229 4294967295
43.927647 87.810974 -18.018364 4294967295
43.929756 85.404762 -17.741682 4294967295
43.941631 86.37326 -17.804291 4294967295
43.94236 83.248955 -18.090853 4294967295
43.944798 86.856216 -17.846075 4294967295
43.961796 87.345673 -17.835567 4294967295
43.976746 83.585159 -17.996756 4294967295
43.990192 84.232956 -18.017578 4294967295
44.00407 86.966354 -18.269514 4294967295
44.00634 82.956528 -17.813286 4294967295
44.006977 83.919624 -17.918362 4294967295
44.009724 84.88356 -18.015438 4294967295
44.011757 85.205368 -18.043562 4294967295
44.023678 87.777534 -18.284977 4294967295
44.02533 86.655479 -18.15344 4294967295
44.042446 82.651527 -17.641024 4294967295
44.054943 85.064644 -17.862545 4294967295
44.073292 82.751686 -18.171591 4294967295
44.080292 86.039192 -17.87426 4294967295
44.081429 85.558243 -17.816235 4294967295
44.10165 88.295815 -18.044315 4294967295
44.118561 84.857109 -18.233412 4294967295
44.154118 84.552429 -18.063442 4294967295
44.177593 85.525749 -18.082262 4294967295
44.185184 86.010544 -18.107317 4294967295
44.185276 83.603699 -17.838425 4294967295
44.2057 84.254829 -17.832962 4294967295
44.208263 82.169281 -17.590427 4294967295
44.217896 84.420837 -17.804846 4294967295
44.219078 85.063347 -17.872013 4294967295
44.223431 84.102318 -17.74814 4294967295
44.223862 88.274673 -18.211962 4294967295
44.224201 85.386658 -17.888493 4294967295
44.225399 87.794113 -18.152485 4294967295
44.228283 85.709496 -17.908901 4294967295
44.23122 87.315529 -18.076841 4294967295
44.23296 83.4645 -17.640524 4294967295
44.234211 82.909332 -18.210657 4294967295
44.249561 87.484612 -18.025562 4294967295
44.262867 84.044884 -18.227848 4294967295
44.276768 84.853142 -18.264894 4294967295
44.311573 84.548111 -18.097912 4294967295
44.312969 82.623276 -17.877863 4294967295
44.315205 83.747528 -17.99473 4294967295
44.315968 87.194801 -17.739283 4294967295
44.319969 86.316559 -18.263062 4294967295
44.321022 87.67878 -17.773939 4294967295
44.331173 83.11277 -17.862921 4294967295
44.335361 83.917023 -17.936636 4294967295
44.339497 82.153458 -17.724092 4294967295
44.349167 83.281258 -17.812967 4294967295
44.349445 84.404778 -17.937241 4294967295
44.353085 87.775696 -18.299263 4294967295
44.383068 86.98764 -18.096846 4294967295
44.405998 86.035446 -17.903057 4294967295
44.41037 86.19796 -17.904478 4294967295
44.425861 86.526138 -17.881891 4294967295
44.430954 85.725914 -17.773197 4294967295
44.44656 82.608444 -18.002306 4294967295
44.447739 86.857338 -17.835255 4294967295
44.453941 83.413956 -18.063959 4294967295
44.466541 82.456779 -17.909134 4294967295
44.488018 87.999939 -17.808783 4294967295
44.498062 86.642632 -18.255569 4294967295
44.5093 86.968704 -18.249025 4294967295
44.528061 86.496124 -18.124744 4294967295
44.547482 84.900284 -17.872698 4294967295
44.554935 84.743156 -17.826735 4294967295
44.564625 84.426498 -17.754452 4294967295
44.565632 88.118248 -18.162176 4294967295
44.573883 85.875381 -17.880659 4294967295
44.575924 87.481247 -18.051895 4294967295
44.576172 86.839432 -17.979393 4294967295
44.595387 85.724739 -17.781799 4294967295
44.598568 82.280846 -18.021469 4294967295
44.621025 87.181381 -17.84634 4294967295
44.625198 82.613464 -17.957024 4294967295
44.629372 87.987915 -17.904388 4294967295
44.665405 84.55706 -18.020382 4294967295
44.665535 85.359421 -18.109327 4294967295
44.680172 83.921761 -17.893267 4294967295
44.682766 82.959854 -17.776155 4294967295
44.684792 84.405327 -17.929567 4294967295
44.687973 85.851082 -18.078571 4294967295
44.697617 84.090088 -17.845522 4294967295
44.698753 83.609047 -17.787563 4294967295
44.698978 86.177086 -18.072948 4294967295
44.701572 82.165428 -17.615879 4294967295
44.710255 86.503242 -18.066309 4294967295
44.713116 88.269592 -18.252235 4294967295
44.714436 82.492188 -17.603268 4294967295
44.724159 82.904259 -18.247217 4294967295
44.765072 83.724525 -18.182791 4294967295
44.778381 84.693069 -18.240034 4294967295
44.790516 87.503677 -17.87179 4294967295
44.820194 84.872444 -18.100756 4294967295
44.864143 83.447701 -17.774597 4294967295
44.867489 87.942894 -18.262695 4294967295
44.868927 86.98085 -18.150051 4294967295
44.872711 85.538269 -17.974924 4294967295
44.883041 87.308372 -18.132776 4294967295
44.889565 82.743065 -18.233747 4294967295
44.892857 83.299904 -17.648766 4294967295
44.912392 82.271774 -18.094385 4294967295
44.914875 88.125725 -18.102587 4294967295
44.923122 86.524536 -17.892792 4294967295
44.926243 83.080116 -18.131739 4294967295
44.942783 87.496849 -17.926233 4294967295
44.953957 87.181007 -17.848492 4294967295
44.958206 87.82515 -17.904058 4294967295
44.958225 85.180191 -18.243992 4294967295
44.96809 84.221954 -18.09972 4294967295
44.969852 86.225021 -17.68144 4294967295
44.974098 82.619781 -17.898369 4294967295
44.975636 83.904388 -18.035627 4294967295
44.977001 83.744522 -18.012623 4294967295
44.977577 88.31591 -17.884941 4294967295
44.984318 84.710663 -18.092413 4294967295
44.992249 82.146172 -17.776539 4294967295
45.000996 84.878685 -18.047667 4294967295
45.010555 83.598969 -17.868732 4294967295
45.021133 82.479889 -17.703814 4294967295
45.037865 85.376923 -17.962872 4294967295
45.043903 86.182198 -18.029585 4294967295
45.061577 85.066658 -17.838091 4294967295
45.072929 85.553436 -17.849112 4294967295
45.09668 86.688133 -17.885118 4294967295
45.125156 87.022453 -17.814003 4294967295
45.126698 83.255295 -18.022705 4294967295
45.185074 82.317825 -17.696392 4294967295
45.195198 83.927795 -17.837217 4294967295
45.202782 86.178482 -18.058998 4294967295
45.205132 87.142509 -18.1574 4294967295
45.21674 83.381577 -18.327795 4294967295
45.218994 87.469948 -18.141146 4294967295
45.219391 86.025612 -17.97884 4294967295
45.22327 85.545815 -17.910671 4294967295
45.225262 86.670372 -18.028315 4294967295
45.227036 85.386993 -17.878689 4294967295
45.233978 88.279419 -18.174309 4294967295
45.238262 83.070229 -18.211409 4294967295
45.241058 83.552788 -18.254509 4294967295
45.241364 85.714615 -17.860699 4294967295
45.253078 87.96743 -18.066978 4294967295
45.267239 87.010902 -17.90666 4294967295
45.269356 82.602516 -18.041264 4294967295
45.28437 86.858307 -17.82456 4294967295
45.290882 85.89785 -17.692871 4294967295
45.29961 82.455261 -17.909985 4294967295
45.303135 84.864227 -18.164785 4294967295
45.313164 83.745323 -18.002148 4294967295
45.328102 84.233513 -17.999758 4294967295
45.333942 84.557144 -18.013613 4294967295
45.351635 82.317451 -17.697083 4294967295
45.354721 83.282181 -17.792774 4294967295
45.372742 84.735146 -17.886097 4294967295
45.383125 82.899948 -18.275093 4294967295
45.423965 83.238853 -18.157883 4294967295
45.42749 86.205032 -17.841808 4294967295
45.436291 86.690773 -17.862453 4294967295
45.454441 84.054756 -18.133085 4294967295
45.461517 87.184181 -17.821573 4294967295
45.489166 85.354271 -18.145952 4294967295
45.490143 87.518707 -17.750093 4294967295
45.502399 87.845642 -17.739933 4294967295
45.518116 88.334846 -17.734694 4294967295
45.53265 82.162781 -17.625834 4294967295
45.534107 86.337799 -18.084915 4294967295
45.534695 82.484863 -17.653927 4294967295
45.544598 85.861053 -17.992064 4294967295
45.557262 88.114098 -18.194693 4294967295
45.563232 83.226509 -18.260403 4294967295
45.563732 86.833031 -18.027628 4294967295
45.570469 82.427383 -18.144066 4294967295
45.587803 85.559662 -17.79463 4294967295
45.600903 87.974106 -18.013561 4294967295
45.610195 86.212227 -17.782303 4294967295
45.636387 87.34845 -17.809362 4294967295
45.649216 87.675621 -17.797091 4294967295
45.6595 85.516258 -18.150307 4294967295
45.663212 87.039719 -17.673244 4294967295
45.683102 88.333954 -17.741783 4294967295
45.708317 87.464722 -18.182024 4294967295
45.720779 85.383575 -17.903313 4294967295
45.730984 86.5121 -17.990168 4294967295
45.822124 87.999626 -17.810217 4294967295
45.850544 87.209778 -17.614674 4294967295
45.864052 86.657005 -18.134008 4294967295
45.875179 86.019997 -18.021057 4294967295
45.896851 88.277435 -18.189985 4294967295
45.90799 87.961624 -18.112707 4294967295
45.932693 87.170387 -17.931217 4294967295
45.942566 86.372017 -17.805077 4294967295
45.97699 86.548454 -17.69438 4294967295
45.979126 87.673767 -17.811396 4294967295
46.037289 87.861588 -17.612078 4294967295
46.116035 87.499161 -17.905394 4294967295
46.123077 87.020638 -17.825569 4294967295
46.179417 87.368011 -17.651106 4294967295
46.220642 88.19059 -17.586601 4294967295
46.24929 86.680618 -17.941481 4294967295
46.250793 87.002464 -17.971569 4294967295
46.270786 87.332893 -17.932747 4294967295
46.274834 87.977119 -17.989025 4294967295
46.29615 88.308289 -17.945284 4294967295
46.332855 87.682991 -17.737125 4294967295
46.450909 87.499588 -17.901293 4294967295
46.453674 86.858406 -17.819641 4294967295
46.511272 88.330917 -17.765787 4294967295
46.527618 87.856583 -17.651407 4294967295
46.557606 88.113808 -18.196548 4294967295
46.561337 87.633896 -18.129196 4294967295
46.579578 87.160637 -18.00786 4294967295
46.612576 87.015266 -17.867296 4294967295
46.666729 87.522247 -17.719393 4294967295
46.726395 86.99073 -18.064632 4294967295
46.745815 87.963203 -18.099419 4294967295
46.817112 87.353859 -17.763214 4294967295
46.908573 88.28241 -18.150434 4294967295
46.910206 87.80143 -18.090923 4294967295
46.968987 87.507477 -17.837099 4294967295
47.0023 87.201538 -17.677794 4294967295
47.135845 87.82869 -17.873186 4294967295
47.163452 88.00219 -17.788637 4294967295
47.172832 88.167244 -17.771685 4294967295
47.230286 87.473801 -18.1063 4294967295
47.355595 87.692444 -17.659935 4294967295
47.417606 88.125648 -18.102087 4294967295
47.465645 87.826691 -17.888708 4294967295
47.530762 88.017616 -17.665558 4294967295
47.535252 87.698235 -17.613319 4294967295
47.569435 88.357094 -17.558088 4294967295
47.59132 87.968147 -18.059345 4294967295
47.722332 88.350464 -17.610661 4294967295
47.83828 88.326637 -17.79962 4294967295
47.897438 87.871872 -17.527729 4294967295
47.982937 87.994804 -17.846766 4294967295
48.070431 88.356903 -17.559582 4294967295
48.154514 87.996864 -17.830194 4294967295
48.159416 88.320564 -17.847706 4294967295
48.494785 88.321091 -17.843491 4294967295
48.532196 88.016907 -17.670319 4294967295
48.825058 87.997734 -17.822693 4294967295
48.881245 88.184441 -17.634193 4294967295
49.164024 88.321358 -17.841305 4294967295
49.436646 88.209129 -17.437674 4294967295
49.544395 88.342537 -17.673279 4294967295
49.617138 88.215179 -17.389517 4294967295
49.90564 88.193932 -17.558178 4294967295
50.0284 88.334305 -17.738455 4294967295
50.193043 88.333076 -17.748159 4294967295
50.273403 88.209068 -17.437714 4294967295
50.577145 88.355736 -17.568438 4294967295
50.66798 88.236382 -17.220488 4294967295
50.761944 88.363693 -17.505253 4294967295
50.968731 88.381699 -17.362476 4294967295
51.117676 88.373215 -17.429693 4294967295
51.166645 88.234589 -17.23447 4294967295
51.339516 88.398026 -17.232889 4294967295
51.461437 88.377205 -17.397976 4294967295
51.465332 88.056992 -17.348452 4294967295
51.516678 88.241364 -17.180414 4294967295
51.736694 87.942986 -16.955473 4294967295
51.804729 88.058907 -17.332884 4294967295
51.827991 88.391533 -17.284304 4294967295
51.847469 87.917221 -17.160851 4294967295
51.851864 88.241341 -17.180407 4294967295
52.080475 88.269012 -16.960381 4294967295
52.120975 88.372337 -17.436424 4294967295
52.413166 87.945473 -16.934717 4294967295
52.437424 88.278748 -16.882801 4294967295
52.495789 88.390305 -17.293882 4294967295
52.563316 87.615242 -16.962534 4294967295
52.633236 88.054512 -17.367064 4294967295
52.722065 87.611168 -16.994781 4294967295
52.763996 87.468788 -16.826405 4294967295
52.81889 88.062614 -17.302401 4294967295
52.836277 87.748253 -17.204611 4294967295
52.888046 88.254929 -17.071817 4294967295
52.983604 87.739082 -17.277668 4294967295
52.98864 88.385696 -17.330311 4294967295
53.082714 87.622345 -16.904509 4294967295
53.112175 88.365746 -17.488503 4294967295
53.194775 87.919662 -17.139549 4294967295
53.228233 87.451172 -16.966623 4294967295
53.254311 86.979187 -16.820131 4294967295
53.266125 87.790497 -16.866211 4294967295
53.271526 87.309265 -16.793802 4294967295
53.388889 88.253792 -17.080509 4294967295
53.418762 87.138832 -16.849838 4294967295
53.420856 86.817329 -16.806986 4294967295
53.477108 88.056877 -17.347393 4294967295
53.512531 87.911652 -17.203049 4294967295
53.520447 87.592903 -17.139412 4294967295
53.617054 88.366554 -17.481943 4294967295
53.648144 87.252739 -17.247284 4294967295
53.652527 86.684151 -16.560944 4294967295
53.655624 87.900574 -17.291185 4294967295
53.665352 87.099228 -17.168133 4294967295
53.725822 88.093185 -17.058056 4294967295
53.787395 87.798325 -16.802738 4294967295
53.80711 87.000755 -16.643921 4294967295
53.823074 87.417 -17.239317 4294967295
53.857582 87.593513 -17.133789 4294967295
53.874901 87.278847 -17.036654 4294967295
53.890663 86.640991 -16.909733 4294967295
53.907669 87.132156 -16.902014 4294967295
53.909031 87.777641 -16.967815 4294967295
54.025047 86.948578 -17.064392 4294967295
54.042175 88.084503 -17.126898 4294967295
54.052109 87.605354 -17.038517 4294967295
54.0662 87.934052 -17.023567 4294967295
54.072964 86.163513 -16.805189 4294967295
54.091713 87.300499 -16.861954 4294967295
54.10376 86.015678 -16.677681 4294967295
54.107777 86.662544 -16.734011 4294967295
54.121048 86.829659 -16.704351 4294967295
54.1283 88.370155 -17.453266 4294967295
54.131512 88.210487 -17.424173 4294967295
54.160797 87.256691 -17.213989 4294967295
54.263855 87.463577 -16.864458 4294967295
54.306652 87.730362 -17.345051 4294967295
54.308365 82.250374 -16.738905 4294967295
54.308643 87.80603 -16.74021 4294967295
54.327923 85.8787 -16.459543 4294967295
54.331669 87.009689 -16.56987 4294967295
54.363197 86.055397 -16.351507 4294967295
54.372601 86.953659 -17.022102 4294967295
54.378391 87.601082 -17.072079 4294967295
54.412876 87.132652 -16.896389 4294967295
54.414196 87.294487 -16.909338 4294967295
54.416206 86.005257 -16.760952 4294967295
54.417671 86.167168 -16.773405 4294967295
54.444103 86.501282 -16.714611 4294967295
54.450752 82.562019 -16.864819 4294967295
54.450802 87.955788 -16.849655 4294967295
54.455158 88.280273 -16.869455 4294967295
54.47699 85.224976 -16.456242 4294967295
54.483479 88.217796 -17.365871 4294967295
54.497261 86.847229 -16.560692 4294967295
54.513416 85.813187 -16.994818 4294967295
54.520634 85.727921 -16.353828 4294967295
54.533039 85.660446 -16.907383 4294967295
54.55389 87.76564 -17.062597 4294967295
54.575813 82.93663 -16.455061 4294967295
54.580048 88.099762 -17.004873 4294967295
54.591694 82.228134 -16.925161 4294967295
54.599159 86.818123 -16.795752 4294967295
54.609951 87.629295 -16.845612 4294967295
54.62973 82.405098 -16.807564 4294967295
54.63958 87.406769 -17.319357 4294967295
54.64064 88.374161 -17.421368 4294967295
54.654938 87.735909 -17.300068 4294967295
54.671326 86.13118 -17.065491 4294967295
54.680161 82.909859 -16.6812 4294967295
54.69191 83.8825 -16.745329 4294967295
54.71756 83.570709 -16.618845 4294967295
54.728535 85.994789 -16.844572 4294967295
54.73325 87.125702 -16.951317 4294967295
54.737488 88.256302 -17.059723 4294967295
54.748577 84.551735 -16.614511 4294967295
54.749428 82.546097 -16.996304 4294967295
54.752773 83.101463 -16.440689 4294967295
54.762386 87.29982 -16.865437 4294967295
54.765465 86.656029 -16.783922 4294967295
54.766304 86.978981 -16.816231 4294967295
54.76688 83.268723 -16.408205 4294967295
54.770947 85.206596 -16.605608 4294967295
54.774479 85.530777 -16.628355 4294967295
54.78661 86.342651 -16.673504 4294967295
54.807777 84.738319 -16.421743 4294967295
54.808743 82.248131 -16.750311 4294967295
54.824638 85.068283 -16.397127 4294967295
54.833393 83.064758 -16.750969 4294967295
54.840988 88.38871 -17.305969 4294967295
54.855541 86.621872 -17.060387 4294967295
54.897663 86.96283 -16.946148 4294967295
54.901081 87.770622 -17.022186 4294967295
54.902927 82.217445 -17.011896 4294967295
54.919041 82.777756 -16.411453 4294967295
54.932926 87.623474 -16.891533 4294967295
54.935345 85.043564 -16.60067 4294967295
54.946903 83.847984 -17.032169 4294967295
54.954613 84.173691 -17.040085 4294967295
54.969608 83.21254 -16.881077 4294967295
54.971863 86.027367 -16.576899 4294967295
54.984829 84.419197 -16.354351 4294967295
54.998219 85.393272 -16.412724 4294967295
55.000027 85.160446 -16.984776 4294967295
55.00032 84.999329 -16.966091 4294967295
55.002731 88.224777 -17.310085 4294967295
55.004307 86.290962 -17.092999 4294967295
55.015289 83.392921 -16.73662 4294967295
55.020866 82.750015 -16.646269 4294967295
55.02441 85.977211 -16.986443 4294967295
55.024582 86.461029 -17.038729 4294967295
55.034515 82.110344 -16.527248 4294967295
55.036896 87.272636 -17.083197 4294967295
55.037331 85.660271 -16.90535 4294967295
55.038315 84.370407 -16.760769 4294967295
55.044186 85.824509 -16.898672 4294967295
55.060406 88.089256 -17.087986 4294967295
55.070782 87.448837 -16.980684 4294967295
55.077293 82.864731 -17.059256 4294967295
55.078594 83.742126 -16.547289 4294967295
55.088074 83.100655 -16.443066 4294967295
55.096031 86.169563 -16.750061 4294967295
55.106804 86.980827 -16.800041 4294967295
55.111931 87.950905 -16.887678 4294967295
55.12048 83.366432 -16.959047 4294967295
55.123512 84.012672 -17.01882 4294967295
55.12751 83.530624 -16.951754 4294967295
55.134686 84.572662 -16.43652 4294967295
55.149399 85.385864 -16.472559 4294967295
55.155605 82.413376 -16.728716 4294967295
55.166729 86.93338 -17.182909 4294967295
55.182343 84.521355 -16.86318 4294967295
55.189812 87.749657 -17.189245 4294967295
55.189934 88.394585 -17.259287 4294967295
55.205975 86.305534 -16.973364 4294967295
55.21946 82.762444 -16.537607 4294967295
55.248108 83.903885 -16.55954 4294967295
55.248688 82.382217 -16.993847 4294967295
55.250076 85.034134 -16.676035 4294967295
55.280338 88.112358 -16.903839 4294967295
55.284679 84.17086 -17.06024 4294967295
55.294361 84.891685 -16.501448 4294967295
55.297112 84.659843 -17.069092 4294967295
