# .PCD v0.7 - Point Cloud Data file format
VERSION 0.7
FIELDS x y z rgb
SIZE 4 4 4 4
TYPE F F F U
COUNT 1 1 1 1
WIDTH 1120
HEIGHT 1
VIEWPOINT 0 0 0 1 0 0 0
POINTS 1120
DATA ascii
-62.340912 60.737766 -31.005404 4294967295
-62.305176 60.465847 -30.579416 4294967295
-62.299789 60.318958 -30.496328 4294967295
-62.291214 62.447731 -30.784941 4294967295
-62.198368 60.424713 -31.060633 4294967295
-62.193279 60.731979 -31.06168 4294967295
-62.189556 60.129406 -30.915232 4294967295
-62.186386 61.495098 -31.124741 4294967295
-62.180103 59.986027 -30.790129 4294967295
-62.177868 61.199738 -30.982479 4294967295
-62.168217 62.268272 -31.070816 4294967295
-62.16481 61.059708 -30.819981 4294967295
-62.160286 61.821045 -30.907688 4294967295
-62.154598 61.371643 -30.767843 4294967295
-62.152855 62.736332 -30.992178 4294967295
-62.150558 61.981148 -30.833677 4294967295
-62.148602 63.648643 -31.109589 4294967295
-62.146729 60.923985 -30.605286 4294967295
-62.141651 62.59499 -30.84898 4294967295
-62.139309 63.202908 -30.932404 4294967295
-62.134693 62.904194 -30.830664 4294967295
-62.131073 63.058941 -30.820023 4294967295
-62.130512 62.150505 -30.652575 4294967295
-62.126114 63.366386 -30.822424 4294967295
-62.023418 60.442501 -30.833771 4294967295
-62.022427 62.412159 -31.173124 4294967295
-61.966789 62.007317 -30.516497 4294967295
-61.897346 60.569599 -31.139957 4294967295
-61.877842 61.797993 -31.153322 4294967295
-61.877079 60.284092 -30.876879 4294967295
-61.87112 60.13768 -30.788458 4294967295
-61.865337 60.9002 -30.863071 4294967295
-61.863956 62.567398 -31.144194 4294967295
-61.862984 60.750736 -30.811874 4294967295
-61.862026 61.206062 -30.882584 4294967295
-61.855701 61.06007 -30.790426 4294967295
-61.852489 62.880527 -31.079504 4294967295
-61.846287 62.128815 -30.881235 4294967295
-61.842892 61.52581 -30.738729 4294967295
-61.838032 62.439125 -30.849731 4294967295
-61.836185 61.683231 -30.696323 4294967295
-61.832405 62.292648 -30.764757 4294967295
-61.824142 62.754555 -30.760025 4294967295
-61.815517 63.519825 -30.805315 4294967295
-61.806164 63.225311 -30.655048 4294967295
-61.723431 61.495262 -31.085981 4294967295
-61.711727 59.990356 -30.697124 4294967295
-61.71138 60.596813 -30.800877 4294967295
-61.688168 63.041069 -30.990948 4294967295
-61.674026 61.235344 -30.523418 4294967295
-61.642216 62.930885 -30.490997 4294967295
-61.570312 60.433853 -30.898306 4294967295
-61.56789 60.132874 -30.819832 4294967295
-61.557949 60.747494 -30.82486 4294967295
-61.557636 60.59623 -30.794853 4294967295
-61.555714 63.324306 -31.257032 4294967295
-61.555443 61.658707 -30.959784 4294967295
-61.55463 62.113842 -31.031784 4294967295
-61.546757 62.575203 -31.03125 4294967295
-61.542774 63.184566 -31.097397 4294967295
-61.538429 61.218975 -30.704672 4294967295
-61.535122 60.312336 -30.509871 4294967295
-61.533852 62.889668 -30.95225 4294967295
-61.533844 61.829151 -30.7647 4294967295
-61.52943 61.529922 -30.665766 4294967295
-61.522747 62.445068 -30.757879 4294967295
-61.516312 63.66288 -30.906015 4294967295
-61.51268 63.514687 -30.841946 4294967295
-61.500237 62.010269 -30.44628 4294967295
-61.499096 62.769238 -30.568525 4294967295
-61.494598 63.076405 -30.575939 4294967295
-61.425484 61.031609 -31.090508 4294967295
-61.410408 60.893108 -30.909248 4294967295
-61.392975 63.634869 -31.21184 4294967295
-61.392666 61.969097 -30.91466 4294967295
-61.377495 62.133961 -30.78595 4294967295
-61.353531 61.548622 -30.433392 4294967295
-61.247547 61.96101 -30.997047 4294967295
-61.233566 60.760773 -30.64045 4294967295
-61.225002 63.495865 -31.033627 4294967295
-61.222286 61.225254 -30.605291 4294967295
-61.221992 63.044109 -30.922791 4294967295
-61.218571 62.137959 -30.727636 4294967295
-61.212997 62.90062 -30.804207 4294967295
-61.128044 59.961452 -30.993706 4294967295
-61.117146 60.576752 -30.989244 4294967295
-61.114002 60.27636 -30.903822 4294967295
-61.090302 61.812027 -30.928879 4294967295
-61.089539 60.145443 -30.627666 4294967295
-61.076427 61.369408 -30.70742 4294967295
-61.064674 61.682762 -30.640974 4294967295
-61.054298 62.449783 -30.668575 4294967295
-61.05373 63.511166 -30.849451 4294967295
-61.04837 61.545288 -30.448059 4294967295
-61.047649 61.242603 -30.387342 4294967295
-61.044861 62.00325 -30.492332 4294967295
-61.03883 63.221416 -30.644279 4294967295
-60.927563 60.454956 -30.592142 4294967295
-60.913864 60.769855 -30.506132 4294967295
-60.913601 60.163422 -30.396845 4294967295
-60.894691 63.060707 -30.710775 4294967295
-60.889675 61.397213 -30.366737 4294967295
-60.88858 63.369305 -30.701937 4294967295
-60.884418 62.766621 -30.553106 4294967295
-60.884235 62.160248 -30.44467 4294967295
-60.854263 62.641582 -30.219933 4294967295
-60.802578 60.429977 -30.879198 4294967295
-60.791599 60.13604 -30.714602 4294967295
-60.777958 61.66354 -30.842215 4294967295
-60.77795 60.905621 -30.709122 4294967295
-60.76152 61.980942 -30.728708 4294967295
-60.753922 60.622734 -30.41214 4294967295
-60.752811 63.352703 -30.879705 4294967295
-60.752712 62.291809 -30.692554 4294967295
-60.751171 60.776749 -30.410849 4294967295
-60.750259 61.232536 -30.481441 4294967295
-60.731426 62.613705 -30.529928 4294967295
-60.719128 62.77618 -30.431845 4294967295
-60.718304 63.080212 -30.47666 4294967295
-60.645065 60.129311 -30.782568 4294967295
-60.626011 60.600178 -30.669436 4294967295
-60.609344 61.069221 -30.580523 4294967295
-60.602879 60.012901 -30.329023 4294967295
-60.550808 62.484909 -30.227524 4294967295
-60.488613 60.434105 -30.803293 4294967295
-60.487877 60.131489 -30.742826 4294967295
-60.471031 61.358627 -30.785017 4294967295
-60.458752 61.217487 -30.634546 4294967295
-60.45578 60.916706 -30.551487 4294967295
-60.454376 63.192024 -30.935152 4294967295
-60.44989 60.011475 -30.332796 4294967295
-60.447407 62.591862 -30.758799 4294967295
-60.445938 62.744747 -30.770479 4294967295
-60.443127 61.837463 -30.582977 4294967295
-60.439182 60.779057 -30.357445 4294967295
-60.43808 61.083405 -30.399406 4294967295
-60.422745 62.310101 -30.456947 4294967295
-60.413708 63.379658 -30.551474 4294967295
-60.405945 63.083206 -30.42013 4294967295
-60.403179 63.692322 -30.498343 4294967295
-60.396805 62.029167 -30.142122 4294967295
-60.341389 59.97311 -30.784653 4294967295
-60.292938 62.136997 -30.667772 4294967295
-60.291019 61.38036 -30.515987 4294967295
-60.271515 63.065521 -30.611105 4294967295
-60.254051 62.929203 -30.40889 4294967295
-60.237232 63.702541 -30.372133 4294967295
-60.178696 60.434734 -30.76943 4294967295
-60.173424 60.287487 -30.690016 4294967295
-60.157017 61.211193 -30.683977 4294967295
-60.155407 60.909233 -30.614916 4294967295
-60.150707 61.671501 -30.699993 4294967295
-60.15044 62.884617 -30.90884 4294967295
-60.133507 61.382832 -30.474361 4294967295
-60.120274 62.000954 -30.447372 4294967295
-60.11945 62.760082 -30.571381 4294967295
-60.119144 62.457005 -30.51539 4294967295
-60.114166 63.219692 -30.597672 4294967295
-60.113438 63.371986 -30.616808 4294967295
-60.113312 60.792938 -30.165722 4294967295
-60.100548 62.169674 -30.275782 4294967295
-60.094929 63.540012 -30.457533 4294967295
-60.085709 63.699883 -30.391468 4294967295
-60.010757 61.659035 -30.834105 4294967295
-59.987709 60.161549 -30.339012 4294967295
-59.978924 62.596241 -30.673796 4294967295
-59.972904 61.23616 -30.375727 4294967295
-59.969254 60.935741 -30.286304 4294967295
-59.932198 62.485035 -30.179544 4294967295
-59.875175 60.278316 -30.773993 4294967295
-59.860992 60.593437 -30.684996 4294967295
-59.835861 61.52467 -30.59223 4294967295
-59.835659 60.918015 -30.484661 4294967295
-59.832008 61.679634 -30.580126 4294967295
-59.829731 62.2883 -30.66288 4294967295
-59.82785 63.048172 -30.775963 4294967295
-59.825665 61.229877 -30.43759 4294967295
-59.815472 62.907318 -30.625969 4294967295
-59.810612 61.394341 -30.313585 4294967295
-59.808865 62.457977 -30.480864 4294967295
-59.804867 61.854488 -30.335371 4294967295
-59.791206 63.383606 -30.462807 4294967295
-59.788979 62.778652 -30.335037 4294967295
-59.783291 63.238831 -30.357393 4294967295
-59.782574 62.177116 -30.165497 4294967295
-59.768421 63.70713 -30.288067 4294967295
-59.709717 60.893963 -30.758408 4294967295
-59.701401 59.990673 -30.517412 4294967295
-59.678226 60.616806 -30.391861 4294967295
-59.657471 62.151764 -30.448549 4294967295
-59.634396 61.108818 -30.034101 4294967295
-59.542824 61.510952 -30.729063 4294967295
-59.541039 60.905674 -30.606089 4294967295
-59.532101 60.457893 -30.438269 4294967295
-59.515381 60.16811 -30.219353 4294967295
-59.515202 62.2929 -30.586029 4294967295
-59.514488 60.776047 -30.315809 4294967295
-59.513165 61.687737 -30.460579 4294967295
-59.508015 61.388577 -30.356737 4294967295
-59.50779 63.057766 -30.643917 4294967295
-59.497883 62.914665 -30.519163 4294967295
-59.496487 62.157177 -30.373737 4294967295
-59.492889 61.249496 -30.180059 4294967295
-59.487705 62.468224 -30.339096 4294967295
-59.460167 63.706299 -30.275995 4294967295
-59.460094 63.402802 -30.222673 4294967295
-59.44743 63.262051 -30.070496 4294967295
-59.398941 60.591782 -30.665701 4294967295
-59.397015 59.986454 -30.541473 4294967295
-59.382755 61.81892 -30.715378 4294967295
-59.369392 62.740417 -30.740479 4294967295
-59.368523 62.437805 -30.679321 4294967295
-59.368221 61.224277 -30.466166 4294967295
-59.348042 63.669037 -30.686428 4294967295
-59.315372 62.179691 -30.09988 4294967295
-59.310757 63.246376 -30.238138 4294967295
-59.230824 61.058071 -30.598829 4294967295
-59.20298 61.233051 -30.349665 4294967295
-59.200676 61.386772 -30.353104 4294967295
-59.198151 61.692467 -30.380632 4294967295
-59.197281 62.30027 -30.476992 4294967295
-59.19397 63.51693 -30.654131 4294967295
-59.189037 62.914326 -30.500456 4294967295
-59.182957 62.464264 -30.361595 4294967295
-59.172878 63.231804 -30.393173 4294967295
-59.158638 63.699524 -30.331091 4294967295
-59.151932 62.794483 -30.107332 4294967295
-59.139942 63.108513 -30.041321 4294967295
-59.08152 60.143028 -30.482418 4294967295
-59.049866 60.776218 -30.274885 4294967295
-59.047295 60.474663 -30.197071 4294967295
-59.046371 63.055744 -30.633488 4294967295
-59.042904 60.630119 -30.179964 4294967295
-59.040817 60.024353 -30.05447 4294967295
-59.02203 63.683784 -30.498245 4294967295
-59.01997 60.952801 -30.006104 4294967295
-59.019909 61.256618 -30.057957 4294967295
-59.003059 62.485744 -30.1015 4294967295
-58.943195 60.281338 -30.657686 4294967295
-58.928093 61.052475 -30.639858 4294967295
-58.911434 61.976837 -30.632891 4294967295
-58.867374 60.95089 -30.016014 4294967295
-58.863899 63.535065 -30.426826 4294967295
-58.858814 63.084076 -30.298323 4294967295
-58.854774 62.93573 -30.232401 4294967295
-58.850231 63.698727 -30.31856 4294967295
-58.845627 62.791721 -30.11624 4294967295
-58.843292 61.730476 -29.909952 4294967295
-58.833305 62.650372 -29.968807 4294967295
-58.824848 63.417072 -30.016539 4294967295
-58.788662 60.129364 -30.620808 4294967295
-58.770378 60.447815 -30.493494 4294967295
-58.767593 60.298283 -30.44002 4294967295
-58.752182 61.525349 -30.497814 4294967295
-58.743259 60.925507 -30.305624 4294967295
-58.738846 61.840088 -30.419172 4294967295
-58.736355 61.083046 -30.263988 4294967295
-58.731232 63.667755 -30.657946 4294967295
-58.719666 62.008018 -30.25703 4294967295
-58.710445 61.256367 -30.035742 4294967295
-58.70219 62.174599 -30.11161 4294967295
-58.688416 63.24939 -30.159431 4294967295
-58.589886 60.164951 -30.176825 4294967295
-58.58374 60.473709 -30.168884 4294967295
-58.566322 61.399323 -30.154964 4294967295
-58.566284 62.614155 -30.363436 4294967295
-58.529213 62.797523 -30.026632 4294967295
-58.522858 62.499084 -29.912167 4294967295
-58.515202 63.265221 -29.967802 4294967295
-58.44883 61.064762 -30.455744 4294967295
-58.440392 61.982597 -30.529697 4294967295
-58.439968 60.616497 -30.290936 4294967295
-58.436443 62.137699 -30.517172 4294967295
-58.43428 60.16547 -30.157085 4294967295
-58.430363 60.928085 -30.249212 4294967295
-58.425674 63.057522 -30.56835 4294967295
-58.42511 61.691711 -30.328291 4294967295
-58.423107 60.782139 -30.152264 4294967295
-58.422882 60.326599 -30.071787 4294967295
-58.421547 62.757462 -30.475937 4294967295
-58.409904 63.374599 -30.466473 4294967295
-58.407825 63.224579 -30.420109 4294967295
-58.40778 62.617317 -30.315416 4294967295
-58.394623 61.413227 -29.978281 4294967295
-58.369915 63.712715 -30.128151 4294967295
-58.313488 59.98608 -30.450943 4294967295
-58.26326 61.545643 -30.221786 4294967295
-58.257504 61.094685 -30.087515 4294967295
-58.249889 61.708622 -30.117504 4294967295
-58.247185 62.014679 -30.14324 4294967295
-58.219139 63.405479 -30.104382 4294967295
-58.202358 62.356102 -29.758581 4294967295
-58.138332 60.002277 -30.240763 4294967295
-58.115093 60.324802 -30.066771 4294967295
-58.108692 60.785797 -30.082603 4294967295
-58.108189 61.090057 -30.129736 4294967295
-58.107418 60.179024 -29.966122 4294967295
-58.097084 61.85878 -30.151821 4294967295
-58.094711 62.468346 -30.232763 4294967295
-58.087593 61.410835 -29.981512 4294967295
-58.07962 62.02523 -30.008083 4294967295
-58.077938 63.545708 -30.251774 4294967295
-58.072464 63.246616 -30.146603 4294967295
-58.072357 63.70237 -30.223549 4294967295
-58.064293 62.645847 -29.963171 4294967295
-58.060665 61.737022 -29.771801 4294967295
-58.05933 62.801987 -29.94095 4294967295
-58.054047 61.590481 -29.681408 4294967295
-58.047016 63.420261 -29.925316 4294967295
-68.28688 64.112022 -31.497805 4294967295
-68.113449 65.038124 -31.427143 4294967295
-68.094765 66.7173 -31.526159 4294967295
-68.071434 68.250938 -31.543007 4294967295
-67.951088 65.801994 -31.456362 4294967295
-67.829704 63.807308 -31.442926 4294967295
-67.822037 64.418747 -31.468943 4294967295
-67.82135 64.721214 -31.518143 4294967295
-67.806511 65.641914 -31.518906 4294967295
-67.796921 66.255501 -31.522854 4294967295
-67.68367 63.950714 -31.54524 4294967295
-67.650894 65.644341 -31.483303 4294967295
-67.631996 66.871384 -31.494791 4294967295
-67.614006 67.343391 -31.374422 4294967295
-67.577423 70.401024 -31.525072 4294967295
-67.522835 64.411003 -31.53521 4294967295
-67.466927 67.789291 -31.522438 4294967295
-67.452805 68.709869 -31.531843 4294967295
-67.45211 68.258057 -31.438728 4294967295
-67.442368 69.173965 -31.498085 4294967295
-67.376404 63.800266 -31.490931 4294967295
-67.294403 69.017281 -31.522511 4294967295
-67.201714 65.029373 -31.465918 4294967295
-67.126953 69.787384 -31.49588 4294967295
-67.046066 65.333542 -31.487564 4294967295
-67.011688 66.576965 -31.32501 4294967295
-67.010086 66.880554 -31.363415 4294967295
-67.004608 67.641045 -31.442753 4294967295
-66.998703 68.401932 -31.517319 4294967295
-66.976669 69.02964 -31.381355 4294967295
-66.959404 69.50148 -31.271067 4294967295
-66.91626 63.800026 -31.462248 4294967295
-66.895607 64.575714 -31.370447 4294967295
-66.886246 65.792976 -31.490635 4294967295
-66.886086 65.189339 -31.375881 4294967295
-66.882561 66.249596 -31.533693 4294967295
-66.872894 66.863426 -31.537567 4294967295
-66.866478 67.17205 -31.521633 4294967295
-66.849571 68.246521 -31.528564 4294967295
-66.847618 67.946815 -31.450083 4294967295
-66.820656 69.334465 -31.400116 4294967295
-66.801262 70.865112 -31.463638 4294967295
-66.747505 64.872192 -31.477493 4294967295
-66.612724 64.098503 -31.536692 4294967295
-66.604408 63.804836 -31.387175 4294967295
-66.571754 66.555679 -31.527243 4294967295
-66.570412 64.896194 -31.202765 4294967295
-66.559303 67.323463 -31.528217 4294967295
-66.557556 67.47625 -31.53677 4294967295
-66.544586 67.791939 -31.447636 4294967295
-66.526077 68.868477 -31.43705 4294967295
-66.518105 69.782738 -31.516378 4294967295
-66.508148 70.095581 -31.461058 4294967295
-66.505058 70.55175 -31.510723 4294967295
-66.440208 64.41954 -31.369932 4294967295
-66.433929 65.784767 -31.552475 4294967295
-66.429604 65.336296 -31.419827 4294967295
-66.422829 66.098145 -31.484529 4294967295
-66.405739 67.021751 -31.461924 4294967295
-66.391373 66.432793 -31.188982 4294967295
-66.386681 68.400574 -31.501499 4294967295
-66.371559 68.567825 -31.360632 4294967295
-66.340378 70.262566 -31.321007 4294967295
-66.299034 64.407143 -31.497923 4294967295
-66.297333 63.955818 -31.394817 4294967295
-66.297234 64.106934 -31.421774 4294967295
-66.286179 65.326035 -31.522743 4294967295
-66.282585 65.480675 -31.510748 4294967295
-66.275841 65.940506 -31.519611 4294967295
-66.272232 66.0952 -31.507381 4294967295
-66.255287 67.018639 -31.486668 4294967295
-66.238602 68.093018 -31.49684 4294967295
-66.231781 67.194321 -31.252661 4294967295
-66.217415 69.021553 -31.428892 4294967295
-66.2146 69.628395 -31.509621 4294967295
-66.200996 70.398041 -31.498165 4294967295
-66.183151 70.115868 -31.243408 4294967295
-66.063194 69.173424 -31.440434 4294967295
-66.044983 70.551971 -31.489809 4294967295
-65.967964 65.94146 -31.49132 4294967295
-65.964272 66.096245 -31.478256 4294967295
-65.960808 66.552788 -31.523701 4294967295
-65.943771 66.872467 -31.390694 4294967295
-65.935013 68.089607 -31.517076 4294967295
-65.933998 67.637726 -31.422049 4294967295
-65.91748 68.259232 -31.350821 4294967295
-65.906494 69.931847 -31.536268 4294967295
-65.902496 69.6343 -31.436108 4294967295
-65.831497 64.111855 -31.335886 4294967295
-65.829956 64.868637 -31.458342 4294967295
-65.822235 65.178459 -31.428738 4294967295
-65.816139 66.241737 -31.556665 4294967295
-65.816055 64.580414 -31.248743 4294967295
-65.792694 67.322983 -31.492662 4294967295
-65.779892 66.430023 -31.183817 4294967295
-65.769264 68.555679 -31.456814 4294967295
-65.762253 69.16713 -31.490891 4294967295
-65.747345 68.881157 -31.270414 4294967295
-65.738319 70.400986 -31.449589 4294967295
-65.738213 70.703033 -31.504122 4294967295
-65.694557 63.793316 -31.454113 4294967295
-65.670738 65.478439 -31.497822 4294967295
-65.657387 64.132027 -31.099724 4294967295
-65.632149 66.121864 -31.18368 4294967295
-65.627068 67.788742 -31.434032 4294967295
-65.626404 67.487381 -31.371098 4294967295
-65.624031 67.036705 -31.261335 4294967295
-65.622627 66.2827 -31.106564 4294967295
-65.61692 66.439659 -31.071562 4294967295
-65.611061 69.013763 -31.48041 4294967295
-65.609756 68.562141 -31.382488 4294967295
-65.608231 67.204201 -31.115017 4294967295
-65.606346 69.471794 -31.511936 4294967295
-65.600868 69.326714 -31.423803 4294967295
-65.588928 70.09465 -31.431419 4294967295
-65.585556 70.702271 -31.505577 4294967295
-65.583771 70.855202 -31.513815 4294967295
-65.54351 64.092888 -31.527727 4294967295
-65.542267 63.943058 -31.486273 4294967295
-65.521545 64.718819 -31.397343 4294967295
-65.515388 65.178146 -31.413107 4294967295
-65.512215 64.576981 -31.266924 4294967295
-65.510056 65.485619 -31.410078 4294967295
-65.497101 64.440804 -31.07283 4294967295
-65.49427 66.10585 -31.347765 4294967295
-65.492577 66.409698 -31.384716 4294967295
-65.477577 65.971725 -31.13636 4294967295
-65.472343 68.394104 -31.523731 4294967295
-65.466377 66.889847 -31.180113 4294967295
-65.358299 64.12384 -31.170887 4294967295
-65.345131 65.950272 -31.359756 4294967295
-65.345062 65.194847 -31.220156 4294967295
-65.333641 64.752762 -31.011564 4294967295
-65.303368 67.504013 -31.1796 4294967295
-65.282799 70.244904 -31.453773 4294967295
-65.218567 65.318832 -31.535599 4294967295
-65.214592 64.56739 -31.353477 4294967295
-65.213028 64.720039 -31.3641 4294967295
-65.209244 63.968124 -31.18399 4294967295
-65.206886 65.783707 -31.491014 4294967295
-65.20491 65.634628 -31.441723 4294967295
-65.204025 66.088699 -31.515177 4294967295
-65.196861 64.131363 -31.076324 4294967295
-65.180786 67.169785 -31.455078 4294967295
-65.175766 67.477074 -31.455589 4294967295
-65.163795 68.093735 -31.435612 4294967295
-65.141724 69.929504 -31.526911 4294967295
-65.088829 63.784653 -31.509701 4294967295
-65.021851 65.815277 -31.138941 4294967295
-65.013031 66.428772 -31.15357 4294967295
-65.008217 68.700073 -31.516167 4294967295
-65.005714 67.796333 -31.322912 4294967295
-64.99205 69.774452 -31.533566 4294967295
-64.989075 69.022423 -31.362904 4294967295
-64.985825 69.328003 -31.382814 4294967295
-64.961716 70.86451 -31.396749 4294967295
-64.928131 64.093636 -31.478319 4294967295
-64.924431 64.399429 -31.493322 4294967295
-64.906456 65.021492 -31.408274 4294967295
-64.906311 65.172737 -31.43433 4294967295
-64.903671 63.815056 -31.156767 4294967295
-64.896828 66.239792 -31.524624 4294967295
-64.891594 66.547218 -31.523014 4294967295
-64.888496 64.736908 -31.157587 4294967295
-64.88781 66.853188 -31.537085 4294967295
-64.883957 65.950569 -31.329414 4294967295
-64.868568 67.175018 -31.383108 4294967295
-64.864799 67.783211 -31.45269 4294967295
-64.855774 66.734726 -31.161068 4294967295
-64.853256 68.55056 -31.465315 4294967295
-64.853111 67.039726 -31.187443 4294967295
-64.85144 67.645958 -31.279781 4294967295
-64.833229 69.327034 -31.385735 4294967295
-64.831108 69.782471 -31.445528 4294967295
-64.818222 70.249489 -31.388399 4294967295
-64.800636 70.570656 -31.252619 4294967295
-64.784508 63.781685 -31.522175 4294967295
-64.741508 65.486008 -31.359159 4294967295
-64.721451 65.203552 -31.086376 4294967295
-64.712128 65.817581 -31.095657 4294967295
-64.690338 68.862564 -31.411303 4294967295
-64.672897 68.72979 -31.194643 4294967295
-64.64473 70.119888 -31.137676 4294967295
-64.609985 64.406288 -31.396852 4294967295
-64.609283 65.162567 -31.526968 4294967295
-64.599564 64.265244 -31.256451 4294967295
-64.596291 65.477608 -31.441553 4294967295
-64.590019 65.786072 -31.428785 4294967295
-64.588898 64.729149 -31.223766 4294967295
-64.587212 66.091095 -31.453499 4294967295
-64.576019 67.311119 -31.552811 4294967295
-64.557823 67.027481 -31.300907 4294967295
-64.554649 65.670082 -31.018541 4294967295
-64.547569 68.85125 -31.520531 4294967295
-64.547478 66.886841 -31.161488 4294967295
-64.543015 68.251671 -31.361149 4294967295
-64.540939 69.160355 -31.503929 4294967295
-64.528198 69.627045 -31.448824 4294967295
-64.520653 70.390419 -31.504889 4294967295
-64.478531 70.738052 -31.104975 4294967295
-64.45565 63.953365 -31.297794 4294967295
-64.432671 64.731544 -31.18737 4294967295
-64.417297 65.200195 -31.104109 4294967295
-64.415894 67.166695 -31.446535 4294967295
-64.41571 67.620163 -31.527098 4294967295
-64.414513 66.563583 -31.321636 4294967295
-64.414154 67.772842 -31.53779 4294967295
-64.406876 67.326996 -31.376829 4294967295
-64.397247 66.429764 -31.107962 4294967295
-64.36277 69.790771 -31.341253 4294967295
-64.36235 68.279709 -31.061762 4294967295
-64.354546 70.555054 -31.390045 4294967295
-64.349831 70.862312 -31.39422 4294967295
-64.34565 69.657806 -31.129259 4294967295
-64.341721 70.266586 -31.196938 4294967295
-64.315819 64.544518 -31.547735 4294967295
-64.290527 64.115425 -31.193054 4294967295
-64.277298 64.884277 -31.188089 4294967295
-64.274864 65.944931 -31.354244 4294967295
-64.267639 63.986149 -30.919157 4294967295
-64.258926 65.355911 -31.072781 4294967295
-64.25779 66.113091 -31.197939 4294967295
-64.254089 68.081688 -31.515118 4294967295
-64.254051 66.872711 -31.295115 4294967295
-64.249306 66.575142 -31.189148 4294967295
-64.243385 67.337006 -31.262808 4294967295
-64.242554 68.697998 -31.50095 4294967295
-64.239059 65.677979 -30.914036 4294967295
-64.236191 67.19313 -31.157967 4294967295
-64.227875 69.317734 -31.452873 4294967295
-64.223099 69.927124 -31.511358 4294967295
-64.222061 69.021606 -31.335518 4294967295
-64.212708 70.693573 -31.536827 4294967295
-64.210823 70.393456 -31.461699 4294967295
-64.201485 69.496651 -31.196688 4294967295
-64.197746 69.198242 -31.101625 4294967295
-64.149429 63.800808 -31.264736 4294967295
-64.144363 65.317444 -31.484682 4294967295
-64.137627 64.568153 -31.275236 4294967295
-64.13147 64.271667 -31.154194 4294967295
-64.128426 66.542244 -31.533018 4294967295
-64.118263 65.645416 -31.259438 4294967295
-64.112747 66.255615 -31.309898 4294967295
-64.108788 67.619873 -31.514229 4294967295
-64.100838 64.452415 -30.852842 4294967295
-64.092377 64.763206 -30.816933 4294967295
-64.089081 68.093414 -31.385065 4294967295
-64.067894 67.963989 -31.130503 4294967295
-64.057419 68.277168 -31.072975 4294967295
-64.051857 69.492439 -31.232748 4294967295
-63.991306 64.71212 -31.372883 4294967295
-63.991295 64.258537 -31.290586 4294967295
-63.954239 65.957939 -31.195248 4294967295
-63.930363 66.284065 -30.994535 4294967295
-63.927212 68.101837 -31.289444 4294967295
-63.925583 67.347527 -31.13516 4294967295
-63.922905 69.013191 -31.407631 4294967295
-63.917606 69.169853 -31.378336 4294967295
-63.917519 69.623322 -31.459471 4294967295
-63.909332 70.538589 -31.536083 4294967295
-63.903858 68.277 -31.067102 4294967295
-63.899609 69.793312 -31.295374 4294967295
-63.898178 70.399376 -31.389521 4294967295
-63.856731 64.088928 -31.458942 4294967295
-63.852692 64.848633 -31.552511 4294967295
-63.848808 64.398872 -31.429026 4294967295
-63.834137 65.168938 -31.40913 4294967295
-63.831287 63.810677 -31.132532 4294967295
-63.824863 65.026749 -31.28277 4294967295
-63.818481 66.393669 -31.46072 4294967295
-63.808495 64.588799 -31.025948 4294967295
-63.804565 65.500183 -31.148169 4294967295
-63.80209 64.746254 -30.98494 4294967295
-63.799965 67.621437 -31.481802 4294967295
-63.797329 67.019455 -31.344378 4294967295
-63.789696 67.934166 -31.42691 4294967295
-63.786781 66.727615 -31.177126 4294967295
-63.779778 67.339508 -31.211782 4294967295
-63.772991 66.892639 -31.057339 4294967295
-63.769279 68.710892 -31.345785 4294967295
-63.764038 67.50663 -31.071203 4294967295
-63.738281 70.859505 -31.397778 4294967295
-63.715008 63.926258 -31.550249 4294967295
-63.67379 65.780075 -31.438942 4294967295
-63.668579 64.877876 -31.219652 4294967295
-63.663528 66.546051 -31.466213 4294967295
-63.661568 65.489616 -31.254253 4294967295
-63.648006 65.956581 -31.191805 4294967295
-63.63979 65.359543 -30.995106 4294967295
-63.615665 67.803642 -31.175257 4294967295
-63.601017 69.935364 -31.401501 4294967295
-63.596519 70.242393 -31.408203 4294967295
-63.578053 70.715431 -31.293737 4294967295
-63.556797 63.779205 -31.466005 4294967295
-63.55098 64.389496 -31.513277 4294967295
-63.548996 64.693748 -31.5467 4294967295
-63.547878 64.241257 -31.453053 4294967295
-63.528831 65.015518 -31.3871 4294967295
-63.52354 65.323051 -31.385431 4294967295
-63.519642 64.116821 -31.125914 4294967295
-63.517731 65.933502 -31.432781 4294967295
-63.516178 64.573952 -31.170916 4294967295
-63.515175 65.482384 -31.323872 4294967295
-63.51413 66.23941 -31.449062 4294967295
-63.507965 64.884361 -31.138271 4294967295
-63.506123 66.54969 -31.418602 4294967295
-63.503826 63.980492 -30.930611 4294967295
-63.494659 67.770508 -31.514904 4294967295
-63.486607 66.871475 -31.265947 4294967295
-63.485935 65.662094 -31.040705 4294967295
-63.484715 67.327003 -31.327623 4294967295
-63.484447 65.814827 -31.052214 4294967295
-63.47839 68.391678 -31.451248 4294967295
-63.477913 68.694466 -31.500687 4294967295
-63.476097 67.033188 -31.181667 4294967295
-63.471252 66.432938 -31.0212 4294967295
-63.464951 69.161285 -31.444897 4294967295
-63.464699 69.010384 -31.415001 4294967295
-63.461067 67.199463 -31.049427 4294967295
-63.46019 67.654129 -31.121935 4294967295
-63.457676 70.22683 -31.558371 4294967295
-63.455982 69.624069 -31.431477 4294967295
-63.433544 68.891296 -31.057316 4294967295
-63.350849 65.19001 -31.148939 4294967295
-63.341965 67.467171 -31.463135 4294967295
-63.324265 66.274872 -31.058071 4294967295
-63.295258 67.967896 -31.050529 4294967295
-63.288704 70.847603 -31.498016 4294967295
-63.258259 70.426216 -31.094549 4294967295
-63.249622 63.929871 -31.478399 4294967295
-63.23558 64.850464 -31.493124 4294967295
-63.224541 65.163475 -31.430862 4294967295
-63.223244 64.408508 -31.281258 4294967295
-63.222664 65.921295 -31.546923 4294967295
-63.202862 64.276512 -31.038754 4294967295
-63.202709 65.789505 -31.309025 4294967295
-63.201668 66.244217 -31.379551 4294967295
-63.201057 65.639854 -31.264395 4294967295
-63.192974 66.706429 -31.369287 4294967295
-63.185486 66.108803 -31.181505 4294967295
-63.184429 65.504669 -31.061617 4294967295
-63.184383 66.86615 -31.305759 4294967295
-63.182098 67.473305 -31.390303 4294967295
-63.182083 67.322113 -31.362984 4294967295
-63.178219 66.418472 -31.159128 4294967295
-63.17514 68.085098 -31.425531 4294967295
-63.171448 68.995895 -31.549517 4294967295
-63.160358 68.553703 -31.351013 4294967295
-63.158543 68.404343 -31.304693 4294967295
-63.156597 67.801361 -31.175486 4294967295
-63.156025 68.860542 -31.359627 4294967295
-63.151047 69.621605 -31.4429 4294967295
-63.148716 67.204109 -30.983593 4294967295
-63.14629 69.172951 -31.311228 4294967295
-63.143661 68.268204 -31.120504 4294967295
-63.133408 70.244713 -31.365463 4294967295
-63.129501 70.853523 -31.432863 4294967295
-63.113274 70.71949 -31.234579 4294967295
-63.109142 70.572624 -31.163845 4294967295
-63.106647 69.970222 -31.028896 4294967295
-63.075996 64.250931 -31.314375 4294967295
-63.053749 65.935997 -31.378571 4294967295
-63.049725 64.729683 -31.11902 4294967295
-62.985302 69.785309 -31.336199 4294967295
-62.981571 68.579163 -31.079947 4294967295
-62.917576 64.255142 -31.257084 4294967295
-62.913353 64.712982 -31.294037 4294967295
-62.912289 65.772766 -31.472517 4294967295
-62.905636 65.627953 -31.37554 4294967295
-62.904236 64.419014 -31.144033 4294967295
-62.901501 64.118927 -31.061037 4294967295
-62.900211 63.817425 -30.993256 4294967295
-62.889191 67.005104 -31.446634 4294967295
-62.889084 65.341309 -31.147486 4294967295
-62.889084 67.458832 -31.526754 4294967295
-62.884991 66.253006 -31.267094 4294967295
-62.884506 65.043037 -31.045155 4294967295
-62.881905 66.709808 -31.315975 4294967295
-62.880203 67.921288 -31.514744 4294967295
-62.876839 65.958351 -31.12726 4294967295
-62.867397 66.875351 -31.190712 4294967295
-62.865253 67.180023 -31.22238 4294967295
-62.85342 67.34304 -31.125238 4294967295
-62.85231 67.646729 -31.167757 4294967295
-62.844521 68.562164 -31.248528 4294967295
-62.84317 68.261009 -31.180164 4294967295
-62.843048 70.075821 -31.503838 4294967295
-62.84177 69.774773 -31.436295 4294967295
-62.833035 69.027626 -31.209211 4294967295
-62.827053 70.394867 -31.390171 4294967295
-62.826153 70.698196 -31.434837 4294967295
-62.825085 68.88446 -31.098713 4294967295
-62.824436 68.733826 -31.0648 4294967295
-62.820271 69.64576 -31.183611 4294967295
-62.81955 67.830788 -30.850922 4294967295
-62.783978 63.78223 -31.379242 4294967295
-62.729141 65.649696 -31.129364 4294967295
-62.711174 66.726349 -31.130562 4294967295
-62.695099 69.162697 -31.394995 4294967295
-62.685741 66.599892 -30.837116 4294967295
-62.646347 69.969131 -31.020023 4294967295
-62.621899 70.751175 -30.899458 4294967295
-62.605122 64.410667 -31.216759 4294967295
-62.590763 65.180832 -31.20182 4294967295
-62.584099 65.48983 -31.18622 4294967295
-62.580997 64.130516 -30.910511 4294967295
-62.580536 64.736488 -31.013828 4294967295
-62.579502 66.099487 -31.246262 4294967295
-62.56881 66.563766 -31.215609 4294967295
-62.562382 65.359222 -30.932222 4294967295
-62.561592 66.268143 -31.086151 4294967295
-62.559475 64.604935 -30.76664 4294967295
-62.558022 66.422943 -31.075901 4294967295
-62.554039 66.880829 -31.115328 4294967295
-62.551716 67.185745 -31.145103 4294967295
-62.545528 68.402222 -31.296555 4294967295
-62.54332 69.009453 -31.381519 4294967295
-62.534367 67.505539 -31.017927 4294967295
-62.53273 67.80983 -31.054893 4294967295
-62.531857 69.777336 -31.39682 4294967295
-62.526749 69.177567 -31.235529 4294967295
-62.526325 68.27021 -31.069044 4294967295
-62.522324 68.576874 -31.081285 4294967295
-62.522251 70.392166 -31.404518 4294967295
-62.519333 69.941475 -31.29311 4294967295
-62.518616 69.488426 -31.204632 4294967295
-62.518105 69.337662 -31.172306 4294967295
-62.512726 68.889221 -31.035118 4294967295
-62.502354 68.142868 -30.791718 4294967295
-62.499519 70.869591 -31.248291 4294967295
-62.498814 70.567802 -31.186949 4294967295
-62.49641 69.662491 -30.999853 4294967295
-62.465828 64.699471 -31.414022 4294967295
-62.450344 63.957336 -31.117651 4294967295
-62.440235 65.631493 -31.30912 4294967295
-62.439453 66.842377 -31.51672 4294967295
-62.435131 65.787682 -31.282907 4294967295
-62.433002 64.578995 -31.044827 4294967295
-62.417343 63.836514 -30.746531 4294967295
-62.414753 67.925407 -31.44817 4294967295
-62.40929 67.628319 -31.337322 4294967295
-62.404198 67.179466 -31.203379 4294967295
-62.403839 65.060669 -30.821812 4294967295
-62.384338 65.987831 -30.780563 4294967295
-62.380592 68.715965 -31.227198 4294967295
-62.354408 70.558067 -31.278116 4294967295
-62.349163 70.412239 -31.196594 4294967295
-62.347515 69.808739 -31.071566 4294967295
-62.307121 64.855225 -31.381735 4294967295
-62.272659 65.79583 -31.185131 4294967295
-62.246254 66.880737 -31.099276 4294967295
-62.245304 65.670593 -30.873819 4294967295
-62.241528 65.522766 -30.807585 4294967295
-62.241249 67.793648 -31.208881 4294967295
-62.238476 66.585564 -30.964565 4294967295
-62.236584 67.495598 -31.10655 4294967295
-62.23608 65.376495 -30.724016 4294967295
-62.234966 68.102509 -31.197474 4294967295
-62.234936 69.464035 -31.439447 4294967295
-62.231522 68.86245 -31.296314 4294967295
-62.228657 69.319168 -31.347315 4294967295
-62.220608 68.722137 -31.156036 4294967295
-62.21389 69.031548 -31.140148 4294967295
-62.213688 70.393303 -31.380297 4294967295
-62.204914 69.797226 -31.181572 4294967295
-62.184578 70.726028 -31.131943 4294967295
-62.18206 70.123329 -30.998127 4294967295
-62.159763 63.941101 -31.279184 4294967295
-62.142189 66.075958 -31.473541 4294967295
-62.138706 64.111931 -31.087687 4294967295
-62.137703 65.021065 -31.238745 4294967295
-62.137665 64.567032 -31.157616 4294967295
-62.135799 65.174194 -31.245903 4294967295
-62.117043 66.856674 -31.347324 4294967295
-62.115421 64.890633 -30.980789 4294967295
-62.110844 66.71138 -31.256186 4294967295
-62.107082 67.471588 -31.351665 4294967295
-62.103573 65.810242 -31.019379 4294967295
-62.097073 67.330101 -31.221039 4294967295
-62.096596 67.179237 -31.189205 4294967295
-62.093262 66.274292 -30.99324 4294967295
-62.08659 68.248344 -31.273762 4294967295
-62.085499 67.795471 -31.181784 4294967295
-62.085083 64.767616 -30.639236 4294967295
-62.073132 68.715721 -31.214975 4294967295
-62.070843 69.928314 -31.406313 4294967295
-62.059113 70.847893 -31.446075 4294967295
-62.051983 69.190994 -31.076603 4294967295
-62.045422 70.710838 -31.277456 4294967295
-62.014408 69.683258 -30.768127 4294967295
-61.988251 63.805756 -31.061392 4294967295
-61.97258 65.7883 -31.24859 4294967295
-61.962437 64.132401 -30.848057 4294967295
-61.955933 65.955521 -31.103331 4294967295
-61.938789 64.457253 -30.657198 4294967295
-61.926552 66.286446 -30.85327 4294967295
-61.911537 69.026108 -31.181616 4294967295
-61.90929 69.331032 -31.212055 4294967295
-61.908405 66.758278 -30.746275 4294967295
-61.905437 68.426796 -31.011173 4294967295
-61.90276 68.732216 -31.037201 4294967295
-61.899391 69.94635 -31.21718 4294967295
-61.895069 70.858566 -31.333563 4294967295
-61.884628 68.59893 -30.823011 4294967295
-61.883438 69.659912 -30.998714 4294967295
-61.882599 70.26619 -31.097448 4294967295
-61.878384 70.724533 -31.134432 4294967295
-61.87627 70.121323 -31.005236 4294967295
-61.836609 64.409058 -31.184004 4294967295
-61.826622 65.931992 -31.349247 4294967295
-61.822304 63.968014 -30.955877 4294967295
-61.819862 65.332977 -31.172215 4294967295
-61.8125 65.79406 -31.17676 4294967295
-61.805649 63.831818 -30.757158 4294967295
-61.801998 65.652626 -31.041609 4294967295
-61.796928 66.263046 -31.096626 4294967295
-61.796879 64.294365 -30.747208 4294967295
-61.796761 68.230568 -31.443497 4294967295
-61.792725 64.752678 -30.784922 4294967295
-61.790527 65.057678 -30.815945 4294967295
-61.789375 67.027199 -31.152878 4294967295
-61.784119 67.789101 -31.232758 4294967295
-61.783245 67.487259 -31.170137 4294967295
-61.780548 68.549255 -31.329998 4294967295
-61.778591 66.734856 -30.988049 4294967295
-61.773666 67.34523 -31.044559 4294967295
-61.77356 67.950836 -31.150734 4294967295
-61.773308 64.164581 -30.47714 4294967295
-61.769245 66.440987 -30.837996 4294967295
-61.755184 67.211807 -30.827175 4294967295
-61.740856 68.134483 -30.840469 4294967295
-61.735607 69.350998 -31.000952 4294967295
-61.710602 69.830505 -30.823763 4294967295
-61.652428 65.042671 -30.971548 4294967295
-61.65237 66.859428 -31.292404 4294967295
-61.633163 67.483467 -31.202005 4294967295
-61.632797 64.606491 -30.689137 4294967295
-61.631584 65.516579 -30.837496 4294967295
-61.611355 65.990158 -30.709774 4294967295
-61.595093 70.548134 -31.34602 4294967295
-61.574917 68.903503 -30.844219 4294967295
-61.571983 68.149109 -30.680134 4294967295
-61.571278 68.755684 -30.780033 4294967295
-61.563198 70.126678 -30.938021 4294967295
-61.561478 69.522736 -30.81325 4294967295
-61.56068 70.734818 -31.019245 4294967295
-61.522839 65.776649 -31.34757 4294967295
-61.505928 63.975311 -30.852945 4294967295
-61.505314 65.187553 -31.060724 4294967295
-61.499878 64.738266 -30.924685 4294967295
-61.497795 65.497452 -31.037102 4294967295
-61.497345 66.557701 -31.219723 4294967295
-61.497284 66.25499 -31.165596 4294967295
-61.493217 64.289955 -30.776012 4294967295
-61.485394 67.477425 -31.257574 4294967295
-61.484539 64.600967 -30.740446 4294967295
-61.484245 64.904251 -30.790995 4294967295
-61.482113 66.875084 -31.116959 4294967295
-61.48056 65.059181 -30.779932 4294967295
-61.473454 67.337646 -31.108351 4294967295
-61.470734 67.643074 -31.133953 4294967295
-61.469967 64.159744 -30.51054 4294967295
-61.46664 66.435623 -30.877989 4294967295
-61.464859 69.313736 -31.367739 4294967295
-61.460007 68.259125 -31.13089 4294967295
-61.45705 69.624222 -31.341156 4294967295
-61.454906 69.021019 -31.212288 4294967295
-61.452862 68.871696 -31.1646 4294967295
-61.451046 67.965126 -30.985533 4294967295
-61.449688 70.388222 -31.399261 4294967295
-61.441807 69.790939 -31.21162 4294967295
-61.437302 70.552193 -31.299065 4294967295
-61.435379 70.100143 -31.199213 4294967295
-61.424255 69.203033 -30.924807 4294967295
-61.423851 68.749123 -30.840429 4294967295
-61.368748 64.414108 -31.097345 4294967295
-61.360718 63.815598 -30.908213 4294967295
-61.35088 66.096336 -31.2083 4294967295
-61.328995 65.965607 -30.957611 4294967295
-61.320709 65.821945 -30.846094 4294967295
-61.306667 66.441193 -30.809315 4294967295
-61.303349 68.715919 -31.175962 4294967295
-61.283081 69.493034 -31.102215 4294967295
-61.243572 70.441444 -30.858517 4294967295
-61.23151 63.944324 -31.180159 4294967295
-61.213238 64.56678 -31.100264 4294967295
-61.21106 65.325928 -31.21143 4294967295
-61.210716 65.629051 -31.261229 4294967295
-61.198708 64.277153 -30.898495 4294967295
-61.195797 65.794456 -31.13563 4294967295
-61.188721 64.740814 -30.876602 4294967295
-61.187939 64.438515 -30.815216 4294967295
-61.185268 65.501427 -30.974789 4294967295
-61.182899 64.897682 -30.843861 4294967295
-61.182095 67.4729 -31.28907 4294967295
-61.176594 66.569763 -31.072969 4294967295
-61.176022 64.146332 -30.640123 4294967295
-61.169765 66.273346 -30.94994 4294967295
-61.169083 67.334076 -31.129654 4294967295
-61.16534 65.974564 -30.851387 4294967295
-61.158741 67.646912 -31.077473 4294967295
-61.158443 68.70697 -31.261026 4294967295
-61.152596 66.895576 -30.881411 4294967295
-61.152203 69.015877 -31.250708 4294967295
-61.148705 68.110954 -31.055061 4294967295
-61.148384 67.808403 -30.998453 4294967295
-61.145546 65.23539 -30.51585 4294967295
-61.14373 66.449532 -30.710871 4294967295
-61.143475 67.055809 -30.815006 4294967295
-61.142288 68.57151 -31.069601 4294967295
-61.140911 69.178482 -31.162203 4294967295
-61.139954 66.150032 -30.618938 4294967295
-61.132034 69.944267 -31.204927 4294967295
-61.123108 69.650459 -31.060595 4294967295
-61.120552 70.712738 -31.221073 4294967295
-61.11607 70.111763 -31.068796 4294967295
-61.104527 70.577682 -31.031075 4294967295
-61.097206 68.918961 -30.663099 4294967295
-61.096344 70.283142 -30.894329 4294967295
-61.093071 69.529091 -30.727623 4294967295
-61.089592 70.441437 -30.852161 4294967295
-61.039825 63.978313 -30.787756 4294967295
-61.038425 65.343132 -31.013371 4294967295
-61.013676 65.063057 -30.707996 4294967295
-61.009293 65.521744 -30.743361 4294967295
-60.995872 64.92791 -30.500032 4294967295
-60.985203 70.239845 -31.323666 4294967295
-60.971004 67.831009 -30.753275 4294967295
-60.968388 66.469551 -30.48682 4294967295
-60.967976 67.530891 -30.669167 4294967295
-60.965355 68.745506 -30.855612 4294967295
-60.955524 67.391327 -30.515806 4294967295
-60.928192 70.751877 -30.823795 4294967295
-60.920792 70.001869 -30.615391 4294967295
-60.885807 65.644615 -31.072973 4294967295
-60.884022 63.828102 -30.735508 4294967295
-60.875389 66.563118 -31.126774 4294967295
-60.875359 64.745285 -30.807175 4294967295
-60.871704 64.142387 -30.663574 4294967295
-60.870609 65.81028 -30.945234 4294967295
-60.866795 66.874168 -31.092667 4294967295
-60.862854 64.605171 -30.653542 4294967295
-60.860287 65.365334 -30.760567 4294967295
-60.854115 67.643532 -31.096893 4294967295
-60.850922 64.009598 -30.425776 4294967295
-60.848507 66.134018 -30.773977 4294967295
-60.838642 65.991722 -30.647173 4294967295
-60.831047 66.45356 -30.649916 4294967295
-60.830532 65.089661 -30.405077 4294967295
-60.829784 67.212471 -30.770123 4294967295
-60.826309 65.548454 -30.442076 4294967295
-60.820499 70.856209 -31.313955 4294967295
-60.814716 67.984604 -30.75021 4294967295
-60.813938 68.288391 -30.795494 4294967295
-60.811726 68.593559 -30.82625 4294967295
-60.801189 68.906921 -30.772524 4294967295
-60.800137 69.210968 -30.815012 4294967295
-60.799824 69.665726 -30.891607 4294967295
-60.799229 69.817787 -30.912172 4294967295
-60.797009 69.517052 -30.836479 4294967295
-60.786953 69.98156 -30.814234 4294967295
-60.785057 67.861771 -30.422552 4294967295
-60.784908 70.740982 -30.926428 4294967295
-60.784382 70.438591 -30.867897 4294967295
-60.773815 69.38858 -30.574566 4294967295
-60.770786 68.785278 -30.437391 4294967295
-60.766319 70.305313 -30.658108 4294967295
-60.758579 63.802105 -31.01791 4294967295
-60.758438 70.616333 -30.631342 4294967295
-60.717373 65.354836 -30.866077 4294967295
-60.694645 64.314568 -30.449667 4294967295
-60.694321 65.527725 -30.659092 4294967295
-60.691349 64.92408 -30.522629 4294967295
-60.688709 66.896935 -30.841398 4294967295
-60.677189 68.422958 -30.990364 4294967295
-60.667995 67.522827 -30.737944 4294967295
-60.663578 69.042183 -30.958788 4294967295
-60.661751 66.316116 -30.462086 4294967295
-60.658684 69.198479 -30.935812 4294967295
-60.640453 67.700867 -30.48562 4294967295
-60.577442 64.584 -30.86865 4294967295
-60.559258 64.145744 -30.605169 4294967295
-60.556602 66.270035 -30.949919 4294967295
-60.553337 66.576111 -30.969988 4294967295
-60.550503 65.366463 -30.729059 4294967295
-60.544605 67.038872 -30.961332 4294967295
-60.544235 64.91745 -30.586082 4294967295
-60.524036 67.816063 -30.88623 4294967295
-60.524014 68.422066 -30.992058 4294967295
-60.523022 65.846695 -30.53101 4294967295
-60.519478 66.153221 -30.54829 4294967295
-60.516109 66.459595 -30.567352 4294967295
-60.514648 65.551186 -30.393311 4294967295
-60.51078 68.586441 -30.884949 4294967295
-60.509441 67.375435 -30.659212 4294967295
-60.507324 68.135239 -30.770494 4294967295
-60.506523 69.045105 -30.921518 4294967295
-60.502392 69.503632 -30.959373 4294967295
-60.501717 70.110161 -31.058561 4294967295
-60.497898 68.750534 -30.781425 4294967295
-60.497623 67.235107 -30.513315 4294967295
-60.495449 67.995155 -30.624052 4294967295
-60.488743 68.911034 -30.715488 4294967295
-60.486248 67.549202 -30.451502 4294967295
-60.482124 69.372162 -30.728266 4294967295
-60.477871 70.739975 -30.923933 4294967295
-60.476868 70.286514 -30.834314 4294967295
-60.471966 68.321068 -30.439978 4294967295
-60.464046 70.602425 -30.757946 4294967295
-60.450436 70.009857 -30.514515 4294967295
-60.426025 65.33902 -31.020258 4294967295
-60.418659 65.042725 -30.892998 4294967295
-60.416683 64.438271 -30.767088 4294967295
-60.416656 63.983521 -30.68729 4294967295
-60.391453 64.309456 -30.486145 4294967295
-60.38483 65.680122 -30.65802 4294967295
-60.383102 66.894279 -30.852594 4294967295
-60.360474 66.005951 -30.465534 4294967295
-60.358067 67.675842 -30.732811 4294967295
-60.357258 69.34333 -31.015961 4294967295
-60.355949 66.161812 -30.446453 4294967295
-60.329407 69.673836 -30.788509 4294967295
-60.303921 70.002243 -30.5849 4294967295
-60.294643 64.257584 -31.055525 4294967295
-60.291016 64.412376 -31.045496 4294967295
-60.26292 65.650215 -30.974627 4294967295
-60.241032 67.03434 -30.992676 4294967295
-60.239811 67.187004 -31.006828 4294967295
-60.218983 68.418961 -31.009109 4294967295
-60.218029 66.752922 -30.708576 4294967295
-60.216713 68.572655 -31.01276 4294967295
-60.216286 66.451363 -30.638117 4294967295
-60.212872 68.879372 -31.027046 4294967295
-60.209633 67.518745 -30.75647 4294967295
-60.208923 69.792068 -31.145952 4294967295
-60.207043 64.791618 -30.253922 4294967295
-60.206436 66.005646 -30.459705 4294967295
-60.204136 67.827133 -30.754141 4294967295
-60.203968 65.552917 -30.355463 4294967295
-60.195404 67.380692 -30.587038 4294967295
-60.195122 68.138916 -30.716507 4294967295
-60.194931 70.411804 -31.111143 4294967295
-60.182854 69.666359 -30.857727 4294967295
-60.18124 69.364883 -30.788622 4294967295
-60.160187 68.324203 -30.391954 4294967295
-60.154285 70.755539 -30.755951 4294967295
-60.15189 69.545326 -30.520296 4294967295
-60.148228 70.306923 -30.615808 4294967295
-60.115696 63.976498 -30.745232 4294967295
-60.107079 64.439049 -30.73811 4294967295
-60.103741 64.290436 -30.678185 4294967295
-60.102943 65.655472 -30.908018 4294967295
-60.098175 67.326622 -31.150757 4294967295
-60.096272 64.903648 -30.708994 4294967295
-60.092957 65.513077 -30.781437 4294967295
-60.085545 65.368263 -30.680689 4294967295
-60.076233 64.6185 -30.455076 4294967295
-60.074589 65.833183 -30.650114 4294967295
-60.072689 65.076721 -30.498884 4294967295
-60.070423 67.959061 -30.978201 4294967295
-60.068497 67.657837 -30.906096 4294967295
-60.049534 69.494377 -31.032917 4294967295
-60.047733 66.312981 -30.460129 4294967295
-60.042206 68.743927 -30.827465 4294967295
-60.026249 67.849724 -30.509048 4294967295
-60.025261 70.578896 -30.974548 4294967295
-60.023643 67.548912 -30.430101 4294967295
-60.022175 69.066536 -30.679621 4294967295
-60.017513 69.980515 -30.791357 4294967295
-59.946903 66.111748 -30.960428 4294967295
-59.934547 66.577881 -30.916002 4294967295
-59.897949 66.460373 -30.523617 4294967295
-59.887581 69.350533 -30.921186 4294967295
-59.880917 68.447617 -30.696329 4294967295
-59.874683 67.998749 -30.554893 4294967295
-59.872898 69.819557 -30.853544 4294967295
-59.863132 70.283844 -30.835102 4294967295
-59.848499 69.237106 -30.504248 4294967295
-59.847565 68.783058 -30.415764 4294967295
-59.828625 70.469719 -30.516718 4294967295
-59.826042 70.775528 -30.543676 4294967295
-59.799713 63.831158 -30.626839 4294967295
-59.791508 65.658043 -30.861252 4294967295
-59.788471 64.447807 -30.620111 4294967295
-59.785179 64.299088 -30.560867 4294967295
-59.783268 64.907448 -30.647272 4294967295
-59.779469 65.21418 -30.662073 4294967295
-59.775417 64.156105 -30.437063 4294967295
-59.768421 66.588913 -30.78903 4294967295
-59.76709 65.832047 -30.643997 4294967295
-59.758915 67.962036 -30.931269 4294967295
-59.758846 64.777794 -30.377132 4294967295
-59.756107 64.628532 -30.323431 4294967295
-59.75565 65.539192 -30.477087 4294967295
-59.755646 66.752426 -30.687922 4294967295
-59.752007 65.087402 -30.361631 4294967295
-59.748322 66.000961 -30.483078 4294967295
-59.748135 66.152809 -30.507572 4294967295
-59.739864 68.283363 -30.793993 4294967295
-59.739391 67.374176 -30.631201 4294967295
-59.733452 67.53141 -30.598345 4294967295
-59.733376 69.502121 -30.939983 4294967295
-59.728489 69.203789 -30.838608 4294967295
-59.728405 69.052299 -30.811447 4294967295
-59.725048 69.813362 -30.909624 4294967295
-59.717056 66.94014 -30.32935 4294967295
-59.715981 70.731514 -30.977203 4294967295
-59.712574 70.280296 -30.864294 4294967295
-59.708427 67.251656 -30.296038 4294967295
-59.706894 69.679604 -30.70237 4294967295
-59.667992 70.172768 -30.393652 4294967295
