# .PCD v0.7 - Point Cloud Data file format
VERSION 0.7
FIELDS x y z rgb
SIZE 4 4 4 4
TYPE F F F U
COUNT 1 1 1 1
WIDTH 1119
HEIGHT 1
VIEWPOINT 0 0 0 1 0 0 0
POINTS 1119
DATA ascii
-29.062592 77.880524 -25.722233 4294967295
-29.051025 76.651413 -25.470535 4294967295
-29.034048 71.910912 -25.759445 4294967295
-29.030943 72.222359 -25.782198 4294967295
-29.015888 73.005981 -25.790272 4294967295
-29.010664 73.164253 -25.777065 4294967295
-29.000574 73.480576 -25.753075 4294967295
-28.990711 73.642105 -25.708838 4294967295
-28.990036 74.725235 -25.856667 4294967295
-28.97654 75.508057 -25.87517 4294967295
-28.955486 73.821342 -25.494881 4294967295
-28.937529 74.917099 -25.527134 4294967295
-28.923626 74.462677 -25.368801 4294967295
-28.910337 75.400681 -25.410545 4294967295
-28.909454 74.627441 -25.295757 4294967295
-28.878902 72.372604 -25.841148 4294967295
-28.869162 77.597122 -25.439949 4294967295
-28.858652 77.140541 -25.304373 4294967295
-28.842461 72.706848 -25.641136 4294967295
-28.828409 71.942726 -25.438421 4294967295
-28.828003 74.882477 -25.849049 4294967295
-28.826153 74.265106 -25.749718 4294967295
-28.811129 74.739731 -25.714607 4294967295
-28.780748 73.523071 -25.337606 4294967295
-28.776043 76.157028 -25.676031 4294967295
-28.774691 73.68206 -25.318907 4294967295
-28.771101 76.3153 -25.664774 4294967295
-28.766619 77.865372 -25.852251 4294967295
-28.765739 75.3908 -25.498468 4294967295
-28.762846 73.999893 -25.283304 4294967295
-28.755075 77.719231 -25.753473 4294967295
-28.754877 76.945908 -25.643438 4294967295
-28.751404 75.555786 -25.424496 4294967295
-28.740501 76.027901 -25.416964 4294967295
-28.730019 77.273529 -25.520994 4294967295
-28.717915 77.12764 -25.418442 4294967295
-28.707197 77.44503 -25.390396 4294967295
-28.705523 72.073296 -25.692465 4294967295
-28.699982 73.623924 -25.872856 4294967295
-28.697376 77.607025 -25.346601 4294967295
-28.691454 72.237541 -25.620337 4294967295
-28.687294 73.168648 -25.72303 4294967295
-28.667643 72.717949 -25.526722 4294967295
-28.665815 72.873947 -25.53628 4294967295
-28.648428 74.278595 -25.615984 4294967295
-28.645195 74.745026 -25.65963 4294967295
-28.639149 73.046989 -25.380148 4294967295
-28.633896 76.60939 -25.845039 4294967295
-28.620846 75.071686 -25.540752 4294967295
-28.616613 75.693642 -25.599472 4294967295
-28.612816 77.398109 -25.813168 4294967295
-28.596247 74.934319 -25.355001 4294967295
-28.564726 76.814308 -25.405767 4294967295
-28.533215 73.474983 -25.790367 4294967295
-28.529892 73.631966 -25.789967 4294967295
-28.497824 73.963631 -25.619898 4294967295
-28.485142 75.983788 -25.817778 4294967295
-28.46414 72.438881 -25.178299 4294967295
-28.46352 73.213463 -25.282866 4294967295
-28.46117 74.453468 -25.441067 4294967295
-28.439226 76.326218 -25.555672 4294967295
-28.427654 76.644081 -25.522112 4294967295
-28.424366 77.110718 -25.565382 4294967295
-28.396425 76.821487 -25.336058 4294967295
-28.383978 72.695099 -25.737947 4294967295
-28.380877 71.923553 -25.608778 4294967295
-28.380499 77.916718 -25.382156 4294967295
-28.368109 72.860634 -25.654154 4294967295
-28.365829 77.617882 -25.241127 4294967295
-28.355682 73.333351 -25.636663 4294967295
-28.347521 74.112648 -25.690941 4294967295
-28.345667 73.804474 -25.63521 4294967295
-28.344742 75.197548 -25.824369 4294967295
-28.328585 72.268364 -25.304525 4294967295
-28.324133 74.438438 -25.578926 4294967295
-28.318638 74.597038 -25.56411 4294967295
-28.311996 75.375458 -25.628494 4294967295
-28.311363 74.292587 -25.472347 4294967295
-28.311354 73.983025 -25.428867 4294967295
-28.307348 75.069244 -25.554209 4294967295
-28.291283 75.699684 -25.534275 4294967295
-28.290277 74.926506 -25.419069 4294967295
-28.281057 76.016518 -25.509748 4294967295
-28.264309 77.266708 -25.572109 4294967295
-28.252123 75.882408 -25.295832 4294967295
-28.244108 77.745773 -25.50305 4294967295
-28.241577 72.374695 -25.796013 4294967295
-28.172472 72.885864 -25.402454 4294967295
-28.158579 76.609642 -25.830772 4294967295
-28.130116 74.30838 -25.316698 4294967295
-28.129457 73.224907 -25.160412 4294967295
-28.116968 75.401344 -25.38135 4294967295
-28.100721 77.580032 -25.577219 4294967295
-28.099123 77.11689 -25.501585 4294967295
-28.098223 76.807968 -25.452246 4294967295
-28.087801 76.505867 -25.339758 4294967295
-28.081528 72.066216 -25.736969 4294967295
-28.075613 76.979141 -25.324013 4294967295
-28.067602 77.294609 -25.31428 4294967295
-28.049444 72.397324 -25.567736 4294967295
-28.034611 72.716919 -25.512812 4294967295
-28.030125 73.648628 -25.613148 4294967295
-28.028828 73.030426 -25.517859 4294967295
-28.027157 72.567177 -25.441738 4294967295
-28.023636 74.272148 -25.656855 4294967295
-28.02054 72.262009 -25.354525 4294967295
-28.016846 73.967331 -25.568544 4294967295
-28.007555 74.747627 -25.615364 4294967295
-28.002283 72.893684 -25.320314 4294967295
-28.001284 73.513672 -25.400423 4294967295
-27.991922 73.365265 -25.316734 4294967295
-27.991598 75.223137 -25.574711 4294967295
-27.986534 75.845779 -25.627855 4294967295
-27.98518 74.453682 -25.42384 4294967295
-27.982227 74.920158 -25.469309 4294967295
-27.980482 76.004852 -25.609453 4294967295
-27.978781 74.612961 -25.403133 4294967295
-27.97146 76.475594 -25.614729 4294967295
-27.96776 75.394745 -25.438543 4294967295
-27.960478 75.55471 -25.411993 4294967295
-27.955799 74.164421 -25.185877 4294967295
-27.945482 77.268204 -25.551102 4294967295
-27.894083 73.323654 -25.713503 4294967295
-27.84576 71.963043 -25.198893 4294967295
-27.802788 75.089622 -25.348106 4294967295
-27.798018 76.021942 -25.446526 4294967295
-27.759741 77.907318 -25.453445 4294967295
-27.75802 77.598938 -25.398773 4294967295
-27.740505 71.927277 -25.546249 4294967295
-27.732725 72.551659 -25.581465 4294967295
-27.722513 73.022934 -25.578972 4294967295
-27.699459 73.81266 -25.534988 4294967295
-27.695145 73.196358 -25.419924 4294967295
-27.692968 75.829193 -25.773426 4294967295
-27.688183 72.736557 -25.308994 4294967295
-27.678625 73.672157 -25.375801 4294967295
-27.675673 74.29351 -25.442904 4294967295
-27.673656 76.15242 -25.689264 4294967295
-27.670658 74.91626 -25.49638 4294967295
-27.666899 72.441154 -25.125128 4294967295
-27.664028 74.146729 -25.344398 4294967295
-27.65576 76.784294 -25.657709 4294967295
-27.646366 76.326668 -25.530836 4294967295
-27.645542 75.398354 -25.395559 4294967295
-27.644558 77.256683 -25.648703 4294967295
-27.643 73.386787 -25.097296 4294967295
-27.642506 75.710159 -25.418806 4294967295
-27.637547 77.106972 -25.580824 4294967295
-27.623911 77.890808 -25.599043 4294967295
-27.623762 75.103943 -25.208534 4294967295
-27.593899 76.98365 -25.271261 4294967295
-27.571096 73.172798 -25.642626 4294967295
-27.549913 74.115997 -25.632763 4294967295
-27.530685 74.438881 -25.549299 4294967295
-27.495838 74.617897 -25.341311 4294967295
-27.452398 77.281075 -25.422819 4294967295
-27.45129 76.662483 -25.329025 4294967295
-27.401537 71.941544 -25.392262 4294967295
-27.398272 72.408264 -25.435635 4294967295
-27.395592 72.564903 -25.439617 4294967295
-27.390236 73.187859 -25.490843 4294967295
-27.385292 74.120132 -25.587982 4294967295
-27.385075 73.810669 -25.543333 4294967295
-27.380739 73.349144 -25.449966 4294967295
-27.374252 75.211357 -25.666607 4294967295
-27.372074 73.664734 -25.436176 4294967295
-27.369734 75.833641 -25.723286 4294967295
-27.365597 75.991341 -25.71768 4294967295
-27.359198 74.447784 -25.459543 4294967295
-27.358421 74.603157 -25.476051 4294967295
-27.35704 72.900612 -25.229166 4294967295
-27.343233 73.994225 -25.289669 4294967295
-27.334507 73.070763 -25.102505 4294967295
-27.33313 74.930435 -25.352911 4294967295
-27.332735 77.717377 -25.739176 4294967295
-27.323624 75.556534 -25.376837 4294967295
-27.312599 76.957947 -25.498812 4294967295
-27.306122 77.272263 -25.499437 4294967295
-27.298153 76.348877 -25.317408 4294967295
-27.297823 77.123405 -25.423279 4294967295
-27.296591 74.80098 -25.090944 4294967295
-27.290358 77.59333 -25.439011 4294967295
-27.288376 76.820473 -25.317949 4294967295
-27.278519 77.447052 -25.339588 4294967295
-27.262623 76.529099 -25.105396 4294967295
-27.24341 73.024979 -25.541643 4294967295
-27.201334 71.969025 -25.113956 4294967295
-27.194788 74.296906 -25.395056 4294967295
-27.166862 75.400368 -25.362875 4294967295
-27.155975 74.633492 -25.183378 4294967295
-27.155329 76.182823 -25.395128 4294967295
-27.145037 74.48613 -25.089931 4294967295
-27.140909 76.812538 -25.386852 4294967295
-27.126438 75.27375 -25.075848 4294967295
-27.092125 72.555458 -25.519918 4294967295
-27.076893 74.114029 -25.635824 4294967295
-27.069096 72.880623 -25.41205 4294967295
-27.054718 74.903412 -25.59832 4294967295
-27.053371 73.355858 -25.373692 4294967295
-27.05163 72.427673 -25.232723 4294967295
-27.041836 72.124352 -25.125284 4294967295
-27.038937 75.998154 -25.645887 4294967295
-27.037712 71.972145 -25.076633 4294967295
-27.028168 75.696091 -25.532162 4294967295
-27.02763 73.528229 -25.22648 4294967295
-27.025702 75.233284 -25.451269 4294967295
-27.020845 76.630226 -25.613602 4294967295
-27.020739 73.997658 -25.246063 4294967295
-27.020107 75.082321 -25.393015 4294967295
-27.016369 77.25267 -25.67053 4294967295
-27.010073 74.314804 -25.219299 4294967295
-26.998905 75.871536 -25.36195 4294967295
-26.989391 76.342903 -25.364326 4294967295
-26.988581 74.639473 -25.121588 4294967295
-26.985163 77.120255 -25.444496 4294967295
-26.95821 75.590309 -25.052042 4294967295
-26.95624 76.831192 -25.211836 4294967295
-26.955864 77.760864 -25.33884 4294967295
-26.947922 77.921509 -25.30839 4294967295
-26.941954 77.461113 -25.204556 4294967295
-26.874292 72.59494 -25.127213 4294967295
-26.857313 72.761269 -25.037615 4294967295
-26.854885 72.452934 -24.978542 4294967295
-26.827772 74.330971 -25.060049 4294967295
-26.819372 74.956604 -25.091372 4294967295
-26.782135 71.930954 -25.471218 4294967295
-26.780867 72.241524 -25.506033 4294967295
-26.757215 73.496246 -25.523848 4294967295
-26.734528 72.892006 -25.289343 4294967295
-26.732697 73.357956 -25.342049 4294967295
-26.727591 72.431854 -25.179317 4294967295
-26.722586 72.125275 -25.10346 4294967295
-26.721489 73.675362 -25.311916 4294967295
-26.713535 74.1455 -25.324612 4294967295
-26.711294 72.597672 -25.094355 4294967295
-26.710428 75.076996 -25.433607 4294967295
-26.68556 75.868774 -25.378902 4294967295
-26.683952 77.263741 -25.562279 4294967295
-26.682299 73.082039 -24.969528 4294967295
-26.667799 75.26152 -25.17667 4294967295
-26.66198 74.490738 -25.030846 4294967295
-26.657742 74.648628 -25.024721 4294967295
-26.653862 74.961266 -25.042498 4294967295
-26.653727 76.046066 -25.192509 4294967295
-26.652956 76.666328 -25.273684 4294967295
-26.652084 76.357094 -25.224894 4294967295
-26.643854 76.982651 -25.257345 4294967295
-26.638338 77.916077 -25.350601 4294967295
-26.628286 76.218948 -25.047903 4294967295
-26.621122 77.618668 -25.195099 4294967295
-26.606987 73.490479 -25.573927 4294967295
-26.582714 71.957703 -25.200129 4294967295
-26.571753 74.908272 -25.537848 4294967295
-26.5602 72.747406 -25.160942 4294967295
-26.551371 75.387016 -25.469507 4294967295
-26.548567 72.29023 -25.020361 4294967295
-26.541874 76.477753 -25.558258 4294967295
-26.541199 74.774475 -25.31703 4294967295
-26.539429 74.465843 -25.2624 4294967295
-26.53693 76.016632 -25.461451 4294967295
-26.534992 73.384193 -25.082653 4294967295
-26.480722 77.450653 -25.288744 4294967295
-26.410749 73.825615 -25.367304 4294967295
-26.408482 74.44677 -25.43861 4294967295
-26.402847 73.211227 -25.229719 4294967295
-26.392132 73.063461 -25.13839 4294967295
-26.390911 74.148949 -25.281143 4294967295
-26.382179 72.760147 -25.030491 4294967295
-26.376369 75.088516 -25.315577 4294967295
-26.372967 73.386299 -25.056608 4294967295
-26.368843 75.55851 -25.331129 4294967295
-26.368099 76.333572 -25.433872 4294967295
-26.357033 77.425644 -25.512413 4294967295
-26.353195 75.879288 -25.272293 4294967295
-26.349775 74.796951 -25.099356 4294967295
-26.348572 76.812096 -25.371304 4294967295
-26.348257 74.333031 -25.024874 4294967295
-26.346903 75.418831 -25.166758 4294967295
-26.341623 75.267525 -25.110855 4294967295
-26.323658 77.914314 -25.359749 4294967295
-26.323166 77.75975 -25.335028 4294967295
-26.317772 76.059067 -25.063202 4294967295
-26.312811 77.302353 -25.2031 4294967295
-26.310169 76.529381 -25.078291 4294967295
-26.290392 73.0252 -25.504421 4294967295
-26.28367 72.719887 -25.417698 4294967295
-26.283648 73.339493 -25.503576 4294967295
-26.249805 74.911407 -25.498545 4294967295
-26.246016 72.435005 -25.129757 4294967295
-26.238264 72.285149 -25.057817 4294967295
-26.229887 75.854553 -25.498056 4294967295
-26.221697 76.63472 -25.552301 4294967295
-26.211535 74.782806 -25.228249 4294967295
-26.193789 76.964272 -25.413946 4294967295
-26.178885 74.030128 -24.908398 4294967295
-26.163246 75.746101 -25.04343 4294967295
-26.129347 77.320045 -25.038239 4294967295
-26.120363 77.791489 -25.044386 4294967295
-26.065264 72.759453 -25.025213 4294967295
-26.060932 75.706802 -25.405504 4294967295
-26.043915 76.028526 -25.338064 4294967295
-26.043133 76.338943 -25.375952 4294967295
-26.035284 76.96418 -25.410969 4294967295
-26.032146 74.17688 -25.003752 4294967295
-26.030293 74.798195 -25.077728 4294967295
-26.03002 74.333344 -25.011454 4294967295
-26.021124 77.439018 -25.383558 4294967295
-26.013407 75.429855 -25.054131 4294967295
-26.004093 77.606125 -25.294577 4294967295
-26.002102 76.677742 -25.152737 4294967295
-25.999748 75.594345 -24.986996 4294967295
-25.991449 76.220222 -25.019138 4294967295
-25.990967 75.910515 -24.973011 4294967295
-25.969994 77.785522 -25.094883 4294967295
-25.968575 77.941544 -25.107168 4294967295
-25.958467 72.414909 -25.314657 4294967295
-25.952845 73.658142 -25.450027 4294967295
-25.938877 71.962868 -25.123201 4294967295
-25.936678 73.359131 -25.302301 4294967295
-25.932926 72.896736 -25.213535 4294967295
-25.9258 74.451103 -25.382141 4294967295
-25.922916 74.143173 -25.320507 4294967295
-25.922447 72.128662 -25.038172 4294967295
-25.91717 72.287155 -25.025446 4294967295
-25.901649 73.227585 -25.053774 4294967295
-25.895924 75.401268 -25.3174 4294967295
-25.891428 73.544479 -25.030508 4294967295
-25.890871 74.629898 -25.177284 4294967295
-25.879902 77.426613 -25.492701 4294967295
-25.873983 74.951454 -25.110819 4294967295
-25.852802 77.136002 -25.274277 4294967295
-25.836733 77.922287 -25.277561 4294967295
-25.825457 76.845375 -25.054234 4294967295
-25.741751 74.933197 -25.278223 4294967295
-25.733423 74.008904 -25.09556 4294967295
-25.731205 74.63044 -25.167074 4294967295
-25.731066 75.560432 -25.294949 4294967295
-25.73052 75.250862 -25.248493 4294967295
-25.723572 75.100655 -25.182095 4294967295
-25.722143 74.481606 -25.086996 4294967295
-25.720528 72.622055 -24.818834 4294967295
-25.718245 76.809029 -25.383671 4294967295
-25.718168 72.003212 -24.717625 4294967295
-25.717442 77.894089 -25.52861 4294967295
-25.716606 76.190353 -25.287262 4294967295
-25.693745 76.36132 -25.160883 4294967295
-25.692709 77.756851 -25.34729 4294967295
-25.689701 77.449074 -25.284939 4294967295
-25.689257 77.139435 -25.239153 4294967295
-25.667484 76.534744 -25.012547 4294967295
-25.645346 77.635658 -25.019659 4294967295
-25.634132 72.264122 -25.239565 4294967295
-25.62821 73.352867 -25.351461 4294967295
-25.624098 71.960693 -25.131811 4294967295
-25.620028 73.978188 -25.384386 4294967295
-25.602398 73.060089 -25.141802 4294967295
-25.59358 74.306007 -25.256453 4294967295
-25.592075 73.221977 -25.096577 4294967295
-25.572519 73.545113 -25.013157 4294967295
-25.532143 77.913177 -25.352947 4294967295
-25.527182 74.816254 -24.891994 4294967295
-25.513878 75.600761 -24.913372 4294967295
-25.442974 72.285179 -25.02603 4294967295
-25.438299 73.063469 -25.10309 4294967295
-25.392778 74.64447 -25.023941 4294967295
-25.391798 75.110275 -25.081938 4294967295
-25.385351 76.974884 -25.297529 4294967295
-25.381918 77.442245 -25.33967 4294967295
-25.381126 76.512863 -25.206039 4294967295
-25.381098 77.90773 -25.398643 4294967295
-25.380531 76.82328 -25.245049 4294967295
-25.366161 77.608414 -25.259567 4294967295
-25.358639 76.683624 -25.082541 4294967295
-25.357779 75.753891 -24.948391 4294967295
-25.333858 77.786415 -25.072872 4294967295
-25.30895 73.198799 -25.309765 4294967295
-25.288446 72.747322 -25.113485 4294967295
-25.281614 73.527008 -25.176609 4294967295
-25.27774 72.289192 -24.980247 4294967295
-25.275618 73.065887 -25.073719 4294967295
-25.2656 71.986938 -24.859198 4294967295
-25.256878 74.318764 -25.12446 4294967295
-25.255394 73.389435 -24.986361 4294967295
-25.254303 72.924919 -24.915052 4294967295
-25.250652 75.718163 -25.277136 4294967295
-25.232227 75.26577 -25.09432 4294967295
-25.232103 76.041008 -25.200609 4294967295
-25.19305 76.998466 -25.077824 4294967295
-25.190437 76.224976 -24.953922 4294967295
-25.175268 77.476173 -25.027674 4294967295
-25.147165 71.960457 -25.114721 4294967295
-25.138458 72.431274 -25.122978 4294967295
-25.092924 74.942299 -25.172815 4294967295
-25.069796 74.182625 -24.917147 4294967295
-25.05512 73.416824 -24.715731 4294967295
-25.054985 74.502815 -24.86479 4294967295
-25.050255 76.056931 -25.048492 4294967295
-25.049427 76.987801 -25.171568 4294967295
-25.042353 77.457878 -25.190325 4294967295
-25.032183 75.449013 -24.846758 4294967295
-25.029121 75.606232 -24.848497 4294967295
-25.02685 76.228226 -24.919537 4294967295
-25.024881 76.69487 -24.971109 4294967295
-25.013781 77.788208 -25.049627 4294967295
-24.983006 72.894012 -25.204361 4294967295
-24.982889 77.965248 -24.872665 4294967295
-24.965374 71.975151 -24.962812 4294967295
-24.950285 74.00103 -25.144127 4294967295
-24.938093 75.404602 -25.258389 4294967295
-24.927567 74.636551 -25.083921 4294967295
-24.927408 73.24086 -24.89035 4294967295
-24.923393 72.623001 -24.778965 4294967295
-24.920424 72.159485 -24.695671 4294967295
-24.91304 73.09523 -24.776735 4294967295
-24.911007 76.198395 -25.191574 4294967295
-24.900133 73.569214 -24.758116 4294967295
-24.883331 74.97673 -24.842937 4294967295
-24.874559 77.619286 -25.150291 4294967295
-24.871515 77.466385 -25.109392 4294967295
-24.831787 77.184151 -24.811895 4294967295
-24.773685 72.306511 -24.790838 4294967295
-24.750916 76.509323 -25.222227 4294967295
-24.74494 74.032021 -24.841951 4294967295
-24.710585 76.847534 -25.00676 4294967295
-24.707996 77.469688 -25.075678 4294967295
-24.704239 75.455818 -24.773729 4294967295
-24.702871 75.146431 -24.722198 4294967295
-24.693998 75.928291 -24.772306 4294967295
-24.693565 77.014526 -24.919188 4294967295
-24.684679 76.400185 -24.776779 4294967295
-24.675713 77.647552 -24.890406 4294967295
-24.652252 77.819267 -24.761621 4294967295
-24.62528 72.919983 -24.939278 4294967295
-24.624887 73.230469 -24.979506 4294967295
-24.619888 73.543991 -24.990269 4294967295
-24.61948 72.303246 -24.816681 4294967295
-24.610291 74.636063 -25.078436 4294967295
-24.60701 72.776825 -24.801035 4294967295
-24.604189 73.864647 -24.932596 4294967295
-24.600143 72.00544 -24.650208 4294967295
-24.589645 76.045815 -25.138659 4294967295
-24.573622 74.350487 -24.801218 4294967295
-24.573341 74.971245 -24.884901 4294967295
-24.562307 75.289009 -24.857082 4294967295
-24.541689 75.923691 -24.810736 4294967295
-24.520201 77.955421 -24.95109 4294967295
-24.485107 73.527885 -25.140022 4294967295
-24.460043 75.095367 -25.193434 4294967295
-24.427534 73.255638 -24.729668 4294967295
-24.412205 75.748314 -24.973467 4294967295
-24.403467 74.668236 -24.768225 4294967295
-24.396072 77.930862 -25.169283 4294967295
-24.363705 76.557419 -24.770679 4294967295
-24.338406 77.81646 -24.780054 4294967295
-24.335453 72.280907 -25.023891 4294967295
-24.335159 72.125984 -25.000675 4294967295
-24.330988 73.369514 -25.144758 4294967295
-24.311142 73.072357 -24.975563 4294967295
-24.305481 74.782234 -25.174145 4294967295
-24.299009 73.545723 -24.962233 4294967295
-24.293106 74.170143 -25.009941 4294967295
-24.28524 75.261169 -25.109125 4294967295
-24.27795 75.576317 -25.105328 4294967295
-24.276476 72.629524 -24.6905 4294967295
-24.275097 73.251175 -24.767094 4294967295
-24.262096 74.966599 -24.91897 4294967295
-24.255714 74.505432 -24.814278 4294967295
-24.254402 76.83326 -25.125896 4294967295
-24.251215 74.353271 -24.764261 4294967295
-24.248268 76.372192 -25.02284 4294967295
-24.248051 77.302948 -25.149401 4294967295
-24.234692 74.053894 -24.616251 4294967295
-24.226692 74.680092 -24.65065 4294967295
-24.22369 76.078819 -24.82358 4294967295
-24.214792 77.946709 -25.022858 4294967295
-24.203962 77.488922 -24.889894 4294967295
-24.175348 77.819359 -24.750303 4294967295
-24.163607 72.59935 -24.979849 4294967295
-24.137289 75.098595 -25.15344 4294967295
-24.118423 72.163078 -24.628195 4294967295
-24.104937 74.654999 -24.883638 4294967295
-24.094971 73.575333 -24.670921 4294967295
-24.080044 77.154205 -25.066338 4294967295
-24.065691 76.698761 -24.911118 4294967295
-24.061073 75.926086 -24.775154 4294967295
-24.053917 77.327553 -24.921494 4294967295
-24.031033 77.809059 -24.839924 4294967295
-24.030502 77.499077 -24.793913 4294967295
-24.030037 76.568207 -24.663029 4294967295
-24.021976 77.970612 -24.803648 4294967295
-24.012835 72.438728 -25.006132 4294967295
-24.008434 72.906982 -25.042088 4294967295
-23.993311 72.761688 -24.924673 4294967295
-23.990726 73.383972 -24.993479 4294967295
-23.987694 72.144638 -24.803713 4294967295
-23.986073 74.628036 -25.134336 4294967295
-23.982893 74.940376 -25.156731 4294967295
-23.979795 72.304924 -24.77483 4294967295
-23.971632 75.723473 -25.191685 4294967295
-23.97139 75.103233 -25.104959 4294967295
-23.966005 74.176041 -24.942936 4294967295
-23.960966 73.09314 -24.761744 4294967295
-23.958429 73.560379 -24.809563 4294967295
-23.956095 74.803261 -24.965202 4294967295
-23.953726 74.494537 -24.907539 4294967295
-23.945976 73.723785 -24.751743 4294967295
-23.938347 76.211548 -25.044182 4294967295
-23.928221 75.287529 -24.852058 4294967295
-23.919434 75.603836 -24.83886 4294967295
-23.913651 76.693962 -24.951252 4294967295
-23.913107 75.918503 -24.841282 4294967295
-23.911543 74.367493 -24.618237 4294967295
-23.868446 77.035606 -24.706825 4294967295
-23.84211 77.830093 -24.646149 4294967295
-23.764057 73.42823 -24.55966 4294967295
-23.762037 74.826683 -24.738569 4294967295
-23.730368 77.176277 -24.857143 4294967295
-23.72324 76.249947 -24.684214 4294967295
-23.703342 77.350258 -24.70713 4294967295
-23.680134 71.982323 -24.839943 4294967295
-23.669554 73.696106 -25.007023 4294967295
-23.666222 72.456856 -24.81566 4294967295
-23.662071 72.925133 -24.853231 4294967295
-23.66144 74.942612 -25.12582 4294967295
-23.65414 72.154198 -24.696543 4294967295
-23.651802 75.414474 -25.128597 4294967295
-23.647579 72.779335 -24.740135 4294967295
-23.643167 74.334213 -24.925018 4294967295
-23.642197 73.403702 -24.791191 4294967295
-23.64175 74.645493 -24.958597 4294967295
-23.638578 75.888817 -25.108688 4294967295
-23.621479 74.038185 -24.745111 4294967295
-23.616621 76.214073 -25.012232 4294967295
-23.615747 75.128456 -24.857782 4294967295
-23.614679 75.749901 -24.936123 4294967295
-23.609962 74.51149 -24.73604 4294967295
-23.601603 75.293175 -24.789509 4294967295
-23.588877 77.939896 -25.070562 4294967295
-23.582018 77.324059 -24.942104 4294967295
-23.57519 76.087166 -24.728695 4294967295
-23.570303 77.797745 -24.931774 4294967295
-23.569862 75.625076 -24.631121 4294967295
-23.55257 76.413101 -24.628082 4294967295
-23.547087 77.193092 -24.699774 4294967295
-23.515627 73.847794 -25.056063 4294967295
-23.503431 71.993408 -24.723717 4294967295
-23.481739 73.249252 -24.756714 4294967295
-23.480204 73.095016 -24.725739 4294967295
-23.443352 75.137344 -24.769239 4294967295
-23.432455 77.317513 -24.997997 4294967295
-23.427183 76.700424 -24.879667 4294967295
-23.361105 72.137718 -24.846325 4294967295
-23.355827 72.451523 -24.855513 4294967295
-23.354509 72.607582 -24.868435 4294967295
-23.336571 72.308662 -24.712654 4294967295
-23.33165 72.932793 -24.766611 4294967295
-23.324955 72.781883 -24.703089 4294967295
-23.32148 74.957161 -24.978678 4294967295
-23.320885 74.336792 -24.889929 4294967295
-23.320793 73.250313 -24.740578 4294967295
-23.315228 72.011787 -24.535339 4294967295
-23.310959 73.877686 -24.763527 4294967295
-23.305075 76.675072 -25.108786 4294967295
-23.303362 75.590057 -24.949312 4294967295
-23.299721 77.299324 -25.15995 4294967295
-23.297821 75.283394 -24.871859 4294967295
-23.29574 74.819145 -24.794977 4294967295
-23.294731 76.371826 -25.00106 4294967295
-23.293953 73.733604 -24.634912 4294967295
-23.286324 76.067177 -24.905535 4294967295
-23.277973 74.675735 -24.661583 4294967295
-23.274117 77.006691 -24.955971 4294967295
-23.271996 77.939194 -25.070002 4294967295
-23.267624 75.769424 -24.745043 4294967295
-23.259832 77.48214 -24.929575 4294967295
-23.238283 76.565628 -24.66617 4294967295
-23.171453 73.399048 -24.818985 4294967295
-23.137062 74.35305 -24.729675 4294967295
-23.116295 75.143135 -24.705021 4294967295
-23.115971 77.626808 -25.042633 4294967295
-23.093079 76.400848 -24.728651 4294967295
-23.082026 77.184669 -24.765192 4294967295
-23.048136 72.910065 -24.976151 4294967295
-23.046719 77.985451 -24.64901 4294967295
-23.022638 72.616043 -24.773222 4294967295
-23.021317 72.461639 -24.743673 4294967295
-23.010502 73.865807 -24.866652 4294967295
-23.0049 73.093246 -24.725271 4294967295
-23.00473 73.714355 -24.809103 4294967295
-22.999416 75.114838 -24.96665 4294967295
-22.994244 74.652649 -24.870461 4294967295
-22.992479 73.567101 -24.710798 4294967295
-22.976503 76.216675 -24.971027 4294967295
-22.976482 75.595848 -24.886034 4294967295
-22.973398 74.511208 -24.71809 4294967295
-22.971798 77.151016 -25.068689 4294967295
-22.965418 74.050644 -24.604202 4294967295
-22.960154 75.451576 -24.762112 4294967295
-22.954887 74.989311 -24.665323 4294967295
-22.953392 76.077126 -24.804466 4294967295
-22.953196 73.437386 -24.44236 4294967295
-22.94405 76.704437 -24.830576 4294967295
-22.938007 74.845253 -24.537907 4294967295
-22.932919 75.935715 -24.654482 4294967295
-22.929703 76.869507 -24.761574 4294967295
-22.927713 75.783943 -24.600515 4294967295
-22.923672 77.649887 -24.829733 4294967295
-22.922977 77.495125 -24.804148 4294967295
-22.896259 77.047729 -24.572506 4294967295
-22.895321 77.980095 -24.693922 4294967295
-22.893635 77.825989 -24.662104 4294967295
-22.814808 75.442284 -24.844578 4294967295
-22.771858 76.247536 -24.680912 4294967295
-22.762854 77.340584 -24.7728 4294967295
-22.688559 74.488945 -24.919487 4294967295
-22.683767 72.318275 -24.592663 4294967295
-22.673908 73.10112 -24.636833 4294967295
-22.672995 73.4123 -24.673513 4294967295
-22.669838 74.656548 -24.823277 4294967295
-22.668869 75.433403 -24.923153 4294967295
-22.666742 72.639793 -24.528267 4294967295
-22.657711 73.577522 -24.598843 4294967295
-22.656286 74.044365 -24.653509 4294967295
-22.656103 75.907661 -24.906675 4294967295
-22.653862 74.356537 -24.680704 4294967295
-22.652945 77.306732 -25.077496 4294967295
-22.651747 75.134331 -24.773413 4294967295
-22.640091 75.607918 -24.763916 4294967295
-22.623568 76.395416 -24.766279 4294967295
-22.621284 74.843971 -24.540007 4294967295
-22.613405 75.315178 -24.554203 4294967295
-22.608625 77.181953 -24.778555 4294967295
-22.602455 77.651993 -24.803442 4294967295
-22.599438 76.877678 -24.678602 4294967295
-22.599062 76.10141 -24.570276 4294967295
-22.596287 77.035126 -24.68004 4294967295
-22.580097 77.822731 -24.684526 4294967295
-22.578939 77.512939 -24.634895 4294967295
-22.560215 72.450661 -24.832687 4294967295
-22.549431 77.999313 -24.513544 4294967295
-22.520885 72.009766 -24.522751 4294967295
-22.518921 75.582436 -24.997633 4294967295
-22.486128 76.691154 -24.940573 4294967295
-22.36968 73.557556 -24.780195 4294967295
-22.369059 74.179047 -24.860979 4294967295
-22.345467 74.660355 -24.776987 4294967295
-22.335133 74.356552 -24.670055 4294967295
-22.330334 74.049057 -24.597721 4294967295
-22.329565 75.136734 -24.741091 4294967295
-22.32855 75.913811 -24.840555 4294967295
-22.32696 73.119164 -24.449568 4294967295
-22.322233 73.277573 -24.441195 4294967295
-22.31267 74.526627 -24.550819 4294967295
-22.312553 76.079842 -24.761757 4294967295
-22.29994 77.175362 -24.831059 4294967295
-22.297508 77.64283 -24.879333 4294967295
-22.288322 77.028015 -24.737326 4294967295
-22.273388 77.504143 -24.7075 4294967295
-22.261158 76.580521 -24.504118 4294967295
-22.254372 76.429749 -24.44054 4294967295
-22.244675 77.989891 -24.591625 4294967295
-22.225924 73.236893 -24.829897 4294967295
-22.196512 72.168434 -24.498158 4294967295
-22.196104 72.790092 -24.580257 4294967295
-22.191721 74.501389 -24.785624 4294967295
-22.170692 76.533951 -24.929296 4294967295
-22.16939 75.292603 -24.752008 4294967295
-22.161238 75.763931 -24.764593 4294967295
-22.134285 77.956184 -24.892458 4294967295
-22.132444 77.491623 -24.817568 4294967295
-22.093348 77.829132 -24.616028 4294967295
-22.033936 73.723808 -24.684546 4294967295
-22.029451 72.639275 -24.50857 4294967295
-22.01158 76.223351 -24.883419 4294967295
-21.99773 75.300789 -24.670347 4294967295
-21.986839 74.220467 -24.454493 4294967295
-21.982189 74.534264 -24.467813 4294967295
-21.980036 76.399887 -24.708076 4294967295
-21.973913 75.005836 -24.479685 4294967295
-21.970978 77.803787 -24.841827 4294967295
-21.969723 77.183449 -24.74951 4294967295
-21.969072 76.87326 -24.703192 4294967295
-21.967146 76.097885 -24.585526 4294967295
-21.958008 75.637894 -24.465178 4294967295
-21.954679 77.970306 -24.761482 4294967295
-21.949053 77.663551 -24.684187 4294967295
-21.90596 72.771675 -24.748041 4294967295
-21.885183 72.31884 -24.555349 4294967295
-21.855648 75.599968 -24.815241 4294967295
-21.852932 76.067665 -24.861694 4294967295
-21.850075 73.894958 -24.548203 4294967295
-21.822523 77.485855 -24.862635 4294967295
-21.797731 77.347481 -24.687397 4294967295
-21.727016 73.560745 -24.726786 4294967295
-21.725931 73.250763 -24.677822 4294967295
-21.716761 74.809944 -24.831951 4294967295
-21.715286 72.946854 -24.56945 4294967295
-21.671679 75.927025 -24.699743 4294967295
-21.667238 75.463928 -24.608843 4294967295
-21.666759 77.483521 -24.880217 4294967295
-21.654924 76.248924 -24.637932 4294967295
-21.646334 77.186798 -24.711237 4294967295
-21.641666 75.791664 -24.492279 4294967295
-21.623892 76.735916 -24.5086 4294967295
-21.618448 77.98259 -24.643671 4294967295
-21.60438 77.681496 -24.514145 4294967295
-21.574865 73.400696 -24.745485 4294967295
-21.565145 72.319359 -24.537477 4294967295
-21.561958 73.719673 -24.707632 4294967295
-21.560064 72.788719 -24.569271 4294967295
-21.538565 72.957771 -24.457014 4294967295
-21.522015 74.056206 -24.502104 4294967295
-21.520622 74.523277 -24.556782 4294967295
-21.510798 77.015388 -24.833349 4294967295
-21.502104 75.001564 -24.505253 4294967295
-21.474417 77.506111 -24.671152 4294967295
-21.361589 74.367592 -24.533295 4294967295
-21.360056 76.698997 -24.839993 4294967295
-21.340382 77.954887 -24.886806 4294967295
-21.338531 75.936638 -24.601404 4294967295
-21.335413 77.336975 -24.771791 4294967295
-21.325722 77.188202 -24.690746 4294967295
-21.314671 77.817154 -24.706671 4294967295
-21.303686 76.581512 -24.470072 4294967295
-21.233082 72.638222 -24.487888 4294967295
-21.230318 72.484543 -24.449717 4294967295
-21.220461 75.598534 -24.8102 4294967295
-21.219574 74.356239 -24.636198 4294967295
-21.219011 73.735039 -24.548429 4294967295
-21.217144 75.134674 -24.726513 4294967295
-21.216705 73.270287 -24.470936 4294967295
-21.216036 73.892357 -24.551107 4294967295
-21.209419 75.295105 -24.699835 4294967295
-21.18849 75.77504 -24.633688 4294967295
-21.179489 77.334709 -24.788698 4294967295
-21.14208 77.981636 -24.641857 4294967295
-21.099535 72.000183 -24.558653 4294967295
-21.077435 72.48027 -24.485382 4294967295
-21.046549 74.831207 -24.610653 4294967295
-21.035288 76.703133 -24.793776 4294967295
-21.01199 77.806343 -24.797375 4294967295
-20.998983 76.882889 -24.590881 4294967295
-20.998728 77.03846 -24.61035 4294967295
-20.99865 75.9506 -24.462502 4294967295
-20.9319 72.315971 -24.545292 4294967295
-20.908331 73.107941 -24.50526 4294967295
-20.905865 73.420357 -24.532156 4294967295
-20.894201 74.981941 -24.670725 4294967295
-20.888903 73.897491 -24.490768 4294967295
-20.871521 74.530441 -24.467848 4294967295
-20.862314 75.313614 -24.516344 4294967295
-20.845846 76.412468 -24.562193 4294967295
-20.731859 74.206718 -24.543079 4294967295
-20.695896 75.629028 -24.511122 4294967295
-20.662786 77.516319 -24.55983 4294967295
-20.644485 77.684151 -24.46834 4294967295
-20.576357 73.737762 -24.499763 4294967295
-20.524513 76.103203 -24.496609 4294967295
-20.513681 76.265831 -24.451118 4294967295
-20.384787 75.002007 -24.466421 4294967295
-20.379303 75.47197 -24.495808 4294967295
-51.104965 79.200546 -29.650497 4294967295
-51.091381 78.604462 -29.433121 4294967295
-51.090858 80.585808 -29.748444 4294967295
-51.087872 79.065163 -29.476254 4294967295
-51.085392 79.372429 -29.50375 4294967295
-51.084126 78.306747 -29.320372 4294967295
-51.080627 81.205536 -29.757277 4294967295
-51.07785 82.122223 -29.880507 4294967295
-51.069283 79.998161 -29.461189 4294967295
-51.062424 80.46228 -29.474991 4294967295
-51.053341 83.061554 -29.813629 4294967295
-51.052765 79.709892 -29.267389 4294967295
-51.050438 81.998299 -29.616119 4294967295
-51.049225 81.390076 -29.507103 4294967295
-51.046947 82.306618 -29.634747 4294967295
-51.045776 80.783997 -29.378517 4294967295
-51.03804 83.991486 -29.827297 4294967295
-51.037003 81.097786 -29.350931 4294967295
-51.03603 81.860817 -29.46545 4294967295
-51.031208 83.846443 -29.74296 4294967295
-51.019062 84.773239 -29.784239 4294967295
-51.013885 85.083405 -29.788157 4294967295
-51.011543 83.41021 -29.497236 4294967295
-51.001572 84.487335 -29.582197 4294967295
-50.969151 78.115021 -29.643843 4294967295
-50.933826 79.826134 -29.605597 4294967295
-50.923195 80.141571 -29.561913 4294967295
-50.919376 81.364349 -29.725122 4294967295
-50.907299 80.767197 -29.521412 4294967295
-50.889641 83.375465 -29.784855 4294967295
-50.885983 83.988548 -29.851154 4294967295
-50.873795 82.477913 -29.499208 4294967295
-50.870354 82.176682 -29.420029 4294967295
-50.848183 83.876259 -29.496819 4294967295
-50.810371 85.135796 -29.363478 4294967295
-50.802147 78.431496 -29.586006 4294967295
-50.748882 82.751411 -29.809061 4294967295
-50.746941 80.010452 -29.350382 4294967295
-50.745781 82.145271 -29.683947 4294967295
-50.74353 79.861404 -29.296099 4294967295
-50.742939 80.319359 -29.36463 4294967295
-50.741394 80.778229 -29.424849 4294967295
-50.740265 82.303329 -29.660425 4294967295
-50.730595 81.856155 -29.502602 4294967295
-50.712887 83.550797 -29.618288 4294967295
-50.711605 83.247398 -29.558083 4294967295
-50.711025 84.009834 -29.675671 4294967295
-50.710167 82.639305 -29.447401 4294967295
-50.709267 84.621056 -29.758463 4294967295
-50.705017 83.711456 -29.574316 4294967295
-50.696785 85.091408 -29.723391 4294967295
-50.687637 84.186981 -29.496632 4294967295
-50.684937 83.88504 -29.42403 4294967295
-50.666664 84.818932 -29.412205 4294967295
-50.663479 84.517487 -29.335409 4294967295
-50.618435 79.221771 -29.456959 4294967295
-50.617508 78.460403 -29.326235 4294967295
-50.614384 78.76841 -29.348118 4294967295
-50.613594 80.141121 -29.562017 4294967295
-50.610676 79.381897 -29.413992 4294967295
-50.604572 81.369347 -29.67971 4294967295
-50.604046 80.912735 -29.601587 4294967295
-50.602928 80.304237 -29.493786 4294967295
-50.577526 81.549339 -29.469135 4294967295
-50.562668 82.021851 -29.413559 4294967295
-50.544453 83.412567 -29.47592 4294967295
-50.540356 83.264435 -29.415813 4294967295
-50.53928 84.941879 -29.676023 4294967295
-50.506634 85.129204 -29.417013 4294967295
-50.482708 78.897827 -29.573778 4294967295
-50.443001 81.833206 -29.694607 4294967295
-50.436348 81.230408 -29.538956 4294967295
-50.426174 79.410965 -29.156696 4294967295
-50.415314 80.489349 -29.234043 4294967295
-50.409851 81.562225 -29.358154 4294967295
-50.40152 83.85714 -29.653193 4294967295
-50.382069 83.420303 -29.41114 4294967295
-50.380611 83.7267 -29.447481 4294967295
-50.377926 85.101151 -29.644495 4294967295
-50.37616 82.969093 -29.286453 4294967295
-50.372631 83.277702 -29.304836 4294967295
-50.372261 84.497612 -29.497517 4294967295
-50.365898 84.961609 -29.515789 4294967295
-50.353622 84.059982 -29.262516 4294967295
-50.34996 84.826157 -29.35323 4294967295
-50.335434 78.73774 -29.614611 4294967295
-50.314507 78.605743 -29.408903 4294967295
-50.309185 79.830589 -29.558596 4294967295
-50.291828 80.00029 -29.432814 4294967295
-50.286388 79.395767 -29.287807 4294967295
-50.285538 81.0737 -29.549639 4294967295
-50.285496 78.481514 -29.133194 4294967295
-50.284599 79.702522 -29.321278 4294967295
-50.283344 80.771042 -29.481705 4294967295
-50.278992 81.385185 -29.541904 4294967295
-50.272324 79.257103 -29.141567 4294967295
-50.270496 81.241356 -29.443913 4294967295
-50.268196 82.615517 -29.644156 4294967295
-50.267445 81.854225 -29.515356 4294967295
-50.26318 83.077881 -29.674105 4294967295
-50.261593 79.115112 -29.024153 4294967295
-50.261345 81.708 -29.438128 4294967295
-50.254082 82.934921 -29.570961 4294967295
-50.245636 83.400932 -29.571247 4294967295
-50.245491 82.486504 -29.423243 4294967295
-50.227848 84.334045 -29.56411 4294967295
-50.173748 85.153694 -29.218615 4294967295
-50.157898 79.217041 -29.491621 4294967295
-50.138039 80.76123 -29.564468 4294967295
-50.136082 78.018204 -29.107489 4294967295
-50.113102 82.158379 -29.569057 4294967295
-50.096867 82.784782 -29.526604 4294967295
-50.07827 83.108902 -29.414949 4294967295
-50.076332 82.348503 -29.276043 4294967295
-50.075447 84.788551 -29.659231 4294967295
-50.074917 82.654945 -29.312687 4294967295
-50.064457 84.495354 -29.515589 4294967295
-50.056347 84.046547 -29.37233 4294967295
-50.056179 83.741776 -29.322006 4294967295
-50.051838 85.118446 -29.504395 4294967295
-50.051224 83.441956 -29.230375 4294967295
-50.048229 84.969849 -29.448833 4294967295
-49.996536 78.765663 -29.362391 4294967295
-49.994591 78.309998 -29.272364 4294967295
-49.991547 79.685486 -29.465918 4294967295
-49.976517 80.00531 -29.385201 4294967295
-49.974987 80.769218 -29.494081 4294967295
-49.971725 79.552521 -29.270643 4294967295
-49.969742 78.639183 -29.106945 4294967295
-49.968769 79.097809 -29.171858 4294967295
-49.966595 81.692383 -29.568201 4294967295
-49.960529 79.258438 -29.125248 4294967295
-49.956242 81.245476 -29.405766 4294967295
-49.954483 78.959198 -29.02426 4294967295
-49.954216 82.009865 -29.510357 4294967295
-49.952011 81.402229 -29.393738 4294967295
-49.936855 81.875061 -29.336397 4294967295
-49.933914 82.183037 -29.359882 4294967295
-49.923904 83.870461 -29.542122 4294967295
-49.922531 85.091194 -29.725393 4294967295
-49.909248 84.343147 -29.489101 4294967295
-49.881622 83.609566 -29.129221 4294967295
-49.824886 80.459282 -29.486706 4294967295
-49.818962 81.379982 -29.582035 4294967295
-49.786724 80.192131 -29.109737 4294967295
-49.78336 82.940773 -29.51977 4294967295
-49.77951 80.657013 -29.120892 4294967295
-49.74593 82.521667 -29.124952 4294967295
-49.74511 82.675064 -29.142286 4294967295
-49.736488 83.446663 -29.190115 4294967295
-49.734859 84.210968 -29.298025 4294967295
-49.724644 84.831718 -29.307766 4294967295
-49.709949 84.389595 -29.108402 4294967295
-49.70282 78.291962 -29.427652 4294967295
-49.698841 78.143272 -29.369114 4294967295
-49.688854 78.763008 -29.380848 4294967295
-49.684727 79.529564 -29.467247 4294967295
-49.679832 79.07682 -29.352148 4294967295
-49.662533 80.008919 -29.349867 4294967295
-49.660488 78.485336 -29.088581 4294967295
-49.659431 80.774536 -29.445061 4294967295
-49.652439 80.323952 -29.311981 4294967295
-49.649685 81.699226 -29.507559 4294967295
-49.648663 79.870049 -29.206465 4294967295
-49.645576 81.245895 -29.399282 4294967295
-49.637634 81.406387 -29.35548 4294967295
-49.631859 83.394463 -29.622501 4294967295
-49.630993 82.785545 -29.517689 4294967295
-49.630901 83.090561 -29.565592 4294967295
-49.629707 79.736107 -29.019402 4294967295
-49.615673 83.25872 -29.459364 4294967295
-49.611649 82.042747 -29.230038 4294967295
-49.611431 82.653084 -29.3256 4294967295
-49.60363 84.643417 -29.575216 4294967295
-49.602974 82.509201 -29.228691 4294967295
-49.590401 83.894875 -29.340065 4294967295
-49.583622 82.986671 -29.13583 4294967295
-49.574532 84.368973 -29.277079 4294967295
-49.533852 79.677849 -29.526262 4294967295
-49.52475 80.296753 -29.545643 4294967295
-49.509502 80.921829 -29.512434 4294967295
-49.501518 81.387276 -29.517054 4294967295
-49.495529 79.410255 -29.149401 4294967295
-49.483559 80.184906 -29.168621 4294967295
-49.479454 78.357445 -28.841192 4294967295
-49.458168 81.583359 -29.170322 4294967295
-49.452492 84.181992 -29.535271 4294967295
-49.436596 82.673203 -29.156038 4294967295
-49.43301 82.371696 -29.076674 4294967295
-49.424099 85.126625 -29.438313 4294967295
-49.409824 84.073891 -29.145969 4294967295
-49.409298 83.921867 -29.11713 4294967295
-49.385185 78.451378 -29.385315 4294967295
-49.377239 78.611565 -29.341702 4294967295
-49.362621 79.235916 -29.314032 4294967295
-49.347145 80.776497 -29.424898 4294967295
-49.346676 81.386993 -29.518072 4294967295
-49.346146 81.08252 -29.464951 4294967295
-49.342354 80.323631 -29.311024 4294967295
-49.33931 78.800728 -29.041819 4294967295
-49.332195 79.723312 -29.126965 4294967295
-49.332119 79.570786 -29.102001 4294967295
-49.320278 82.481117 -29.462734 4294967295
-49.318771 81.720032 -29.328344 4294967295
-49.312664 82.1838 -29.349117 4294967295
-49.310375 82.948723 -29.451065 4294967295
-49.308422 80.204483 -28.996799 4294967295
-49.304596 84.174553 -29.596022 4294967295
-49.300709 83.873634 -29.514282 4294967295
-49.297779 81.588562 -29.124735 4294967295
-49.292961 83.271606 -29.350964 4294967295
-49.290314 84.646851 -29.546976 4294967295
-49.277431 82.066856 -29.023911 4294967295
-49.27528 83.442322 -29.224325 4294967295
-49.269089 85.126579 -29.438723 4294967295
-49.260281 84.068069 -29.193487 4294967295
-49.250767 84.383102 -29.160879 4294967295
-49.250202 84.84137 -29.228956 4294967295
-49.249477 84.53701 -29.174164 4294967295
-49.201176 79.699623 -29.331827 4294967295
-49.188679 80.016975 -29.273844 4294967295
-49.186642 79.561218 -29.183582 4294967295
-49.185043 78.341759 -28.975561 4294967295
-49.164249 81.566818 -29.308418 4294967295
-49.142349 81.741348 -29.146051 4294967295
-49.131687 82.362473 -29.152327 4294967295
-49.126472 83.740898 -29.326376 4294967295
-49.099529 83.616081 -29.072603 4294967295
-49.082535 78.13871 -29.398691 4294967295
-49.069756 84.867859 -29.013241 4294967295
-49.062611 79.225731 -29.398945 4294967295
-49.056213 78.774193 -29.271729 4294967295
-49.049175 79.696449 -29.357397 4294967295
-49.036533 78.945732 -29.128498 4294967295
-49.028313 81.547562 -29.470947 4294967295
-49.022442 79.875099 -29.15419 4294967295
-49.017227 80.185425 -29.158346 4294967295
-49.01672 82.016762 -29.44511 4294967295
-49.013325 81.715088 -29.367752 4294967295
-49.009724 78.360786 -28.803211 4294967295
-49.008671 80.956863 -29.206894 4294967295
-49.007351 80.347733 -29.098608 4294967295
-49.005875 78.669876 -28.819025 4294967295
-48.995449 80.817345 -29.070152 4294967295
-48.991562 81.279068 -29.109896 4294967295
-48.989662 81.433571 -29.11799 4294967295
-48.985451 83.116226 -29.348965 4294967295
-48.984528 84.642342 -29.583485 4294967295
-48.973305 82.518265 -29.148685 4294967295
-48.972343 84.197479 -29.40723 4294967295
-48.970181 84.352249 -29.413109 4294967295
-48.969025 82.827805 -29.160814 4294967295
-48.967854 83.744476 -29.296364 4294967295
-48.967285 81.913849 -29.000463 4294967295
-48.953865 83.301071 -29.104713 4294967295
-48.937557 83.623024 -29.014599 4294967295
-48.928692 85.005699 -29.157505 4294967295
-48.899246 79.996376 -29.449032 4294967295
-48.895809 78.015945 -29.10475 4294967295
-48.88287 79.554581 -29.23728 4294967295
-48.872459 80.327721 -29.270071 4294967295
-48.863556 79.420662 -29.049074 4294967295
-48.840328 79.137726 -28.803324 4294967295
-48.828999 82.812393 -29.288919 4294967295
-48.826515 82.35714 -29.195152 4294967295
-48.825832 81.136787 -28.995504 4294967295
-48.815659 84.809212 -29.490557 4294967295
-48.776363 85.155327 -29.205793 4294967295
-48.72427 79.099869 -29.134607 4294967295
-48.72168 78.79705 -29.064249 4294967295
-48.7132 78.347107 -28.919691 4294967295
-48.713047 79.72126 -29.136395 4294967295
-48.71133 80.028191 -29.170267 4294967295
-48.709427 79.419464 -29.057287 4294967295
-48.701546 80.495636 -29.160042 4294967295
-48.696449 78.515762 -28.801979 4294967295
-48.695042 82.028099 -29.346987 4294967295
-48.689632 81.728325 -29.252785 4294967295
-48.688965 82.797035 -29.416494 4294967295
-48.678226 80.976501 -29.035145 4294967295
-48.674809 80.67453 -28.957777 4294967295
-48.673763 83.575272 -29.408779 4294967295
-48.670689 81.594574 -29.068161 4294967295
-48.670238 81.900307 -29.112762 4294967295
-48.66449 82.516579 -29.160896 4294967295
-48.654823 83.136826 -29.175894 4294967295
-48.645897 83.451149 -29.148731 4294967295
-48.641773 83.302727 -29.089636 4294967295
-48.637142 84.528381 -29.243992 4294967295
-48.635811 83.766708 -29.111753 4294967295
-48.633667 84.68457 -29.238789 4294967295
-48.623955 84.389412 -29.108206 4294967295
-48.616665 84.091644 -28.99814 4294967295
-48.603409 78.456398 -29.327286 4294967295
-48.603096 78.151474 -29.276268 4294967295
-48.598114 85.026764 -28.986351 4294967295
-48.573521 80.621513 -29.413111 4294967295
-48.571224 79.55555 -29.224438 4294967295
-48.567249 78.032707 -28.948896 4294967295
-48.550068 80.491875 -29.190723 4294967295
-48.545731 81.106628 -29.250761 4294967295
-48.52779 81.582245 -29.171711 4294967295
-48.520222 82.352913 -29.228649 4294967295
-48.51561 83.730881 -29.407177 4294967295
-48.513279 84.038383 -29.435822 4294967295
-48.50515 82.062737 -29.05294 4294967295
-48.488937 82.842316 -29.036896 4294967295
-48.469593 84.693771 -29.163588 4294967295
-48.411335 80.170456 -29.280565 4294967295
-48.409195 79.867271 -29.214193 4294967295
-48.387634 78.819191 -28.863152 4294967295
-48.387291 80.041153 -29.053589 4294967295
-48.38517 79.432426 -28.939053 4294967295
-48.38298 78.212616 -28.727146 4294967295
-48.38253 80.961769 -29.158394 4294967295
-48.36837 81.433678 -29.111462 4294967295
-48.364929 80.520973 -28.9375 4294967295
-48.359936 82.205307 -29.161106 4294967295
-48.359871 82.510635 -29.208879 4294967295
-48.354111 83.584732 -29.329325 4294967295
-48.35392 81.753326 -29.037941 4294967295
-48.350681 83.283012 -29.252138 4294967295
-48.347565 84.201775 -29.370712 4294967295
-48.346046 82.829811 -29.140627 4294967295
-48.342079 82.375824 -29.034754 4294967295
-48.332623 84.827515 -29.341335 4294967295
-48.331417 83.455193 -29.113937 4294967295
-48.318558 83.926254 -29.077991 4294967295
-48.316166 85.149765 -29.250978 4294967295
-48.312515 83.169014 -28.906311 4294967295
-48.296276 84.407112 -28.962696 4294967295
-48.25985 79.861465 -29.262739 4294967295
-48.259373 80.319809 -29.331102 4294967295
-48.254051 78.340256 -28.972532 4294967295
-48.250553 80.023094 -29.208609 4294967295
-48.235958 81.105812 -29.254683 4294967295
-48.235786 81.411232 -29.301476 4294967295
-48.233696 78.970459 -28.897724 4294967295
-48.225883 80.657715 -29.097528 4294967295
-48.221554 79.745728 -28.916252 4294967295
-48.217415 79.138733 -28.784813 4294967295
-48.214695 81.73735 -29.172289 4294967295
-48.212482 82.197479 -29.226028 4294967295
-48.204975 82.815514 -29.259375 4294967295
-48.186283 81.001869 -28.81255 4294967295
-48.185661 83.903427 -29.26576 4294967295
-48.185162 82.530098 -29.044447 4294967295
-48.166309 84.075821 -29.127138 4294967295
-48.153374 84.852364 -29.138969 4294967295
-48.145046 85.013626 -29.093073 4294967295
-48.127823 78.46534 -29.239717 4294967295
-48.064903 78.677567 -28.735186 4294967295
-48.048138 81.595772 -29.052578 4294967295
-48.048096 83.580231 -29.365484 4294967295
-48.043346 82.974541 -29.229261 4294967295
-48.043278 82.211311 -29.108215 4294967295
-48.040741 81.144913 -28.918161 4294967295
-48.039547 84.199341 -29.39006 4294967295
