# .PCD v0.7 - Point Cloud Data file format
VERSION 0.7
FIELDS x y z rgb
SIZE 4 4 4 4
TYPE F F F U
COUNT 1 1 1 1
WIDTH 1135
HEIGHT 1
VIEWPOINT 0 0 0 1 0 0 0
POINTS 1135
DATA ascii
0.086028397 18.879353 -18.983658 4294967295
0.1115306 18.407692 -18.793196 4294967295
0.1170413 19.67095 -18.923193 4294967295
0.1177983 17.934488 -18.70159 4294967295
0.122865 21.407461 -19.110889 4294967295
0.1245598 20.302927 -18.963703 4294967295
0.13714039 20.146175 -18.879265 4294967295
0.1406808 19.357141 -18.762117 4294967295
0.1456627 19.041758 -18.696922 4294967295
0.15842719 20.779488 -18.849037 4294967295
0.1616054 21.253349 -18.892073 4294967295
0.1764663 21.096891 -18.795931 4294967295
0.1790317 19.833958 -18.624399 4294967295
0.18896841 20.466463 -18.652521 4294967295
0.20392831 21.573179 -18.714214 4294967295
0.25076231 19.34992 -19.023865 4294967295
0.25814939 19.034838 -18.946392 4294967295
0.3025963 18.88035 -18.698454 4294967295
0.314437 19.986551 -18.776165 4294967295
0.4107703 18.241766 -18.890694 4294967295
0.4374533 18.085741 -18.73411 4294967295
0.43960661 20.296055 -18.999857 4294967295
0.44121641 19.191212 -18.85323 4294967295
0.4501704 18.560341 -18.728233 4294967295
0.45516831 19.034407 -18.761936 4294967295
0.4774816 21.404436 -18.944124 4294967295
0.47966391 21.088924 -18.893408 4294967295
0.48267749 20.141909 -18.759342 4294967295
0.4877269 19.66861 -18.674139 4294967295
0.4881795 18.878998 -18.572927 4294967295
0.48850951 19.510752 -18.650351 4294967295
0.49656659 20.45892 -18.727707 4294967295
0.49708471 17.931866 -18.408573 4294967295
0.5262838 21.251209 -18.67429 4294967295
0.56360841 18.395819 -18.952501 4294967295
0.57938468 18.712679 -18.911243 4294967295
0.62285501 20.136976 -18.86655 4294967295
0.65330112 21.087002 -18.829288 4294967295
0.74838722 19.499405 -18.969429 4294967295
0.74908078 17.920647 -18.768368 4294967295
0.75218791 18.39456 -18.811743 4294967295
0.76685911 18.711424 -18.776234 4294967295
0.77718979 19.97538 -18.881433 4294967295
0.78271139 19.028433 -18.73469 4294967295
0.80046129 20.293152 -18.801979 4294967295
0.81474262 19.662672 -18.649958 4294967295
0.82819301 18.557962 -18.44286 4294967295
0.83244848 20.769735 -18.697744 4294967295
0.8440218 20.138971 -18.559561 4294967295
0.85600829 21.245731 -18.636602 4294967295
0.86141402 21.404192 -18.628735 4294967295
0.89592892 19.021589 -18.979368 4294967295
0.93599951 18.550884 -18.71553 4294967295
0.93954289 19.34074 -18.796162 4294967295
0.94896251 21.236198 -18.984953 4294967295
1.0718772 18.703745 -18.864132 4294967295
1.1043323 19.337851 -18.777567 4294967295
1.1068836 18.074511 -18.606653 4294967295
1.1107674 19.180426 -18.725018 4294967295
1.1186354 21.233915 -18.94142 4294967295
1.1207597 20.602533 -18.851675 4294967295
1.1264716 18.865725 -18.605461 4294967295
1.1288141 19.971552 -18.731682 4294967295
1.1293955 19.813663 -18.708982 4294967295
1.1333047 18.550282 -18.531132 4294967295
1.1446477 20.762594 -18.749636 4294967295
1.1518364 20.2894 -18.653782 4294967295
1.1565057 18.393944 -18.393064 4294967295
1.1633457 21.396069 -18.733265 4294967295
1.1812829 21.081852 -18.602365 4294967295
1.2435427 18.859228 -18.830185 4294967295
1.2559346 19.176004 -18.806524 4294967295
1.2562662 17.912514 -18.647018 4294967295
1.2622894 19.650261 -18.833336 4294967295
1.3110261 18.232227 -18.407564 4294967295
1.4259133 18.541704 -18.682838 4294967295
1.4320085 19.647791 -18.789858 4294967295
1.4409002 20.122326 -18.803787 4294967295
1.451493 19.491409 -18.671057 4294967295
1.4586784 19.176027 -18.595076 4294967295
1.4758364 18.861334 -18.468365 4294967295
1.4883907 20.600315 -18.621471 4294967295
1.5008518 21.075386 -18.617273 4294967295
1.5172222 19.812737 -18.376255 4294967295
1.5172253 20.760889 -18.494591 4294967295
1.5851359 18.22241 -18.653469 4294967295
1.6053678 20.277403 -18.806908 4294967295
1.6404037 18.542318 -18.412146 4294967295
1.6429112 18.068365 -18.34025 4294967295
1.652639 18.859289 -18.389433 4294967295
1.6801631 19.493607 -18.328514 4294967295
1.6944792 17.899755 -18.877254 4294967295
1.6991028 20.759626 -18.390083 4294967295
1.7457519 19.798698 -18.853491 4294967295
1.7581335 18.535976 -18.633108 4294967295
1.7676294 18.694653 -18.604637 4294967295
1.7759663 19.011261 -18.601751 4294967295
1.7825552 21.065414 -18.824406 4294967295
1.7867643 19.486084 -18.606087 4294967295
1.7954592 19.644777 -18.581688 4294967295
1.7958308 20.276779 -18.658606 4294967295
1.7977567 18.222734 -18.392681 4294967295
1.7993172 18.38089 -18.404474 4294967295
1.8012307 20.751196 -18.690319 4294967295
1.8163528 21.226521 -18.672735 4294967295
1.827413 19.17321 -18.360497 4294967295
1.8294431 19.963604 -18.44874 4294967295
1.8346431 20.438147 -18.481485 4294967295
1.8637917 18.054991 -18.855671 4294967295
1.9228361 18.217001 -18.576199 4294967295
1.9695488 18.694408 -18.398623 4294967295
2.0482843 18.843138 -18.836153 4294967295
2.1015873 18.056934 -18.46804 4294967295
2.1024506 19.637192 -18.660519 4294967295
2.1076119 19.953604 -18.673771 4294967295
2.1320879 19.323498 -18.471224 4294967295
2.1429839 19.482403 -18.435791 4294967295
2.1555209 20.43173 -18.490494 4294967295
2.157573 18.37694 -18.224136 4294967295
2.1723616 20.275129 -18.38563 4294967295
2.1752238 20.907625 -18.449903 4294967295
2.2412145 18.684278 -18.656298 4294967295
2.2446194 19.000532 -18.678438 4294967295
2.2951515 18.213961 -18.324713 4294967295
2.3201694 20.744984 -18.513184 4294967295
2.3364305 20.430298 -18.391695 4294967295
2.3403101 21.062916 -18.450811 4294967295
2.3699677 18.678707 -18.820471 4294967295
2.3979115 18.522728 -18.659794 4294967295
2.4517703 19.791046 -18.545345 4294967295
2.4590828 20.423809 -18.587112 4294967295
2.4645545 19.475964 -18.441511 4294967295
2.4735966 21.057234 -18.592552 4294967295
2.4748163 20.899309 -18.566738 4294967295
2.4766374 20.109211 -18.459223 4294967295
2.4943383 20.74301 -18.448601 4294967295
2.5361559 18.51787 -18.775978 4294967295
2.543303 18.834362 -18.779259 4294967295
2.5495825 18.04479 -18.649351 4294967295
2.5732331 19.152609 -18.66773 4294967295
2.5789485 19.311068 -18.658583 4294967295
2.5942051 20.260399 -18.699621 4294967295
2.6111503 18.681286 -18.417679 4294967295
2.7551696 18.044523 -18.426447 4294967295
2.7884388 19.94393 -18.494808 4294967295
2.7949626 20.576744 -18.540571 4294967295
2.8019211 20.103127 -18.446617 4294967295
2.8049078 19.787195 -18.392288 4294967295
2.8056152 20.893816 -18.52627 4294967295
2.8157768 19.471849 -18.298288 4294967295
2.8324647 21.054335 -18.410841 4294967295
2.8890905 19.145712 -18.701931 4294967295
2.8972437 18.51416 -18.582409 4294967295
2.9045851 18.040478 -18.486588 4294967295
2.9090035 18.673059 -18.542934 4294967295
2.9103136 20.095543 -18.713066 4294967295
2.9296553 18.832636 -18.458767 4294967295
2.9349003 19.465347 -18.510965 4294967295
2.9365518 18.200735 -18.34553 4294967295
2.961787 18.360601 -18.238319 4294967295
2.9809134 20.417665 -18.397573 4294967295
3.0045941 20.894089 -18.337515 4294967295
3.1133645 20.412035 -18.543097 4294967295
3.1149442 18.831181 -18.338856 4294967295
3.1178622 19.147636 -18.363476 4294967295
3.1186662 20.886713 -18.575373 4294967295
3.1226294 20.096651 -18.457344 4294967295
3.1240432 19.938671 -18.430616 4294967295
3.1426752 19.465807 -18.278202 4294967295
3.1495116 20.573265 -18.381332 4294967295
3.2274015 18.824387 -18.584459 4294967295
3.2366118 19.141209 -18.577524 4294967295
3.2530434 20.248976 -18.632477 4294967295
3.2788002 18.511875 -18.287525 4294967295
3.2864149 18.037937 -18.190456 4294967295
3.2983418 20.72714 -18.46431 4294967295
3.3094702 18.197672 -18.09449 4294967295
3.3903644 18.505131 -18.537409 4294967295
3.4196799 19.93012 -18.567129 4294967295
3.4533451 20.723448 -18.496668 4294967295
3.4728065 20.092625 -18.320807 4294967295
3.4830782 19.302631 -18.171293 4294967295
3.4997523 19.62031 -18.127064 4294967295
3.5091424 20.886549 -18.237024 4294967295
3.556205 18.502218 -18.515303 4294967295
3.571569 19.293837 -18.536486 4294967295
3.5873644 18.188128 -18.320269 4294967295
3.589112 18.346394 -18.331137 4294967295
3.5914836 19.769707 -18.495724 4294967295
3.5930107 18.979227 -18.39007 4294967295
3.5948026 18.663082 -18.341896 4294967295
3.6045103 20.245108 -18.489405 4294967295
3.6150327 19.613466 -18.358385 4294967295
3.6168041 20.562387 -18.467154 4294967295
3.6628997 20.408218 -18.217129 4294967295
3.7918804 19.29516 -18.242573 4294967295
3.8133581 19.771402 -18.194134 4294967295
3.8161116 20.878878 -18.317585 4294967295
3.8321154 20.405737 -18.178894 4294967295
3.8503995 20.565517 -18.107218 4294967295
3.8610992 18.020212 -18.546345 4294967295
3.8913908 18.180365 -18.414833 4294967295
3.8927114 19.445433 -18.56492 4294967295
3.9062696 18.972103 -18.438555 4294967295
3.9115281 19.921259 -18.529835 4294967295
3.9196033 18.498613 -18.31329 4294967295
3.9233751 18.81521 -18.333656 4294967295
3.9392219 20.55608 -18.470083 4294967295
3.948878 20.082466 -18.363182 4294967295
4.0537267 18.809736 -18.488926 4294967295
4.1259885 18.023821 -18.03105 4294967295
4.1324139 18.340742 -18.038221 4294967295
4.1354151 19.290344 -18.140799 4294967295
4.1367092 20.872421 -18.330173 4294967295
4.149219 19.607862 -18.111221 4294967295
4.1519442 20.082748 -18.156406 4294967295
4.1545534 20.557606 -18.202164 4294967295
4.1596622 19.925158 -18.098387 4294967295
4.1657395 20.242123 -18.107296 4294967295
4.1744499 20.401093 -18.083508 4294967295
4.236835 19.598854 -18.479269 4294967295
4.2401633 18.650162 -18.345304 4294967295
4.2436433 19.915682 -18.484537 4294967295
4.2578545 18.018604 -18.178997 4294967295
4.2615275 18.335274 -18.199875 4294967295
4.2693815 19.7596 -18.33696 4294967295
4.286561 19.128139 -18.17322 4294967295
4.2922544 18.812107 -18.105743 4294967295
4.4105573 20.229259 -18.496948 4294967295
4.4248838 20.704931 -18.484459 4294967295
4.4733276 18.652035 -17.989494 4294967295
4.4857044 20.552025 -18.162844 4294967295
4.5303984 18.166929 -18.449793 4294967295
4.5592499 19.117966 -18.423929 4294967295
4.5678277 18.802237 -18.342268 4294967295
4.5730634 19.909874 -18.453144 4294967295
4.5789819 20.226688 -18.462879 4294967295
4.5877004 19.594687 -18.341433 4294967295
4.6197386 18.489468 -18.045578 4294967295
4.6229911 18.964478 -18.088121 4294967295
4.7346478 18.32477 -18.257679 4294967295
4.7430944 20.540091 -18.489412 4294967295
4.7570505 18.009802 -18.107553 4294967295
4.7950716 19.278578 -18.075548 4294967295
4.8114486 20.229458 -18.111712 4294967295
4.8122206 19.596445 -18.029684 4294967295
4.8182511 20.38829 -18.097561 4294967295
4.8269191 20.705564 -18.093721 4294967295
4.8703666 18.003376 -18.34676 4294967295
4.8896637 18.795713 -18.348921 4294967295
4.9079208 18.32233 -18.199953 4294967295
4.9121151 18.955559 -18.257347 4294967295
4.9201503 19.430836 -18.276192 4294967295
4.9431634 19.749104 -18.201393 4294967295
4.9449339 18.641418 -18.055845 4294967295
4.9520078 19.116755 -18.079468 4294967295
4.9521136 20.382795 -18.235256 4294967295
4.9579372 18.484043 -17.971945 4294967295
5.0936813 18.162457 -18.06119 4294967295
5.1034155 20.220545 -18.266975 4294967295
5.1506824 20.699341 -18.092012 4294967295
5.1670055 20.542456 -17.991831 4294967295
5.1982427 18.63003 -18.401768 4294967295
5.2396669 18.474693 -18.177755 4294967295
5.2482309 18.317013 -18.115955 4294967295
5.2633953 18.951187 -18.11919 4294967295
5.2735586 19.585051 -18.147116 4294967295
5.2769713 19.743589 -18.149792 4294967295
5.2812943 20.060476 -18.167498 4294967295
5.2954121 19.903343 -18.078304 4294967295
5.3367653 20.223349 -17.913273 4294967295
5.3743272 18.153116 -18.271952 4294967295
5.4147577 18.947224 -18.170174 4294967295
5.418448 17.997755 -18.034891 4294967295
5.4185705 19.105776 -18.170891 4294967295
5.5437121 18.150385 -18.233931 4294967295
5.5443897 18.466944 -18.269596 4294967295
5.558146 20.050362 -18.396851 4294967295
5.5631814 19.417814 -18.294073 4294967295
5.5711446 19.260162 -18.235369 4294967295
5.5975437 19.103851 -18.085894 4294967295
5.6025949 20.528805 -18.236557 4294967295
5.6134653 19.579971 -18.066027 4294967295
5.6242442 19.897442 -18.051979 4294967295
5.6294842 20.372797 -18.084702 4294967295
5.7334104 17.990692 -18.076679 4294967295
5.7378516 19.890415 -18.288769 4294967295
5.7567253 18.308876 -18.001013 4294967295
5.8746657 19.410528 -18.35265 4294967295
5.8987231 18.462608 -18.117601 4294967295
5.9036474 18.937862 -18.151878 4294967295
5.9127135 18.780209 -18.087868 4294967295
5.9131355 20.204891 -18.26116 4294967295
5.9151525 19.097008 -18.114866 4294967295
5.930809 19.889748 -18.135418 4294967295
5.963131 19.575634 -17.937729 4294967295
5.9679337 20.051069 -17.972624 4294967295
5.9702721 19.734549 -17.922157 4294967295
6.0868421 18.144484 -17.949318 4294967295
6.100234 17.986996 -17.864136 4294967295
6.1930113 18.137558 -18.221909 4294967295
6.2241902 18.456274 -18.108097 4294967295
6.2282777 19.88133 -18.263279 4294967295
6.2409358 17.982368 -17.967638 4294967295
6.2488065 18.933004 -18.045919 4294967295
6.2590547 20.20043 -18.151482 4294967295
6.2700133 20.359659 -18.117283 4294967295
6.2833438 19.727364 -17.974113 4294967295
6.2913828 19.411243 -17.89579 4294967295
6.3104525 20.046274 -17.880297 4294967295
6.3901286 20.353035 -18.321281 4294967295
6.4196262 18.772079 -17.982397 4294967295
6.5252056 17.973309 -18.160067 4294967295
6.5404816 18.132637 -18.104866 4294967295
6.5456266 18.449656 -18.118629 4294967295
6.5490036 19.241531 -18.199383 4294967295
6.5491099 20.349657 -18.334986 4294967295
6.5523295 20.033335 -18.280369 4294967295
6.5598912 18.608982 -18.068378 4294967295
6.5814085 19.719002 -18.099417 4294967295
6.5839372 19.56085 -18.06761 4294967295
6.6028028 20.19577 -18.053261 4294967295
6.6152554 19.088068 -17.85623 4294967295
6.6164932 18.296072 -17.752872 4294967295
6.7402482 19.873936 -18.133532 4294967295
6.8707986 20.184902 -18.324934 4294967295
6.8723283 19.076777 -18.181477 4294967295
6.8854923 17.969154 -17.981264 4294967295
6.8881083 18.919571 -18.085136 4294967295
6.8931775 19.711716 -18.1576 4294967295
6.9065833 19.396029 -18.053404 4294967295
6.9284167 20.347984 -18.063625 4294967295
6.9359131 20.031837 -17.988226 4294967295
6.9666948 19.875885 -17.818796 4294967295
7.043128 19.390924 -18.176727 4294967295
7.0436063 18.440796 -18.057846 4294967295
7.0807228 19.076965 -17.954891 4294967295
7.0915914 17.968739 -17.765945 4294967295
7.1329169 19.239237 -17.720278 4294967295
7.1911302 19.703354 -18.282942 4294967295
7.2096567 18.279453 -18.018137 4294967295
7.2161241 18.596674 -18.025534 4294967295
7.2165799 18.121511 -17.965055 4294967295
7.2215109 19.072218 -18.057604 4294967295
7.2504382 20.183151 -18.052921 4294967295
7.2560768 19.549994 -17.947838 4294967295
7.25947 17.965857 -17.737087 4294967295
7.2718048 19.868053 -17.910233 4294967295
7.3602161 18.908957 -18.150837 4294967295
7.3892503 20.178114 -18.165136 4294967295
7.533205 18.114534 -18.000023 4294967295
7.5380492 20.01553 -18.209328 4294967295
7.5480638 18.907593 -18.024979 4294967295
7.5670071 19.701038 -18.030136 4294967295
7.5743885 18.275679 -17.819696 4294967295
7.5856304 19.385612 -17.901035 4294967295
7.5890465 18.435125 -17.768019 4294967295
7.5988202 20.178827 -17.934111 4294967295
7.6083722 19.070375 -17.751945 4294967295
7.6143417 18.595335 -17.664762 4294967295
7.6220374 19.546827 -17.743919 4294967295
7.7383103 19.22328 -17.926691 4294967295
7.7964859 19.703085 -17.703173 4294967295
7.8044581 20.02071 -17.703375 4294967295
7.8341856 18.581709 -18.168938 4294967295
7.8662586 19.375975 -18.110712 4294967295
7.8710904 18.108934 -17.932259 4294967295
7.8801384 19.693842 -18.082348 4294967295
7.9010234 19.06168 -17.903795 4294967295
7.9255452 20.172728 -17.920916 4294967295
7.9291058 18.746727 -17.729179 4294967295
7.9608068 20.017086 -17.731007 4294967295
8.0310202 18.263992 -17.96154 4294967295
8.0330639 19.848368 -18.145422 4294967295
8.0512094 18.740711 -17.922136 4294967295
8.0850735 17.950535 -17.66161 4294967295
8.1108475 19.695965 -17.750345 4294967295
8.1293573 19.538866 -17.641554 4294967295
8.2295637 19.68944 -17.959505 4294967295
8.2310171 18.580238 -17.816891 4294967295
8.2336512 18.263424 -17.765432 4294967295
8.2588844 19.374706 -17.779314 4294967295
8.2603645 19.533318 -17.791548 4294967295
8.2814837 18.900785 -17.612148 4294967295
8.2924719 19.218666 -17.597895 4294967295
8.3456984 18.098429 -17.987085 4294967295
8.3598518 18.891636 -18.015676 4294967295
8.3721542 19.050966 -17.975754 4294967295
8.3921776 20.003222 -17.995438 4294967295
8.5391798 19.206581 -17.971083 4294967295
8.5403862 18.255779 -17.849148 4294967295
8.5553713 19.683205 -17.951218 4294967295
8.5614185 19.366699 -17.883413 4294967295
8.5771914 18.099657 -17.652632 4294967295
8.5868921 19.527111 -17.780182 4294967295
8.5898733 18.576136 -17.649675 4294967295
8.6821957 18.72661 -18.004553 4294967295
8.6894112 18.251671 -17.911835 4294967295
8.7442093 18.889448 -17.725815 4294967295
8.8209829 18.087961 -18.038906 4294967295
8.8829832 19.677101 -17.934603 4294967295
8.9108086 19.045088 -17.723679 4294967295
8.9188824 19.996914 -17.800968 4294967295
8.9928904 18.243814 -18.010923 4294967295
9.0348473 19.514643 -17.964361 4294967295
9.0447388 18.722809 -17.820292 4294967295
9.0475445 18.56447 -17.787504 4294967295
9.0746088 18.883434 -17.696405 4294967295
9.1176968 19.838051 -17.605843 4294967295
9.1870995 19.035225 -17.953594 4294967295
9.202549 18.402212 -17.802322 4294967295
9.2166824 18.561707 -17.753958 4294967295
9.2235909 19.513449 -17.836819 4294967295
9.2268991 17.928112 -17.627718 4294967295
9.2379799 19.355978 -17.748598 4294967295
9.2559319 18.881554 -17.60465 4294967295
9.276041 19.675982 -17.605007 4294967295
9.3758888 18.875368 -17.806705 4294967295
9.3783541 19.66823 -17.891479 4294967295
9.4120979 19.195076 -17.672163 4294967295
9.5128393 19.028898 -17.946453 4294967295
9.5547266 18.556154 -17.68844 4294967295
9.5741081 17.923004 -17.518591 4294967295
9.574852 19.509075 -17.708166 4294967295
9.5995808 19.669535 -17.609367 4294967295
9.6102009 18.718548 -17.442749 4294967295
9.6717663 18.391329 -17.884636 4294967295
9.6755457 17.915928 -17.808712 4294967295
9.7066145 19.027929 -17.795563 4294967295
9.717186 19.662954 -17.822323 4294967295
9.7434216 18.71332 -17.581352 4294967295
9.7907333 19.192574 -17.413555 4294967295
9.8921509 19.502148 -17.742252 4294967295
9.9166794 18.71084 -17.528902 4294967295
9.9273434 18.552916 -17.458786 4294967295
9.9338961 19.663898 -17.562654 4294967295
9.940073 19.188425 -17.475332 4294967295
9.9767561 19.82583 -17.377758 4294967295
9.9956293 18.067684 -17.848375 4294967295
10.033314 19.180233 -17.803986 4294967295
10.036708 18.228907 -17.672136 4294967295
10.105767 18.392073 -17.362728 4294967295
10.22561 17.910069 -17.506861 4294967295
10.238995 18.228241 -17.481796 4294967295
10.239205 19.338799 -17.615759 4294967295
10.260395 19.023022 -17.476486 4294967295
10.278035 19.658993 -17.469776 4294967295
10.280266 18.707033 -17.343466 4294967295
10.389181 18.858791 -17.616457 4294967295
10.389804 18.382895 -17.555685 4294967295
10.44176 19.021143 -17.386122 4294967295
10.46516 19.657671 -17.352154 4294967295
10.483049 18.375105 -17.883194 4294967295
10.498321 19.01046 -17.887798 4294967295
10.523512 19.329445 -17.806871 4294967295
10.574158 19.174475 -17.547493 4294967295
10.584353 19.492554 -17.53768 4294967295
10.64277 18.054516 -17.856642 4294967295
10.661612 18.372925 -17.805899 4294967295
10.681052 19.484493 -17.848566 4294967295
10.68622 18.533173 -17.708599 4294967295
10.71591 18.852478 -17.606503 4294967295
10.773389 19.650036 -17.430605 4294967295
10.779069 19.174309 -17.345928 4294967295
10.780739 18.698227 -17.28023 4294967295
10.832 18.687441 -17.806013 4294967295
10.907924 19.168692 -17.504642 4294967295
10.951867 19.489315 -17.335321 4294967295
10.993552 18.366903 -17.771076 4294967295
11.014918 18.685602 -17.708603 4294967295
11.036281 18.052328 -17.530727 4294967295
11.067915 18.530481 -17.438995 4294967295
11.079539 18.848703 -17.422564 4294967295
11.085692 19.484001 -17.470469 4294967295
11.150819 18.52195 -17.814125 4294967295
11.31039 18.201252 -17.788671 4294967295
11.35873 19.473783 -17.714602 4294967295
11.398054 18.048113 -17.356277 4294967295
11.401735 19.15951 -17.473524 4294967295
11.411197 18.842707 -17.390484 4294967295
11.415555 19.001751 -17.389177 4294967295
11.416899 18.366829 -17.305927 4294967295
11.501284 18.04113 -17.635046 4294967295
11.545648 18.520107 -17.48386 4294967295
11.590471 19.316919 -17.36899 4294967295
11.595769 18.364639 -17.22872 4294967295
11.684982 18.991428 -17.650099 4294967295
11.700713 18.516371 -17.518534 4294967295
11.705726 18.834154 -17.533382 4294967295
11.71151 18.199602 -17.429356 4294967295
11.72597 18.676794 -17.419004 4294967295
11.731091 19.470867 -17.490986 4294967295
11.90663 19.151094 -17.391245 4294967295
11.934978 18.517864 -17.181318 4294967295
11.941156 19.312346 -17.24835 4294967295
12.004048 18.667162 -17.638893 4294967295
12.015484 18.509205 -17.566076 4294967295
12.061517 18.035872 -17.292604 4294967295
12.318471 18.97739 -17.726311 4294967295
12.320022 18.025188 -17.604029 4294967295
12.342634 18.344101 -17.536583 4294967295
12.359056 18.662691 -17.49811 4294967295
12.365487 18.504351 -17.448845 4294967295
12.555165 18.9793 -17.379492 4294967295
12.561307 18.026806 -17.235752 4294967295
12.678737 18.973375 -17.561474 4294967295
12.680565 18.497192 -17.495461 4294967295
12.68382 18.021048 -17.422787 4294967295
12.712379 18.658089 -17.366154 4294967295
12.716866 19.134813 -17.402704 4294967295
12.731598 19.294664 -17.353125 4294967295
12.750247 18.342897 -17.151093 4294967295
12.995656 18.331253 -17.522932 4294967295
13.002637 18.649275 -17.528723 4294967295
13.027412 18.492107 -17.394232 4294967295
13.045929 19.128637 -17.384623 4294967295
13.180095 19.123423 -17.516901 4294967295
13.181603 18.170668 -17.39506 4294967295
13.183146 18.647221 -17.445301 4294967295
13.255855 18.334242 -17.06893 4294967295
13.369739 18.486712 -17.314775 4294967295
13.370363 18.804451 -17.35014 4294967295
13.38256 18.169804 -17.216957 4294967295
13.387904 18.964497 -17.287813 4294967295
13.424708 18.331371 -17.040339 4294967295
13.482644 18.797817 -17.583771 4294967295
13.662832 18.160442 -17.425852 4294967295
13.714086 18.958086 -17.283979 4294967295
13.723151 18.640923 -17.203741 4294967295
13.728115 18.323437 -17.142498 4294967295
13.759904 18.802288 -17.052597 4294967295
13.90698 18.003315 -17.029573 4294967295
13.909563 18.321363 -17.055853 4294967295
13.980078 18.312239 -17.482224 4294967295
14.026646 18.474089 -17.286091 4294967295
14.03559 17.997946 -17.187435 4294967295
14.057779 18.158239 -17.103979 4294967295
14.067451 18.635664 -17.116606 4294967295
14.079601 18.954351 -17.098665 4294967295
14.333973 18.625284 -17.388765 4294967295
14.336617 18.307684 -17.338408 4294967295
14.338457 18.148905 -17.310837 4294967295
14.40628 17.994139 -16.979004 4294967295
14.408238 18.471191 -17.027264 4294967295
14.410366 18.948231 -17.074736 4294967295
14.493015 18.462908 -17.386662 4294967295
14.671445 18.301741 -17.295429 4294967295
14.673237 18.142933 -17.26811 4294967295
14.699352 18.621393 -17.205206 4294967295
14.739244 18.78299 -17.040802 4294967295
15.008181 17.978008 -17.206064 4294967295
15.058362 18.617064 -17.052034 4294967295
15.062219 18.140295 -16.977142 4294967295
15.071784 18.458925 -16.971378 4294967295
15.16724 18.610292 -17.299515 4294967295
15.394836 18.452223 -16.983982 4294967295
15.402027 18.611717 -16.970116 4294967295
15.406173 18.134857 -16.89398 4294967295
15.502704 18.44545 -17.235704 4294967295
15.681978 18.284229 -17.141766 4294967295
15.688627 18.125633 -17.092371 4294967295
15.732954 18.60553 -16.947035 4294967295
15.756637 17.970709 -16.762722 4294967295
15.776076 18.449221 -16.731066 4294967295
15.925039 18.445061 -16.795181 4294967295
16.019836 18.596491 -17.125002 4294967295
16.055677 18.280668 -16.923676 4294967295
16.091225 17.964645 -16.723671 4294967295
16.223177 17.959494 -16.86515 4294967295
16.273535 18.439949 -16.693037 4294967295
16.33543 17.953169 -17.095913 4294967295
16.354942 18.590565 -17.083225 4294967295
16.427387 18.436096 -16.734955 4294967295
16.577974 18.11377 -16.753658 4294967295
16.71384 17.949717 -16.858086 4294967295
16.732075 18.428204 -16.832378 4294967295
16.74869 18.270103 -16.73805 4294967295
17.056456 18.421551 -16.840536 4294967295
17.222023 18.100124 -16.791506 4294967295
17.245747 17.942369 -16.665331 4294967295
17.358042 18.095201 -16.913879 4294967295
17.550652 17.934513 -16.761976 4294967295
17.751148 18.092651 -16.612852 4294967295
18.01757 18.241646 -16.901522 4294967295
18.056494 17.925587 -16.688805 4294967295
10.479877 -6.3845634 -16.431803 4294967295
10.645242 -5.5950022 -16.512867 4294967295
10.650173 -5.4367118 -16.508734 4294967295
10.793019 -7.5042229 -16.349831 4294967295
10.838877 -5.285234 -16.402151 4294967295
10.84741 -4.1739497 -16.496571 4294967295
10.965302 -7.1921697 -16.340448 4294967295
10.971828 -7.0340886 -16.328798 4294967295
10.985915 -5.7645435 -16.416166 4294967295
11.140138 -6.7214479 -16.338406 4294967295
11.167411 -5.1354995 -16.401941 4294967295
11.182327 -4.819325 -16.369911 4294967295
11.272833 -7.3578067 -16.400925 4294967295
11.297157 -7.0430803 -16.324486 4294967295
11.311121 -5.9323106 -16.393223 4294967295
11.311376 -6.2501898 -16.353533 4294967295
11.384553 -2.7617023 -16.431339 4294967295
11.440089 -5.9327569 -16.550177 4294967295
11.463906 -7.683908 -16.226217 4294967295
11.468664 -6.5718622 -16.338425 4294967295
11.474774 -5.1422744 -16.482706 4294967295
11.490299 -4.985096 -16.428709 4294967295
11.508672 -4.5103269 -16.399761 4294967295
11.518785 -4.3524742 -16.371298 4294967295
11.524229 -4.0351701 -16.384094 4294967295
11.543891 -3.401406 -16.368324 4294967295
11.596981 -7.3666778 -16.402231 4294967295
11.610719 -6.7327156 -16.414385 4294967295
11.628147 -7.6886382 -16.216879 4294967295
11.633404 -6.8944917 -16.28825 4294967295
11.65028 -5.1481152 -16.420235 4294967295
11.663847 -6.2623734 -16.221706 4294967295
11.739017 -7.368526 -16.497322 4294967295
11.804175 -5.4693909 -16.421232 4294967295
11.85675 -4.0445938 -16.34684 4294967295
11.862741 -3.2504261 -16.414759 4294967295
11.951064 -7.0614591 -16.301498 4294967295
11.954748 -7.6978464 -16.207323 4294967295
11.966555 -5.314827 -16.439999 4294967295
11.970672 -7.2229328 -16.190098 4294967295
12.052816 -3.2574041 -16.284422 4294967295
12.05736 -7.5355649 -16.506882 4294967295
12.113229 -6.7479434 -16.34053 4294967295
12.119227 -5.9538727 -16.408381 4294967295
12.142488 -4.04916 -16.529598 4294967295
12.142509 -5.1617727 -16.395096 4294967295
12.154584 -4.686224 -16.396027 4294967295
12.159746 -5.7996564 -16.237362 4294967295
12.179355 -4.2119584 -16.337381 4294967295
12.266096 -7.8640389 -16.250448 4294967295
12.27165 -6.2750015 -16.416351 4294967295
12.272416 -7.3878961 -16.278395 4294967295
12.280261 -4.8455095 -16.5487 4294967295
12.321957 -5.8040237 -16.238049 4294967295
12.338792 -4.2159624 -16.351097 4294967295
12.341503 -2.9445031 -16.491947 4294967295
12.343059 -3.5804965 -16.407881 4294967295
12.380507 -3.1072178 -16.289967 4294967295
12.400681 -7.7058902 -16.399599 4294967295
12.401788 -7.0702176 -16.471149 4294967295
12.421326 -6.7547522 -16.417999 4294967295
12.467807 -6.9195237 -16.181086 4294967295
12.477452 -7.3978438 -16.078327 4294967295
12.496554 -5.3327775 -16.238361 4294967295
12.517065 -2.9500105 -16.430174 4294967295
12.603583 -5.9667382 -16.420614 4294967295
12.625537 -6.7643604 -16.222017 4294967295
12.626801 -5.3335104 -16.388727 4294967295
12.630538 -4.8569922 -16.428783 4294967295
12.638506 -5.1758385 -16.353161 4294967295
12.638741 -4.5399308 -16.428782 4294967295
12.654365 -7.0860381 -16.048777 4294967295
12.672222 -6.6110616 -16.022799 4294967295
12.677094 -3.7489836 -16.345335 4294967295
12.683085 -4.3856497 -16.240593 4294967295
12.692462 -4.0685802 -16.235119 4294967295
12.69907 -2.7971251 -16.357685 4294967295
12.699256 -3.2741635 -16.299267 4294967295
12.727085 -6.4433775 -16.544622 4294967295
12.779641 -6.29074 -16.318233 4294967295
12.823237 -5.5007486 -16.210428 4294967295
12.956149 -4.0708747 -16.520611 4294967295
12.95935 -5.1841121 -16.371552 4294967295
12.960621 -4.7072639 -16.423109 4294967295
12.960971 -5.5023079 -16.325659 4294967295
12.961632 -4.5483837 -16.437555 4294967295
13.017945 -3.4411209 -16.309029 4294967295
13.032969 -3.9197474 -16.18145 4294967295
13.048007 -3.1259689 -16.207161 4294967295
13.132357 -4.8716164 -16.360483 4294967295
13.169294 -4.2394519 -16.265011 4294967295
13.302714 -3.6047208 -16.476789 4294967295
13.344736 -3.9270017 -16.242968 4294967295
13.35081 -3.4504552 -16.27216 4294967295
13.497478 -2.8170631 -16.4223 4294967295
13.499761 -3.2943652 -16.354277 4294967295
10.091389 -1.7750942 -16.525154 4294967295
10.099302 -1.2992461 -16.545359 4294967295
10.248961 -2.0965834 -16.508419 4294967295
11.407356 -2.1280894 -16.400681 4294967295
11.726958 -1.8181858 -16.462862 4294967295
11.899903 -2.459157 -16.336079 4294967295
11.900908 -1.6644428 -16.427454 4294967295
12.065809 -2.3047302 -16.338678 4294967295
12.29931 1.1831255 -16.427687 4294967295
12.36602 -2.6288862 -16.415449 4294967295
12.366347 -2.4699466 -16.433109 4294967295
12.381904 -2.1534081 -16.398609 4294967295
12.395979 -1.995672 -16.351858 4294967295
12.406667 -1.2016498 -16.397774 4294967295
12.588914 -0.57142961 -16.381784 4294967295
12.692801 -2.4785588 -16.42535 4294967295
12.72147 -1.3681554 -16.42561 4294967295
12.734801 -0.89226872 -16.420851 4294967295
12.737554 -2.0055599 -16.27371 4294967295
12.821533 2.7588966 -16.456842 4294967295
12.87082 -1.2122682 -16.505901 4294967295
12.92887 -0.1038089 -16.369177 4294967295
12.932391 0.2139637 -16.391094 4294967295
13.056856 -2.3315594 -16.261738 4294967295
13.079738 -0.58412302 -16.3659 4294967295
13.283557 1.4762112 -16.422644 4294967295
13.310824 3.5418959 -16.544792 4294967295
13.312441 2.4287002 -16.403181 4294967295
13.349073 -2.4960799 -16.395134 4294967295
13.36437 -0.74829447 -16.534601 4294967295
13.379525 -1.7036221 -16.349237 4294967295
13.383865 -0.1137871 -16.520531 4294967295
13.400607 0.3620221 -16.500128 4294967295
13.404988 -0.27436489 -16.403166 4294967295
13.422617 0.2014492 -16.378649 4294967295
13.433949 0.51873583 -16.36426 4294967295
13.437411 0.99561661 -16.405617 4294967295
13.454281 2.1077859 -16.461248 4294967295
13.470936 2.2658799 -16.402988 4294967295
13.522453 -1.7061507 -16.440243 4294967295
13.536821 -2.343559 -16.296928 4294967295
13.541145 -1.071606 -16.429976 4294967295
13.571172 -0.91496319 -16.309647 4294967295
13.598945 0.67352378 -16.372101 4294967295
13.702844 -1.3937808 -16.395548 4294967295
13.708788 -1.5533226 -16.348837 4294967295
13.711167 -1.8716402 -16.299524 4294967295
13.714765 -2.3491716 -16.225426 4294967295
13.765181 1.1463485 -16.412535 4294967295
13.812402 2.7341461 -16.384926 4294967295
13.820608 3.8471043 -16.480818 4294967295
13.824202 -1.8715755 -16.529045 4294967295
13.824708 3.5288262 -16.42355 4294967295
13.842394 4.1642737 -16.418112 4294967295
13.876558 -0.28556371 -16.477654 4294967295
13.88164 -0.60402578 -16.415861 4294967295
13.882704 0.50912088 -16.544796 4294967295
13.903378 -0.92384738 -16.276888 4294967295
13.945043 1.777444 -16.409046 4294967295
13.965133 2.0944107 -16.354261 4294967295
14.104728 1.7735797 -16.422625 4294967295
14.331266 3.8342857 -16.375872 4294967295
14.433861 1.6061925 -16.385744 4294967295
14.436813 1.9241834 -16.410324 4294967295
14.460544 2.7182987 -16.396347 4294967295
14.612552 2.0784969 -16.369188 4294967295
14.63241 3.3502131 -16.430437 4294967295
14.654176 3.508297 -16.349245 4294967295
14.660635 3.1897571 -16.28129 4294967295
14.6682 3.8258948 -16.322824 4294967295
14.746031 2.076124 -16.503691 4294967295
14.769217 1.9157114 -16.377876 4294967295
14.775201 2.5517726 -16.426676 4294967295
14.794527 2.8689709 -16.3759 4294967295
14.979775 2.8638401 -16.272379 4294967295
14.98735 3.8182814 -16.352057 4294967295
15.147809 3.6553044 -16.343586 4294967295
13.526642 5.6030431 -16.546282 4294967295
14.352248 4.7879748 -16.39365 4294967295
14.432274 8.9223509 -16.521126 4294967295
14.510312 4.6251535 -16.396011 4294967295
14.564952 7.6463385 -16.507015 4294967295
14.708511 6.8475013 -16.499966 4294967295
14.882927 7.320745 -16.50363 4294967295
14.938536 8.7519999 -16.419716 4294967295
15.035063 5.8851919 -16.380856 4294967295
15.042665 7.1579185 -16.498562 4294967295
15.046046 7.6351495 -16.540255 4294967295
15.115371 9.8620815 -16.488998 4294967295
15.121986 10.180322 -16.496784 4294967295
15.172946 4.7682176 -16.361713 4294967295
15.229854 7.4719281 -16.424814 4294967295
15.351612 6.1960006 -16.460575 4294967295
15.366405 5.7181787 -16.335579 4294967295
15.382421 6.8317938 -16.395636 4294967295
15.382915 7.3091879 -16.450565 4294967295
15.390637 6.5133085 -16.319853 4294967295
15.402197 7.7862773 -16.419407 4294967295
15.411994 9.2183142 -16.546082 4294967295
15.421192 8.5817547 -16.427702 4294967295
15.445606 9.0590305 -16.373062 4294967295
15.549368 7.1461964 -16.415007 4294967295
15.557679 6.1910362 -16.262613 4294967295
15.579672 7.6231389 -16.33349 4294967295
15.636278 10.646925 -16.436596 4294967295
15.640708 10.487794 -16.397276 4294967295
15.658301 6.1888218 -16.547297 4294967295
15.677843 6.0291729 -16.438904 4294967295
15.682764 6.5064616 -16.473549 4294967295
15.69299 5.8695989 -16.350599 4294967295
15.697161 7.4609513 -16.522009 4294967295
15.745484 8.4151592 -16.415424 4294967295
15.777579 9.8474245 -16.440191 4294967295
15.778079 9.5291023 -16.399811 4294967295
15.882438 7.1384702 -16.381592 4294967295
15.926284 9.2071238 -16.428965 4294967295
15.934951 7.4559174 -16.179918 4294967295
15.941035 9.0478821 -16.3426 4294967295
15.951332 10.162108 -16.428894 4294967295
15.965434 9.8437729 -16.326458 4294967295
15.975997 10.958113 -16.411551 4294967295
16.044197 7.2938695 -16.405855 4294967295
16.057426 7.7711692 -16.40263 4294967295
16.066261 7.6118565 -16.343307 4294967295
16.083651 8.7259331 -16.397261 4294967295
16.102226 8.8849916 -16.331614 4294967295
16.10335 10.635891 -16.535847 4294967295
16.111677 9.8400927 -16.402733 4294967295
16.113544 8.2480526 -16.203865 4294967295
16.120529 10.954333 -16.495609 4294967295
16.120766 9.6809053 -16.342274 4294967295
16.134956 10.476906 -16.37277 4294967295
16.413988 9.6735687 -16.491266 4294967295
16.441669 10.151149 -16.422441 4294967295
16.612791 9.9883051 -16.366564 4294967295
16.775434 10.621488 -16.444332 4294967295
15.824217 11.439352 -16.417618 4294967295
16.042856 14.620407 -16.544474 4294967295
16.345999 12.702665 -16.420444 4294967295
16.537441 14.451074 -16.500563 4294967295
16.559248 14.929443 -16.458532 4294967295
16.673674 12.854835 -16.432304 4294967295
16.684244 13.173505 -16.422344 4294967295
16.693819 14.288198 -16.511932 4294967295
16.786049 11.735962 -16.529192 4294967295
16.824907 11.577289 -16.333973 4294967295
16.842297 12.055267 -16.312132 4294967295
17.014044 13.803452 -16.481924 4294967295
17.029728 14.440807 -16.486879 4294967295
17.030182 13.963157 -16.427851 4294967295
17.124376 17.78891 -16.457333 4294967295
17.158743 12.207211 -16.375343 4294967295
17.163578 12.525784 -16.391447 4294967295
17.182735 13.322425 -16.399734 4294967295
17.206913 14.437827 -16.4233 4294967295
17.210197 13.163861 -16.256535 4294967295
17.241781 16.668507 -16.53142 4294967295
17.35689 13.000669 -16.312006 4294967295
17.364985 13.7972 -16.370338 4294967295
17.375134 14.593791 -16.419392 4294967295
17.378719 14.434662 -16.38422 4294967295
17.384499 13.957049 -16.301182 4294967295
17.401773 14.913274 -16.33704 4294967295
17.411928 15.710011 -16.386084 4294967295
17.455835 17.782598 -16.434568 4294967295
17.521645 14.748991 -16.513527 4294967295
17.555958 15.228027 -16.415665 4294967295
17.587492 16.34424 -16.406229 4294967295
17.716686 15.065241 -16.40785 4294967295
17.723284 15.224768 -16.397091 4294967295
17.737297 16.499489 -16.485655 4294967295
17.788376 17.298485 -16.350422 4294967295
17.792233 17.617279 -16.370983 4294967295
17.936382 16.816463 -16.362255 4294967295
18.413651 17.442951 -16.49456 4294967295
18.434397 17.762709 -16.439434 4294967295
17.442837 18.259552 -16.550154 4294967295
-5.049058 7.4637704 -19.188139 4278255360
-5.0124249 7.6206236 -19.011658 4278255360
-5.0027895 8.0931664 -19.02025 4278255360
-4.9996405 7.7779727 -18.963158 4278255360
-4.9975433 9.0384426 -19.112684 4278255360
-4.9913306 6.9898195 -18.818052 4278255360
-4.9902983 7.3050175 -18.852722 4278255360
-4.9901423 8.5657148 -19.012691 4278255360
-4.9815416 7.1472135 -18.785624 4278255360
-4.9036026 7.4603524 -19.267534 4278255360
-4.7955928 7.9311857 -18.749027 4278255360
-4.7496963 7.456769 -19.301567 4278255360
-4.7078519 8.0861702 -19.157938 4278255360
-4.6902575 8.8737087 -19.164164 4278255360
-4.6723022 9.0311441 -19.088181 4278255360
-4.6698732 8.558403 -19.014961 4278255360
-4.6433163 7.7699823 -18.772461 4278255360
-4.5589285 7.6100183 -19.158663 4278255360
-4.5567441 7.1372933 -19.086802 4278255360
-4.5322976 7.4519429 -18.996286 4278255360
-4.5187507 7.76689 -18.964029 4278255360
-4.488831 8.2392893 -18.864365 4278255360
-4.4295669 7.2918363 -19.283815 4278255360
-4.4024491 8.0790262 -19.239347 4278255360
-4.3455191 6.9747872 -18.795147 4278255360
-4.3361745 7.6051779 -18.825525 4278255360
-4.3258018 8.8660965 -18.93066 4278255360
-4.3182015 8.2354832 -18.80987 4278255360
-4.2399759 7.9177623 -19.207893 4278255360
-4.2375488 8.7054548 -19.295149 4278255360
-4.2371044 8.3903713 -19.252707 4278255360
-4.2176533 7.2870393 -19.008762 4278255360
-4.2085056 6.9716063 -18.919916 4278255360
-4.202323 8.5475616 -19.087425 4278255360
-4.1807394 8.0744743 -18.912283 4278255360
-4.0949779 7.2841096 -19.209484 4278255360
-4.071012 8.8592949 -19.282228 4278255360
-3.9906657 9.0163479 -18.874788 4278255360
-3.9196129 8.5406265 -19.289841 4278255360
-3.9014895 8.8555813 -19.233576 4278255360
-3.9009519 8.2252779 -19.150646 4278255360
-3.8656554 8.6976986 -19.023161 4278255360
-4.0440993 5.0757775 -18.65811 4278255360
-3.9697332 5.0753808 -19.115841 4278255360
-3.9668486 6.3358364 -19.260658 4278255360
-3.9504116 6.4929318 -19.1933 4278255360
-3.9305248 5.704339 -18.987467 4278255360
-3.929997 6.8075519 -19.124825 4278255360
-3.9232647 5.8617167 -18.968895 4278255360
-3.9001021 6.1762547 -18.885813 4278255360
-3.8714459 5.5446033 -18.653332 4278255360
-3.7391715 5.0687661 -18.743 4278255360
-3.6360531 5.6976576 -19.127064 4278255360
-3.6068473 6.0119214 -19.012222 4278255360
-3.5996549 5.0657744 -18.854048 4278255360
-3.5878181 4.907618 -18.771269 4278255360
-3.4864664 5.5366406 -19.164261 4278255360
-3.3252771 5.2175908 -19.12007 4278255360
-4.0949779 7.2841096 -19.209484 4278255360
-3.9668486 6.3358364 -19.260658 4278255360
-3.9504116 6.4929318 -19.1933 4278255360
-3.929997 6.8075519 -19.124825 4278255360
-3.9001021 6.1762547 -18.885813 4278255360
-3.6068473 6.0119214 -19.012222 4278255360
-4.071012 8.8592949 -19.282228 4278255360
-4.0563803 9.4894075 -19.284489 4278255360
-4.0470743 9.174262 -19.194925 4278255360
-4.0089006 9.8045197 -19.071972 4278255360
-3.9906657 9.0163479 -18.874788 4278255360
-3.9196129 8.5406265 -19.289841 4278255360
-3.9014895 8.8555813 -19.233576 4278255360
-3.9009519 8.2252779 -19.150646 4278255360
-3.8656554 8.6976986 -19.023161 4278255360
-3.8496046 9.6433077 -19.058025 4278255360
-3.8064151 9.3279276 -18.788528 4278255360
-3.714916 9.1669445 -19.134689 4278255360
-3.6268444 9.9550428 -18.767536 4278255360
-3.5856848 9.321023 -19.320038 4278255360
-3.5647984 9.9512587 -19.28936 4278255360
-3.5600209 9.4785242 -19.204065 4278255360
-3.5048237 9.6360655 -18.931639 4278255360
-3.3700354 9.9477253 -19.10774 4278255360
-4.0563803 9.4894075 -19.284489 4278255360
-4.0470743 9.174262 -19.194925 4278255360
-4.0130825 10.907563 -19.234423 4278255360
-4.0089006 9.8045197 -19.071972 4278255360
-4.0021744 10.27733 -19.096291 4278255360
-3.9906657 9.0163479 -18.874788 4278255360
-3.979151 10.11981 -18.953796 4278255360
-3.9377463 10.750657 -18.813728 4278255360
-3.8841484 10.116005 -19.301579 4278255360
-3.8496046 9.6433077 -19.058025 4278255360
-3.8127353 10.904412 -19.022371 4278255360
-3.8064151 9.3279276 -18.788528 4278255360
-3.714916 9.1669445 -19.134689 4278255360
-3.6377211 10.743352 -18.925322 4278255360
-3.6268444 9.9550428 -18.767536 4278255360
-3.6249797 10.270427 -18.797686 4278255360
-3.6063316 10.901318 -18.778856 4278255360
-3.5856848 9.321023 -19.320038 4278255360
-3.5647984 9.9512587 -19.28936 4278255360
-3.5600209 9.4785242 -19.204065 4278255360
-3.5465605 10.266468 -19.23274 4278255360
-3.5394058 10.896832 -19.274822 4278255360
-3.5048237 9.6360655 -18.931639 4278255360
-3.3700354 9.9477253 -19.10774 4278255360
-3.3490267 10.420691 -19.056576 4278255360
-3.3249912 10.263163 -18.909439 4278255360
-3.318536 10.578544 -18.915283 4278255360
-3.312881 10.893932 -18.925364 4278255360
-3.2219863 10.259319 -19.213434 4278255360
-3.2155807 10.73216 -19.239525 4278255360
-3.1317418 10.575162 -18.776686 4278255360
-3.1260717 10.417479 -18.726744 4278255360
-2.9774494 10.41383 -18.790014 4278255360
-2.9167864 10.409676 -19.316574 4278255360
-2.8418949 10.88316 -18.981924 4278255360
-2.7974334 10.725855 -18.727747 4278255360
-2.7462208 10.563766 -19.283529 4278255360
-2.7024584 10.721739 -19.073252 4278255360
-2.5583289 10.875682 -19.179602 4278255360
-2.5382178 10.718204 -19.054012 4278255360
-2.0066071 11.023431 -18.833431 4278255360
-3.5062633 11.054776 -19.119286 4278255360
-3.2650466 11.052137 -18.692362 4278255360
-2.5462151 11.033454 -19.1359 4278255360
-2.1334898 11.027352 -18.656309 4278255360
-2.9472673 4.1037083 -18.678736 4278255360
-2.8209815 4.1014695 -18.859125 4278255360
-2.6420972 3.9389884 -18.742456 4278255360
-2.5021012 4.0938292 -18.870327 4278255360
-2.1654277 4.0853424 -18.788557 4278255360
-1.9689398 3.9219575 -18.58075 4278255360
-2.916019 4.4177694 -18.55386 4278255360
-2.8292413 4.5749102 -18.962502 4278255360
-2.6276069 4.2537818 -18.706133 4278255360
-2.5005376 4.2514663 -18.88205 4278255360
-2.9774494 10.41383 -18.790014 4278255360
-2.9167864 10.409676 -19.316574 4278255360
-2.8418949 10.88316 -18.981924 4278255360
-2.7974334 10.725855 -18.727747 4278255360
-2.7462208 10.563766 -19.283529 4278255360
-2.7024584 10.721739 -19.073252 4278255360
-2.5583289 10.875682 -19.179602 4278255360
-2.5382178 10.718204 -19.054012 4278255360
-2.0066071 11.023431 -18.833431 4278255360
-2.9612327 11.675686 -18.864296 4278255360
-2.9588408 11.360307 -18.811728 4278255360
-2.7939372 11.1991 -18.769241 4278255360
-2.7816513 11.830209 -18.784405 4278255360
-2.639822 11.668647 -18.863491 4278255360
-2.6290789 11.511089 -18.787029 4278255360
-2.6242759 11.826636 -18.801682 4278255360
-2.5462151 11.033454 -19.1359 4278255360
-2.4859455 11.349575 -18.859188 4278255360
-2.2987304 11.819679 -18.779711 4278255360
-2.2107308 11.184195 -19.080891 4278255360
-2.1570725 11.973561 -18.899412 4278255360
-2.1334898 11.027352 -18.656309 4278255360
-2.1199701 11.500902 -18.645279 4278255360
-2.0213051 11.338728 -18.950155 4278255360
-1.9697934 11.18163 -18.660749 4278255360
-1.9597536 11.65516 -18.66799 4278255360
-1.9257069 11.971383 -18.529737 4278255360
-1.9102685 11.81382 -18.429052 4278255360
-1.8538719 11.177538 -18.894985 4278255360
-1.8423475 11.966418 -18.934294 4278255360
-1.6945003 11.647205 -18.961639 4278255360
-1.6302021 11.963871 -18.665991 4278255360
-1.6258237 11.806132 -18.623249 4278255360
-1.5330155 11.485946 -18.937754 4278255360
-1.4663253 11.329085 -18.570387 4278255360
-1.2865696 11.799397 -18.531546 4278255360
-1.2863353 11.95726 -18.550211 4278255360
-0.94209611 11.950648 -18.433432 4278255360
-1.9689398 3.9219575 -18.58075 4278255360
-1.9660246 2.9748657 -18.445988 4278255360
-1.9361345 3.2889152 -18.329411 4278255360
-1.9256783 3.4462297 -18.294619 4278255360
-1.8066404 3.6023512 -18.532278 4278255360
-1.6784898 3.1267338 -18.642271 4278255360
-1.6263853 3.2817175 -18.390234 4278255360
-1.511143 3.5958822 -18.666967 4278255360
-1.3234984 3.1170287 -18.466881 4278255360
-1.2655272 3.4296916 -18.204914 4278255360
-1.1751268 3.4294877 -18.57078 4278255360
-1.1121422 3.1103067 -18.203648 4278255360
-1.1001195 2.9516866 -18.121271 4278255360
-0.99894911 3.2668912 -18.470633 4278255360
-0.95080447 2.9484046 -18.180981 4278255360
-0.78659219 3.1022391 -18.183231 4278255360
-0.46679151 3.2524564 -18.212801 4278255360
-0.3111417 2.9328775 -18.200045 4278255360
-0.1415922 3.2444296 -18.194931 4278255360
0.051889099 3.0807226 -18.007307 4278255360
-2.0066071 11.023431 -18.833431 4278255360
-2.0213051 11.338728 -18.950155 4278255360
-1.9697934 11.18163 -18.660749 4278255360
-1.9597536 11.65516 -18.66799 4278255360
-1.9257069 11.971383 -18.529737 4278255360
-1.9102685 11.81382 -18.429052 4278255360
-1.8538719 11.177538 -18.894985 4278255360
-1.8423475 11.966418 -18.934294 4278255360
-1.6945003 11.647205 -18.961639 4278255360
-1.6302021 11.963871 -18.665991 4278255360
-1.6258237 11.806132 -18.623249 4278255360
-1.5330155 11.485946 -18.937754 4278255360
-1.4663253 11.329085 -18.570387 4278255360
-1.2865696 11.799397 -18.531546 4278255360
-1.2863353 11.95726 -18.550211 4278255360
-0.94209611 11.950648 -18.433432 4278255360
-0.81277931 11.94655 -18.597191 4278255360
-0.81146789 11.472949 -18.530832 4278255360
-0.79693711 11.631058 -18.475386 4278255360
-0.60986 11.627939 -18.34 4278255360
-0.44828689 12.098236 -18.396391 4278255360
-0.35810769 11.619777 -18.702318 4278255360
-0.33874941 12.093719 -18.661869 4278255360
-0.173967 11.774505 -18.602354 4278255360
-0.16880371 11.932491 -18.595554 4278255360
-0.1084118 12.091564 -18.304104 4278255360
-0.99894911 3.2668912 -18.470633 4278255360
-0.95080447 2.9484046 -18.180981 4278255360
-0.78659219 3.1022391 -18.183231 4278255360
-0.46679151 3.2524564 -18.212801 4278255360
-0.3111417 2.9328775 -18.200045 4278255360
-0.1415922 3.2444296 -18.194931 4278255360
0.051889099 3.0807226 -18.007307 4278255360
0.1961046 3.0777123 -18.093393 4278255360
0.32158649 3.0757296 -18.275545 4278255360
0.52373493 3.0695364 -18.064049 4278255360
0.83854699 2.9040117 -18.080978 4278255360
0.90643632 3.0583439 -17.753443 4278255360
1.0103747 3.0575392 -18.045452 4278255360
1.0617241 3.3709953 -17.822638 4278255360
-0.94209611 11.950648 -18.433432 4278255360
-0.81277931 11.94655 -18.597191 4278255360
-0.81146789 11.472949 -18.530832 4278255360
-0.79693711 11.631058 -18.475386 4278255360
-0.60986 11.627939 -18.34 4278255360
-0.44828689 12.098236 -18.396391 4278255360
-0.35810769 11.619777 -18.702318 4278255360
-0.33874941 12.093719 -18.661869 4278255360
-0.173967 11.774505 -18.602354 4278255360
-0.16880371 11.932491 -18.595554 4278255360
-0.1084118 12.091564 -18.304104 4278255360
0.1378163 11.767284 -18.654413 4278255360
0.1687029 11.925737 -18.515432 4278255360
0.2040302 12.084352 -18.353632 4278255360
0.48157531 11.760596 -18.542564 4278255360
0.49840641 11.918837 -18.476048 4278255360
0.52075231 12.077222 -18.381264 4278255360
0.66878098 11.599522 -18.388731 4278255360
0.88486463 11.754889 -18.127203 4278255360
1.0083823 12.066762 -18.358946 4278255360
0.051889099 3.0807226 -18.007307 4278255360
0.1961046 3.0777123 -18.093393 4278255360
0.32158649 3.0757296 -18.275545 4278255360
0.52373493 3.0695364 -18.064049 4278255360
0.83854699 2.9040117 -18.080978 4278255360
0.90643632 3.0583439 -17.753443 4278255360
1.0103747 3.0575392 -18.045452 4278255360
1.0617241 3.3709953 -17.822638 4278255360
1.1953472 3.052295 -17.923317 4278255360
1.2275318 3.2086835 -17.778858 4278255360
1.5205511 3.0442581 -17.907917 4278255360
1.6633976 3.3575358 -18.040197 4278255360
1.8373644 3.0366805 -17.93549 4278255360
1.8607423 3.5098846 -17.875978 4278255360
2.028749 3.0310931 -17.782179 4278255360
0.1378163 11.767284 -18.654413 4278255360
0.1687029 11.925737 -18.515432 4278255360
0.2040302 12.084352 -18.353632 4278255360
0.48157531 11.760596 -18.542564 4278255360
0.49840641 11.918837 -18.476048 4278255360
0.52075231 12.077222 -18.381264 4278255360
0.66878098 11.599522 -18.388731 4278255360
