# .PCD v0.7 - Point Cloud Data file format
VERSION 0.7
FIELDS x y z rgb
SIZE 4 4 4 4
TYPE F F F U
COUNT 1 1 1 1
WIDTH 1148
HEIGHT 1
VIEWPOINT 0 0 0 1 0 0 0
POINTS 1148
DATA ascii
36.843822 55.209465 -14.715393 4294967295
36.852112 52.271332 -15.012969 4294967295
36.854004 54.038792 -15.206243 4294967295
36.85659 53.075768 -15.086475 4294967295
36.861843 51.149239 -14.846525 4294967295
36.870274 56.503067 -14.756546 4294967295
36.881767 52.118641 -14.877041 4294967295
36.884209 51.315815 -14.776029 4294967295
36.893398 50.193134 -14.61168 4294967295
36.895115 51.800819 -14.787539 4294967295
36.907375 54.696404 -15.067577 4294967295
36.909168 54.375603 -15.023952 4294967295
36.913086 52.60918 -14.807563 4294967295
36.919868 50.682205 -14.561429 4294967295
36.92408 52.93359 -14.800469 4294967295
36.929459 53.899281 -14.888697 4294967295
36.941647 55.348873 -15.004683 4294967295
36.941673 52.456207 -14.675868 4294967295
36.942467 49.518795 -15.002707 4294967295
36.943626 50.482899 -15.107635 4294967295
36.949341 50.850636 -14.462726 4294967295
36.95068 55.994171 -15.041872 4294967295
36.954975 52.091995 -15.245135 4294967295
36.958538 55.675121 -14.974204 4294967295
36.962135 50.648315 -15.052508 4294967295
36.968319 56.320694 -15.008444 4294967295
36.969135 51.13205 -15.079516 4294967295
36.970058 53.749901 -14.709393 4294967295
36.971195 50.008038 -14.943562 4294967295
36.995296 50.335552 -14.884511 4294967295
37.00333 54.996006 -15.381873 4294967295
37.02142 55.532665 -14.7066 4294967295
37.057232 53.565586 -15.004111 4294967295
37.067657 50.836391 -14.652407 4294967295
37.069115 55.175499 -15.139511 4294967295
37.084808 50.153465 -15.169427 4294967295
37.111961 54.705738 -14.915023 4294967295
37.139374 53.427612 -14.660349 4294967295
37.153992 50.010468 -14.877147 4294967295
37.156113 53.063454 -15.215436 4294967295
37.161247 50.655071 -14.921418 4294967295
37.162109 51.779972 -15.04575 4294967295
37.175095 56.331131 -14.847455 4294967295
37.175217 55.68824 -14.77395 4294967295
37.178555 52.105682 -15.017118 4294967295
37.181484 52.749107 -15.078508 4294967295
37.182968 54.677094 -15.291503 4294967295
37.191051 51.305595 -14.876396 4294967295
37.195339 53.234859 -15.078385 4294967295
37.20105 50.986805 -14.800286 4294967295
37.204418 50.344784 -14.71393 4294967295
37.214966 53.882931 -15.073659 4294967295
37.216011 49.865509 -14.613223 4294967295
37.218796 54.044662 -15.076746 4294967295
37.220203 49.705811 -14.578355 4294967295
37.228821 54.208138 -15.055316 4294967295
37.233219 55.976532 -15.238543 4294967295
37.234657 50.513306 -14.612419 4294967295
37.249199 52.446072 -14.773913 4294967295
37.251865 55.018021 -15.055323 4294967295
37.2537 54.37582 -14.975082 4294967295
37.254856 49.510136 -15.080404 4294967295
37.265285 52.243301 -15.349173 4294967295
37.266453 53.736584 -14.851621 4294967295
37.270386 55.826729 -15.073232 4294967295
37.28476 50.481617 -15.071535 4294967295
37.287182 56.313667 -15.061496 4294967295
37.304066 55.515118 -14.903487 4294967295
37.312241 54.343872 -15.400454 4294967295
37.321121 54.555595 -14.726499 4294967295
37.361515 51.626377 -14.895581 4294967295
37.377605 51.952061 -14.868423 4294967295
37.379025 52.595253 -14.935798 4294967295
37.395676 53.081886 -14.924664 4294967295
37.399124 55.492992 -15.184582 4294967295
37.415607 53.408775 -14.882324 4294967295
37.417049 49.989235 -15.150216 4294967295
37.441093 55.023026 -14.963965 4294967295
37.450924 54.86512 -14.906868 4294967295
37.46838 53.905617 -14.728391 4294967295
37.474682 53.69883 -15.341757 4294967295
37.486996 49.685589 -14.83725 4294967295
37.487396 53.589355 -14.616697 4294967295
37.490955 51.293571 -15.004005 4294967295
37.495007 53.061928 -15.188558 4294967295
37.50668 51.940445 -15.014817 4294967295
37.507511 51.458607 -14.956822 4294967295
37.511845 51.781136 -14.976169 4294967295
37.515633 50.496471 -14.815275 4294967295
37.515903 49.853615 -14.741229 4294967295
37.522472 50.980404 -14.842973 4294967295
37.523201 54.033596 -15.186563 4294967295
37.525169 55.479851 -15.34281 4294967295
37.52549 54.676807 -15.250425 4294967295
37.526623 49.534821 -14.66236 4294967295
37.527706 52.267441 -14.968209 4294967295
37.529522 52.428623 -14.979266 4294967295
37.530087 50.660923 -14.776399 4294967295
37.537285 52.109306 -14.912116 4294967295
37.554192 53.399506 -14.991217 4294967295
37.55793 55.971241 -15.26811 4294967295
37.585911 53.568966 -14.884152 4294967295
37.590981 52.766678 -14.772935 4294967295
37.593281 55.017433 -15.019161 4294967295
37.595749 56.464283 -15.173471 4294967295
37.596581 50.633419 -15.169788 4294967295
37.598473 53.893906 -14.871018 4294967295
37.608349 53.25367 -14.759037 4294967295
37.619919 54.542847 -14.859252 4294967295
37.624317 49.997864 -14.98736 4294967295
37.630337 52.61657 -14.599195 4294967295
37.636436 55.833412 -14.939904 4294967295
37.653767 52.57629 -15.162769 4294967295
37.65987 56.322445 -14.902071 4294967295
37.665184 55.359497 -14.771682 4294967295
37.681591 54.993622 -15.326283 4294967295
37.710808 53.87727 -15.083468 4294967295
37.717247 49.860672 -14.602171 4294967295
37.718063 51.790009 -14.81784 4294967295
37.736752 55.812721 -15.199782 4294967295
37.745575 55.493931 -15.12854 4294967295
37.751637 54.531494 -14.995281 4294967295
37.753494 52.924725 -14.805631 4294967295
37.765999 51.481129 -14.592131 4294967295
37.798019 50.480038 -15.011984 4294967295
37.829575 50.327412 -14.86929 4294967295
37.83342 52.578232 -15.109278 4294967295
37.83532 50.971775 -14.919549 4294967295
37.840191 53.062088 -15.137257 4294967295
37.845566 54.188206 -15.243586 4294967295
37.847282 49.849693 -14.744748 4294967295
37.854378 52.423183 -15.008437 4294967295
37.865829 52.265549 -14.94505 4294967295
37.870518 53.552452 -15.072366 4294967295
37.876156 52.107582 -14.886112 4294967295
37.886494 50.663517 -14.681258 4294967295
37.892155 54.683323 -15.114606 4294967295
37.899673 56.292213 -15.26713 4294967295
37.912075 53.724648 -14.926776 4294967295
37.915882 55.814922 -15.148621 4294967295
37.936974 54.856735 -14.956196 4294967295
37.942188 52.768356 -14.698686 4294967295
37.944878 55.984043 -15.052598 4294967295
37.949314 50.153053 -15.033875 4294967295
37.952286 52.931881 -14.677114 4294967295
37.959785 55.184708 -14.90274 4294967295
37.963585 51.326759 -14.450196 4294967295
37.964283 49.514011 -14.901997 4294967295
37.966576 54.543613 -14.803082 4294967295
37.968292 51.122066 -15.06841 4294967295
37.979889 50.000107 -14.895181 4294967295
37.98138 55.512409 -14.854092 4294967295
37.993343 56.158909 -14.879849 4294967295
37.994797 51.611092 -15.018661 4294967295
38.000618 53.427513 -14.541276 4294967295
38.005245 56.48391 -14.869403 4294967295
38.011898 54.395576 -14.606222 4294967295
38.018822 51.778145 -14.942239 4294967295
38.023083 55.153709 -15.307949 4294967295
38.033585 53.710629 -15.102706 4294967295
38.043915 51.463276 -14.806947 4294967295
38.058697 54.521114 -15.0949 4294967295
38.069695 50.344475 -14.577782 4294967295
38.075268 50.667515 -14.5923 4294967295
38.104576 53.247948 -14.768502 4294967295
38.112228 55.339912 -14.975228 4294967295
38.114693 54.0546 -14.819785 4294967295
38.139252 55.829929 -14.9235 4294967295
38.153049 53.582848 -14.614064 4294967295
38.1712 50.969112 -14.905412 4294967295
38.171257 51.451317 -14.959837 4294967295
38.171848 56.321705 -14.849847 4294967295
38.179619 53.703403 -15.18187 4294967295
38.193577 54.189327 -15.181598 4294967295
38.193905 50.171158 -14.724936 4294967295
38.197521 55.315147 -15.293503 4294967295
38.208565 51.621857 -14.83123 4294967295
38.211384 52.426357 -14.91123 4294967295
38.213448 55.690594 -14.613232 4294967295
38.226475 50.661842 -14.651424 4294967295
38.228825 50.340839 -14.605719 4294967295
38.23035 55.003151 -15.127987 4294967295
38.23452 54.843628 -15.093388 4294967295
38.236069 53.236767 -14.90519 4294967295
38.237411 52.594105 -14.827046 4294967295
38.244778 51.952969 -14.725183 4294967295
38.247105 54.043533 -14.952849 4294967295
38.261959 53.083065 -14.785128 4294967295
38.276958 54.534142 -14.890057 4294967295
38.288734 55.180511 -14.916607 4294967295
38.292404 56.306793 -15.029638 4294967295
38.306168 53.577553 -14.665863 4294967295
38.308968 49.513382 -14.853159 4294967295
38.319103 52.408966 -15.141074 4294967295
38.333839 55.836563 -14.812085 4294967295
38.351101 55.519939 -14.707774 4294967295
38.354908 56.164268 -14.765679 4294967295
38.365314 53.064266 -15.032273 4294967295
38.381191 50.335476 -14.660254 4294967295
38.437908 56.138466 -15.092921 4294967295
38.446362 52.121407 -14.604472 4294967295
38.461227 52.286198 -14.56426 4294967295
38.506657 54.71117 -14.658993 4294967295
38.508648 52.252773 -15.031042 4294967295
38.510628 50.163509 -14.786592 4294967295
38.51461 53.218693 -15.116824 4294967295
38.515381 56.321819 -14.806837 4294967295
38.515572 51.611652 -14.93105 4294967295
38.526402 50.328297 -14.74285 4294967295
38.526451 54.39505 -14.544797 4294967295
38.529327 55.521774 -14.661002 4294967295
38.538319 51.296074 -14.805309 4294967295
38.551731 50.817173 -14.698007 4294967295
38.566151 51.946526 -14.768847 4294967295
38.570976 54.359341 -15.022964 4294967295
38.571762 50.018162 -14.528247 4294967295
38.572971 52.752277 -14.833097 4294967295
38.574051 55.856361 -14.521751 4294967295
38.578796 49.537373 -14.445956 4294967295
38.608971 52.118687 -14.618917 4294967295
38.610558 51.475742 -14.539836 4294967295
38.61087 52.923313 -14.702522 4294967295
38.615112 56.300846 -15.068117 4294967295
38.617863 53.890072 -14.784313 4294967295
38.63879 54.056679 -14.720385 4294967295
38.641514 49.67046 -14.870625 4294967295
38.644005 55.987728 -14.918353 4294967295
38.649323 55.185307 -14.80649 4294967295
38.666042 52.087967 -15.047366 4294967295
38.669628 53.421818 -14.526485 4294967295
38.694221 53.059925 -15.046012 4294967295
38.695587 54.715916 -14.570301 4294967295
38.698566 53.751514 -14.449318 4294967295
38.699165 52.418274 -14.953847 4294967295
38.706207 51.13393 -14.780614 4294967295
38.733849 50.819447 -14.635758 4294967295
38.749889 53.396603 -14.864106 4294967295
38.771305 54.528011 -14.907506 4294967295
38.773422 50.507881 -14.444079 4294967295
38.77689 51.63483 -14.55796 4294967295
38.780415 50.670547 -14.434849 4294967295
38.804543 52.768154 -14.576951 4294967295
38.817539 52.932518 -14.544193 4294967295
38.832981 55.671108 -14.793103 4294967295
38.849518 52.619366 -14.382343 4294967295
38.854095 50.805813 -14.816206 4294967295
38.861691 49.842915 -14.677229 4294967295
38.876461 52.741039 -14.946898 4294967295
38.878139 49.686199 -14.594554 4294967295
38.881607 56.167664 -14.65709 4294967295
38.888493 54.721764 -14.466259 4294967295
38.891964 52.102047 -14.813375 4294967295
38.901318 52.265331 -14.794926 4294967295
38.907715 50.33704 -14.551442 4294967295
38.912125 55.532959 -14.464663 4294967295
38.913593 53.072632 -14.837808 4294967295
38.925125 51.628323 -14.628832 4294967295
38.927055 50.020195 -14.439218 4294967295
38.929684 54.363384 -14.920305 4294967295
38.930065 54.041916 -14.88243 4294967295
38.933075 55.86079 -14.418956 4294967295
38.933578 53.238865 -14.777701 4294967295
38.945606 55.010998 -14.930713 4294967295
38.960999 50.672379 -14.379015 4294967295
38.963158 51.960041 -14.516208 4294967295
38.968449 51.317894 -14.42265 4294967295
38.979084 50.99884 -14.344554 4294967295
38.980206 56.307236 -14.940727 4294967295
39.002216 51.442444 -14.959955 4294967295
39.006065 53.741226 -14.548348 4294967295
39.008499 54.224514 -14.593419 4294967295
39.009613 54.707413 -14.643643 4294967295
39.02322 54.550362 -14.572157 4294967295
39.101486 56.503456 -14.48407 4294967295
39.126129 52.279144 -14.565864 4294967295
39.155235 50.51675 -14.251677 4294967295
39.155556 49.551117 -14.141161 4294967295
39.162495 53.41507 -14.550911 4294967295
39.164188 55.828358 -14.817152 4294967295
39.171864 55.508888 -14.750761 4294967295
39.179077 50.039909 -14.103693 4294967295
39.182961 54.064228 -14.543621 4294967295
39.192783 55.675728 -14.687119 4294967295
39.19503 55.032894 -14.605558 4294967295
39.1954 50.482815 -14.745488 4294967295
39.196312 52.941528 -14.363976 4294967295
39.201965 54.87397 -14.560241 4294967295
39.208652 50.647022 -14.71183 4294967295
39.212269 52.784889 -14.283314 4294967295
39.212368 49.682888 -14.588154 4294967295
39.216278 56.1651 -14.649787 4294967295
39.217655 50.005928 -14.60386 4294967295
39.21999 50.971596 -14.70387 4294967295
39.228378 56.329491 -14.620646 4294967295
39.234753 51.297089 -14.682518 4294967295
39.235729 52.101517 -14.769633 4294967295
39.242134 56.011696 -14.530456 4294967295
39.249653 53.760769 -14.246253 4294967295
39.250401 52.266235 -14.730458 4294967295
39.251743 51.784061 -14.670636 4294967295
39.255535 51.463341 -14.619437 4294967295
39.25642 53.554455 -14.852401 4294967295
39.275944 51.951283 -14.5942 4294967295
39.279354 52.7565 -14.671812 4294967295
39.279781 51.147881 -14.48822 4294967295
39.280457 51.630714 -14.54017 4294967295
39.287273 55.814342 -14.986322 4294967295
39.29921 53.727009 -14.703318 4294967295
39.302479 50.349121 -14.308465 4294967295
39.306919 54.694218 -14.782295 4294967295
39.317513 50.191978 -14.23146 4294967295
39.341099 55.186405 -14.703254 4294967295
39.342056 49.671906 -14.731315 4294967295
39.356392 53.25996 -14.4252 4294967295
39.365234 55.515011 -14.64531 4294967295
39.378227 54.553307 -14.485406 4294967295
39.384647 56.485867 -14.67856 4294967295
39.386761 52.463398 -14.215484 4294967295
39.396904 55.36314 -14.503355 4294967295
39.412472 50.654778 -14.565283 4294967295
39.423168 53.922005 -14.236949 4294967295
39.437027 54.891678 -14.291982 4294967295
39.453007 55.701031 -14.320507 4294967295
39.464859 49.863441 -14.269621 4294967295
39.481407 54.534016 -14.732441 4294967295
39.496555 52.768417 -14.473266 4294967295
39.498234 56.308105 -14.866688 4294967295
39.500164 49.550293 -14.095245 4294967295
39.522232 55.993347 -14.736669 4294967295
39.522655 54.867321 -14.607754 4294967295
39.526356 52.615463 -14.338682 4294967295
39.527245 52.45475 -14.317021 4294967295
39.528252 53.581596 -14.440423 4294967295
39.532692 55.191936 -14.604931 4294967295
39.533241 50.802181 -14.761429 4294967295
39.535488 55.514515 -14.63038 4294967295
39.545513 53.908192 -14.40939 4294967295
39.546909 50.162247 -14.63536 4294967295
39.553543 52.300766 -14.196102 4294967295
39.553749 53.105686 -14.286266 4294967295
39.567226 50.328247 -14.57423 4294967295
39.568836 50.972157 -14.640673 4294967295
39.572933 49.686111 -14.479219 4294967295
39.578362 49.848366 -14.476214 4294967295
39.579216 52.583424 -14.781949 4294967295
39.587406 54.354733 -14.949872 4294967295
39.592968 52.908798 -14.764631 4294967295
39.593849 52.26561 -14.6885 4294967295
39.596043 53.392159 -14.807166 4294967295
39.604206 52.107475 -14.6299 4294967295
39.604347 51.303078 -14.538451 4294967295
39.613293 53.557705 -14.758035 4294967295
39.614666 55.859028 -14.357663 4294967295
39.6161 54.201866 -14.819773 4294967295
39.618713 55.055313 -14.25092 4294967295
39.625847 51.791378 -14.509089 4294967295
39.630642 55.380665 -14.240734 4294967295
39.643742 50.025665 -14.239181 4294967295
39.643814 56.511333 -14.316653 4294967295
39.66021 50.307884 -14.860387 4294967295
39.661678 50.674068 -14.241935 4294967295
39.661995 55.662411 -14.804323 4294967295
39.665909 55.020065 -14.716365 4294967295
39.671219 54.860683 -14.677483 4294967295
39.692848 51.647945 -14.229437 4294967295
39.700626 51.604824 -14.848155 4294967295
39.701229 51.167156 -14.142155 4294967295
39.709892 56.480568 -14.708401 4294967295
39.721592 53.265324 -14.299184 4294967295
39.738735 54.557739 -14.377795 4294967295
39.78727 50.983715 -14.437673 4294967295
39.816189 50.830173 -14.306743 4294967295
39.821625 50.187668 -14.212802 4294967295
39.829132 49.70657 -14.128958 4294967295
39.852295 53.093002 -14.42053 4294967295
39.860218 49.831963 -14.67463 4294967295
39.863113 55.188034 -14.614647 4294967295
39.863377 55.509918 -14.649962 4294967295
39.879456 52.571323 -14.908495 4294967295
39.883171 52.779362 -14.263836 4294967295
39.884628 49.516254 -14.54319 4294967295
39.887241 50.964882 -14.696547 4294967295
39.892498 52.137856 -14.15473 4294967295
39.899063 55.841942 -14.547281 4294967295
39.907726 51.77454 -14.707599 4294967295
39.907818 53.383099 -14.888871 4294967295
39.914177 51.293571 -14.627972 4294967295
39.916496 54.881187 -14.370323 4294967295
39.917854 54.55962 -14.32867 4294967295
39.918915 52.260094 -14.718535 4294967295
39.925663 56.493359 -14.51636 4294967295
39.929253 53.067192 -14.7691 4294967295
39.930038 54.241028 -14.244842 4294967295
39.936398 55.36972 -14.347322 4294967295
39.953033 56.018387 -14.355221 4294967295
39.95549 54.200397 -14.794097 4294967295
39.957413 50.339073 -14.35053 4294967295
39.961128 54.684547 -14.826631 4294967295
39.965237 50.019112 -14.283694 4294967295
39.965824 52.75523 -14.59038 4294967295
39.972683 50.181953 -14.272875 4294967295
39.975323 50.826492 -14.335308 4294967295
39.9842 52.921066 -14.537004 4294967295
39.987961 52.117397 -14.431502 4294967295
40.003883 51.155758 -14.260434 4294967295
40.006039 53.731602 -14.542824 4294967295
40.030247 50.679493 -14.103194 4294967295
40.05444 53.9058 -14.372586 4294967295
40.064945 52.459702 -14.168084 4294967295
40.069443 50.162613 -14.544182 4294967295
40.08252 51.935856 -14.693097 4294967295
40.109531 54.356194 -14.860412 4294967295
40.124371 55.003757 -14.87532 4294967295
40.126461 50.981728 -14.413155 4294967295
40.128616 49.694534 -14.259388 4294967295
40.130116 51.626453 -14.471611 4294967295
40.135101 53.558819 -14.670193 4294967295
40.156689 56.51054 -14.26541 4294967295
40.15871 53.243385 -14.542049 4294967295
40.159863 56.189419 -14.216723 4294967295
40.193607 52.447929 -14.315477 4294967295
40.197796 53.414906 -14.408205 4294967295
40.201588 53.737865 -14.429786 4294967295
40.201984 55.186497 -14.591712 4294967295
40.203999 54.221405 -14.474909 4294967295
40.205551 49.992283 -14.643855 4294967295
40.209007 52.934994 -14.310087 4294967295
40.211269 52.889305 -14.948395 4294967295
40.212681 51.120281 -14.743247 4294967295
40.221298 52.29425 -14.189597 4294967295
40.225151 52.249603 -14.821862 4294967295
40.238201 55.357674 -14.469082 4294967295
40.238522 54.552902 -14.376999 4294967295
40.24197 53.540951 -14.901701 4294967295
40.25071 50.647285 -14.540955 4294967295
40.262718 50.972198 -14.530613 4294967295
40.268517 55.849216 -14.405713 4294967295
40.273457 51.296818 -14.525197 4294967295
40.275909 54.724312 -14.249803 4294967295
40.284462 51.782467 -14.536901 4294967295
40.285046 49.690178 -14.298495 4294967295
40.289478 56.3382 -14.378733 4294967295
40.290787 52.58876 -14.603121 4294967295
40.293694 56.017422 -14.326011 4294967295
40.304222 50.499882 -14.314788 4294967295
40.317532 50.342251 -14.244889 4294967295
40.320679 51.952873 -14.414329 4294967295
40.325645 54.851028 -14.721855 4294967295
40.340687 51.636135 -14.300238 4294967295
40.349804 49.545174 -14.028551 4294967295
40.362179 55.665897 -14.670731 4294967295
40.371082 54.702785 -14.527218 4294967295
40.371498 56.473156 -14.725298 4294967295
40.389763 50.155792 -14.592882 4294967295
40.394779 51.283409 -14.700465 4294967295
40.417107 52.0937 -14.704534 4294967295
40.429581 53.705902 -14.837583 4294967295
40.440449 52.743484 -14.686537 4294967295
40.45554 54.243195 -14.144676 4294967295
40.487236 50.82423 -14.287018 4294967295
40.505165 51.150818 -14.253725 4294967295
40.523655 52.443661 -14.327246 4294967295
40.52758 51.800663 -14.239362 4294967295
40.530869 55.504002 -14.644177 4294967295
40.535324 54.70052 -14.536137 4294967295
40.535992 50.148899 -14.671288 4294967295
40.539696 55.667446 -14.628068 4294967295
40.552864 56.47591 -14.667725 4294967295
40.558331 53.901974 -14.356095 4294967295
40.560184 55.0294 -14.47598 4294967295
40.566589 49.673733 -14.498137 4294967295
40.571167 56.159294 -14.56043 4294967295
40.572212 54.549793 -14.374853 4294967295
40.576385 50.641819 -14.56904 4294967295
40.576622 55.355984 -14.448516 4294967295
40.579594 50.320751 -14.520296 4294967295
40.579655 52.251827 -14.73783 4294967295
40.584229 51.609386 -14.64751 4294967295
40.585247 53.587273 -14.215312 4294967295
40.602016 56.329147 -14.458906 4294967295
40.602997 53.062542 -14.738023 4294967295
40.609402 51.776852 -14.568035 4294967295
40.613922 52.42178 -14.623088 4294967295
40.621693 51.297176 -14.46591 4294967295
40.625957 49.849407 -14.285972 4294967295
40.641083 54.842896 -14.789921 4294967295
40.641514 53.555679 -14.643123 4294967295
40.64732 52.108665 -14.457279 4294967295
40.648003 49.532825 -14.164126 4294967295
40.66045 50.502083 -14.224802 4294967295
40.663479 50.824886 -14.249364 4294967295
40.672329 51.149181 -14.251358 4294967295
40.681557 53.244583 -14.451587 4294967295
40.697365 51.960762 -14.245057 4294967295
40.70013 51.478386 -14.179845 4294967295
40.712605 52.930912 -14.294897 4294967295
40.71492 52.609482 -14.249598 4294967295
40.719498 51.921322 -14.804684 4294967295
40.735279 53.420071 -14.261442 4294967295
40.756393 54.39201 -14.28851 4294967295
40.774517 50.165073 -14.39192 4294967295
40.779465 50.971207 -14.463497 4294967295
40.820824 55.53735 -14.165866 4294967295
40.826977 56.505459 -14.25094 4294967295
40.863415 53.569 -14.428622 4294967295
40.86763 52.765099 -14.32156 4294967295
40.873451 51.47834 -14.153785 4294967295
40.881187 53.251778 -14.323489 4294967295
40.89011 56.152103 -14.615497 4294967295
40.890247 54.059315 -14.379132 4294967295
40.894524 53.738449 -14.326278 4294967295
40.901958 50.314426 -14.561383 4294967295
40.906719 56.478817 -14.587484 4294967295
40.906803 50.842564 -13.951929 4294967295
40.907429 49.671947 -14.46764 4294967295
40.909065 51.603745 -14.678968 4294967295
40.916504 54.549595 -14.331905 4294967295
40.92672 49.998676 -14.429234 4294967295
40.932411 53.909805 -14.197704 4294967295
40.933796 50.805332 -14.492557 4294967295
40.935696 52.622105 -14.039746 4294967295
40.937561 54.233326 -14.214059 4294967295
40.939777 55.200203 -14.314373 4294967295
40.94133 55.522705 -14.344646 4294967295
40.941982 55.039787 -14.287686 4294967295
40.946308 55.846172 -14.361658 4294967295
40.956341 52.098873 -14.550407 4294967295
40.960442 54.722828 -14.179911 4294967295
40.965282 50.974319 -14.388824 4294967295
40.974918 52.42569 -14.514795 4294967295
40.986015 51.784645 -14.399279 4294967295
40.99078 54.522427 -14.689168 4294967295
41.01577 50.181885 -14.102641 4294967295
41.028233 55.659546 -14.671227 4294967295
41.032295 52.923889 -14.347183 4294967295
41.038727 50.670868 -14.068218 4294967295
41.040894 52.282036 -14.24134 4294967295
41.077152 54.707333 -14.373202 4294967295
41.08149 53.098068 -14.174979 4294967295
41.10186 54.231026 -14.223195 4294967295
41.105278 51.448681 -14.54594 4294967295
41.121258 55.524868 -14.293309 4294967295
41.121578 53.269897 -14.038024 4294967295
41.133617 55.850475 -14.281784 4294967295
41.158371 56.340736 -14.240477 4294967295
41.222404 56.47068 -14.65527 4294967295
41.229324 50.836205 -13.993731 4294967295
41.23362 54.219807 -14.358111 4294967295
41.235012 49.988831 -14.524976 4294967295
41.237389 53.254547 -14.23473 4294967295
41.241585 54.705097 -14.381733 4294967295
41.2439 50.634933 -14.563156 4294967295
41.247677 51.968636 -14.0498 4294967295
41.247925 51.163158 -13.958098 4294967295
41.268482 51.812931 -13.951215 4294967295
41.27322 53.103065 -14.078089 4294967295
41.287472 55.201027 -14.258832 4294967295
41.28896 52.623913 -13.962797 4294967295
41.291542 55.685356 -14.297521 4294967295
41.292965 56.168919 -14.346425 4294967295
41.293694 53.914085 -14.089674 4294967295
41.298302 50.487621 -14.334875 4294967295
41.299931 54.399086 -14.120001 4294967295
41.301373 53.755062 -14.041856 4294967295
41.305302 51.777519 -14.452896 4294967295
41.314034 50.330532 -14.25596 4294967295
41.322792 55.372021 -14.140507 4294967295
41.332668 49.529831 -14.093257 4294967295
41.33688 51.946732 -14.349064 4294967295
41.348862 51.466702 -14.248376 4294967295
41.358414 54.367687 -14.537834 4294967295
41.378021 56.354389 -14.035978 4294967295
41.381756 53.891029 -14.393344 4294967295
41.389263 55.87418 -13.938119 4294967295
41.39333 52.283573 -14.167314 4294967295
41.397121 55.022438 -14.460926 4294967295
41.400135 51.640984 -14.068476 4294967295
41.42812 49.671543 -14.38617 4294967295
41.433048 55.354561 -14.3585 4294967295
41.444241 52.13578 -13.952562 4294967295
41.446983 54.714199 -14.232183 4294967295
41.46595 50.969147 -14.385199 4294967295
41.479595 52.950802 -13.906755 4294967295
41.486927 52.262703 -14.449259 4294967295
41.493179 51.298149 -14.316384 4294967295
41.514294 50.014923 -14.089838 4294967295
41.533688 50.137566 -14.675778 4294967295
41.544186 49.538944 -13.920033 4294967295
41.558361 49.499763 -14.508169 4294967295
41.566681 52.766842 -14.19597 4294967295
41.56958 54.056175 -14.329811 4294967295
41.577656 51.158627 -13.972281 4294967295
41.581226 49.98838 -14.474362 4294967295
41.60289 54.226341 -14.219474 4294967295
41.606575 53.582966 -14.132743 4294967295
41.608639 55.033325 -14.287944 4294967295
41.611282 54.550819 -14.223367 4294967295
41.611553 56.32262 -14.42169 4294967295
41.612141 56.161743 -14.4013 4294967295
41.619232 52.091 -14.563403 4294967295
41.620872 53.264576 -14.041328 4294967295
41.641941 56.009167 -14.268294 4294967295
41.644547 55.687729 -14.221992 4294967295
41.646194 55.365997 -14.179378 4294967295
41.655846 50.651131 -14.259181 4294967295
41.662445 53.920341 -13.953523 4294967295
41.664696 52.953964 -13.836012 4294967295
41.671947 53.392967 -14.505169 4294967295
41.672531 52.749031 -14.430451 4294967295
41.677013 54.730083 -13.988023 4294967295
41.678894 50.495842 -14.152194 4294967295
41.697933 52.433632 -14.29632 4294967295
41.698391 51.467304 -14.185807 4294967295
41.718555 55.015903 -14.506755 4294967295
41.720249 53.083797 -14.282816 4294967295
41.737926 51.638569 -14.05155 4294967295
41.766148 51.279179 -14.54864 4294967295
41.76683 51.001381 -13.867589 4294967295
41.772125 55.675095 -14.372876 4294967295
41.777882 52.293468 -13.970079 4294967295
41.79335 50.803024 -14.389539 4294967295
41.801579 50.321949 -14.303508 4294967295
41.82333 56.333969 -14.248131 4294967295
41.827106 51.777897 -14.368264 4294967295
41.828587 50.650841 -14.235731 4294967295
41.832588 50.168591 -14.165951 4294967295
41.84621 54.68145 -14.620714 4294967295
41.870628 55.33226 -14.599173 4294967295
41.889927 53.243965 -14.289448 4294967295
41.892223 52.922413 -14.244376 4294967295
41.899242 53.568619 -14.289834 4294967295
41.900509 50.991199 -13.994999 4294967295
41.911068 49.661816 -14.450983 4294967295
41.912445 51.638798 -14.021548 4294967295
41.91465 50.467781 -14.527748 4294967295
41.920452 50.791252 -14.541642 4294967295
41.924004 55.669327 -14.430015 4294967295
41.927406 55.026016 -14.344473 4294967295
41.932762 56.477074 -14.486847 4294967295
41.934475 54.383625 -14.244805 4294967295
41.935356 52.772717 -14.060211 4294967295
41.947857 49.509773 -14.291303 4294967295
41.957191 50.156307 -14.327851 4294967295
41.96032 56.162827 -14.344611 4294967295
41.968624 49.998074 -14.265743 4294967295
41.968876 54.070786 -14.07617 4294967295
41.978985 51.289177 -14.370788 4294967295
41.981888 52.739269 -14.522606 4294967295
41.98436 55.20298 -14.143416 4294967295
41.988052 55.848503 -14.201675 4294967295
41.99604 50.649216 -14.232729 4294967295
41.997021 52.421181 -14.428194 4294967295
42.007122 54.88702 -14.019587 4294967295
42.009968 53.390854 -14.487044 4294967295
42.010899 56.338364 -14.168136 4294967295
42.016979 51.459949 -14.242756 4294967295
42.022888 56.019508 -14.085772 4294967295
42.029419 55.537884 -14.00627 4294967295
42.033993 51.947601 -14.231657 4294967295
42.036774 53.72015 -14.420175 4294967295
42.083981 54.538349 -14.32922 4294967295
42.10865 51.644588 -13.908241 4294967295
42.135506 50.962692 -14.373566 4294967295
42.141949 50.32003 -14.276371 4294967295
42.158646 53.269485 -13.897203 4294967295
42.208923 52.270176 -14.236312 4294967295
42.210957 52.915092 -14.300928 4294967295
42.215061 54.896778 -13.861503 4294967295
42.230083 51.631172 -14.08256 4294967295
42.23209 52.437336 -14.165414 4294967295
42.237804 55.177452 -14.451241 4294967295
42.247185 53.730255 -14.252293 4294967295
42.252563 52.764969 -14.122976 4294967295
42.252754 55.825901 -14.466241 4294967295
42.2547 55.504311 -14.422571 4294967295
42.2565 50.466274 -14.494662 4294967295
42.258305 54.860985 -14.336316 4294967295
42.259476 51.477547 -13.951498 4294967295
42.26482 51.156555 -13.894718 4294967295
42.267323 54.541267 -14.265481 4294967295
42.268745 53.413803 -14.133248 4294967295
42.269451 54.702961 -14.275406 4294967295
42.280918 50.955521 -14.455197 4294967295
42.292812 49.669945 -14.264722 4294967295
42.298615 50.798923 -14.369163 4294967295
42.299732 56.322479 -14.340161 4294967295
42.308064 51.973606 -13.819153 4294967295
42.317589 50.159321 -14.223897 4294967295
42.325233 56.490879 -14.260356 4294967295
42.326996 56.169128 -14.217379 4294967295
42.341652 54.239296 -13.943769 4294967295
42.349712 55.047428 -14.003391 4294967295
42.351894 51.295662 -14.218925 4294967295
42.376602 54.087593 -13.791415 4294967295
42.377964 50.335423 -14.010178 4294967295
42.39304 51.950695 -14.133408 4294967295
42.397968 53.885372 -14.331718 4294967295
42.398079 55.383293 -13.853875 4294967295
42.420078 54.374683 -14.301187 4294967295
42.443405 54.058788 -14.175475 4294967295
42.454208 49.827873 -14.303138 4294967295
42.477272 52.617298 -13.882531 4294967295
42.479469 52.940277 -13.91033 4294967295
42.490696 52.092167 -14.416546 4294967295
42.497448 50.966286 -14.263981 4294967295
42.50771 55.849205 -14.127902 4294967295
42.511898 55.366879 -14.057534 4294967295
42.524609 52.906429 -14.376975 4294967295
42.547428 53.234661 -14.325684 4294967295
42.549438 50.657082 -14.028377 4294967295
42.552094 53.76577 -13.7222 4294967295
42.560101 55.219105 -13.854509 4294967295
42.560352 50.498638 -13.9684 4294967295
42.571377 51.629604 -14.052865 4294967295
42.571774 54.368919 -14.359013 4294967295
42.591301 52.762882 -14.103189 4294967295
42.601261 54.054703 -14.209794 4294967295
42.601978 51.476246 -13.917404 4294967295
42.605835 55.506058 -14.355109 4294967295
42.616615 52.285984 -13.951819 4294967295
42.623642 54.866508 -14.214496 4294967295
42.638165 51.119011 -14.381751 4294967295
42.641277 53.743187 -14.020199 4294967295
42.647114 53.099976 -13.925414 4294967295
42.651344 52.617458 -13.854874 4294967295
42.656952 50.801552 -14.273591 4294967295
42.66853 54.556515 -14.00626 4294967295
42.670879 55.685421 -14.123952 4294967295
42.679661 56.171402 -14.14459 4294967295
42.695621 53.435322 -13.775669 4294967295
42.706028 55.050453 -13.916841 4294967295
42.706604 56.340237 -14.059451 4294967295
42.70882 53.600101 -13.743169 4294967295
42.712685 54.729839 -13.855118 4294967295
42.715393 50.977379 -14.06778 4294967295
42.715649 52.427753 -14.229657 4294967295
42.735649 51.304836 -14.026378 4294967295
42.738125 51.950142 -14.089281 4294967295
42.73901 55.382072 -13.826654 4294967295
42.740261 50.500069 -13.91819 4294967295
42.747284 52.919464 -14.162767 4294967295
42.777355 51.637848 -13.902793 4294967295
42.780273 55.184345 -14.28973 4294967295
42.803047 52.128105 -13.858689 4294967295
42.859394 55.528709 -14.023003 4294967295
42.87368 50.328754 -14.027994 4294967295
42.896336 55.8615 -13.917789 4294967295
42.897366 53.235615 -14.262988 4294967295
42.910427 53.930279 -13.646595 4294967295
42.925125 51.953579 -14.012054 4294967295
42.932865 56.033047 -13.796049 4294967295
42.934952 54.212543 -14.227708 4294967295
42.947086 53.732338 -14.12704 4294967295
42.961102 53.091331 -14.00105 4294967295
42.962841 55.831688 -14.301888 4294967295
42.966373 54.70459 -14.161783 4294967295
42.968113 56.526875 -13.715439 4294967295
42.975956 54.384857 -14.088961 4294967295
42.976288 53.41777 -13.979129 4294967295
42.987228 52.614548 -13.846791 4294967295
42.994419 52.938908 -13.855474 4294967295
42.999199 52.456429 -13.782886 4294967295
43.017361 51.816051 -13.640978 4294967295
43.026138 54.882206 -13.951281 4294967295
43.030556 54.560963 -13.898191 4294967295
43.03463 56.335484 -14.081611 4294967295
43.036163 55.207428 -13.949119 4294967295
43.037422 55.691441 -13.998584 4294967295
43.03997 50.487968 -14.048109 4294967295
43.041195 51.455292 -14.151953 4294967295
43.055542 50.975403 -14.042831 4294967295
43.058731 55.536171 -13.899006 4294967295
43.064747 50.816525 -13.989538 4294967295
43.066097 51.783985 -14.092918 4294967295
43.088478 54.851826 -14.350918 4294967295
43.09631 52.436523 -14.049766 4294967295
43.110939 52.601532 -14.011932 4294967295
43.124874 50.949112 -14.415291 4294967295
43.163151 55.033558 -14.083689 4294967295
43.171818 51.605442 -14.30829 4294967295
43.17799 52.135223 -13.701353 4294967295
43.178051 53.586605 -13.863969 4294967295
43.182556 52.413826 -14.35765 4294967295
43.207451 56.013168 -14.022954 4294967295
43.225723 53.438042 -13.663674 4294967295
43.251675 52.109409 -14.057542 4294967295
43.252159 56.187031 -13.870241 4294967295
43.253052 52.270958 -14.070366 4294967295
43.257111 55.865894 -13.815157 4294967295
43.270798 56.514854 -13.835221 4294967295
43.270966 55.1768 -14.327354 4294967295
43.273914 54.37183 -14.225727 4294967295
43.284672 51.47298 -13.859188 4294967295
43.288219 54.214535 -14.153052 4294967295
43.295349 53.410465 -14.035424 4294967295
43.298256 54.861996 -14.187043 4294967295
43.30513 52.606926 -13.907671 4294967295
43.30875 53.575249 -14.002347 4294967295
43.313099 53.092724 -13.93149 4294967295
43.320324 53.255867 -13.921996 4294967295
43.330894 56.370636 -13.587575 4294967295
43.33289 53.904167 -13.946352 4294967295
43.334557 51.808228 -13.704846 4294967295
43.355015 55.522495 -14.042719 4294967295
43.355534 55.038963 -13.986486 4294967295
43.367706 54.558571 -13.885781 4294967295
43.368362 51.288902 -14.158666 4294967295
43.375504 52.580029 -14.276 4294967295
43.376358 50.807365 -14.073918 4294967295
43.391396 54.726307 -13.813435 4294967295
43.395229 55.37244 -13.871146 4294967295
43.396915 53.55257 -14.302732 4294967295
43.398628 51.61895 -14.07933 4294967295
43.401001 56.341591 -13.957619 4294967295
43.414276 52.912502 -14.164243 4294967295
43.416542 50.978634 -13.938664 4294967295
43.447651 52.11515 -13.946541 4294967295
43.470795 52.282368 -13.876332 4294967295
43.480122 55.831627 -14.238406 4294967295
43.485004 55.881401 -13.582783 4294967295
43.515808 53.745525 -13.867353 4294967295
43.522015 52.250717 -14.317369 4294967295
43.561768 50.971394 -14.021288 4294967295
43.570816 51.618526 -14.059094 4294967295
43.589199 51.139507 -13.934809 4294967295
43.594807 53.559147 -14.18451 4294967295
43.598728 56.34874 -13.84045 4294967295
43.599304 55.703728 -13.765932 4294967295
43.601486 51.948799 -13.978351 4294967295
43.604019 52.594353 -14.040979 4294967295
43.606186 54.206947 -14.21341 4294967295
43.623978 52.92202 -14.001071 4294967295
43.62764 51.471718 -13.824435 4294967295
43.630585 55.019535 -14.210784 4294967295
43.632591 53.24675 -14.004395 4294967295
43.642941 54.53931 -14.109523 4294967295
43.643654 52.443413 -13.871871 4294967295
43.657692 55.833031 -14.197855 4294967295
43.665485 55.351578 -14.113974 4294967295
43.666233 56.480221 -14.237581 4294967295
43.673615 51.805992 -13.685359 4294967295
43.679272 52.775238 -13.772296 4294967295
43.680832 54.872112 -14.001317 4294967295
43.689163 56.003067 -14.09606 4294967295
43.702549 53.749126 -13.79206 4294967295
43.705208 55.201321 -13.944604 4294967295
43.715374 54.07515 -13.779365 4294967295
43.742874 54.197136 -14.328438 4294967295
43.793171 56.193615 -13.718024 4294967295
43.807457 52.924637 -13.938117 4294967295
43.868229 54.714806 -13.905568 4294967295
43.891037 51.611515 -14.110809 4294967295
43.902771 53.272305 -13.611439 4294967295
43.936726 54.847507 -14.298176 4294967295
43.944244 52.108803 -13.962606 4294967295
43.960045 56.191994 -13.718831 4294967295
43.973175 52.761326 -13.924839 4294967295
43.974106 55.018948 -14.174135 4294967295
43.9743 51.955238 -13.830235 4294967295
43.979427 56.310062 -14.298322 4294967295
43.986942 51.797173 -13.764079 4294967295
43.990742 53.411011 -13.930291 4294967295
43.990852 51.475552 -13.713058 4294967295
44.01886 55.998726 -14.112344 4294967295
44.020485 54.064045 -13.889448 4294967295
44.028957 52.453224 -13.676555 4294967295
44.030449 55.518211 -14.014129 4294967295
44.032372 54.38982 -13.880395 4294967295
44.04216 53.101974 -13.698631 4294967295
44.047009 53.748547 -13.752472 4294967295
44.047752 56.490612 -14.056701 4294967295
44.047844 52.296764 -13.586648 4294967295
44.059006 55.68742 -13.923643 4294967295
44.10006 54.569489 -13.641113 4294967295
44.104458 53.072769 -14.096616 4294967295
44.10857 53.879982 -14.171244 4294967295
44.117077 54.527134 -14.211132 4294967295
44.119835 54.736225 -13.584005 4294967295
44.147335 54.857815 -14.132327 4294967295
44.157219 56.198891 -13.604542 4294967295
44.233498 51.610138 -14.078123 4294967295
44.237354 55.043732 -13.808515 4294967295
44.240147 55.528442 -13.852092 4294967295
44.241688 51.656345 -13.412628 4294967295
44.25629 55.210258 -13.754663 4294967295
44.267578 53.438358 -13.51307 4294967295
44.268478 56.504257 -13.852865 4294967295
44.292706 54.366608 -14.160242 4294967295
44.32325 55.874249 -13.572659 4294967295
44.326096 53.085392 -13.889128 4294967295
44.330315 55.505558 -14.143861 4294967295
44.337948 51.475269 -13.663557 4294967295
44.340157 52.443821 -13.763544 4294967295
44.348389 51.961945 -13.678107 4294967295
44.358688 53.739212 -13.837669 4294967295
44.359718 52.771549 -13.72541 4294967295
44.385662 51.810081 -13.518566 4294967295
44.393562 53.909836 -13.723391 4294967295
44.399754 54.718178 -13.790186 4294967295
44.403175 56.170956 -13.939679 4294967295
44.40765 56.494812 -13.958799 4294967295
44.407745 52.299889 -13.488934 4294967295
44.408794 54.236607 -13.701718 4294967295
44.408882 55.849941 -13.881925 4294967295
44.433544 53.229317 -14.133096 4294967295
44.438927 53.714451 -14.16682 4294967295
44.444565 52.103371 -13.964993 4294967295
44.453903 55.378407 -13.656976 4294967295
44.465988 55.172844 -14.226597 4294967295
44.467468 51.625324 -13.823998 4294967295
44.508076 54.861855 -14.031006 4294967295
44.549725 55.679752 -13.963382 4294967295
44.553825 55.035648 -13.875665 4294967295
44.563744 51.972492 -13.495026 4294967295
44.592838 52.464172 -13.43889 4294967295
44.606621 53.229214 -14.110054 4294967295
44.612907 51.940666 -13.941928 4294967295
44.622555 55.538589 -13.66935 4294967295
44.646618 51.626606 -13.778129 4294967295
44.665051 54.212357 -13.997026 4294967295
44.665836 55.873386 -13.541431 4294967295
44.683754 54.862579 -13.99836 4294967295
44.698441 53.737339 -13.816446 4294967295
44.702457 56.480602 -14.107916 4294967295
44.735989 52.617638 -13.547895 4294967295
44.73642 53.424679 -13.636526 4294967295
44.742615 55.039959 -13.793547 4294967295
44.743229 54.556068 -13.737081 4294967295
44.744019 52.942513 -13.553583 4294967295
44.752285 56.172005 -13.883231 4294967295
44.763454 54.722916 -13.67854 4294967295
44.769352 52.097488 -14.000036 4294967295
44.802547 54.087845 -13.458312 4294967295
44.832134 53.888103 -13.960887 4294967295
44.834 55.226372 -13.465605 4294967295
44.840527 53.083729 -13.838943 4294967295
44.856815 52.44257 -13.705131 4294967295
44.861053 54.21846 -13.887562 4294967295
44.864849 55.026077 -13.963386 4294967295
44.86961 55.672611 -14.017515 4294967295
44.871998 55.350658 -13.972416 4294967295
44.900208 51.969517 -13.486791 4294967295
44.927322 53.429237 -13.546639 4294967295
44.934437 56.497341 -13.862528 4294967295
44.939007 55.20771 -13.700932 4294967295
44.944515 54.88644 -13.644012 4294967295
44.944584 52.626614 -13.391076 4294967295
44.950176 52.744442 -14.020034 4294967295
44.955879 52.262016 -13.944383 4294967295
44.972237 54.363098 -14.116935 4294967295
44.976353 52.105934 -13.848944 4294967295
44.992535 52.916752 -13.877948 4294967295
44.99976 54.047886 -13.976869 4294967295
45.01157 53.567059 -13.878137 4294967295
45.016144 55.874638 -13.481382 4294967295
45.016735 55.342911 -14.056958 4294967295
45.0294 54.217133 -13.882884 4294967295
45.032307 51.79744 -13.601333 4294967295
45.06839 55.518444 -13.879816 4294967295
45.074818 53.09956 -13.584972 4294967295
45.094131 55.686909 -13.800603 4294967295
45.109318 53.270004 -13.472616 4294967295
45.141174 52.587589 -13.911616 4294967295
45.148006 54.89468 -13.506849 4294967295
45.151459 51.78352 -13.782621 4294967295
45.162037 56.351391 -13.616204 4294967295
45.179287 56.194798 -13.532998 4294967295
45.183426 56.147671 -14.148617 4294967295
45.189648 53.245552 -13.800696 4294967295
45.210419 55.832577 -14.010705 4294967295
45.223671 51.963215 -13.527929 4294967295
45.259281 54.555073 -13.682045 4294967295
45.271568 56.495026 -13.852032 4294967295
45.2799 55.044865 -13.658319 4294967295
45.291676 53.756618 -13.469568 4294967295
45.29512 55.533257 -13.654965 4294967295
45.306267 55.697746 -13.630923 4294967295
45.317345 53.072201 -13.931481 4294967295
45.345047 54.047504 -13.93512 4294967295
45.351891 56.033272 -13.494801 4294967295
45.365826 52.116497 -13.640413 4294967295
45.373039 51.956924 -13.595167 4294967295
45.390591 51.79995 -13.510915 4294967295
45.39267 53.737415 -13.719457 4294967295
45.397964 56.15934 -13.969819 4294967295
45.398964 52.609219 -13.569496 4294967295
45.420067 52.453209 -13.471852 4294967295
45.447578 54.236248 -13.566451 4294967295
45.461357 52.94825 -13.370187 4294967295
45.467079 53.27269 -13.384683 4294967295
45.478455 55.051773 -13.540159 4294967295
45.501228 56.511024 -13.616557 4294967295
45.505741 55.382133 -13.473333 4294967295
45.506924 54.575089 -13.378702 4294967295
45.52655 53.242821 -13.79091 4294967295
45.529324 55.873043 -13.438515 4294967295
45.604717 56.168804 -13.820771 4294967295
45.607826 54.878429 -13.664908 4294967295
45.610458 56.331795 -13.817166 4294967295
45.619667 56.011566 -13.746452 4294967295
45.620155 52.459892 -13.348011 4294967295
45.622364 54.559494 -13.574082 4294967295
45.646935 55.534824 -13.589678 4294967295
45.670738 53.765022 -13.30168 4294967295
45.678448 53.92857 -13.290662 4294967295
45.678833 54.736176 -13.379377 4294967295
45.691284 52.75631 -13.74608 4294967295
45.69281 55.70892 -13.4349 4294967295
45.702816 53.404877 -13.774722 4294967295
45.708851 55.665649 -14.004173 4294967295
45.724598 54.217594 -13.782817 4294967295
45.726551 52.119675 -13.541203 4294967295
45.733364 53.090034 -13.623688 4294967295
45.733868 56.527817 -13.370409 4294967295
45.734287 54.38158 -13.764362 4294967295
45.790089 52.25293 -13.949291 4294967295
45.791054 55.204002 -13.640809 4294967295
45.794804 53.751923 -13.464501 4294967295
45.802898 55.852993 -13.668301 4294967295
45.812645 52.949139 -13.307204 4294967295
45.845646 55.057396 -13.417336 4294967295
45.883392 55.988796 -14.01255 4294967295
45.888233 56.312847 -14.030357 4294967295
45.953445 55.201061 -13.659179 4294967295
45.953629 54.070946 -13.532378 4294967295
45.959347 53.265068 -13.420782 4294967295
45.961742 54.880417 -13.591945 4294967295
45.961784 55.526218 -13.663849 4294967295
45.965527 52.782177 -13.34347 4294967295
45.980579 56.177177 -13.665236 4294967295
45.985275 53.756351 -13.377336 4294967295
45.985981 52.581253 -13.877289 4294967295
45.989937 56.502682 -13.666091 4294967295
45.999325 54.244587 -13.378579 4294967295
45.999813 52.262016 -13.789301 4294967295
46.002171 51.939816 -13.744431 4294967295
46.025436 55.705177 -13.442581 4294967295
46.025734 55.382256 -13.405426 4294967295
46.03664 55.983356 -14.064979 4294967295
46.044994 54.694706 -13.889626 4294967295
46.052063 51.79097 -13.538922 4294967295
46.057602 54.744789 -13.21352 4294967295
46.059975 53.730274 -13.725329 4294967295
46.061668 53.407867 -13.682945 4294967295
46.075745 54.057293 -13.702104 4294967295
46.083591 53.090687 -13.564569 4294967295
46.086437 55.674343 -13.841993 4294967295
46.162903 56.179783 -13.608851 4294967295
46.183353 53.071472 -13.817999 4294967295
46.204758 55.060776 -13.32559 4294967295
46.223434 52.113155 -13.559534 4294967295
46.267433 54.546463 -13.66448 4294967295
46.293137 56.006477 -13.730049 4294967295
46.304916 55.202419 -13.59584 4294967295
46.312859 55.850468 -13.638067 4294967295
46.312969 52.29739 -13.241433 4294967295
46.314205 54.720486 -13.506979 4294967295
46.323174 56.499184 -13.671376 4294967295
46.324451 53.38575 -13.951985 4294967295
46.329487 52.947803 -13.251501 4294967295
46.3335 52.096909 -13.774104 4294967295
46.333549 53.710888 -13.953853 4294967295
46.346893 54.03717 -13.939811 4294967295
46.369064 52.267361 -13.658731 4294967295
46.3843 52.755596 -13.655588 4294967295
46.385456 52.917339 -13.669263 4294967295
46.404114 52.599216 -13.563289 4294967295
46.405457 54.859833 -13.810227 4294967295
46.407829 54.376183 -13.747356 4294967295
46.431984 52.444851 -13.44077 4294967295
46.46294 54.229385 -13.522753 4294967295
46.468548 54.553864 -13.537739 4294967295
46.489552 53.10574 -13.296936 4294967295
46.499439 55.854183 -13.565946 4294967295
46.558781 55.547417 -13.307537 4294967295
46.560043 56.146019 -14.001661 4294967295
46.575062 56.521236 -13.354557 4294967295
46.578346 51.953274 -13.465345 4294967295
46.58395 55.022659 -13.786261 4294967295
46.597923 53.250252 -13.536005 4294967295
46.623734 54.225983 -13.54731 4294967295
46.630436 52.935638 -13.378221 4294967295
46.644768 56.008015 -13.66648 4294967295
46.650764 52.250446 -13.856585 4294967295
46.653591 55.364483 -13.561477 4294967295
46.654495 53.749557 -13.378104 4294967295
46.658878 54.558361 -13.451698 4294967295
46.662548 52.899094 -13.884421 4294967295
46.677277 55.693966 -13.508784 4294967295
46.683613 52.097332 -13.715646 4294967295
46.693062 52.74551 -13.752235 4294967295
46.69315 56.505917 -13.53933 4294967295
46.734756 55.548149 -13.275563 4294967295
46.737885 54.533112 -13.782362 4294967295
46.747688 52.436523 -13.511827 4294967295
46.755726 53.730522 -13.625676 4294967295
46.762611 55.831345 -13.833735 4294967295
46.7659 54.702061 -13.695547 4294967295
46.778702 53.252026 -13.485726 4294967295
46.783432 52.607155 -13.396049 4294967295
46.793282 55.516827 -13.683045 4294967295
46.796631 55.194775 -13.63454 4294967295
46.833961 55.043362 -13.476905 4294967295
46.839378 51.975079 -13.11466 4294967295
46.867134 54.244484 -13.262828 4294967295
46.888523 53.39687 -13.718863 4294967295
46.915649 54.211319 -13.707365 4294967295
46.921211 56.198097 -13.276522 4294967295
46.933689 52.116459 -13.40611 4294967295
46.964905 53.255196 -13.415339 4294967295
46.974926 52.450005 -13.28791 4294967295
46.97776 54.066238 -13.457241 4294967295
46.982281 55.198105 -13.566252 4294967295
46.988358 51.807076 -13.165692 4294967295
46.988918 54.715328 -13.487487 4294967295
46.992218 55.685345 -13.583068 4294967295
47.00071 53.102898 -13.263492 4294967295
47.004478 56.496265 -13.627166 4294967295
47.009411 54.882362 -13.428885 4294967295
47.021137 54.400826 -13.331086 4294967295
47.022308 53.754833 -13.254745 4294967295
47.026794 55.533257 -13.435873 4294967295
47.028969 56.180019 -13.499699 4294967295
47.031666 53.918877 -13.237755 4294967295
47.049931 56.347366 -13.439367 4294967295
47.079735 55.870872 -13.274038 4294967295
47.082115 55.38673 -13.211169 4294967295
47.093456 52.758888 -13.506496 4294967295
47.106068 52.923645 -13.477382 4294967295
47.115566 51.956791 -13.333984 4294967295
47.152279 52.450779 -13.250825 4294967295
47.202156 52.419197 -13.689538 4294967295
47.211647 54.243694 -13.227022 4294967295
47.227215 54.571037 -13.204874 4294967295
47.239933 55.220886 -13.229343 4294967295
47.270565 56.037308 -13.204942 4294967295
47.284149 56.3643 -13.190214 4294967295
47.292885 53.734634 -13.494836 4294967295
47.310097 52.93132 -13.340714 4294967295
47.315212 56.21125 -13.056279 4294967295
47.316769 54.225544 -13.459684 4294967295
47.326843 54.551319 -13.45806 4294967295
47.331814 53.098484 -13.277681 4294967295
47.332638 54.71442 -13.454414 4294967295
47.339115 51.80748 -13.106531 4294967295
47.341087 51.969597 -13.117157 4294967295
47.348129 52.294617 -13.126863 4294967295
47.351315 55.042545 -13.420716 4294967295
