# .PCD v0.7 - Point Cloud Data file format
VERSION 0.7
FIELDS x y z rgb
SIZE 4 4 4 4
TYPE F F F U
COUNT 1 1 1 1
WIDTH 1120
HEIGHT 1
VIEWPOINT 0 0 0 1 0 0 0
POINTS 1120
DATA ascii
-82.404221 50.952072 -33.293495 4294967295
-82.402763 50.654541 -33.201164 4294967295
-82.401619 49.75819 -32.974758 4294967295
-82.397934 49.462708 -32.84713 4294967295
-82.390274 51.864277 -33.281857 4294967295
-82.389847 51.715233 -33.240337 4294967295
-82.384224 50.524639 -32.873962 4294967295
-82.380623 51.126965 -32.956161 4294967295
-82.377014 50.382607 -32.725525 4294967295
-82.376564 52.178391 -33.13509 4294967295
-82.375847 51.431328 -32.95023 4294967295
-82.375282 50.833435 -32.802456 4294967295
-82.368698 53.682144 -33.358063 4294967295
-82.367928 51.290268 -32.79068 4294967295
-82.367805 52.786236 -33.135872 4294967295
-82.367805 53.982037 -33.413399 4294967295
-82.360992 53.840412 -33.271317 4294967295
-82.357735 55.039593 -33.497391 4294967295
-82.357086 53.246861 -33.071064 4294967295
-82.351624 52.505127 -32.811501 4294967295
-82.350601 53.553268 -33.038338 4294967295
-82.347435 53.108192 -32.8843 4294967295
-82.345604 55.800869 -33.47971 4294967295
-82.344215 55.354347 -33.35384 4294967295
-82.341614 55.955021 -33.451515 4294967295
-82.341263 54.909519 -33.203339 4294967295
-82.340027 54.612007 -33.114601 4294967295
-82.33989 54.462681 -33.077656 4294967295
-82.338623 55.211525 -33.231155 4294967295
-82.337074 56.557941 -33.518658 4294967295
-82.327698 55.672829 -33.163189 4294967295
-82.320251 54.784599 -32.837841 4294967295
-82.312622 56.438202 -33.099228 4294967295
-82.242004 50.364697 -32.970558 4294967295
-82.235237 49.922783 -32.760326 4294967295
-82.235123 52.166969 -33.277996 4294967295
-82.228584 51.875053 -33.105995 4294967295
-82.215797 51.73938 -32.870586 4294967295
-82.214188 52.937805 -33.122276 4294967295
-82.204124 54.743107 -33.379463 4294967295
-82.185265 53.867802 -32.876057 4294967295
-82.185112 56.259705 -33.427055 4294967295
-82.10508 49.451141 -32.976612 4294967295
-82.097809 50.506138 -33.104679 4294967295
-82.096802 49.758987 -32.916222 4294967295
-82.096573 50.208187 -33.016289 4294967295
-82.095253 50.059921 -32.961006 4294967295
-82.086525 50.368347 -32.893547 4294967295
-82.082779 51.27013 -33.042141 4294967295
-82.081764 49.92424 -32.715313 4294967295
-82.079285 50.974606 -32.918434 4294967295
-82.078209 53.219135 -33.419449 4294967295
-82.07682 51.725342 -33.052578 4294967295
-82.075706 52.474396 -33.207745 4294967295
-82.067307 51.885269 -32.938244 4294967295
-82.066521 51.437202 -32.822376 4294967295
-82.065628 53.68174 -33.32629 4294967295
-82.063591 52.637318 -33.052864 4294967295
-82.059235 53.090851 -33.088348 4294967295
-82.051514 52.052094 -32.725864 4294967295
-82.050186 52.203205 -32.739662 4294967295
-82.047379 54.151016 -33.144543 4294967295
-82.044151 54.603245 -33.197605 4294967295
-82.043236 52.959103 -32.803673 4294967295
-82.035507 54.314152 -32.99353 4294967295
-82.034805 53.866245 -32.878986 4294967295
-82.032356 53.420174 -32.73716 4294967295
-82.031372 55.066589 -33.101471 4294967295
-82.02713 55.520061 -33.138676 4294967295
-82.024254 54.925354 -32.95578 4294967295
-82.023033 55.823875 -33.143715 4294967295
-82.021866 55.974747 -33.159893 4294967295
-82.013878 55.236576 -32.862644 4294967295
-82.013878 56.432709 -33.138676 4294967295
-82.000359 56.149887 -32.858547 4294967295
-81.931137 50.970531 -32.956657 4294967295
-81.925827 52.771317 -33.287167 4294967295
-81.916664 53.23008 -33.247662 4294967295
-81.914703 51.586685 -32.838326 4294967295
-81.906807 53.540188 -33.16304 4294967295
-81.882065 53.717632 -32.812199 4294967295
-81.877388 56.265106 -33.324402 4294967295
-81.872673 56.569622 -33.319851 4294967295
-81.866997 55.081276 -32.887554 4294967295
-81.772591 50.378582 -32.695683 4294967295
-81.771759 52.025883 -33.060917 4294967295
-81.771416 51.577362 -32.952484 4294967295
-81.766899 52.47998 -33.088474 4294967295
-81.766129 53.527718 -33.316902 4294967295
-81.761002 51.438812 -32.756485 4294967295
-81.760277 50.840687 -32.607655 4294967295
-81.756599 51.742916 -32.756897 4294967295
-81.755692 52.641865 -32.948895 4294967295
-81.753235 52.195602 -32.807705 4294967295
-81.753159 52.943886 -32.978352 4294967295
-81.750298 53.246269 -33.002686 4294967295
-81.745224 53.102287 -32.889637 4294967295
-81.744041 54.599365 -33.214581 4294967295
-81.743729 53.851982 -33.038078 4294967295
-81.738663 56.100323 -33.47435 4294967295
-81.737938 52.811024 -32.707836 4294967295
-81.731377 54.912991 -33.086918 4294967295
-81.731056 53.417339 -32.738483 4294967295
-81.729301 54.317089 -32.91745 4294967295
-81.727859 55.664684 -33.203964 4294967295
-81.725525 55.218853 -33.064823 4294967295
-81.716278 56.425831 -33.196068 4294967295
-81.710777 55.983826 -33.0079 4294967295
-81.702576 55.843937 -32.846439 4294967295
-81.695282 56.3013 -32.836353 4294967295
-81.637299 49.612541 -32.762146 4294967295
-81.635933 50.063148 -32.843857 4294967295
-81.631927 51.414413 -33.090481 4294967295
-81.626854 50.671413 -32.840523 4294967295
-81.618515 49.781456 -32.505749 4294967295
-81.606133 53.835976 -33.239761 4294967295
-81.600922 54.290455 -33.262009 4294967295
-81.588371 55.351421 -33.307808 4294967295
-81.577309 54.167622 -32.863003 4294967295
-81.570457 55.222656 -32.996929 4294967295
-81.553299 56.140121 -32.937477 4294967295
-81.504616 49.892178 -33.107449 4294967295
-81.461952 50.085533 -32.484093 4294967295
-81.450203 54.438782 -33.294552 4294967295
-81.430099 52.964954 -32.643433 4294967295
-81.429596 54.013279 -32.874928 4294967295
-81.426643 54.914295 -33.034496 4294967295
-81.424797 54.317959 -32.869446 4294967295
-81.422684 53.571987 -32.665977 4294967295
-81.420395 54.771839 -32.904186 4294967295
-81.416542 56.421482 -33.220589 4294967295
-81.414558 55.376968 -32.951035 4294967295
-81.414513 56.124836 -33.121147 4294967295
-81.413132 55.079399 -32.860756 4294967295
-81.411644 55.529934 -32.940403 4294967295
-81.399757 55.842983 -32.825836 4294967295
-81.399437 55.244801 -32.684254 4294967295
-81.398933 55.993553 -32.847351 4294967295
-81.391724 56.301247 -32.804768 4294967295
-81.353386 49.741611 -33.06348 4294967295
-81.339584 49.605831 -32.817398 4294967295
-81.334267 50.210232 -32.872242 4294967295
-81.333267 50.510712 -32.925121 4294967295
-81.322289 50.072712 -32.654156 4294967295
-81.317039 51.276192 -32.846596 4294967295
-81.316536 49.928761 -32.5317 4294967295
-81.312134 53.526108 -33.282673 4294967295
-81.306572 52.634544 -32.992908 4294967295
-81.304146 51.738987 -32.751068 4294967295
-81.303375 52.039253 -32.807487 4294967295
-81.302521 52.189877 -32.828503 4294967295
-81.302101 50.842506 -32.514915 4294967295
-81.29805 52.793468 -32.896252 4294967295
-81.296051 54.291878 -33.20649 4294967295
-81.29528 53.694386 -33.058308 4294967295
-81.293121 53.24786 -32.922916 4294967295
-81.268478 53.424698 -32.579098 4294967295
-81.259895 56.576817 -33.16328 4294967295
-81.181244 50.660343 -32.938263 4294967295
-81.177277 50.814175 -32.911533 4294967295
-81.173363 51.267391 -32.953789 4294967295
-81.172188 49.471264 -32.527332 4294967295
-81.169334 51.720715 -32.994324 4294967295
-81.164261 50.228451 -32.576332 4294967295
-81.140099 53.997276 -33.057552 4294967295
-81.126198 54.76099 -33.015217 4294967295
-81.120659 53.719517 -32.692608 4294967295
-81.036316 50.203762 -32.923904 4294967295
-81.028839 49.462334 -32.640129 4294967295
-81.021248 49.619762 -32.558422 4294967295
-81.018738 50.521236 -32.723862 4294967295
-81.015594 51.7225 -32.947617 4294967295
-81.014053 50.975403 -32.754395 4294967295
-81.013168 51.425598 -32.84272 4294967295
-81.011559 50.079075 -32.512642 4294967295
-81.009964 52.027874 -32.929691 4294967295
-81.007256 52.629528 -33.024174 4294967295
-81.006912 52.929218 -33.086838 4294967295
-81.003029 53.38237 -33.129467 4294967295
-81.002541 53.682148 -33.189846 4294967295
-81.000259 51.588886 -32.680096 4294967295
-80.999809 50.840309 -32.503452 4294967295
-80.995804 53.988819 -33.155106 4294967295
-80.991844 52.196869 -32.68774 4294967295
-80.986244 52.502384 -32.670353 4294967295
-80.985939 54.448658 -33.106728 4294967295
-80.983383 53.254169 -32.796543 4294967295
-80.980103 54.90406 -33.119598 4294967295
-80.9776 53.859337 -32.844181 4294967295
-80.974655 55.209442 -33.104599 4294967295
-80.973526 55.958603 -33.256805 4294967295
-80.971603 54.315056 -32.854725 4294967295
-80.965424 55.668816 -33.06583 4294967295
-80.964905 54.621925 -32.820641 4294967295
-80.96389 56.567989 -33.24588 4294967295
-80.962845 56.270119 -33.162216 4294967295
-80.961014 55.374634 -32.931023 4294967295
-80.952927 55.533543 -32.841911 4294967295
-80.937653 56.449139 -32.813107 4294967295
-80.88353 49.904823 -32.824112 4294967295
-80.865501 52.01984 -33.024479 4294967295
-80.847588 51.139977 -32.549583 4294967295
-80.844345 52.940651 -32.906715 4294967295
-80.817085 54.91663 -32.93325 4294967295
-80.805023 54.031796 -32.547432 4294967295
-80.779427 56.157146 -32.633236 4294967295
-80.736183 49.600327 -32.807381 4294967295
-80.726837 49.909286 -32.733627 4294967295
-80.722443 51.112061 -32.937389 4294967295
-80.719444 51.414654 -32.959621 4294967295
-80.717064 50.66824 -32.754753 4294967295
-80.715469 49.770786 -32.527912 4294967295
-80.71476 52.168152 -33.057655 4294967295
-80.710724 51.872967 -32.929138 4294967295
-80.709969 51.274712 -32.782597 4294967295
-80.703102 53.22839 -33.117779 4294967295
-80.702431 52.630371 -32.972549 4294967295
-80.700729 50.984604 -32.575348 4294967295
-80.700378 52.333103 -32.874023 4294967295
-80.69899 51.585697 -32.684219 4294967295
-80.692345 53.090328 -32.921516 4294967295
-80.690887 53.690689 -33.034458 4294967295
-80.687691 52.496334 -32.716141 4294967295
-80.68689 53.844749 -33.00779 4294967295
-80.68325 53.549335 -32.885372 4294967295
-80.680496 54.749756 -33.113781 4294967295
-80.67691 54.454464 -32.992077 4294967295
-80.67585 54.904606 -33.077297 4294967295
-80.674309 54.157982 -32.885281 4294967295
-80.6698 54.312672 -32.851021 4294967295
-80.66259 55.667797 -33.045811 4294967295
-80.662392 56.116859 -33.144012 4294967295
-80.662262 54.62048 -32.804638 4294967295
-80.654243 55.078598 -32.784828 4294967295
-80.647606 55.984261 -32.8871 4294967295
-80.623741 56.460899 -32.628204 4294967295
-80.579468 50.353817 -32.885628 4294967295
-80.568665 49.915161 -32.621758 4294967295
-80.554382 50.528992 -32.541348 4294967295
-80.532684 53.248272 -32.821182 4294967295
-80.524475 52.508091 -32.529144 4294967295
-80.505493 55.374367 -32.883442 4294967295
-80.498085 55.831841 -32.873013 4294967295
-80.420326 49.611439 -32.591187 4294967295
-80.419617 50.061771 -32.681465 4294967295
-80.418449 50.812119 -32.832096 4294967295
-80.415794 51.264221 -32.89304 4294967295
-80.409325 50.521679 -32.627861 4294967295
-80.405998 52.472469 -33.014931 4294967295
-80.404922 50.675995 -32.595383 4294967295
-80.402206 51.727623 -32.789963 4294967295
-80.400864 53.07679 -33.0723 4294967295
-80.400108 50.980618 -32.590405 4294967295
-80.397644 52.181755 -32.822392 4294967295
-80.397362 51.882465 -32.750889 4294967295
-80.389542 53.538105 -33.003193 4294967295
-80.386093 53.242363 -32.884373 4294967295
-80.3843 52.944771 -32.790226 4294967295
-80.379631 52.650146 -32.652988 4294967295
-80.377342 54.000515 -32.921131 4294967295
-80.369171 52.811081 -32.529743 4294967295
-80.364563 54.314003 -32.796684 4294967295
-80.360107 53.719765 -32.595566 4294967295
-80.356522 56.119328 -33.079128 4294967295
-80.355835 55.371769 -32.900959 4294967295
-80.354012 54.625156 -32.705757 4294967295
-80.352058 55.825108 -32.94508 4294967295
-80.346771 55.5317 -32.798817 4294967295
-80.344475 54.935295 -32.630005 4294967295
-80.321266 56.309448 -32.584633 4294967295
-80.273895 49.755486 -32.690155 4294967295
-80.260277 50.068748 -32.553535 4294967295
-80.249817 50.229069 -32.430756 4294967295
-80.242485 51.28582 -32.555927 4294967295
-80.230843 51.747437 -32.482609 4294967295
-80.228691 53.547596 -32.852772 4294967295
-80.223808 52.354279 -32.511574 4294967295
-80.217575 55.057018 -33.021774 4294967295
-80.213654 53.413986 -32.594631 4294967295
-80.209129 53.119141 -32.459988 4294967295
-80.192665 54.036064 -32.415222 4294967295
-80.189636 54.488918 -32.470589 4294967295
-80.187134 55.989548 -32.768326 4294967295
-80.183388 55.244942 -32.544872 4294967295
-80.175476 56.452068 -32.694893 4294967295
-80.171135 56.307289 -32.596607 4294967295
-80.169922 56.158905 -32.544941 4294967295
-80.115356 50.361137 -32.708633 4294967295
-80.083817 51.14238 -32.406162 4294967295
-80.082924 52.192558 -32.62706 4294967295
-80.081947 51.594048 -32.478676 4294967295
-80.076447 52.499031 -32.597622 4294967295
-80.07592 52.349724 -32.556248 4294967295
-80.074654 52.650776 -32.604294 4294967295
-80.070709 52.954636 -32.612499 4294967295
-80.064125 53.261322 -32.581394 4294967295
-80.058266 54.31636 -32.72831 4294967295
-80.057732 53.56786 -32.553101 4294967295
-80.056442 53.11964 -32.433575 4294967295
-80.054031 54.920113 -32.798973 4294967295
-80.053711 54.770699 -32.760849 4294967295
-80.046318 55.82716 -32.884823 4294967295
-80.042877 53.883591 -32.398952 4294967295
-80.042107 54.633682 -32.554798 4294967295
-80.040123 55.384888 -32.69236 4294967295
-80.036163 55.988377 -32.767239 4294967295
-80.035904 55.239799 -32.596275 4294967295
-80.028412 55.547791 -32.551651 4294967295
-80.023331 56.45224 -32.676601 4294967295
-80.011238 56.316257 -32.463455 4294967295
-79.958084 49.916264 -32.512608 4294967295
-79.950821 49.773418 -32.371426 4294967295
-79.947365 50.376686 -32.453678 4294967295
-79.945831 49.478287 -32.230442 4294967295
-79.944977 50.678947 -32.48505 4294967295
-79.933846 50.990013 -32.386658 4294967295
-79.924545 53.697311 -32.849335 4294967295
-79.922928 52.050686 -32.458347 4294967295
-79.913567 55.057053 -32.98666 4294967295
-79.901909 54.171158 -32.613846 4294967295
-79.90155 55.669319 -32.941952 4294967295
-79.873932 55.999901 -32.599461 4294967295
-79.815887 50.355961 -32.740898 4294967295
-79.79834 52.022137 -32.847599 4294967295
-79.768112 53.252419 -32.667171 4294967295
-79.745155 54.325977 -32.561058 4294967295
-79.744507 53.727169 -32.418282 4294967295
-79.739578 56.279446 -32.91119 4294967295
-79.736763 55.234184 -32.636806 4294967295
-79.736725 54.634865 -32.503166 4294967295
-79.732414 55.538647 -32.639065 4294967295
-79.728264 56.142475 -32.71093 4294967295
-79.727142 54.945099 -32.428177 4294967295
-79.715637 56.006882 -32.491295 4294967295
-79.712212 55.411247 -32.307529 4294967295
-79.657341 50.362053 -32.627239 4294967295
-79.657143 49.612453 -32.458172 4294967295
-79.653976 50.215424 -32.544434 4294967295
-79.645935 50.973091 -32.592155 4294967295
-79.642609 50.076591 -32.343658 4294967295
-79.637268 50.681831 -32.397907 4294967295
-79.630371 51.738438 -32.529011 4294967295
-79.629967 52.038685 -32.589439 4294967295
-79.628143 51.290852 -32.396465 4294967295
-79.62722 50.541782 -32.216671 4294967295
-79.623924 52.194805 -32.533695 4294967295
-79.622925 51.895969 -32.452541 4294967295
-79.620842 52.797604 -32.621105 4294967295
-79.616928 54.150307 -32.862282 4294967295
-79.615631 52.653133 -32.511227 4294967295
-79.613327 52.955353 -32.543674 4294967295
-79.610344 53.558022 -32.632648 4294967295
-79.607025 53.411663 -32.550613 4294967295
-79.597702 54.770374 -32.712223 4294967295
-79.595978 54.472584 -32.620419 4294967295
-79.564461 56.45533 -32.588295 4294967295
-79.557785 55.563618 -32.291012 4294967295
-79.512352 49.904949 -32.614254 4294967295
-79.493065 52.322636 -32.861378 4294967295
-79.488022 51.728279 -32.654922 4294967295
-79.480606 53.534222 -32.943588 4294967295
-79.475868 52.93988 -32.741558 4294967295
-79.442909 55.072922 -32.721985 4294967295
-79.356705 49.908024 -32.544624 4294967295
-79.349762 50.514687 -32.575367 4294967295
-79.346428 50.967842 -32.625771 4294967295
-79.346069 49.768295 -32.35585 4294967295
-79.344955 50.219425 -32.43885 4294967295
-79.339317 51.124866 -32.554848 4294967295
-79.338066 51.42601 -32.602753 4294967295
-79.333572 52.030254 -32.669254 4294967295
-79.331306 51.582756 -32.536926 4294967295
-79.33078 52.63269 -32.760696 4294967295
-79.324745 51.289398 -32.374786 4294967295
-79.32196 51.89212 -32.466461 4294967295
-79.320671 53.392559 -32.778141 4294967295
-79.319069 50.844967 -32.192551 4294967295
-79.315399 53.098324 -32.635006 4294967295
-79.313927 52.350204 -32.448174 4294967295
-79.31115 53.852188 -32.738102 4294967295
-79.309464 51.754787 -32.250656 4294967295
-79.30867 52.955421 -32.503551 4294967295
-79.306992 54.605827 -32.842518 4294967295
-79.301872 54.911003 -32.833839 4294967295
-79.298553 52.515976 -32.256527 4294967295
-79.29821 53.26622 -32.416813 4294967295
-79.29792 54.016136 -32.57782 4294967295
-79.292397 54.471706 -32.596333 4294967295
-79.286911 53.578007 -32.317856 4294967295
-79.282166 55.981339 -32.777218 4294967295
-79.281029 55.083538 -32.562431 4294967295
-79.278282 55.386284 -32.588428 4294967295
-79.276588 55.687862 -32.629765 4294967295
-79.268684 55.84647 -32.547325 4294967295
-79.248772 56.318298 -32.355778 4294967295
-79.238029 56.480263 -32.231968 4294967295
-79.180969 50.230572 -32.248852 4294967295
-79.171524 53.539185 -32.836941 4294967295
-79.166153 53.84454 -32.824753 4294967295
-79.161652 52.799976 -32.528362 4294967295
-79.151001 54.460098 -32.735947 4294967295
-79.13662 54.775311 -32.592613 4294967295
-79.089607 56.02615 -32.172325 4294967295
-79.066147 49.594151 -32.642845 4294967295
-79.063393 49.446774 -32.56987 4294967295
-79.059875 50.200092 -32.68338 4294967295
-79.047012 50.512554 -32.562359 4294967295
-79.043625 49.915749 -32.381527 4294967295
-79.037712 51.271606 -32.591927 4294967295
-79.036667 50.972679 -32.510876 4294967295
-79.035568 51.723614 -32.659515 4294967295
-79.029785 51.579449 -32.542698 4294967295
-79.028534 51.880638 -32.590347 4294967295
-79.02755 52.331463 -32.674763 4294967295
-79.019264 53.389328 -32.784851 4294967295
-79.01503 52.194229 -32.460201 4294967295
-79.014008 52.49522 -32.511162 4294967295
-79.013077 53.845448 -32.793652 4294967295
-79.007294 52.952 -32.512413 4294967295
-79.002113 54.306675 -32.73333 4294967295
-79.001007 53.708252 -32.585663 4294967295
-78.996689 54.012634 -32.588894 4294967295
-78.993912 54.765068 -32.71307 4294967295
-78.984917 54.624836 -32.549671 4294967295
-78.898895 50.808254 -32.669109 4294967295
-78.89109 50.215813 -32.424755 4294967295
-78.874115 50.532372 -32.244797 4294967295
-78.870628 52.935844 -32.719902 4294967295
-78.862259 50.994209 -32.171875 4294967295
-78.852028 53.254925 -32.516602 4294967295
-78.834297 53.12326 -32.227425 4294967295
-78.832283 54.475288 -32.493725 4294967295
-78.82373 54.934258 -32.468655 4294967295
-78.7248 50.228989 -32.204205 4294967295
-78.716766 51.737545 -32.416145 4294967295
-78.715149 50.988846 -32.229031 4294967295
-78.713753 53.390305 -32.733082 4294967295
-78.711189 52.643192 -32.532352 4294967295
-78.709412 53.544731 -32.703259 4294967295
-78.706871 52.047508 -32.339069 4294967295
-78.703247 53.851002 -32.679951 4294967295
-78.698776 52.955856 -32.419025 4294967295
-78.698364 52.356167 -32.282051 4294967295
-78.690018 54.014809 -32.522137 4294967295
-78.680763 53.724518 -32.323399 4294967295
-78.676628 54.328854 -32.394821 4294967295
-78.660095 54.496361 -32.189575 4294967295
-78.595039 50.057018 -32.477631 4294967295
-78.58461 51.267368 -32.589352 4294967295
-78.583595 49.617596 -32.215031 4294967295
-78.583214 50.218399 -32.340343 4294967295
-78.582603 51.119324 -32.52779 4294967295
-78.572746 50.678741 -32.288151 4294967295
-78.567398 50.53381 -32.178535 4294967295
-78.552322 51.599308 -32.190945 4294967295
-78.549927 52.352077 -32.32003 4294967295
-78.545731 53.406506 -32.488613 4294967295
-78.5392 52.512966 -32.198715 4294967295
-78.485016 56.171074 -32.205711 4294967295
-78.442612 49.756676 -32.392002 4294967295
-78.41449 52.784927 -32.641796 4294967295
-78.407463 51.141373 -32.182507 4294967295
-78.400917 51.898342 -32.252018 4294967295
-78.393631 53.256176 -32.441269 4294967295
-78.385925 53.56414 -32.396259 4294967295
-78.380379 52.969604 -32.186535 4294967295
-78.379005 54.02137 -32.395161 4294967295
-78.369614 53.881111 -32.22818 4294967295
-78.367386 54.183529 -32.261631 4294967295
-78.363411 54.337742 -32.237362 4294967295
-78.292786 50.204258 -32.506943 4294967295
-78.29274 49.603931 -32.376022 4294967295
-78.289864 49.906853 -32.400135 4294967295
-78.282043 50.814816 -32.483929 4294967295
-78.277901 51.269001 -32.522465 4294967295
-78.275307 50.521118 -32.322674 4294967295
-78.267693 50.678543 -32.246578 4294967295
-78.263802 50.98254 -32.256218 4294967295
-78.258026 53.089001 -32.629509 4294967295
-78.257401 53.23962 -32.653114 4294967295
-78.255577 51.140648 -32.171478 4294967295
-78.25531 51.741367 -32.297878 4294967295
-78.252625 52.044201 -32.324665 4294967295
-78.252403 52.644661 -32.451675 4294967295
-78.25016 53.846939 -32.679947 4294967295
-78.249321 52.347641 -32.342686 4294967295
-78.248466 51.597992 -32.16774 4294967295
-78.24192 52.955345 -32.367359 4294967295
-78.184952 55.865967 -32.173809 4294967295
-78.178879 56.322681 -32.184967 4294967295
-78.126961 49.7663 -32.199116 4294967295
-78.079445 52.815311 -32.173576 4294967295
-78.039291 56.158764 -32.317669 4294967295
-78.035164 55.713097 -32.161716 4294967295
-77.980728 50.510876 -32.430359 4294967295
-77.97113 50.2197 -32.22953 4294967295
-77.96534 51.726452 -32.471626 4294967295
-77.961792 51.429737 -32.356514 4294967295
-77.957161 52.78492 -32.58252 4294967295
-77.955811 51.135269 -32.206974 4294967295
-77.954704 52.187157 -32.418148 4294967295
-77.932373 53.260082 -32.328869 4294967295
-77.914169 53.728928 -32.1684 4294967295
-77.887077 56.308632 -32.335751 4294967295
-77.845253 49.593998 -32.456654 4294967295
-77.841072 49.89814 -32.462261 4294967295
-77.827141 50.811981 -32.459625 4294967295
-77.808144 50.980282 -32.223801 4294967295
-77.798172 51.740681 -32.244816 4294967295
-77.793442 51.895451 -32.210373 4294967295
-77.78949 52.349754 -32.251625 4294967295
-77.780518 52.809067 -32.222027 4294967295
-77.777138 53.563015 -32.335964 4294967295
-77.691177 49.595222 -32.414398 4294967295
-77.687897 50.048691 -32.465088 4294967295
-77.683136 50.503529 -32.494888 4294967295
-77.668777 51.417889 -32.486393 4294967295
-77.668396 50.367275 -32.255257 4294967295
-77.659225 51.577232 -32.38438 4294967295
-77.657257 52.329651 -32.517971 4294967295
-77.650414 52.036179 -32.357254 4294967295
-77.648193 51.287571 -32.164753 4294967295
-77.643494 52.643448 -32.388969 4294967295
-77.63018 52.506512 -32.169586 4294967295
-77.62252 53.415012 -32.255402 4294967295
-77.621223 53.116051 -32.172649 4294967295
-77.586792 55.703571 -32.237099 4294967295
-77.580383 56.160648 -32.24382 4294967295
-77.52681 49.605885 -32.228298 4294967295
-77.519279 50.063469 -32.219402 4294967295
-77.514587 51.119114 -32.378937 4294967295
-77.514282 50.518734 -32.245926 4294967295
-77.498199 51.585308 -32.245911 4294967295
-77.486214 53.09845 -32.399746 4294967295
-77.44043 55.847187 -32.337818 4294967295
-77.429192 56.309395 -32.277012 4294967295
-77.372818 49.757156 -32.220879 4294967295
-77.363609 50.216343 -32.188583 4294967295
-77.358513 52.023167 -32.502785 4294967295
-77.358376 51.572918 -32.40464 4294967295
-77.355461 50.824833 -32.203262 4294967295
-77.353638 51.277138 -32.274231 4294967295
-77.346725 51.433941 -32.209766 4294967295
-77.340065 51.740734 -32.180973 4294967295
-77.338753 52.943249 -32.419552 4294967295
-77.292786 54.791363 -32.163467 4294967295
-77.28054 56.005169 -32.249424 4294967295
-77.226891 49.901012 -32.325958 4294967295
-77.219093 50.208626 -32.281574 4294967295
-77.212082 50.665779 -32.280106 4294967295
-77.209076 50.518383 -32.206165 4294967295
-77.185593 52.042812 -32.199955 4294967295
-77.174568 52.804531 -32.20673 4294967295
-77.022766 52.653461 -32.167183 4294967295
-76.911034 50.511295 -32.266838 4294967295
-76.908279 51.264912 -32.388363 4294967295
-76.908173 50.363705 -32.195339 4294967295
-76.900543 51.122002 -32.249531 4294967295
-76.895332 51.727791 -32.305153 4294967295
-76.893456 51.579372 -32.247276 4294967295
-76.881889 52.041103 -32.183125 4294967295
-76.770287 50.349892 -32.379276 4294967295
-76.759773 50.059048 -32.170727 4294967295
-76.745422 51.424641 -32.259724 4294967295
-76.729309 52.191147 -32.196972 4294967295
-76.620308 50.046783 -32.332535 4294967295
-76.596756 51.420738 -32.295204 4294967295
-76.582924 51.734299 -32.168865 4294967295
-76.459015 49.904095 -32.163097 4294967295
-76.455162 51.10976 -32.363991 4294967295
-76.453903 50.509914 -32.219925 4294967295
-76.448044 50.815865 -32.203201 4294967295
-76.444405 51.270042 -32.248573 4294967295
-76.441956 51.723076 -32.310184 4294967295
-76.425018 52.340168 -32.205292 4294967295
-76.29895 50.511765 -32.169815 4294967295
-76.296562 51.115101 -32.263817 4294967295
-76.294754 50.816219 -32.175808 4294967295
-76.279289 52.032902 -32.218136 4294967295
-76.158394 49.899269 -32.189529 4294967295
-76.150398 50.357437 -32.17561 4294967295
-76.13163 51.577171 -32.173096 4294967295
-85.426094 62.786453 -33.842918 4294967295
-85.423485 63.683022 -34.017925 4294967295
-85.421562 63.537189 -33.948521 4294967295
-85.312271 61.987717 -34.281059 4294967295
-85.308601 60.802719 -33.926544 4294967295
-85.275642 63.529736 -34.022343 4294967295
-85.274139 62.639183 -33.777847 4294967295
-85.211357 57.601612 -34.061104 4294967295
-85.198112 58.512962 -34.054707 4294967295
-85.17807 60.029457 -34.078796 4294967295
-85.16507 61.98241 -34.331379 4294967295
-85.152023 62.447803 -34.219284 4294967295
-85.146065 61.861393 -33.972599 4294967295
-85.145882 61.712814 -33.933205 4294967295
-85.139778 61.275036 -33.720428 4294967295
-85.139091 63.210754 -34.181934 4294967295
-85.136536 62.172993 -33.883907 4294967295
-85.13475 62.770905 -33.999245 4294967295
-85.134216 63.515549 -34.172009 4294967295
-85.132202 62.328197 -33.846863 4294967295
-85.127289 63.674725 -34.091045 4294967295
-85.125481 62.635815 -33.805649 4294967295
-85.118797 63.092278 -33.801567 4294967295
-85.062958 57.747013 -34.127102 4294967295
-85.061424 56.706371 -33.846699 4294967295
-85.056015 57.458427 -33.93692 4294967295
-85.049377 57.169266 -33.75193 4294967295
-85.039574 58.672157 -33.949574 4294967295
-85.038574 58.822445 -33.969048 4294967295
-85.03846 60.013557 -34.257595 4294967295
-85.037498 58.079144 -33.769146 4294967295
-85.036041 58.37907 -33.817146 4294967295
-85.033089 58.978901 -33.912537 4294967295
-85.026489 60.476902 -34.164135 4294967295
-85.026115 59.733112 -33.976303 4294967295
-85.023849 59.587353 -33.901741 4294967295
-85.022903 61.077251 -34.248764 4294967295
-85.020424 59.443176 -33.807529 4294967295
-85.012306 61.538887 -34.17857 4294967295
-85.006981 60.951183 -33.943459 4294967295
-84.99955 60.812874 -33.781654 4294967295
-84.921455 56.840767 -34.05537 4294967295
-84.909782 58.047737 -34.148552 4294967295
-84.891479 57.77433 -33.767757 4294967295
-84.890381 59.116417 -34.075314 4294967295
-84.886223 57.48325 -33.606781 4294967295
-84.849274 60.960751 -33.818192 4294967295
-84.846733 62.155403 -34.064964 4294967295
-84.816284 63.68861 -33.914917 4294967295
-84.755455 57.605282 -33.970299 4294967295
-84.750809 57.015339 -33.747814 4294967295
-84.748718 57.912193 -33.929623 4294967295
-84.747139 57.318245 -33.758533 4294967295
-84.743034 58.36673 -33.942661 4294967295
-84.740471 58.66811 -33.971943 4294967295
-84.735947 58.8232 -33.932198 4294967295
-84.735901 57.482128 -33.606102 4294967295
-84.733643 59.273174 -34.001984 4294967295
-84.732849 59.869904 -34.13303 4294967295
-84.731148 58.978687 -33.887901 4294967295
-84.728302 59.42944 -33.94857 4294967295
-84.71917 60.633419 -34.084278 4294967295
-84.713737 60.194305 -33.884998 4294967295
-84.710838 59.602455 -33.691891 4294967295
-84.708458 60.946301 -33.977112 4294967295
-84.706589 60.800045 -33.909611 4294967295
-84.701942 62.295334 -34.192635 4294967295
-84.699684 60.3629 -33.685558 4294967295
-84.699066 61.704124 -34.000156 4294967295
-84.696091 62.006134 -34.022579 4294967295
-84.694427 61.412968 -33.850361 4294967295
-84.690239 61.270016 -33.744011 4294967295
-84.688515 63.356583 -34.220375 4294967295
-84.685043 63.064117 -34.090122 4294967295
-84.684814 62.766792 -34.014153 4294967295
-84.680786 61.879307 -33.730206 4294967295
-84.675575 62.482544 -33.787254 4294967295
-84.669693 62.193226 -33.616581 4294967295
-84.669052 62.640968 -33.714161 4294967295
-84.653366 63.706467 -33.704235 4294967295
-84.652908 63.558239 -33.660526 4294967295
-84.602531 57.607685 -33.925037 4294967295
-84.599709 58.058407 -33.98597 4294967295
-84.594604 56.872803 -33.612343 4294967295
-84.567627 58.399326 -33.522297 4294967295
-84.557846 59.306961 -33.57526 4294967295
-84.540314 60.523468 -33.570866 4294967295
-84.529366 61.432941 -33.604351 4294967295
-84.520103 63.084682 -33.845909 4294967295
-84.518227 63.682934 -33.958557 4294967295
-84.447769 57.910507 -33.92173 4294967295
-84.447609 57.314564 -33.775288 4294967295
-84.445656 57.018948 -33.670853 4294967295
-84.445297 57.615704 -33.80875 4294967295
-84.440712 58.366917 -33.91206 4294967295
-84.440247 58.814503 -34.012066 4294967295
-84.433388 57.184006 -33.502739 4294967295
-84.432915 59.271313 -33.998009 4294967295
-84.426125 58.98254 -33.81321 4294967295
-84.421875 59.733288 -33.922127 4294967295
-84.421219 58.691071 -33.659798 4294967295
-84.420593 58.542847 -33.61338 4294967295
-84.41951 60.034454 -33.954731 4294967295
-84.413841 60.638092 -34.004044 4294967295
-84.412758 60.341713 -33.91428 4294967295
-84.411087 60.195065 -33.850571 4294967295
-84.406891 61.094601 -33.996288 4294967295
-84.40451 60.949024 -33.920776 4294967295
-84.402153 60.803375 -33.845737 4294967295
-84.398125 62.00045 -34.065971 4294967295
-84.393089 61.560902 -33.874695 4294967295
-84.390732 60.52132 -33.584076 4294967295
-84.385567 63.209488 -34.144409 4294967295
-84.385025 61.721321 -33.776588 4294967295
-84.383514 62.765911 -34.002789 4294967295
-84.382935 63.362175 -34.136616 4294967295
-84.382118 62.47015 -33.907871 4294967295
-84.372635 63.079533 -33.893944 4294967295
-84.366928 63.534573 -33.906868 4294967295
-84.365921 63.684937 -33.926025 4294967295
-84.362686 62.647205 -33.621029 4294967295
-84.361298 62.351231 -33.526203 4294967295
-84.295433 56.719402 -33.60043 4294967295
-84.279861 57.485233 -33.521782 4294967295
-84.277351 57.637657 -33.515999 4294967295
-84.272362 59.284145 -33.827602 4294967295
-84.270905 58.093513 -33.516838 4294967295
-84.268906 58.692596 -33.627003 4294967295
-84.251076 61.399204 -33.976696 4294967295
-84.235512 60.825081 -33.575882 4294967295
-84.229225 61.280998 -33.579323 4294967295
-84.200882 63.10973 -33.540268 4294967295
-84.13813 57.025444 -33.556854 4294967295
-84.137802 57.473274 -33.658768 4294967295
-84.135521 57.625359 -33.656849 4294967295
-84.126862 57.338318 -33.442432 4294967295
-84.118866 57.796238 -33.41785 4294967295
-84.118454 58.244244 -33.518257 4294967295
-84.116982 58.99173 -33.67281 4294967295
-84.115814 60.036583 -33.903538 4294967295
-84.111961 58.700237 -33.518425 4294967295
-84.11113 59.14867 -33.611969 4294967295
-84.108719 59.301003 -33.607971 4294967295
-84.108025 60.345276 -33.846531 4294967295
-84.098503 59.762104 -33.546715 4294967295
-84.090836 60.517994 -33.598953 4294967295
-84.090637 60.816364 -33.667168 4294967295
-84.087677 60.224174 -33.475517 4294967295
-84.087029 60.672314 -33.571983 4294967295
-84.084496 60.973949 -33.601639 4294967295
-84.082001 62.91415 -34.024662 4294967295
-84.080231 62.618877 -33.924088 4294967295
-84.077812 61.579464 -33.634354 4294967295
-84.077759 62.771366 -33.91906 4294967295
-84.072502 62.183033 -33.689796 4294967295
-84.070717 61.738503 -33.55323 4294967295
-84.066399 62.042702 -33.553509 4294967295
-84.065292 63.236202 -33.820877 4294967295
-84.062622 63.389027 -33.812656 4294967295
-84.053452 63.700317 -33.733051 4294967295
-83.997864 56.713024 -33.651455 4294967295
-83.979706 57.929565 -33.638321 4294967295
-83.979416 58.52636 -33.776142 4294967295
-83.973915 58.831814 -33.756996 4294967295
-83.966454 58.09605 -33.456181 4294967295
-83.965759 59.886124 -33.872517 4294967295
-83.965462 60.482529 -34.010056 4294967295
-83.941811 62.45192 -34.084644 4294967295
-83.939095 61.860004 -33.897778 4294967295
-83.937965 61.11657 -33.70118 4294967295
-83.902718 63.103874 -33.585838 4294967295
-83.830391 56.73354 -33.371037 4294967295
-83.826462 59.423065 -33.946735 4294967295
-83.79953 59.160873 -33.435139 4294967295
-83.79715 60.506111 -33.715992 4294967295
-83.796997 59.611721 -33.500278 4294967295
-83.790245 60.068233 -33.496574 4294967295
-83.784058 62.014568 -33.857201 4294967295
-83.78392 60.375095 -33.464241 4294967295
-83.782562 61.569622 -33.726265 4294967295
-83.777504 62.321819 -33.821079 4294967295
-83.777496 61.427643 -33.607872 4294967295
-83.776352 61.876396 -33.695782 4294967295
-83.77224 63.223152 -33.947987 4294967295
-83.771416 63.67112 -34.040981 4294967295
-83.767982 63.527176 -33.949501 4294967295
-83.765816 62.934444 -33.772167 4294967295
-83.759941 62.197639 -33.498592 4294967295
-83.755302 62.800472 -33.564899 4294967295
-83.755257 62.502419 -33.493149 4294967295
-83.704002 57.149361 -33.869453 4294967295
-83.703011 56.703205 -33.746891 4294967295
-83.684113 58.069691 -33.757954 4294967295
-83.680016 57.329163 -33.513802 4294967295
-83.677322 57.78019 -33.576317 4294967295
-83.673286 57.039291 -33.33316 4294967295
-83.672813 57.9352 -33.538322 4294967295
-83.672752 58.979248 -33.78548 4294967295
-83.670929 58.534298 -33.649437 4294967295
-83.668762 59.580879 -33.862206 4294967295
-83.664017 60.034428 -33.891167 4294967295
-83.663246 58.395199 -33.48875 4294967295
-83.660675 58.846081 -33.553288 4294967295
-83.655647 59.449322 -33.613144 4294967295
-83.645302 61.10326 -33.834351 4294967295
-83.635529 62.904743 -34.100071 4294967295
-83.635262 62.309315 -33.954189 4294967295
-83.630653 60.825256 -33.525002 4294967295
-83.5895 63.566776 -33.493042 4294967295
-83.53849 57.465816 -33.693638 4294967295
-83.533775 57.770199 -33.687737 4294967295
-83.518524 58.68494 -33.652287 4294967295
-83.516808 59.880054 -33.907181 4294967295
-83.498253 60.650467 -33.782894 4294967295
-83.495323 61.846737 -34.017952 4294967295
-83.470345 63.371799 -33.966137 4294967295
-83.463272 63.530926 -33.886848 4294967295
-83.46125 63.682812 -33.889416 4294967295
-83.459213 63.238747 -33.750458 4294967295
-83.457771 62.048203 -33.444595 4294967295
-83.45681 62.347782 -33.499611 4294967295
-83.440857 63.115891 -33.417702 4294967295
-83.39753 56.855961 -33.704998 4294967295
-83.39077 57.75956 -33.807327 4294967295
-83.384659 57.170605 -33.567375 4294967295
-83.37838 56.730755 -33.359985 4294967295
-83.376144 57.479858 -33.50029 4294967295
-83.372749 58.230251 -33.621689 4294967295
-83.37233 57.932396 -33.544411 4294967295
-83.369843 59.128956 -33.786251 4294967295
-83.364685 58.389885 -33.526615 4294967295
-83.36335 60.032169 -33.89278 4294967295
-83.360382 59.887058 -33.809578 4294967295
-83.359886 58.69453 -33.519527 4294967295
-83.357346 58.996235 -33.549011 4294967295
-83.355225 59.297379 -33.585247 4294967295
-83.351814 60.345848 -33.776936 4294967295
-83.345863 61.397411 -33.927399 4294967295
-83.344749 61.100842 -33.838974 4294967295
-83.344063 60.803627 -33.757412 4294967295
-83.340515 59.764431 -33.453327 4294967295
-83.336189 60.665215 -33.594948 4294967295
-83.331116 61.864937 -33.794861 4294967295
-83.329185 62.463772 -33.904617 4294967295
-83.323982 62.918129 -33.926266 4294967295
-83.317673 61.28706 -33.436905 4294967295
-83.304131 62.797161 -33.570568 4294967295
-83.223923 57.779408 -33.542091 4294967295
-83.208351 59.440716 -33.67828 4294967295
-83.194168 58.713226 -33.274029 4294967295
-83.191269 60.060059 -33.543888 4294967295
-83.17775 62.166115 -33.818409 4294967295
-83.174576 63.064735 -33.978104 4294967295
-83.173302 61.128468 -33.500938 4294967295
-83.133591 63.719238 -33.4599 4294967295
-83.088715 57.609673 -33.751667 4294967295
-83.083946 57.466492 -33.640144 4294967295
-83.083443 57.019398 -33.526714 4294967295
-83.07077 57.781662 -33.498898 4294967295
-83.070206 58.379299 -33.630215 4294967295
-83.067848 59.128262 -33.767693 4294967295
-83.066803 57.338848 -33.329948 4294967295
-83.065315 58.236366 -33.516628 4294967295
-83.065239 56.892826 -33.199604 4294967295
-83.059296 57.945538 -33.34993 4294967295
-83.057411 59.440266 -33.670464 4294967295
-83.050919 59.001141 -33.461258 4294967295
-83.050156 58.106506 -33.23838 4294967295
-83.048843 59.749912 -33.603233 4294967295
-83.047241 60.646935 -33.787968 4294967295
-83.047226 60.0504 -33.647491 4294967295
-83.041939 60.355774 -33.632904 4294967295
-83.041344 60.207405 -33.588219 4294967295
-83.037018 61.108105 -33.729305 4294967295
-83.034424 61.558968 -33.792812 4294967295
-83.028694 61.715916 -33.736141 4294967295
-83.027229 60.972233 -33.537361 4294967295
-83.022873 62.171246 -33.747894 4294967295
-83.022713 60.530724 -33.359848 4294967295
-83.022232 60.8298 -33.422249 4294967295
-83.021744 61.427174 -33.554672 4294967295
-83.014946 62.480438 -33.69109 4294967295
-83.011848 62.037365 -33.5364 4294967295
-83.011307 63.081867 -33.772873 4294967295
-83.002045 62.945797 -33.589657 4294967295
-83.001671 63.691742 -33.758797 4294967295
-82.999046 63.397335 -33.646664 4294967295
-82.993134 62.361633 -33.306709 4294967295
-82.986351 63.266163 -33.408485 4294967295
-82.981155 63.571823 -33.395378 4294967295
-82.939392 57.010208 -33.629219 4294967295
-82.91951 56.586933 -33.206482 4294967295
-82.908974 58.690464 -33.528152 4294967295
-82.90168 59.446049 -33.58662 4294967295
-82.898552 59.897751 -33.641552 4294967295
-82.897179 58.40707 -33.269817 4294967295
-82.883492 61.111198 -33.68082 4294967295
-82.869934 61.726223 -33.604385 4294967295
-82.868874 63.367668 -33.971657 4294967295
-82.868828 62.771542 -33.8312 4294967295
-82.841331 63.704758 -33.602451 4294967295
-82.778381 57.171406 -33.496128 4294967295
-82.77739 57.620487 -33.585007 4294967295
-82.775093 58.071136 -33.653141 4294967295
-82.774475 57.325581 -33.468773 4294967295
-82.764984 56.739998 -33.178005 4294967295
-82.759056 59.285488 -33.677059 4294967295
-82.756882 60.034214 -33.81691 4294967295
-82.756668 58.542374 -33.464733 4294967295
-82.751137 58.997284 -33.481396 4294967295
-82.747429 59.897495 -33.631672 4294967295
-82.745392 59.750961 -33.564388 4294967295
-82.744965 57.959995 -33.138798 4294967295
-82.743973 60.349625 -33.6814 4294967295
-82.741882 60.203213 -33.613224 4294967295
-82.740921 60.801193 -33.737453 4294967295
-82.732079 61.558823 -33.771202 4294967295
-82.729111 62.308414 -33.898209 4294967295
-82.728668 60.668388 -33.507839 4294967295
-82.72773 61.713879 -33.736874 4294967295
-82.727081 59.476364 -33.203461 4294967295
-82.717987 61.279579 -33.477478 4294967295
-82.715691 62.923336 -33.824425 4294967295
-82.709396 62.037239 -33.515259 4294967295
-82.705338 63.235996 -33.729576 4294967295
-82.705132 63.534466 -33.795971 4294967295
-82.703354 63.686047 -33.802639 4294967295
-82.691231 62.659039 -33.366123 4294967295
-82.687836 63.111336 -33.416862 4294967295
-82.62188 58.371933 -33.679474 4294967295
-82.603203 57.798336 -33.244225 4294967295
-82.602631 59.292057 -33.583241 4294967295
-82.602577 57.052177 -33.060081 4294967295
-82.591942 58.857998 -33.309425 4294967295
-82.571037 61.273678 -33.535034 4294967295
-82.556511 61.890179 -33.444214 4294967295
-82.554916 62.339973 -33.523228 4294967295
-82.489563 57.004669 -33.654076 4294967295
-82.451675 58.097076 -33.298817 4294967295
-82.443047 60.645756 -33.752682 4294967295
-82.440025 60.351345 -33.635643 4294967295
-82.439911 59.605255 -33.46032 4294967295
-82.438103 58.562313 -33.188782 4294967295
-82.431503 58.720085 -33.119286 4294967295
-82.429779 61.110977 -33.647442 4294967295
-82.428764 59.1717 -33.180241 4294967295
-82.426758 60.070251 -33.356911 4294967295
-82.422791 61.418739 -33.606632 4294967295
-82.422462 60.822277 -33.462681 4294967295
-82.412971 62.17799 -33.625145 4294967295
-82.408417 60.542301 -33.171669 4294967295
-82.408241 62.333637 -33.585201 4294967295
-82.406967 62.036961 -33.495869 4294967295
-82.405098 62.934635 -33.674339 4294967295
-82.398621 61.899055 -33.329575 4294967295
-82.397758 62.646393 -33.489368 4294967295
-82.395226 61.754379 -33.241337 4294967295
-82.39222 63.399994 -33.575371 4294967295
-82.390755 63.551193 -33.58704 4294967295
-82.388313 63.256248 -33.479183 4294967295
-82.385818 63.707268 -33.543903 4294967295
-82.322449 57.023861 -33.392494 4294967295
-82.313828 57.781288 -33.43 4294967295
-82.310829 57.934364 -33.417549 4294967295
-82.309929 56.74036 -33.126221 4294967295
-82.306145 58.388245 -33.447712 4294967295
-82.30526 57.343781 -33.191402 4294967295
-82.303558 57.644695 -33.23386 4294967295
-82.298279 59.294067 -33.531773 4294967295
-82.263664 60.085457 -33.160835 4294967295
-82.255989 61.140869 -33.282635 4294967295
-82.217262 63.432861 -33.193546 4294967295
-82.163628 57.032742 -33.263165 4294967295
-82.163116 57.332176 -33.324196 4294967295
-82.158928 58.681499 -33.569469 4294967295
-82.149727 58.991776 -33.49445 4294967295
-82.147202 56.753841 -32.936497 4294967295
-82.110695 60.535442 -33.228653 4294967295
-82.110481 60.237015 -33.156216 4294967295
-82.107536 61.584789 -33.42083 4294967295
-82.107147 62.629944 -33.656239 4294967295
-82.093918 61.752312 -33.242348 4294967295
-82.093536 63.543762 -33.650349 4294967295
-82.088028 62.954533 -33.426224 4294967295
-82.087097 63.403492 -33.515156 4294967295
-82.085991 63.106564 -33.428925 4294967295
-82.085587 62.062153 -33.181072 4294967295
-82.083794 62.512508 -33.256512 4294967295
-82.073067 63.721405 -33.364777 4294967295
-82.013702 57.030704 -33.273861 4294967295
-82.012276 56.733559 -33.182632 4294967295
-82.002335 58.090519 -33.337639 4294967295
-81.994766 58.249336 -33.254066 4294967295
-81.992371 58.551121 -33.285614 4294967295
-81.989632 59.898666 -33.552822 4294967295
-81.988472 58.854801 -33.293621 4294967295
-81.985016 57.813137 -32.998398 4294967295
-81.983955 58.711102 -33.188725 4294967295
-81.98246 59.011784 -33.234352 4294967295
-81.982262 60.356079 -33.541138 4294967295
-81.97599 60.961376 -33.581123 4294967295
-81.973686 59.769878 -33.269661 4294967295
-81.971184 59.324921 -33.127274 4294967295
-81.969261 60.223652 -33.304085 4294967295
-81.965591 60.825764 -33.384548 4294967295
-81.95578 62.480789 -33.610275 4294967295
-81.946785 61.895859 -33.332443 4294967295
-81.946678 62.0453 -33.365219 4294967295
-81.946045 61.448879 -33.217663 4294967295
-81.928513 62.667053 -33.219898 4294967295
-81.917587 63.428532 -33.221802 4294967295
-81.91671 63.579037 -33.242519 4294967295
-81.845512 57.349777 -33.069496 4294967295
-81.839691 59.000706 -33.357086 4294967295
-81.827888 59.463799 -33.276817 4294967295
-81.827881 57.969387 -32.932896 4294967295
-81.770058 63.423191 -33.271828 4294967295
-81.720512 57.018559 -33.398819 4294967295
-81.710289 56.58247 -33.137615 4294967295
-81.704391 57.785286 -33.320553 4294967295
-81.703453 57.48756 -33.237438 4294967295
-81.700157 56.893635 -33.049198 4294967295
-81.696892 58.242783 -33.307312 4294967295
-81.694519 59.590069 -33.579071 4294967295
-81.690727 57.652565 -33.074654 4294967295
-81.687683 58.851894 -33.301861 4294967295
-81.687569 59.300198 -33.40292 4294967295
-81.686722 58.105907 -33.115604 4294967295
-81.684761 58.706135 -33.222332 4294967295
-81.684242 57.361446 -32.905602 4294967295
-81.680199 58.562382 -33.117451 4294967295
-81.674461 57.971519 -32.891418 4294967295
-81.672966 60.215008 -33.382519 4294967295
-81.672211 60.664001 -33.473591 4294967295
-81.662575 60.527149 -33.290314 4294967295
-81.656105 60.386131 -33.155853 4294967295
-81.65377 62.032021 -33.49659 4294967295
-81.65097 62.334324 -33.521797 4294967295
-81.650681 61.140129 -33.243328 4294967295
-81.645897 61.295784 -33.203552 4294967295
-81.635048 63.102207 -33.446823 4294967295
-81.63398 61.759655 -33.122044 4294967295
-81.626915 62.814629 -33.252575 4294967295
-81.567177 56.72171 -33.288528 4294967295
-81.54998 57.938152 -33.296814 4294967295
-81.527573 57.816086 -32.916904 4294967295
-81.522667 59.018143 -33.114918 4294967295
-81.514191 58.72974 -32.915874 4294967295
-81.512039 60.973976 -33.395561 4294967295
-81.509224 59.483456 -33.010269 4294967295
-81.507019 61.279228 -33.386482 4294967295
-81.50193 61.733932 -33.410576 4294967295
-81.498764 60.24411 -33.020016 4294967295
-81.493362 62.93977 -33.551865 4294967295
-81.486526 62.799702 -33.412479 4294967295
-81.484924 63.399029 -33.524281 4294967295
-81.417076 57.018764 -33.365299 4294967295
-81.405853 57.480659 -33.295101 4294967295
-81.403214 57.782772 -33.322777 4294967295
-81.397316 57.34148 -33.129776 4294967295
-81.393982 56.597763 -32.907795 4294967295
-81.388649 57.202385 -32.962452 4294967295
-81.386139 56.906261 -32.855518 4294967295
-81.385414 58.103447 -33.117489 4294967295
-81.384933 57.655495 -33.007744 4294967295
-81.381271 58.706467 -33.190262 4294967295
-81.37989 60.35162 -33.544193 4294967295
-81.373299 60.658779 -33.511082 4294967295
-81.373146 59.46386 -33.236042 4294967295
-81.370277 58.421062 -32.953148 4294967295
-81.369667 59.916527 -33.284973 4294967295
-81.368073 58.274239 -32.885109 4294967295
-81.364388 59.7738 -33.169693 4294967295
-81.359871 58.583443 -32.827415 4294967295
-81.357788 61.126915 -33.375282 4294967295
-81.355774 61.428257 -33.412544 4294967295
-81.351959 60.237961 -33.081169 4294967295
-81.35186 60.835827 -33.216045 4294967295
-81.348877 62.034691 -33.442966 4294967295
-81.34507 61.74102 -33.316341 4294967295
-81.34227 60.549301 -33.000687 4294967295
-81.336906 61.602348 -33.157032 4294967295
-81.336746 62.349472 -33.324894 4294967295
-81.336349 61.901882 -33.21661 4294967295
-81.335632 63.097595 -33.478142 4294967295
-81.335266 62.20208 -33.268101 4294967295
-81.331703 63.550777 -33.520138 4294967295
-81.329498 62.657852 -33.281834 4294967295
-81.322433 62.51791 -33.139454 4294967295
-81.31633 63.273003 -33.216137 4294967295
-81.305153 63.437519 -33.078831 4294967295
-81.248093 57.936459 -33.288845 4294967295
-81.228722 59.155983 -33.264515 4294967295
-81.225426 57.515316 -32.839668 4294967295
-81.195007 61.141506 -33.19099 4294967295
-81.096466 57.4879 -33.173012 4294967295
-81.090096 57.794609 -33.143768 4294967295
-81.089188 58.842102 -33.36742 4294967295
-81.08757 58.096699 -33.173122 4294967295
-81.08651 56.751923 -32.851242 4294967295
-81.085464 58.547752 -33.242851 4294967295
-81.082024 58.701466 -33.224277 4294967295
-81.079926 59.152458 -33.294178 4294967295
-81.079781 59.451534 -33.35976 4294967295
-81.06572 59.917503 -33.247204 4294967295
-81.064644 59.021919 -33.027233 4294967295
-81.058868 60.075603 -33.176804 4294967295
-81.057007 60.675755 -33.284134 4294967295
-81.053078 60.381878 -33.156399 4294967295
-81.050781 60.83316 -33.223194 4294967295
-81.046883 61.734673 -33.36726 4294967295
-81.04657 61.137447 -33.226894 4294967295
-81.043907 62.037327 -33.389706 4294967295
-81.042809 61.441174 -33.237339 4294967295
-81.040222 62.639606 -33.469288 4294967295
-81.036789 63.092171 -33.518673 4294967295
-81.035042 61.899555 -33.220802 4294967295
-81.032166 62.351543 -33.278782 4294967295
-81.028572 63.700481 -33.529095 4294967295
-81.028343 62.20718 -33.186642 4294967295
-81.022331 63.410252 -33.366379 4294967295
-81.008934 62.531693 -32.958908 4294967295
-80.950691 57.181728 -33.180664 4294967295
-80.939316 58.541008 -33.312599 4294967295
-80.938515 58.392498 -33.266582 4294967295
-80.92041 60.05901 -33.363991 4294967295
-80.919647 59.462139 -33.216969 4294967295
-80.917358 59.913403 -33.283829 4294967295
-80.905235 61.124264 -33.370495 4294967295
-80.869057 62.665649 -33.159756 4294967295
-80.866714 62.967594 -33.191948 4294967295
-80.794975 58.083626 -33.308155 4294967295
-80.759033 60.818558 -33.37212 4294967295
-80.755638 60.523979 -33.253185 4294967295
-80.754333 61.272835 -33.402229 4294967295
-80.749878 59.335014 -32.895882 4294967295
-80.7472 58.889507 -32.754013 4294967295
-80.741829 61.886631 -33.348225 4294967295
