# .PCD v0.7 - Point Cloud Data file format
VERSION 0.7
FIELDS x y z rgb
SIZE 4 4 4 4
TYPE F F F U
COUNT 1 1 1 1
WIDTH 1120
HEIGHT 1
VIEWPOINT 0 0 0 1 0 0 0
POINTS 1120
DATA ascii
-46.384956 26.068615 -23.341484 4294967295
-46.382511 29.775393 -23.901676 4294967295
-46.378319 30.239552 -23.939478 4294967295
-46.378204 27.923819 -23.575876 4294967295
-46.375629 27.152159 -23.433611 4294967295
-46.374069 26.534555 -23.323893 4294967295
-46.372234 27.461905 -23.453867 4294967295
-46.363464 27.309505 -23.357048 4294967295
-46.360668 28.700382 -23.551613 4294967295
-46.360348 28.391575 -23.500565 4294967295
-46.356087 29.936909 -23.707127 4294967295
-46.3554 28.23835 -23.435411 4294967295
-46.352234 29.320299 -23.578503 4294967295
-46.350422 31.01911 -23.829428 4294967295
-46.340813 30.867477 -23.725756 4294967295
-46.339993 29.632416 -23.525545 4294967295
-46.339874 30.404558 -23.645473 4294967295
-46.338749 28.860453 -23.394297 4294967295
-46.337811 30.713938 -23.676729 4294967295
-46.336952 31.177343 -23.742157 4294967295
-46.234093 26.837236 -23.502783 4294967295
-46.227314 29.927053 -23.929848 4294967295
-46.204132 27.77117 -23.400156 4294967295
-46.192497 31.325962 -23.859579 4294967295
-46.187462 28.702219 -23.407385 4294967295
-46.108051 26.5189 -23.699514 4294967295
-46.103859 27.600729 -23.833868 4294967295
-46.102036 26.211359 -23.60162 4294967295
-46.096596 25.594646 -23.460175 4294967295
-46.088402 26.986694 -23.60985 4294967295
-46.086826 26.06023 -23.452007 4294967295
-46.086784 27.913651 -23.741302 4294967295
-46.085354 28.222813 -23.77775 4294967295
-46.084064 28.531921 -23.815365 4294967295
-46.081108 25.443411 -23.308226 4294967295
-46.077969 27.298031 -23.572063 4294967295
-46.075981 29.151524 -23.845219 4294967295
-46.06654 29.61714 -23.839745 4294967295
-46.065716 26.682936 -23.374413 4294967295
-46.060413 29.464378 -23.765125 4294967295
-46.060101 25.911528 -23.207335 4294967295
-46.058399 28.692822 -23.627895 4294967295
-46.057861 27.457256 -23.430359 4294967295
-46.055664 27.148775 -23.363932 4294967295
-46.05265 27.767481 -23.435667 4294967295
-46.044857 28.850719 -23.540373 4294967295
-46.039902 28.079573 -23.378803 4294967295
-46.03149 29.31756 -23.502552 4294967295
-46.028961 30.553747 -23.674765 4294967295
-46.02792 30.862854 -23.71442 4294967295
-46.009789 31.331268 -23.637396 4294967295
-46.007366 29.941877 -23.400236 4294967295
-45.928635 27.602741 -23.673079 4294967295
-45.896748 30.544672 -23.868633 4294967295
-45.893009 30.85446 -23.886063 4294967295
-45.886066 30.084427 -23.708488 4294967295
-45.880886 30.394674 -23.714071 4294967295
-45.872372 28.697882 -23.378864 4294967295
-45.863739 29.472597 -23.428415 4294967295
-45.792141 25.278656 -23.4699 4294967295
-45.779682 25.899319 -23.463888 4294967295
-45.778305 25.590586 -23.404402 4294967295
-45.774296 26.054995 -23.443735 4294967295
-45.77002 28.836155 -23.842113 4294967295
-45.760857 28.375214 -23.69467 4294967295
-45.760071 29.610687 -23.880791 4294967295
-45.757141 27.294872 -23.495552 4294967295
-45.756046 27.913046 -23.582903 4294967295
-45.751255 26.832712 -23.374922 4294967295
-45.745689 28.687904 -23.618275 4294967295
-45.745365 29.460171 -23.736 4294967295
-45.743973 29.30611 -23.700497 4294967295
-45.742405 30.23299 -23.832081 4294967295
-45.739574 30.542545 -23.856985 4294967295
-45.733326 28.999973 -23.564917 4294967295
-45.728516 30.082363 -23.694004 4294967295
-45.725063 27.766026 -23.304365 4294967295
-45.720051 30.856796 -23.744888 4294967295
-45.719151 28.540102 -23.376265 4294967295
-45.717606 30.703066 -23.700745 4294967295
-45.70586 30.397442 -23.556189 4294967295
-45.700241 31.325693 -23.654556 4294967295
-45.63842 26.511337 -23.679193 4294967295
-45.636841 26.666147 -23.690289 4294967295
-45.625656 25.278112 -23.381987 4294967295
-45.618809 27.133652 -23.614647 4294967295
-45.615398 27.597841 -23.65888 4294967295
-45.611744 29.297398 -23.893488 4294967295
-45.590023 26.367594 -23.258326 4294967295
-45.576443 31.005253 -23.868822 4294967295
-45.572853 31.160658 -23.863453 4294967295
-45.554344 29.157835 -23.399157 4294967295
-45.541508 30.088264 -23.438385 4294967295
-45.453308 28.9867 -23.823484 4294967295
-45.450909 28.524019 -23.731789 4294967295
-45.449078 29.605425 -23.884991 4294967295
-45.44828 26.825356 -23.445913 4294967295
-45.447289 26.36198 -23.365667 4294967295
-45.446011 28.216326 -23.643698 4294967295
-45.44231 27.908278 -23.56534 4294967295
-45.439251 25.590872 -23.179615 4294967295
-45.430737 27.756557 -23.446657 4294967295
-45.425152 29.766182 -23.713417 4294967295
-45.424515 30.538471 -23.828333 4294967295
-45.421181 29.303864 -23.608885 4294967295
-45.419563 30.230989 -23.739819 4294967295
-45.4161 29.923044 -23.663458 4294967295
-45.411999 31.314005 -23.846127 4294967295
-45.410397 31.468863 -23.857052 4294967295
-45.410198 28.843216 -23.446978 4294967295
-45.404827 30.852789 -23.715448 4294967295
-45.391598 30.702032 -23.583307 4294967295
-45.387131 31.166674 -23.6189 4294967295
-45.334381 26.040861 -23.668198 4294967295
-45.328331 25.269638 -23.498693 4294967295
-45.328251 25.578688 -23.546089 4294967295
-45.324501 26.660933 -23.683573 4294967295
-45.319054 27.588923 -23.783121 4294967295
-45.318897 25.426123 -23.445671 4294967295
-45.31707 27.280489 -23.718945 4294967295
-45.308754 27.127945 -23.627039 4294967295
-45.308743 27.745821 -23.722979 4294967295
-45.285873 28.83263 -23.704378 4294967295
-45.281715 30.223574 -23.886427 4294967295
-45.259098 28.375849 -23.413845 4294967295
-45.246933 29.151541 -23.43465 4294967295
-45.225433 29.929806 -23.379328 4294967295
-45.146118 26.045145 -23.403427 4294967295
-45.126289 29.139906 -23.721684 4294967295
-45.124466 25.276758 -23.106951 4294967295
-45.12104 27.750774 -23.463049 4294967295
-45.120296 28.986971 -23.648901 4294967295
-45.11729 28.060726 -23.480507 4294967295
-45.115784 28.679138 -23.564184 4294967295
-45.115143 28.370287 -23.510977 4294967295
-45.111286 30.533867 -23.815281 4294967295
-45.109871 26.980598 -23.252089 4294967295
-45.09774 30.383133 -23.681057 4294967295
-45.097729 30.846487 -23.752899 4294967295
-45.095654 28.529638 -23.376268 4294967295
-45.09557 29.611317 -23.543499 4294967295
-45.088295 27.603979 -23.172323 4294967295
-45.085762 30.69536 -23.631496 4294967295
-45.081146 30.078659 -23.498026 4294967295
-45.076942 29.92527 -23.439817 4294967295
-45.066425 31.473186 -23.594007 4294967295
-45.061771 31.165537 -23.508175 4294967295
-45.023216 26.189806 -23.695353 4294967295
-44.997913 25.886221 -23.441668 4294967295
-44.990177 26.351538 -23.450678 4294967295
-44.985279 25.734337 -23.314936 4294967295
-44.979843 27.126556 -23.486481 4294967295
-44.978626 27.435892 -23.52454 4294967295
-44.972767 25.273127 -23.141239 4294967295
-44.952202 27.287489 -23.285744 4294967295
-44.951797 26.669195 -23.186537 4294967295
-44.942345 27.908127 -23.301521 4294967295
-44.935612 28.37348 -23.318707 4294967295
-44.913296 29.615667 -23.329096 4294967295
-44.909897 30.54384 -23.445276 4294967295
-44.90704 30.235546 -23.374142 4294967295
-44.843391 26.655891 -23.572212 4294967295
-44.797619 28.057358 -23.416332 4294967295
-44.797474 30.5294 -23.79809 4294967295
-44.79285 29.449308 -23.593119 4294967295
-44.792255 29.603964 -23.612213 4294967295
-44.79105 26.049 -23.051647 4294967295
-44.789234 26.977219 -23.180674 4294967295
-44.789066 28.832195 -23.466673 4294967295
-44.788147 28.368776 -23.387409 4294967295
-44.785763 26.514103 -23.080622 4294967295
-44.775852 30.071817 -23.551044 4294967295
-44.772541 31.463087 -23.739527 4294967295
-44.772366 30.227264 -23.546686 4294967295
-44.769794 30.84597 -23.621576 4294967295
-44.768379 30.691868 -23.586164 4294967295
-44.75211 31.314428 -23.550034 4294967295
-44.749989 30.387854 -23.389236 4294967295
-44.729626 31.011696 -23.319921 4294967295
-44.707973 26.185146 -23.665949 4294967295
-44.692951 26.497463 -23.592129 4294967295
-44.689911 25.570824 -23.423981 4294967295
-44.683559 25.262964 -23.324678 4294967295
-44.683056 27.272287 -23.631561 4294967295
-44.668449 26.966558 -23.465485 4294967295
-44.664574 25.885336 -23.266609 4294967295
-44.660885 26.659121 -23.356388 4294967295
-44.653744 28.669914 -23.609489 4294967295
-44.648312 26.352686 -23.206707 4294967295
-44.645092 30.217014 -23.77853 4294967295
-44.636448 27.592236 -23.302074 4294967295
-44.620049 28.523718 -23.31287 4294967295
-44.618202 27.441885 -23.130419 4294967295
-44.609924 28.835417 -23.278759 4294967295
-44.607704 29.763435 -23.404306 4294967295
-44.604031 29.918962 -23.398512 4294967295
-44.584141 30.69714 -23.357159 4294967295
-44.581772 31.161469 -23.409744 4294967295
-44.536568 25.722115 -23.468401 4294967295
-44.493645 28.35928 -23.527773 4294967295
-44.472816 30.527866 -23.693958 4294967295
-44.46928 29.601736 -23.522102 4294967295
-44.469067 27.901484 -23.257555 4294967295
-44.468021 28.674711 -23.368599 4294967295
-44.463982 27.748072 -23.192556 4294967295
-44.462837 28.985165 -23.374495 4294967295
-44.458443 29.91366 -23.482382 4294967295
-44.456692 29.141298 -23.348783 4294967295
-44.450806 31.460945 -23.65954 4294967295
-44.447819 31.307293 -23.611549 4294967295
-44.434055 30.074701 -23.309334 4294967295
-44.431599 30.848232 -23.408966 4294967295
-44.430679 30.384775 -23.329884 4294967295
-44.38192 25.719109 -23.47842 4294967295
-44.377213 25.565508 -23.416567 4294967295
-44.368118 25.412785 -23.319315 4294967295
-44.359974 27.733162 -23.611731 4294967295
-44.35474 26.188654 -23.330814 4294967295
-44.352089 26.962206 -23.42882 4294967295
-44.350273 26.034996 -23.270889 4294967295
-44.335197 25.264862 -23.02986 4294967295
-44.329849 26.657961 -23.201704 4294967295
-44.323071 27.278015 -23.242577 4294967295
-44.316265 28.361883 -23.354845 4294967295
-44.29649 29.603542 -23.386393 4294967295
-44.28093 30.844248 -23.451941 4294967295
-44.198002 27.422821 -23.515249 4294967295
-44.186459 28.661972 -23.613092 4294967295
-44.18404 27.889793 -23.474436 4294967295
-44.183342 28.971807 -23.635702 4294967295
-44.170284 26.192059 -23.10133 4294967295
-44.166077 30.366926 -23.711349 4294967295
-44.157967 26.968111 -23.121511 4294967295
-44.143818 29.909254 -23.460857 4294967295
-44.142147 28.209028 -23.185093 4294967295
-44.12825 29.604147 -23.287977 4294967295
-44.126816 31.459398 -23.562515 4294967295
-44.125595 30.841549 -23.457376 4294967295
-44.124477 30.687288 -23.42454 4294967295
-44.120625 29.142216 -23.155098 4294967295
-44.119167 31.152456 -23.453377 4294967295
-44.107254 30.228149 -23.214508 4294967295
-44.04921 26.181833 -23.382044 4294967295
-44.046837 26.800749 -23.458315 4294967295
-44.046558 26.955397 -23.479897 4294967295
-44.042084 27.420147 -23.515423 4294967295
-44.041241 26.647392 -23.389513 4294967295
-44.037983 25.720312 -23.220379 4294967295
-44.03347 28.65863 -23.636805 4294967295
-44.025223 25.258905 -23.046331 4294967295
-44.024544 28.042566 -23.46986 4294967295
-44.023129 25.568724 -23.077171 4294967295
-44.020119 27.579824 -23.36286 4294967295
-44.013729 26.498796 -23.144705 4294967295
-44.010025 26.344925 -23.091124 4294967295
-44.008919 29.128412 -23.511141 4294967295
-43.993195 28.977787 -23.361115 4294967295
-43.990517 27.122677 -23.053646 4294967295
-43.986263 27.897041 -23.138668 4294967295
-43.958733 30.06897 -23.251286 4294967295
-43.945084 31.309595 -23.332325 4294967295
-43.920898 25.40029 -23.484718 4294967295
-43.903046 25.249296 -23.317785 4294967295
-43.881508 26.954744 -23.406992 4294967295
-43.877106 27.574148 -23.466885 4294967295
-43.857868 27.423981 -23.288923 4294967295
-43.84893 28.508453 -23.383913 4294967295
-43.847771 29.590841 -23.541197 4294967295
-43.845844 25.879814 -22.954391 4294967295
-43.843452 30.364731 -23.625574 4294967295
-43.817631 29.907856 -23.347397 4294967295
-43.81588 30.526718 -23.428534 4294967295
-43.814678 28.207451 -23.061876 4294967295
-43.808987 31.456066 -23.5161 4294967295
-43.808197 30.992571 -23.438398 4294967295
-43.74659 25.401266 -23.337706 4294967295
-43.745129 25.865465 -23.397381 4294967295
-43.744099 25.556416 -23.341576 4294967295
-43.72752 26.642368 -23.375399 4294967295
-43.725758 28.034149 -23.575289 4294967295
-43.713402 26.336147 -23.214888 4294967295
-43.707382 27.265402 -23.309446 4294967295
-43.706429 28.502537 -23.492054 4294967295
-43.70504 29.430302 -23.623549 4294967295
-43.703526 26.956972 -23.231037 4294967295
-43.700127 28.34947 -23.41787 4294967295
-43.688068 30.671108 -23.677992 4294967295
-43.687561 28.816374 -23.388718 4294967295
-43.676098 31.137999 -23.653625 4294967295
-43.670238 27.89266 -23.107523 4294967295
-43.669979 27.119198 -22.986502 4294967295
-43.664318 29.595343 -23.321808 4294967295
-43.646896 30.218422 -23.277647 4294967295
-43.626282 31.461088 -23.303095 4294967295
-43.592594 26.635042 -23.543684 4294967295
-43.55608 25.250795 -23.038258 4294967295
-43.55476 25.869915 -23.122799 4294967295
-43.543011 27.883221 -23.337933 4294967295
-43.5411 28.656794 -23.441442 4294967295
-43.539928 26.337177 -23.07568 4294967295
-43.526573 29.742651 -23.49176 4294967295
-43.524277 30.361574 -23.568419 4294967295
-43.523548 27.423738 -23.111309 4294967295
-43.523075 27.733227 -23.15505 4294967295
-43.520142 27.579218 -23.107882 4294967295
-43.490276 30.989149 -23.392212 4294967295
-43.488956 31.45332 -23.452936 4294967295
-43.479618 31.146708 -23.330984 4294967295
-43.444016 25.548464 -23.436516 4294967295
-43.431911 26.478754 -23.482443 4294967295
-43.423458 27.40826 -23.557451 4294967295
-43.413971 26.637289 -23.363224 4294967295
-43.411388 27.256399 -23.437582 4294967295
-43.406723 25.40139 -23.115551 4294967295
-43.40646 28.030598 -23.51697 4294967295
-43.401814 26.175911 -23.195147 4294967295
-43.401752 26.33061 -23.218397 4294967295
-43.399044 25.712387 -23.101849 4294967295
-43.396099 27.878426 -23.410707 4294967295
-43.394318 26.950941 -23.254108 4294967295
-43.385845 28.190113 -23.376518 4294967295
-43.38562 28.654043 -23.445889 4294967295
-43.381149 29.428171 -23.528931 4294967295
-43.379154 28.810247 -23.418142 4294967295
-43.377975 26.026241 -22.981449 4294967295
-43.363186 27.57675 -23.101082 4294967295
-43.3577 27.113834 -22.986137 4294967295
-43.357174 30.671171 -23.527809 4294967295
-43.356953 29.588966 -23.36001 4294967295
-43.350056 30.982283 -23.518604 4294967295
-43.348961 31.291746 -23.557302 4294967295
-43.340981 30.520929 -23.375189 4294967295
-43.338116 30.057779 -23.281231 4294967295
-43.337078 29.284708 -23.154299 4294967295
-43.335556 30.213102 -23.284565 4294967295
-43.330978 31.451363 -23.437937 4294967295
-43.287106 25.236601 -23.381815 4294967295
-43.25272 28.954916 -23.677301 4294967295
-43.247467 27.719416 -23.445963 4294967295
-43.234467 28.495615 -23.46114 4294967295
-43.220409 29.735987 -23.53904 4294967295
-43.207973 29.893812 -23.463921 4294967295
-43.126045 25.234837 -23.341761 4294967295
-43.122272 26.318182 -23.477638 4294967295
-43.112312 27.866508 -23.635401 4294967295
-43.108501 27.094345 -23.486767 4294967295
-43.107235 26.012058 -23.310915 4294967295
-43.105511 25.857737 -23.27354 4294967295
-43.094749 26.47875 -23.2829 4294967295
-43.093353 28.180172 -23.532349 4294967295
-43.08889 26.944061 -23.307476 4294967295
-43.08881 27.717361 -23.425276 4294967295
-43.084721 27.254335 -23.321781 4294967295
-43.07959 26.636726 -23.18631 4294967295
-43.076565 28.029512 -23.375513 4294967295
-43.075081 29.266884 -23.553152 4294967295
-43.066483 25.556305 -22.916365 4294967295
-43.06181 30.043276 -23.566296 4294967295
-43.06068 28.497274 -23.320543 4294967295
-43.056389 30.353891 -23.570644 4294967295
-43.052479 29.581846 -23.421288 4294967295
-43.050793 28.809013 -23.289503 4294967295
-43.044807 29.893087 -23.40782 4294967295
-43.040371 29.430279 -23.30159 4294967295
-43.03894 31.440746 -23.598019 4294967295
-43.037521 30.822756 -23.492086 4294967295
-43.028095 30.670683 -23.393688 4294967295
-43.026497 28.660257 -23.073114 4294967295
-43.019028 30.982418 -23.369162 4294967295
-43.017097 31.292219 -23.401213 4294967295
-42.937481 28.486717 -23.581068 4294967295
-42.908924 26.172928 -22.999966 4294967295
-42.903111 29.73218 -23.498249 4294967295
-42.894234 27.723602 -23.120413 4294967295
-42.889645 26.950914 -22.965681 4294967295
-42.888866 28.189018 -23.148914 4294967295
-42.870102 30.35935 -23.331694 4294967295
-42.786041 26.008474 -23.239378 4294967295
-42.782078 27.24683 -23.397202 4294967295
-42.780704 27.865755 -23.480907 4294967295
-42.778641 26.474161 -23.251822 4294967295
-42.777771 25.236488 -23.055752 4294967295
-42.774544 25.85614 -23.124836 4294967295
-42.770306 25.702265 -23.067671 4294967295
-42.766251 27.095686 -23.248472 4294967295
-42.762676 28.179289 -23.385727 4294967295
-42.755741 26.169567 -23.023521 4294967295
-42.752529 30.655785 -23.683619 4294967295
-42.748825 28.801277 -23.370832 4294967295
-42.740063 27.720484 -23.13611 4294967295
-42.738457 26.328007 -22.910538 4294967295
-42.733086 27.567347 -23.057354 4294967295
-42.727333 29.425306 -23.295614 4294967295
-42.727051 30.353348 -23.435207 4294967295
-42.727032 28.032984 -23.080448 4294967295
-42.724976 29.580584 -23.300631 4294967295
-42.723099 29.116983 -23.214911 4294967295
-42.711693 29.89336 -23.243 4294967295
-42.706337 30.822842 -23.342522 4294967295
-42.703514 30.514254 -23.272959 4294967295
-42.699932 31.443222 -23.386492 4294967295
-42.692692 31.290567 -23.305698 4294967295
-42.643429 27.240236 -23.534819 4294967295
-42.600353 27.868734 -23.289557 4294967295
-42.595139 29.880583 -23.555378 4294967295
-42.569931 27.411495 -22.978773 4294967295
-42.561695 31.126495 -23.480659 4294967295
-42.491653 25.535185 -23.309139 4294967295
-42.488426 25.226393 -23.236504 4294967295
-42.479683 27.084606 -23.450857 4294967295
-42.468456 26.15884 -23.220896 4294967295
-42.46104 28.171511 -23.469252 4294967295
-42.458992 27.862656 -23.40596 4294967295
-42.456764 26.780251 -23.223255 4294967295
-42.45602 28.791315 -23.52408 4294967295
-42.449272 26.317631 -23.093468 4294967295
-42.446735 27.710791 -23.285894 4294967295
-42.445572 29.257816 -23.512636 4294967295
-42.442585 25.390289 -22.899118 4294967295
-42.435299 28.332281 -23.290276 4294967295
-42.429886 29.10705 -23.365631 4294967295
-42.426472 27.405939 -23.079212 4294967295
-42.421432 27.561842 -23.063158 4294967295
-42.421307 26.633175 -22.920517 4294967295
-42.419655 30.965517 -23.568171 4294967295
-42.419289 29.573746 -23.353031 4294967295
-42.416939 30.502342 -23.476063 4294967295
-42.415562 29.419998 -23.300138 4294967295
-42.410847 29.885267 -23.333817 4294967295
-42.407688 28.493591 -23.096619 4294967295
-42.406559 30.350422 -23.370844 4294967295
-42.398022 31.12604 -23.421638 4294967295
-42.391903 30.818357 -23.326328 4294967295
-42.388626 31.437944 -23.394924 4294967295
-42.388332 30.664625 -23.27466 4294967295
-42.376202 30.203672 -23.108496 4294967295
-42.322575 27.546143 -23.513697 4294967295
-42.306999 26.311964 -23.202747 4294967295
-42.305065 27.240723 -23.329 4294967295
-42.297989 29.098461 -23.556219 4294967295
-42.27948 28.48427 -23.316629 4294967295
-42.278763 29.876518 -23.523069 4294967295
-42.274807 30.341465 -23.562687 4294967295
-42.271324 31.115501 -23.65312 4294967295
-42.262455 31.427155 -23.630629 4294967295
-42.177418 25.530066 -23.293489 4294967295
-42.169003 27.697556 -23.557169 4294967295
-42.15807 26.926596 -23.353741 4294967295
-42.156147 27.391123 -23.409304 4294967295
-42.151798 25.999527 -23.163254 4294967295
-42.151707 28.165545 -23.492233 4294967295
-42.151299 25.844866 -23.135769 4294967295
-42.150333 27.547131 -23.387297 4294967295
-42.146564 28.630756 -23.522543 4294967295
-42.146088 26.619741 -23.212681 4294967295
-42.145523 25.691269 -23.066904 4294967295
-42.139687 28.323053 -23.421537 4294967295
-42.132217 26.158377 -23.033236 4294967295
-42.129475 28.016045 -23.294405 4294967295
-42.129387 28.48019 -23.364386 4294967295
-42.123775 30.801447 -23.67345 4294967295
-42.121597 26.470207 -22.997101 4294967295
-42.118286 26.780512 -23.018265 4294967295
-42.115906 29.102257 -23.352913 4294967295
-42.112926 29.257692 -23.353107 4294967295
-42.107265 27.247316 -23.002537 4294967295
-42.097752 29.570904 -23.281277 4294967295
-42.082424 30.967215 -23.373089 4294967295
-42.007236 27.850853 -23.536545 4294967295
-41.999954 25.376801 -23.103111 4294967295
-41.993412 26.306772 -23.193113 4294967295
-41.978329 28.940407 -23.47504 4294967295
-41.977875 29.559177 -23.565557 4294967295
-41.968933 29.406755 -23.47213 4294967295
-41.946514 30.340557 -23.437901 4294967295
-41.937489 27.712097 -22.967354 4294967295
-41.934288 30.03433 -23.295279 4294967295
-41.897907 31.281807 -23.199036 4294967295
-41.851284 25.527311 -23.185474 4294967295
-41.844231 25.993052 -23.20093 4294967295
-41.837318 25.684904 -23.099903 4294967295
-41.836121 27.542215 -23.372663 4294967295
-41.831696 25.221601 -22.985411 4294967295
-41.822784 27.39048 -23.245029 4294967295
-41.815022 26.463512 -23.043329 4294967295
-41.809883 28.321896 -23.285336 4294967295
-41.809265 27.238726 -23.115938 4294967295
-41.806995 28.632044 -23.309793 4294967295
-41.803581 27.859108 -23.165596 4294967295
-41.803276 26.930452 -23.022156 4294967295
-41.802811 29.25194 -23.371111 4294967295
-41.802181 26.775879 -22.990061 4294967295
-41.801918 26.15662 -22.893936 4294967295
-41.798832 28.943474 -23.293068 4294967295
-41.789322 29.564734 -23.312849 4294967295
-41.788639 28.017332 -23.072451 4294967295
-41.783585 30.494467 -23.409031 4294967295
-41.775017 30.342003 -23.318689 4294967295
-41.771652 31.425798 -23.456903 4294967295
-41.767208 30.034559 -23.210752 4294967295
-41.763744 31.118567 -23.348223 4294967295
-41.74757 30.813452 -23.175047 4294967295
-41.744331 30.195227 -23.055763 4294967295
-41.726891 31.283319 -23.084227 4294967295
-41.699898 26.297356 -23.340467 4294967295
-41.66074 29.400541 -23.504881 4294967295
-41.660625 27.079576 -23.151798 4294967295
-41.562424 31.437824 -23.044437 4294967295
-41.53421 26.760876 -23.336992 4294967295
-41.523842 26.298782 -23.185946 4294967295
-41.522236 25.525101 -23.056089 4294967295
-41.522232 25.679918 -23.079542 4294967295
-41.513191 27.229723 -23.243872 4294967295
-41.509186 29.551481 -23.564545 4294967295
-41.507477 28.778429 -23.434006 4294967295
-41.506508 29.088078 -23.473373 4294967295
-41.50071 27.851587 -23.240665 4294967295
-41.499123 28.470966 -23.322165 4294967295
-41.499088 28.935171 -23.392252 4294967295
-41.49736 29.863823 -23.519527 4294967295
-41.496563 26.149647 -22.950247 4294967295
-41.490387 30.639013 -23.582537 4294967295
-41.489304 31.257925 -23.667854 4294967295
-41.485874 26.616426 -22.937523 4294967295
-41.482719 27.081623 -22.983402 4294967295
-41.481487 28.010782 -23.114622 4294967295
-41.480133 30.177626 -23.432499 4294967295
-41.477768 27.392378 -22.991825 4294967295
-41.472431 28.167679 -23.067682 4294967295
-41.471195 29.406229 -23.245745 4294967295
-41.464378 28.633987 -23.075464 4294967295
-41.452805 29.720364 -23.14971 4294967295
-41.448792 30.495232 -23.2358 4294967295
-41.433105 30.808895 -23.160801 4294967295
-41.421413 31.431129 -23.163774 4294967295
-41.382244 26.138229 -23.276245 4294967295
-41.379425 25.519659 -23.160591 4294967295
-41.372715 27.84248 -23.460087 4294967295
-41.34367 29.396519 -23.468954 4294967295
-41.336094 27.541246 -23.128954 4294967295
-41.334389 26.302984 -22.928102 4294967295
-41.327724 29.864656 -23.415545 4294967295
-41.290848 31.112131 -23.31691 4294967295
-41.281528 30.185972 -23.104038 4294967295
-41.270847 30.033899 -22.997738 4294967295
-41.265747 30.809292 -23.075361 4294967295
-41.239075 25.82328 -23.330688 4294967295
-41.218884 26.910841 -23.33812 4294967295
-41.209145 26.603376 -23.21583 4294967295
-41.198498 27.224829 -23.227028 4294967295
-41.196163 25.986814 -23.021526 4294967295
-41.191689 27.690695 -23.244501 4294967295
-41.18457 28.775696 -23.353283 4294967295
-41.183228 29.085506 -23.389704 4294967295
-41.182209 28.311975 -23.264748 4294967295
-41.176247 29.86088 -23.452667 4294967295
-41.174648 25.526531 -22.784475 4294967295
-41.170559 29.707584 -23.385214 4294967295
-41.168312 26.302286 -22.852551 4294967295
-41.162346 29.400129 -23.274807 4294967295
-41.162163 31.102203 -23.530834 4294967295
-41.155277 28.627899 -23.102976 4294967295
-41.149982 27.854967 -22.944843 4294967295
-41.145634 28.939837 -23.075134 4294967295
-41.145359 30.951984 -23.377373 4294967295
-41.144901 30.642626 -23.327011 4294967295
-41.143803 31.26186 -23.412136 4294967295
-41.133118 29.56217 -23.071882 4294967295
-41.128403 30.18259 -23.129044 4294967295
-41.121021 30.029669 -23.048494 4294967295
-41.115189 30.340805 -23.050159 4294967295
-41.072418 25.667841 -23.226639 4294967295
-41.060196 26.289528 -23.225677 4294967295
-41.055305 27.064499 -23.30485 4294967295
-41.05003 25.82716 -23.076855 4294967295
-41.04678 25.363258 -22.981491 4294967295
-41.043205 27.995804 -23.351633 4294967295
-41.038925 29.389431 -23.529026 4294967295
-41.032772 29.700377 -23.528242 4294967295
-41.028763 30.165501 -23.567396 4294967295
-41.024433 26.606682 -22.995914 4294967295
-41.023621 27.226223 -23.083246 4294967295
-41.021122 30.786255 -23.601858 4294967295
-41.001328 28.469891 -23.098085 4294967295
-40.998829 30.018414 -23.312698 4294967295
-40.997887 27.69648 -22.954468 4294967295
-40.945435 31.270704 -23.087284 4294967295
-40.922806 25.508957 -23.254641 4294967295
-40.920933 25.973711 -23.310295 4294967295
-40.899101 26.752213 -23.258644 4294967295
-40.872864 26.138371 -22.962595 4294967295
-40.872627 26.293287 -22.984167 4294967295
-40.872074 30.008348 -23.540812 4294967295
-40.871952 28.770475 -23.352982 4294967295
-40.864433 28.153103 -23.201481 4294967295
-40.862019 28.927624 -23.299706 4294967295
-40.861675 29.546762 -23.390524 4294967295
-40.858974 27.070499 -22.995726 4294967295
-40.848297 29.3953 -23.263987 4294967295
-40.845314 30.634144 -23.427872 4294967295
-40.842659 30.17058 -23.337313 4294967295
-40.840839 27.539091 -22.925909 4294967295
-40.835312 30.946262 -23.397455 4294967295
-40.830257 31.411837 -23.428579 4294967295
-40.814743 29.868073 -23.075289 4294967295
-40.788544 31.26833 -23.083611 4294967295
-40.741478 25.511135 -23.061554 4294967295
-40.740002 26.904905 -23.260403 4294967295
-40.730869 27.371296 -23.260134 4294967295
-40.723534 25.669563 -22.946655 4294967295
-40.722008 27.992466 -23.285288 4294967295
-40.718079 29.541035 -23.488455 4294967295
-40.691772 28.309053 -23.09914 4294967295
-40.688538 28.619478 -23.120949 4294967295
-40.684952 27.226526 -22.883087 4294967295
-40.681553 31.407272 -23.487368 4294967295
-40.681099 28.93091 -23.110392 4294967295
-40.67606 30.015852 -23.235031 4294967295
-40.660423 29.245598 -22.997917 4294967295
-40.62569 30.648132 -22.940744 4294967295
-40.603176 25.349983 -23.17691 4294967295
-40.594536 25.661362 -23.15715 4294967295
-40.58926 27.520155 -23.396534 4294967295
-40.560204 26.752377 -23.056509 4294967295
-40.542358 26.13653 -22.82592 4294967295
-40.541981 30.162415 -23.429668 4294967295
-40.534767 27.996855 -23.047686 4294967295
-40.532005 28.616888 -23.119793 4294967295
-40.531006 29.700851 -23.275394 4294967295
-40.528099 30.785025 -23.416298 4294967295
-40.527191 28.308313 -23.036123 4294967295
-40.527115 30.630522 -23.385437 4294967295
-40.523773 26.915037 -22.799786 4294967295
-40.511524 31.098936 -23.335648 4294967295
-40.502125 29.398325 -23.006834 4294967295
-40.500351 29.863333 -23.063204 4294967295
-40.497383 30.328609 -23.110399 4294967295
-40.496765 28.934986 -22.895643 4294967295
-40.474262 30.954006 -23.026117 4294967295
-40.473682 30.489567 -22.951666 4294967295
-40.435329 25.349453 -23.088427 4294967295
-40.419407 26.436672 -23.129448 4294967295
-40.418171 27.211123 -23.236506 4294967295
-40.412216 25.199034 -22.887691 4294967295
-40.398483 26.286129 -22.945557 4294967295
-40.398369 28.14448 -23.224432 4294967295
-40.382008 25.669752 -22.725777 4294967295
-40.379513 26.754816 -22.869934 4294967295
-40.369801 27.376562 -22.888714 4294967295
-40.369473 29.235088 -23.165962 4294967295
-40.362663 29.856071 -23.206957 4294967295
-40.361744 27.533251 -22.85022 4294967295
-40.32523 31.10437 -23.106419 4294967295
-40.285736 25.655075 -23.186811 4294967295
-40.255424 25.815979 -22.977907 4294967295
-40.242336 27.677238 -23.157194 4294967295
-40.226601 30.777037 -23.502354 4294967295
-40.223953 28.765366 -23.179472 4294967295
-40.218567 28.302063 -23.068378 4294967295
-40.217068 29.8508 -23.289766 4294967295
-40.21418 28.922529 -23.12797 4294967295
-40.213642 27.063969 -22.844313 4294967295
-40.210308 27.529465 -22.888683 4294967295
-40.198727 27.841888 -22.846598 4294967295
-40.189312 30.941599 -23.240314 4294967295
-40.18586 30.478012 -23.14406 4294967295
-40.184853 30.323425 -23.113091 4294967295
-40.177635 29.550873 -22.941389 4294967295
-40.170918 29.397612 -22.866688 4294967295
-40.159103 30.639791 -22.962618 4294967295
-40.150959 31.261459 -22.993475 4294967295
-40.142109 25.494967 -23.260811 4294967295
-40.132858 25.651628 -23.213352 4294967295
-40.126553 25.34314 -23.118589 4294967295
-40.123978 26.582468 -23.285078 4294967295
-40.123116 27.201916 -23.371546 4294967295
-40.111839 27.514 -23.331867 4294967295
-40.105892 28.289352 -23.402739 4294967295
-40.105858 26.895969 -23.193102 4294967295
-40.103085 26.277086 -23.078823 4294967295
-40.099583 26.122913 -23.028784 4294967295
-40.098621 26.742641 -23.114517 4294967295
-40.087151 27.983995 -23.212997 4294967295
-40.084755 28.60387 -23.287729 4294967295
-40.065434 27.369328 -22.953955 4294967295
-40.064426 31.395052 -23.551029 4294967295
-40.048512 30.160925 -23.243479 4294967295
-40.047565 29.696653 -23.166466 4294967295
-39.985619 25.182522 -23.213196 4294967295
-39.957359 25.652641 -23.067291 4294967295
-39.931347 29.374578 -23.426727 4294967295
-39.890381 28.765007 -23.021402 4294967295
-39.877506 30.936275 -23.248631 4294967295
-39.87109 29.544125 -22.990549 4294967295
-39.869545 30.62866 -23.141495 4294967295
-39.859215 29.856863 -22.946526 4294967295
-39.855282 30.477457 -23.009521 4294967295
-39.841877 30.171047 -22.860846 4294967295
-39.826454 25.335144 -23.215097 4294967295
-39.815586 25.646999 -23.17877 4294967295
-39.812653 26.267044 -23.249327 4294967295
-39.802639 25.959332 -23.126629 4294967295
-39.801453 25.494877 -23.047907 4294967295
-39.801182 27.353361 -23.324551 4294967295
-39.795799 27.819029 -23.353224 4294967295
-39.794128 25.806133 -23.038568 4294967295
-39.787666 26.58194 -23.10553 4294967295
-39.776524 27.978191 -23.229713 4294967295
-39.775784 28.288054 -23.27051 4294967295
-39.766605 28.599863 -23.247103 4294967295
-39.757515 29.066542 -23.247572 4294967295
-39.752892 29.222496 -23.235607 4294967295
-39.746181 28.449732 -23.068426 4294967295
-39.744915 27.520548 -22.919399 4294967295
-39.734879 30.001156 -23.214626 4294967295
-39.732941 30.156488 -23.223114 4294967295
-39.721306 28.920267 -22.948801 4294967295
-39.713367 31.245453 -23.236715 4294967295
-39.632088 26.424145 -23.088808 4294967295
-39.617466 25.962337 -22.908043 4294967295
-39.607632 25.654358 -22.786854 4294967295
-39.606201 27.823771 -23.100956 4294967295
-39.604446 27.204523 -22.994804 4294967295
-39.603157 27.049875 -22.961779 4294967295
-39.586273 26.743538 -22.787048 4294967295
-39.584904 29.687267 -23.217575 4294967295
-39.563091 28.608181 -22.88949 4294967295
-39.558155 29.848747 -23.037664 4294967295
-39.555931 30.933487 -23.183159 4294967295
-39.55085 31.244543 -23.190962 4294967295
-39.525032 31.09647 -22.971781 4294967295
-39.500099 25.332199 -23.112066 4294967295
-39.487289 25.954334 -23.107618 4294967295
-39.485546 26.419382 -23.163961 4294967295
-39.462761 26.888834 -23.060686 4294967295
-39.45776 26.734962 -22.999554 4294967295
-39.456924 27.97439 -23.178705 4294967295
-39.45295 25.651237 -22.800701 4294967295
-39.452751 27.820435 -23.123888 4294967295
-39.444012 27.357615 -22.988056 4294967295
-39.443687 26.273006 -22.823244 4294967295
-39.442535 28.287424 -23.115973 4294967295
-39.429798 29.839212 -23.251181 4294967295
-39.4277 30.459122 -23.327967 4294967295
-39.425823 29.065796 -23.105154 4294967295
-39.420879 30.306009 -23.253103 4294967295
-39.420059 27.207827 -22.783207 4294967295
-39.41489 29.223309 -23.045475 4294967295
-39.403545 29.535877 -23.005842 4294967295
-39.362713 31.095465 -22.928207 4294967295
-39.314945 27.503876 -23.21891 4294967295
-39.283241 29.059883 -23.210566 4294967295
-39.28178 27.975916 -23.037378 4294967295
-39.273235 25.808039 -22.648243 4294967295
-39.269596 29.682684 -23.199926 4294967295
-39.235126 30.155922 -23.008661 4294967295
-39.231022 28.917294 -22.792263 4294967295
-39.22747 29.383068 -22.834908 4294967295
-39.225334 30.468248 -22.980906 4294967295
-39.204063 31.403364 -22.958998 4294967295
-39.18589 26.411219 -23.26404 4294967295
-39.17865 26.567591 -23.232471 4294967295
-39.169331 27.034203 -23.231483 4294967295
-39.166004 25.485661 -22.974901 4294967295
-39.165977 27.189804 -23.229284 4294967295
-39.159733 26.106695 -23.020094 4294967295
-39.158501 26.261883 -23.033943 4294967295
-39.148766 25.643976 -22.867748 4294967295
-39.133286 26.88689 -22.936003 4294967295
-39.121796 30.452242 -23.381355 4294967295
-39.120323 28.284231 -23.046392 4294967295
-39.110783 27.976494 -22.928015 4294967295
-39.109665 29.526043 -23.151003 4294967295
-39.106789 31.075462 -23.360588 4294967295
-39.105659 30.301466 -23.236418 4294967295
-39.104702 28.752628 -22.997839 4294967295
-39.101372 29.992767 -23.157778 4294967295
-39.100792 27.513762 -22.783106 4294967295
-39.087135 29.841375 -23.027168 4294967295
-39.084694 29.68704 -22.985584 4294967295
-39.078102 29.068792 -22.843243 4294967295
-39.076672 31.393116 -23.179525 4294967295
-39.06805 30.775745 -23.02191 4294967295
-38.985012 25.332596 -22.767008 4294967295
-38.978333 27.6586 -23.063587 4294967295
-38.9641 26.576836 -22.794363 4294967295
-38.962574 26.732155 -22.805994 4294967295
-38.950512 27.354713 -22.807568 4294967295
-38.948677 27.200102 -22.77059 4294967295
-38.917892 28.136969 -22.677286 4294967295
-38.909378 29.224051 -22.775017 4294967295
-38.899063 31.241247 -22.997885 4294967295
-38.868847 25.322119 -23.071207 4294967295
-38.855431 25.789566 -23.039534 4294967295
-38.84082 26.257351 -22.998861 4294967295
-38.838463 27.80719 -23.212107 4294967295
-38.833946 26.568678 -22.993315 4294967295
-38.830696 28.118729 -23.199848 4294967295
-38.81464 25.952597 -22.755539 4294967295
-38.812016 25.487997 -22.666407 4294967295
-38.811459 29.052589 -23.193691 4294967295
-38.80629 29.363626 -23.20097 4294967295
-38.805897 26.884464 -22.828409 4294967295
-38.803207 27.350027 -22.877483 4294967295
-38.799656 28.280659 -22.989388 4294967295
-38.78968 28.592857 -22.960545 4294967295
-38.789162 27.043001 -22.725536 4294967295
-38.787498 29.987827 -23.152012 4294967295
-38.781502 27.974768 -22.80657 4294967295
-38.778912 27.200212 -22.671513 4294967295
-38.771061 27.667028 -22.681768 4294967295
-38.768242 30.922163 -23.145725 4294967295
-38.766438 30.14798 -23.016687 4294967295
-38.763412 30.61356 -23.063227 4294967295
-38.760521 29.684553 -22.902895 4294967295
-38.748257 29.532536 -22.787537 4294967295
-38.738338 31.084854 -22.943968 4294967295
-38.69722 25.167227 -22.934462 4294967295
-38.692661 25.943003 -23.015667 4294967295
-38.66901 28.581978 -23.230328 4294967295
-38.657345 30.288475 -23.396463 4294967295
-38.653671 26.415804 -22.791967 4294967295
-38.646358 25.642029 -22.621515 4294967295
-38.64016 31.376854 -23.428919 4294967295
-38.637272 29.518942 -23.130459 4294967295
-38.630726 28.900711 -22.988998 4294967295
-38.625393 30.761198 -23.225843 4294967295
-38.613224 29.214779 -22.903753 4294967295
-38.60358 28.131889 -22.669691 4294967295
-38.603371 28.442019 -22.714315 4294967295
-38.579536 29.687885 -22.720074 4294967295
-38.571106 31.085085 -22.864552 4294967295
-38.540405 25.629457 -23.001698 4294967295
-38.539394 25.474667 -22.971045 4294967295
-38.530445 26.096352 -22.996199 4294967295
-38.530338 26.406321 -23.041521 4294967295
-38.526642 26.562042 -23.03686 4294967295
-38.526184 27.646767 -23.194838 4294967295
-38.525299 27.027203 -23.095984 4294967295
-38.50106 28.117128 -23.075666 4294967295
-38.496609 29.047783 -23.18062 4294967295
-38.495697 27.188435 -22.897072 4294967295
-38.495136 25.793276 -22.685226 4294967295
-38.494957 28.428411 -23.076014 4294967295
-38.492424 29.513533 -23.218412 4294967295
-38.491962 29.823458 -23.261059 4294967295
-38.4883 28.739841 -23.072235 4294967295
-38.487556 30.908747 -23.389351 4294967295
-38.483349 27.811102 -22.896763 4294967295
-38.478371 30.446434 -23.25139 4294967295
-38.474758 28.897943 -22.993814 4294967295
-38.471199 27.348677 -22.736471 4294967295
-38.467537 31.37858 -23.308493 4294967295
-38.460922 29.676075 -23.005402 4294967295
-38.459911 29.366373 -22.951714 4294967295
-38.453026 28.282907 -22.73867 4294967295
-38.449913 30.298639 -23.015127 4294967295
-38.438519 30.766407 -22.998926 4294967295
-38.437008 29.21681 -22.757019 4294967295
-38.428902 31.23378 -22.996065 4294967295
-38.345482 26.099249 -22.783627 4294967295
-38.314167 27.656155 -22.779774 4294967295
-38.288204 29.832384 -22.908167 4294967295
-38.274105 28.905561 -22.66445 4294967295
-38.239723 25.621525 -23.094685 4294967295
-38.224121 25.469526 -22.955088 4294967295
-38.222454 26.864691 -23.149805 4294967295
-38.218239 25.935677 -22.980209 4294967295
-38.202362 25.318624 -22.769453 4294967295
-38.201256 26.404079 -22.922401 4294967295
-38.19379 26.71563 -22.91267 4294967295
-38.186245 28.112186 -23.063503 4294967295
-38.181435 25.787832 -22.682169 4294967295
-38.179848 27.183592 -22.877615 4294967295
-38.171623 29.510183 -23.161444 4294967295
-38.171379 27.805483 -22.906448 4294967295
-38.169353 28.425941 -22.983416 4294967295
-38.165512 29.97648 -23.184874 4294967295
-38.164753 28.58198 -22.972082 4294967295
-38.158745 29.358295 -23.042305 4294967295
-38.157738 27.498379 -22.758507 4294967295
-38.155277 29.669067 -23.062458 4294967295
-38.153591 28.894543 -22.934765 4294967295
-38.140388 29.827652 -22.974304 4294967295
-38.139526 31.377453 -23.197996 4294967295
-38.138031 30.448149 -23.048777 4294967295
-38.129757 30.915146 -23.056061 4294967295
-38.126152 31.226 -23.075184 4294967295
-38.120865 30.142439 -22.874622 4294967295
-38.036434 26.86808 -22.930277 4294967295
-38.028473 26.09449 -22.755852 4294967295
-38.023182 26.56073 -22.78545 4294967295
-38.006187 30.43939 -23.233704 4294967295
-38.001518 27.185469 -22.71595 4294967295
-37.996418 27.961864 -22.792982 4294967295
-37.982101 28.585268 -22.778301 4294967295
-37.962765 29.520077 -22.772243 4294967295
-37.922699 25.461737 -23.042782 4294967295
-37.888546 27.793499 -23.133265 4294967295
-37.878513 27.640694 -23.035641 4294967295
-37.872429 25.626379 -22.691544 4294967295
-37.869862 25.316671 -22.626446 4294967295
-37.866814 26.712999 -22.810703 4294967295
-37.863018 26.558712 -22.759447 4294967295
-37.857841 26.869907 -22.766909 4294967295
-37.856304 25.939699 -22.617521 4294967295
-37.855736 30.280371 -23.256737 4294967295
-37.853626 28.111172 -22.919428 4294967295
-37.847748 26.406712 -22.622824 4294967295
-37.845387 30.902691 -23.271648 4294967295
-37.843029 28.733646 -22.932514 4294967295
-37.842255 30.748556 -23.225391 4294967295
-37.838154 27.959545 -22.781342 4294967295
-37.837452 29.974957 -23.074854 4294967295
-37.830914 28.89146 -22.86537 4294967295
-37.822212 29.20356 -22.846638 4294967295
-37.821041 31.218838 -23.13657 4294967295
-37.81279 30.446022 -22.960382 4294967295
-37.810467 28.430937 -22.644333 4294967295
-37.791813 31.071392 -22.896313 4294967295
-37.78986 29.366251 -22.62899 4294967295
-37.732525 26.86072 -23.000017 4294967295
-37.731052 25.155445 -22.736433 4294967295
-37.72773 26.396606 -22.895512 4294967295
-65.721764 32.327961 -25.943726 4294967295
-65.721573 31.869644 -25.856712 4294967295
-65.705978 32.181606 -25.739603 4294967295
-65.705605 31.723204 -25.650537 4294967295
-65.704483 32.487885 -25.779518 4294967295
-65.695915 32.032841 -25.599182 4294967295
-65.691391 32.798996 -25.690256 4294967295
-65.56543 31.562635 -25.770439 4294967295
-65.526352 32.648548 -25.534101 4294967295
-65.403908 32.633301 -25.87887 4294967295
-65.402184 31.869802 -25.718803 4294967295
-65.382263 32.183586 -25.554556 4294967295
-65.381653 32.489624 -25.604151 4294967295
-65.374252 32.798458 -25.578655 4294967295
-65.369362 32.035873 -25.3834 4294967295
-65.261139 32.320892 -25.941175 4294967295
-65.260719 31.862585 -25.852039 4294967295
-65.257721 31.558067 -25.762619 4294967295
-65.084564 32.17498 -25.658808 4294967295
-65.082497 32.634468 -25.720362 4294967295
-65.073456 32.026531 -25.508274 4294967295
-64.950012 31.553471 -25.755548 4294967295
-64.933907 31.712692 -25.606585 4294967295
-64.918633 32.789223 -25.635303 4294967295
-64.795586 32.010033 -25.830029 4294967295
-64.761765 32.329403 -25.515476 4294967295
-64.645973 31.547424 -25.789169 4294967295
-64.641853 32.466297 -25.912006 4294967295
-64.639305 32.161591 -25.828281 4294967295
-64.634636 32.010563 -25.749228 4294967295
-64.630714 31.706285 -25.650434 4294967295
-64.629051 32.777237 -25.828136 4294967295
-64.616486 31.864817 -25.522896 4294967295
-64.61042 32.631958 -25.596632 4294967295
-64.324875 31.700901 -25.665653 4294967295
-64.320358 32.773113 -25.811766 4294967295
-64.318283 32.468151 -25.733427 4294967295
-64.312393 31.85873 -25.557838 4294967295
-64.300339 32.322407 -25.510597 4294967295
-64.295868 32.018211 -25.406183 4294967295
-64.293716 32.172062 -25.410666 4294967295
-64.183548 31.693705 -25.799065 4294967295
-64.180367 32.45945 -25.90382 4294967295
-64.154892 32.775562 -25.683449 4294967295
-64.149765 31.553806 -25.404966 4294967295
-64.020439 32.000843 -25.752024 4294967295
-64.019547 31.542347 -25.659002 4294967295
-64.015335 32.461643 -25.78027 4294967295
-64.008125 32.617466 -25.730204 4294967295
-64.002991 32.772476 -25.702477 4294967295
-63.993301 32.16449 -25.486506 4294967295
-63.853428 32.003662 -25.607981 4294967295
-63.711395 31.996704 -25.733431 4294967295
-63.711109 32.149765 -25.75807 4294967295
-63.709358 31.538582 -25.62833 4294967295
-63.706661 32.304466 -25.737967 4294967295
-63.689735 32.617134 -25.61145 4294967295
-63.68182 31.855207 -25.387693 4294967295
-63.672855 32.77692 -25.457737 4294967295
-63.529526 31.546112 -25.348064 4294967295
-63.409653 31.836742 -25.766033 4294967295
-63.398376 31.688089 -25.617785 4294967295
-63.39463 32.30151 -25.688288 4294967295
-63.389999 32.609295 -25.694078 4294967295
-63.387505 31.998297 -25.556814 4294967295
-63.385059 32.764248 -25.668896 4294967295
-63.370312 32.158024 -25.400612 4294967295
-63.261501 31.679234 -25.79759 4294967295
-63.247131 32.449638 -25.782309 4294967295
-63.206562 32.618725 -25.377291 4294967295
-63.09267 32.44754 -25.774448 4294967295
-63.084721 31.685595 -25.552078 4294967295
-63.082062 32.298714 -25.634041 4294967295
-63.081547 32.604923 -25.683681 4294967295
-63.076214 32.76004 -25.654524 4294967295
-63.076153 31.841909 -25.488512 4294967295
-62.953323 31.674677 -25.789534 4294967295
-62.94413 32.290142 -25.802031 4294967295
-62.915039 31.536116 -25.355804 4294967295
-62.907211 31.84528 -25.32785 4294967295
-62.773521 31.529053 -25.486202 4294967295
-62.772018 31.835752 -25.525236 4294967295
-62.768623 32.602283 -25.626703 4294967295
-62.760704 32.146225 -25.460508 4294967295
-62.756382 31.994808 -25.387304 4294967295
-62.742428 32.765701 -25.377094 4294967295
-62.626556 32.595287 -25.750549 4294967295
-62.59972 31.534111 -25.275272 4294967295
-62.467159 32.44207 -25.66416 4294967295
-62.466366 32.289337 -25.62842 4294967295
-62.462536 31.525434 -25.451107 4294967295
-62.46051 32.750748 -25.648972 4294967295
-62.450375 31.989332 -25.405294 4294967295
-62.302696 31.831459 -25.44301 4294967295
-62.286976 32.296803 -25.360071 4294967295
-62.13105 32.142044 -25.311617 4294967295
-62.12178 32.4519 -25.269255 4294967295
-62.013359 32.431923 -25.744598 4294967295
-61.997185 31.978884 -25.493904 4294967295
-61.996391 32.13229 -25.51289 4294967295
-61.981911 32.597191 -25.443501 4294967295
-61.978401 31.832832 -25.270454 4294967295
-61.977734 31.526733 -25.208883 4294967295
-61.816818 31.986464 -25.218197 4294967295
-61.693649 31.97245 -25.538265 4294967295
-61.676197 31.519505 -25.275362 4294967295
-61.664562 32.289761 -25.290527 4294967295
-61.657333 32.445709 -25.242661 4294967295
-61.549702 32.119389 -25.668697 4294967295
-61.396233 32.422997 -25.727348 4294967295
-61.385544 31.967722 -25.535547 4294967295
-61.384888 32.27422 -25.583006 4294967295
-61.372463 31.513084 -25.318998 4294967295
-61.356342 31.825443 -25.206636 4294967295
-61.350067 32.59383 -25.27746 4294967295
-61.058514 32.276398 -25.392984 4294967295
-61.056477 31.511127 -25.236782 4294967295
-61.056171 31.81768 -25.287731 4294967295
-61.034889 32.745003 -25.231255 4294967295
-61.03463 31.672375 -25.039206 4294967295
-60.927525 32.11219 -25.602095 4294967295
-60.922031 31.501564 -25.437723 4294967295
-60.882359 31.822556 -25.084854 4294967295
-60.773499 31.95665 -25.574568 4294967295
-60.759315 31.808706 -25.402521 4294967295
-60.744556 31.660894 -25.224546 4294967295
-60.737942 32.735954 -25.345716 4294967295
-60.733227 32.431309 -25.243536 4294967295
-60.725388 32.127747 -25.109407 4294967295
-60.459396 31.494465 -25.431742 4294967295
-60.455185 32.262001 -25.523325 4294967295
-60.443073 32.113308 -25.373184 4294967295
-60.441643 32.573479 -25.439314 4294967295
-60.434574 31.809958 -25.232891 4294967295
-60.43145 31.657829 -25.174204 4294967295
-60.430248 32.424561 -25.296452 4294967295
-60.251846 32.431278 -25.049768 4294967295
-60.133152 31.64937 -25.274872 4294967295
-60.131565 32.262966 -25.366104 4294967295
-60.131451 31.956514 -25.311285 4294967295
-60.126167 32.724697 -25.391884 4294967295
-60.11293 31.503357 -25.043283 4294967295
-60.104179 32.119827 -25.061998 4294967295
-59.981869 32.565388 -25.46418 4294967295
-59.840218 32.405132 -25.562819 4294967295
-59.827053 31.950275 -25.350004 4294967295
-59.824348 32.257786 -25.376245 4294967295
-59.814518 31.648239 -25.170221 4294967295
-59.812588 32.568684 -25.311245 4294967295
-59.784805 31.812305 -24.897606 4294967295
-59.501251 32.258423 -25.227703 4294967295
-59.500175 32.718716 -25.296915 4294967295
-59.497269 31.646551 -25.081078 4294967295
-59.353291 31.487127 -25.156836 4294967295
-59.322929 32.571598 -25.039799 4294967295
-59.315681 32.114124 -24.887377 4294967295
-59.212879 32.246284 -25.427492 4294967295
-59.206474 31.788715 -25.28385 4294967295
-59.193932 31.63986 -25.132114 4294967295
-59.185665 32.716228 -25.235909 4294967295
-59.178822 32.105377 -25.061226 4294967295
-59.175739 31.953115 -25.003895 4294967295
-59.173706 32.413979 -25.063431 4294967295
-59.055683 31.78507 -25.317776 4294967295
-59.038311 32.097977 -25.198061 4294967295
-58.871071 31.946873 -25.042543 4294967295
-58.868614 31.487528 -24.938551 4294967295
-58.860947 32.564102 -25.048248 4294967295
-58.854218 32.259769 -24.928381 4294967295
-58.747978 32.23991 -25.404408 4294967295
-58.728893 31.940111 -25.162518 4294967295
-58.728447 31.633516 -25.105095 4294967295
-58.713451 32.405827 -25.089123 4294967295
-58.430294 31.624977 -25.207893 4294967295
-58.417862 32.549648 -25.243959 4294967295
-58.410069 32.245724 -25.114342 4294967295
-58.401257 31.942055 -24.974691 4294967295
-58.379143 32.103413 -24.78331 4294967295
-58.102783 31.626711 -25.022436 4294967295
-58.102501 32.700703 -25.204144 4294967295
-58.090916 32.551529 -25.064268 4294967295
-58.086964 32.399532 -24.999155 4294967295
-58.081612 31.941076 -24.867632 4294967295
-57.952705 32.236469 -25.169621 4294967295
-57.804886 32.23172 -25.233366 4294967295
-57.792786 32.542889 -25.167908 4294967295
-57.784691 32.085487 -25.010096 4294967295
-57.780003 31.933678 -24.938078 4294967295
-57.773617 32.703285 -25.007235 4294967295
-57.764103 31.785765 -24.756681 4294967295
-57.756199 31.481434 -24.626966 4294967295
-57.752285 32.404041 -24.746601 4294967295
-57.595829 32.555874 -24.753614 4294967295
-57.489933 31.922239 -25.120392 4294967295
-57.4837 31.770958 -25.033689 4294967295
-57.472 32.082012 -24.972557 4294967295
