# .PCD v0.7 - Point Cloud Data file format
VERSION 0.7
FIELDS x y z rgb
SIZE 4 4 4 4
TYPE F F F U
COUNT 1 1 1 1
WIDTH 1147
HEIGHT 1
VIEWPOINT 0 0 0 1 0 0 0
POINTS 1147
DATA ascii
203.22047 112.2505 -37.343716 4294967295
203.26402 113.047 -36.606285 4294967295
203.45663 112.6598 -36.932648 4294967295
203.59146 113.04012 -36.70652 4294967295
203.60095 112.59998 -37.366295 4294967295
203.79849 112.99827 -37.026215 4294967295
203.98065 112.94929 -37.390606 4294967295
203.99678 112.61295 -37.341427 4294967295
176.43192 122.366 -29.642326 4294967295
176.64462 121.63837 -29.93124 4294967295
176.72267 122.00591 -29.79484 4294967295
176.74104 122.35293 -29.778267 4294967295
176.93271 121.27764 -30.088791 4294967295
176.98106 121.6348 -30.012089 4294967295
177.01897 122.32907 -29.976692 4294967295
177.06982 122.00602 -29.854401 4294967295
177.27992 121.27775 -30.147991 4294967295
177.38751 120.63325 -29.891924 4294967295
177.41699 122.34679 -29.934416 4294967295
177.43233 122.01138 -29.883369 4294967295
177.45207 121.67747 -29.823521 4294967295
177.61565 120.25219 -30.169418 4294967295
177.64026 120.94173 -30.160789 4294967295
177.64804 121.28499 -30.165535 4294967295
177.74933 122.34176 -30.023836 4294967295
177.99231 121.62466 -30.251196 4294967295
178.00636 120.26691 -30.141958 4294967295
178.02698 121.29589 -30.161642 4294967295
178.03464 120.95783 -30.12608 4294967295
178.07944 122.33594 -30.117714 4294967295
178.24101 120.22885 -30.426228 4294967295
178.26424 119.55551 -30.339314 4294967295
178.34244 120.94447 -30.264355 4294967295
178.38776 121.64127 -30.214535 4294967295
178.42143 122.33424 -30.187885 4294967295
178.45229 122.00414 -30.106045 4294967295
178.49205 119.17493 -30.616594 4294967295
178.60831 119.55441 -30.405151 4294967295
178.64191 120.92824 -30.419235 4294967295
178.64738 119.90816 -30.347504 4294967295
178.65756 121.2742 -30.408302 4294967295
178.69835 120.60673 -30.286461 4294967295
178.72243 122.31841 -30.339869 4294967295
178.72641 121.63837 -30.291418 4294967295
178.73859 121.98325 -30.287361 4294967295
178.85472 119.86108 -30.685675 4294967295
178.88667 119.53127 -30.601826 4294967295
178.88766 120.21272 -30.640358 4294967295
178.89847 118.85406 -30.537815 4294967295
178.9007 120.55768 -30.634651 4294967295
178.92673 120.90706 -30.603149 4294967295
178.98293 119.22286 -30.389952 4294967295
179.02739 121.28194 -30.423016 4294967295
179.04794 121.62964 -30.402351 4294967295
179.08173 122.32265 -30.375664 4294967295
179.14864 118.48119 -30.770153 4294967295
179.19775 118.83804 -30.692713 4294967295
179.22285 119.18696 -30.663082 4294967295
179.26407 118.17881 -30.520344 4294967295
179.29524 120.57368 -30.600117 4294967295
179.30345 120.23579 -30.56358 4294967295
179.30716 121.59962 -30.637188 4294967295
179.3428 119.90837 -30.465044 4294967295
179.36499 120.93796 -30.48172 4294967295
179.37677 121.96409 -30.519085 4294967295
179.38466 121.28536 -30.462883 4294967295
179.40036 122.31288 -30.492432 4294967295
179.49448 117.79956 -30.791834 4294967295
179.51959 118.48895 -30.782463 4294967295
179.52602 118.83163 -30.789898 4294967295
179.55273 119.18108 -30.757086 4294967295
179.56888 118.16464 -30.664301 4294967295
179.58606 120.89521 -30.79216 4294967295
179.59332 119.53524 -30.696716 4294967295
179.62206 120.56677 -30.700409 4294967295
179.65166 121.59875 -30.702408 4294967295
179.67709 121.94808 -30.672131 4294967295
179.68115 120.24603 -30.562794 4294967295
179.6911 119.90864 -30.522789 4294967295
179.75172 121.29208 -30.483473 4294967295
179.82167 117.11172 -30.850594 4294967295
179.8291 118.81688 -30.937077 4294967295
179.83398 118.47796 -30.907143 4294967295
179.84753 118.14187 -30.86005 4294967295
179.85303 117.80312 -30.828909 4294967295
179.87523 119.17276 -30.865833 4294967295
179.95811 121.24426 -30.822861 4294967295
179.97154 120.56751 -30.755733 4294967295
180.00439 121.60065 -30.751366 4294967295
180.0119 119.55897 -30.614943 4294967295
180.02324 120.2442 -30.63298 4294967295
180.02824 120.92735 -30.663555 4294967295
180.05086 117.07303 -31.144081 4294967295
180.06744 116.73795 -31.091002 4294967295
180.09024 121.97066 -30.601355 4294967295
180.18054 117.79644 -30.927643 4294967295
180.18323 117.45675 -30.902054 4294967295
180.21835 119.51187 -30.953928 4294967295
180.224 118.15133 -30.861736 4294967295
180.2305 119.17533 -30.909586 4294967295
180.24036 118.49735 -30.849613 4294967295
180.27138 118.84825 -30.808403 4294967295
180.28883 119.87606 -30.834488 4294967295
180.34549 122.27995 -30.863934 4294967295
180.37944 120.58788 -30.695515 4294967295
180.40236 116.73375 -31.17486 4294967295
180.43153 121.62784 -30.653065 4294967295
180.44089 121.97181 -30.654751 4294967295
180.47377 116.41633 -31.013313 4294967295
180.47473 118.11942 -31.112543 4294967295
180.47626 117.77937 -31.089325 4294967295
180.51216 119.15343 -31.09914 4294967295
180.52283 118.81638 -31.057837 4294967295
180.52437 117.45453 -30.973846 4294967295
180.54805 118.48413 -30.987665 4294967295
180.57095 120.19482 -31.04348 4294967295
180.57457 120.53663 -31.056595 4294967295
180.61293 119.86822 -30.940231 4294967295
180.64362 120.90054 -30.940212 4294967295
180.68661 121.5965 -30.895592 4294967295
180.70187 122.28313 -30.905888 4294967295
180.70847 121.26318 -30.832134 4294967295
180.71664 121.94744 -30.856449 4294967295
180.76051 117.07755 -31.233017 4294967295
180.78764 117.76745 -31.219812 4294967295
180.79843 116.0682 -31.097385 4294967295
180.83356 116.4201 -31.048216 4294967295
180.85175 119.49135 -31.194214 4294967295
180.87044 117.45392 -31.03598 4294967295
180.88943 118.14141 -31.038836 4294967295
180.89572 119.16538 -31.087072 4294967295
180.93994 118.49866 -30.959284 4294967295
180.95367 120.20663 -31.033253 4294967295
180.96152 120.54994 -31.037956 4294967295
181.00821 121.92849 -31.026615 4294967295
181.01003 115.34338 -31.384548 4294967295
181.01123 116.36511 -31.442822 4294967295
181.01254 120.90781 -30.957375 4294967295
181.0135 119.88594 -30.894777 4294967295
181.0183 121.2505 -30.966261 4294967295
181.02057 122.27341 -31.022419 4294967295
181.02602 116.71033 -31.433823 4294967295
181.03693 115.69245 -31.351641 4294967295
181.07849 116.04629 -31.289778 4294967295
181.08762 117.07079 -31.332382 4294967295
181.14127 118.45045 -31.307316 4294967295
181.19463 117.44617 -31.141378 4294967295
181.20322 118.13023 -31.164852 4294967295
181.23337 117.79945 -31.085075 4294967295
181.23604 118.8223 -31.140455 4294967295
181.26556 119.17272 -31.102406 4294967295
181.27184 121.55943 -31.231558 4294967295
181.27351 114.97594 -31.589067 4294967295
181.2942 120.20431 -31.106525 4294967295
181.30907 120.89067 -31.117643 4294967295
181.31818 120.55302 -31.079472 4294967295
181.33136 116.35611 -31.555792 4294967295
181.36572 121.93199 -31.066494 4294967295
181.37949 122.27743 -31.059563 4294967295
181.38338 116.03236 -31.432997 4294967295
181.38573 121.25727 -30.986582 4294967295
181.3896 115.69387 -31.400496 4294967295
181.40424 115.35802 -31.35145 4294967295
181.41579 116.72385 -31.409475 4294967295
181.41956 117.40611 -31.442444 4294967295
181.45445 118.09854 -31.414095 4294967295
181.48849 117.08796 -31.286303 4294967295
181.50024 117.77296 -31.303566 4294967295
181.55573 120.17554 -31.335667 4294967295
181.56355 118.47497 -31.21912 4294967295
181.61407 119.85437 -31.200365 4294967295
181.61559 119.17349 -31.156996 4294967295
181.616 114.63369 -31.637655 4294967295
181.62852 120.54057 -31.212372 4294967295
181.64749 116.00542 -31.656376 4294967295
181.65286 119.52656 -31.103683 4294967295
181.67958 120.89845 -31.131924 4294967295
181.68027 114.99449 -31.531242 4294967295
181.68764 116.35877 -31.597498 4294967295
181.69104 121.24305 -31.129551 4294967295
181.72026 117.39076 -31.593849 4294967295
181.73764 115.35326 -31.438404 4294967295
181.75003 121.60377 -31.033516 4294967295
181.79237 117.07362 -31.431631 4294967295
181.81393 116.74001 -31.368961 4294967295
181.83858 117.76982 -31.381039 4294967295
181.9039 120.85705 -31.434219 4294967295
181.90543 119.15433 -31.330208 4294967295
181.91524 120.17956 -31.371519 4294967295
181.91942 120.52161 -31.383476 4294967295
181.91969 118.13699 -31.241476 4294967295
181.93266 119.50403 -31.296791 4294967295
181.94675 118.82728 -31.228647 4294967295
181.94742 114.96873 -31.748501 4294967295
181.94843 118.48711 -31.205095 4294967295
181.9772 121.56309 -31.330324 4294967295
181.99731 121.22917 -31.270523 4294967295
182.03389 115.33666 -31.598541 4294967295
182.07651 116.37186 -31.575285 4294967295
182.09552 117.05908 -31.57826 4294967295
182.09814 116.03825 -31.512518 4294967295
182.10588 116.72189 -31.537689 4294967295
182.11772 122.29231 -31.094143 4294967295
182.13052 121.95583 -31.048725 4294967295
182.15346 117.75905 -31.504665 4294967295
182.18129 117.42746 -31.429758 4294967295
182.1947 119.47564 -31.524515 4294967295
182.21364 118.45996 -31.426685 4294967295
182.23309 120.16965 -31.489449 4294967295
182.24361 118.81049 -31.387947 4294967295
182.24823 120.85602 -31.500078 4294967295
182.27681 119.16212 -31.342899 4294967295
182.2836 119.8458 -31.369894 4294967295
182.29126 113.60548 -31.734016 4294967295
182.29996 114.97006 -31.797634 4294967295
182.30446 115.31194 -31.808973 4294967295
182.30763 121.89808 -31.443867 4294967295
182.3078 115.65345 -31.822569 4294967295
182.34215 114.64293 -31.69455 4294967295
182.35356 122.25439 -31.373734 4294967295
182.3752 122.60252 -31.351437 4294967295
182.37657 116.35641 -31.727829 4294967295
182.38966 120.56268 -31.201771 4294967295
182.45322 117.06219 -31.617609 4294967295
182.49016 118.09598 -31.605585 4294967295
182.49084 117.75558 -31.584074 4294967295
182.50392 113.22269 -32.037731 4294967295
182.50569 119.12289 -31.635633 4294967295
182.50639 116.73874 -31.49295 4294967295
182.52432 113.5694 -32.017815 4294967295
182.58737 114.61033 -31.95462 4294967295
182.59766 118.47179 -31.414618 4294967295
182.60764 120.86002 -31.536411 4294967295
182.62538 120.18456 -31.461142 4294967295
182.62967 118.82303 -31.371944 4294967295
182.63567 115.64694 -31.920267 4294967295
182.6394 114.28627 -31.832272 4294967295
182.66591 115.31609 -31.840767 4294967295
182.68712 120.5459 -31.360104 4294967295
182.69107 121.56956 -31.412907 4294967295
182.71645 121.91889 -31.383312 4294967295
182.73212 116.6993 -31.791534 4294967295
182.73409 116.01884 -31.747313 4294967295
182.74557 116.36308 -31.744991 4294967295
182.74823 122.2705 -31.341095 4294967295
182.76611 117.0508 -31.745007 4294967295
182.8078 118.08608 -31.723764 4294967295
182.80995 117.74619 -31.699339 4294967295
182.82402 117.41015 -31.651585 4294967295
182.83467 118.77611 -31.71138 4294967295
182.86009 119.46573 -31.701921 4294967295
182.88399 118.45162 -31.594437 4294967295
182.90071 113.23761 -32.000015 4294967295
182.90099 120.50124 -31.682241 4294967295
182.90179 113.57838 -32.018059 4294967295
182.9147 119.14308 -31.574541 4294967295
182.94833 119.83562 -31.548944 4294967295
182.95596 121.54171 -31.634951 4294967295
182.98196 115.98676 -32.00209 4294967295
182.99672 114.289 -31.872255 4294967295
183.01405 114.63496 -31.858511 4294967295
183.01624 115.31669 -31.894547 4294967295
183.01869 115.65797 -31.90991 4294967295
183.02115 121.22292 -31.486893 4294967295
183.02647 120.20232 -31.415916 4294967295
183.03056 121.90765 -31.508852 4294967295
183.06023 116.35229 -31.868858 4294967295
183.08388 116.70044 -31.842649 4294967295
183.09407 117.04431 -31.842855 4294967295
183.12265 118.0753 -31.847374 4294967295
183.17621 117.75211 -31.722202 4294967295
183.21021 113.56583 -32.153801 4294967295
183.21101 119.12612 -31.734745 4294967295
183.21126 113.22574 -32.131584 4294967295
183.21768 118.44695 -31.681345 4294967295
183.222 114.25031 -32.17099 4294967295
183.24113 118.79533 -31.655537 4294967295
183.26169 121.18699 -31.756506 4294967295
183.28929 120.1741 -31.641846 4294967295
183.29114 115.2934 -32.096088 4294967295
183.29829 113.93374 -32.001461 4294967295
183.30197 120.51907 -31.637234 4294967295
183.31099 115.64017 -32.077408 4294967295
183.31108 114.95922 -32.036926 4294967295
183.31494 119.84186 -31.571478 4294967295
183.31979 120.86575 -31.622528 4294967295
183.36223 116.33749 -32.017426 4294967295
183.37076 121.56441 -31.563025 4294967295
183.37578 121.90689 -31.573406 4294967295
183.41492 117.37606 -31.974787 4294967295
183.44525 116.02345 -31.834732 4294967295
183.46201 118.75368 -31.963274 4294967295
183.48387 122.28432 -31.381859 4294967295
183.48694 118.08061 -31.874149 4294967295
183.49582 117.06156 -31.796219 4294967295
183.50777 119.10931 -31.893887 4294967295
183.51022 119.45075 -31.909248 4294967295
183.54883 119.80415 -31.853863 4294967295
183.55019 117.76049 -31.730171 4294967295
183.56598 114.58928 -32.257233 4294967295
183.59352 113.91704 -32.163071 4294967295
183.59538 113.57716 -32.139263 4294967295
183.59804 113.2375 -32.113911 4294967295
183.61021 121.18734 -31.814455 4294967295
183.64317 114.27303 -32.086082 4294967295
183.64819 115.29611 -32.136761 4294967295
183.68356 121.89351 -31.711287 4294967295
183.69524 114.97046 -32.024567 4294967295
183.70395 120.87796 -31.610844 4294967295
183.71861 116.34007 -32.059544 4294967295
183.72954 116.003 -32.018059 4294967295
183.75035 117.37196 -32.057983 4294967295
183.75084 122.25705 -31.599838 4294967295
183.76259 117.03535 -32.013855 4294967295
183.77654 116.69922 -31.966442 4294967295
183.77901 118.06242 -32.042267 4294967295
183.78839 122.61065 -31.546562 4294967295
183.82652 118.4185 -31.969543 4294967295
183.83287 117.73928 -31.916803 4294967295
183.85213 118.76752 -31.939688 4294967295
183.87721 119.79776 -31.951151 4294967295
183.89104 119.12096 -31.883759 4294967295
183.90259 114.58553 -32.337799 4294967295
183.90773 113.90627 -32.287445 4294967295
183.9265 113.23117 -32.210457 4294967295
183.93048 119.47463 -31.826853 4294967295
183.93939 113.57566 -32.205452 4294967295
183.94566 120.16112 -31.837498 4294967295
183.95105 114.26025 -32.222988 4294967295
183.95877 120.50622 -31.832073 4294967295
183.96271 114.94489 -32.240524 4294967295
183.98648 121.19698 -31.818249 4294967295
183.99561 115.29578 -32.196442 4294967295
184.0119 122.22784 -31.829079 4294967295
184.02667 122.57362 -31.820417 4294967295
184.0392 121.89626 -31.755545 4294967295
184.04771 117.01504 -32.195404 4294967295
184.0506 115.9943 -32.129295 4294967295
184.07272 116.6825 -32.126427 4294967295
184.08401 115.66433 -32.043846 4294967295
184.09688 118.05262 -32.159878 4294967295
184.12804 118.74395 -32.139347 4294967295
184.16275 117.39269 -31.990923 4294967295
184.18901 113.20444 -32.435776 4294967295
184.19319 119.4466 -32.052433 4294967295
184.1973 117.74453 -31.943621 4294967295
184.22641 119.11684 -31.967438 4294967295
184.23738 113.90031 -32.381683 4294967295
184.26517 119.81103 -31.932051 4294967295
184.26939 113.56979 -32.299042 4294967295
184.2735 121.51743 -32.016628 4294967295
184.27487 114.25248 -32.328655 4294967295
184.28371 114.59573 -32.331551 4294967295
184.28752 120.15917 -31.908638 4294967295
184.30385 121.86835 -31.977573 4294967295
184.31233 115.28573 -32.316002 4294967295
184.31369 121.19016 -31.918036 4294967295
184.31458 120.50891 -31.875998 4294967295
184.36339 122.57001 -31.901667 4294967295
184.3705 116.66632 -32.283157 4294967295
184.38962 115.99131 -32.205521 4294967295
184.39198 116.33263 -32.221104 4294967295
184.39516 115.65249 -32.17458 4294967295
184.42365 122.24957 -31.76391 4294967295
184.46724 117.03794 -32.11459 4294967295
184.48512 118.06566 -32.14016 4294967295
184.49191 119.43044 -32.207535 4294967295
184.505 113.19427 -32.556507 4294967295
184.51562 113.87837 -32.576065 4294967295
184.52803 119.10163 -32.116959 4294967295
184.52959 118.42078 -32.073612 4294967295
184.53008 117.39885 -32.012154 4294967295
184.54359 120.46949 -32.167229 4294967295
184.54956 120.13078 -32.13546 4294967295
184.55528 114.57159 -32.539059 4294967295
184.5712 114.23611 -32.487873 4294967295
184.57318 120.82001 -32.129707 4294967295
184.59903 119.80641 -32.018829 4294967295
184.61093 113.5675 -32.370193 4294967295
184.6187 115.61291 -32.475876 4294967295
184.62483 121.51871 -32.069279 4294967295
184.62895 121.17934 -32.04113 4294967295
184.64227 114.93934 -32.389694 4294967295
184.69423 121.8828 -31.954161 4294967295
184.69972 115.29797 -32.29789 4294967295
184.70233 122.56715 -31.978703 4294967295
184.74657 116.67521 -32.287186 4294967295
184.75143 115.99554 -32.237427 4294967295
184.77742 118.04757 -32.307648 4294967295
184.80629 122.26143 -31.755836 4294967295
184.81943 117.72053 -32.205666 4294967295
184.82613 118.74467 -32.253075 4294967295
184.83545 119.42903 -32.275246 4294967295
184.83665 113.52935 -32.666847 4294967295
184.8979 118.42735 -32.093113 4294967295
184.92659 114.23818 -32.532028 4294967295
184.93353 119.12047 -32.064064 4294967295
184.94954 114.58585 -32.5075 4294967295
184.95537 115.60918 -32.556587 4294967295
184.96295 120.83402 -32.107498 4294967295
184.96753 121.17632 -32.118759 4294967295
184.97923 120.49865 -32.05566 4294967295
185.01126 121.53172 -32.053722 4294967295
185.01204 121.8728 -32.072388 4294967295
185.01593 120.16998 -31.96405 4294967295
185.01598 116.30945 -32.478901 4294967295
185.0285 116.65398 -32.474621 4294967295
185.03745 116.99741 -32.47736 4294967295
185.04297 115.29627 -32.365959 4294967295
185.04382 115.97774 -32.404514 4294967295
185.07111 122.2335 -31.977528 4294967295
185.07587 122.57598 -31.988401 4294967295
185.12123 118.3868 -32.394939 4294967295
185.14729 113.17715 -32.777813 4294967295
185.18782 117.3863 -32.204926 4294967295
185.18942 119.43103 -32.32267 4294967295
185.20364 118.7543 -32.254704 4294967295
185.2043 120.11729 -32.333984 4294967295
185.20636 119.77728 -32.309845 4294967295
185.21571 117.73602 -32.170753 4294967295
185.22041 118.07827 -32.181793 4294967295
185.24301 120.81152 -32.299026 4294967295
185.26115 114.23375 -32.616787 4294967295
185.2659 113.55422 -32.567318 4294967295
185.27609 119.11868 -32.133953 4294967295
185.27809 121.50469 -32.271091 4294967295
185.2836 114.58125 -32.593315 4294967295
185.30887 121.85576 -32.231346 4294967295
185.31779 113.91082 -32.486572 4294967295
185.3277 115.27614 -32.547844 4294967295
185.32803 115.6168 -32.567303 4294967295
185.35262 121.18879 -32.105957 4294967295
185.36868 122.5575 -32.155327 4294967295
185.38992 116.65815 -32.50742 4294967295
185.40027 116.32084 -32.467159 4294967295
185.40933 117.68616 -32.530083 4294967295
185.42538 122.23577 -32.024864 4294967295
185.43855 115.99236 -32.372597 4294967295
185.44502 117.35703 -32.440578 4294967295
185.50453 119.76095 -32.465866 4294967295
185.5228 118.74487 -32.369987 4294967295
185.54604 118.4117 -32.304718 4294967295
185.54993 113.87462 -32.770393 4294967295
185.56673 120.12211 -32.365211 4294967295
185.58095 119.10455 -32.2771 4294967295
185.5856 120.80983 -32.368805 4294967295
185.60396 114.57238 -32.705727 4294967295
185.61574 113.21393 -32.602341 4294967295
185.63596 121.50812 -32.311272 4294967295
185.63857 113.56153 -32.578159 4294967295
185.6452 114.9258 -32.645786 4294967295
185.65822 115.61099 -32.660763 4294967295
185.65903 115.95179 -32.679298 4294967295
185.66606 121.17737 -32.232635 4294967295
185.66801 114.25181 -32.561214 4294967295
185.67097 120.49733 -32.182808 4294967295
185.67436 115.27552 -32.609264 4294967295
185.67821 116.29843 -32.662193 4294967295
185.70262 121.87124 -32.20192 4294967295
185.71677 122.55769 -32.214737 4294967295
185.71945 116.65213 -32.602264 4294967295
185.79932 113.16305 -32.980076 4294967295
185.8268 117.70847 -32.454239 4294967295
185.83961 117.37186 -32.409271 4294967295
185.84129 119.75729 -32.546928 4294967295
185.84244 118.05419 -32.444054 4294967295
185.84418 118.73617 -32.480927 4294967295
185.85414 119.08012 -32.481701 4294967295
185.86386 113.86378 -32.895126 4294967295
185.88699 119.43156 -32.438141 4294967295
185.90466 118.41505 -32.343403 4294967295
185.91118 120.12099 -32.431427 4294967295
185.93877 113.54645 -32.729736 4294967295
185.95161 114.57203 -32.765167 4294967295
185.95364 120.81655 -32.389309 4294967295
185.95432 114.23232 -32.739834 4294967295
185.97063 115.59959 -32.788643 4294967295
186.01076 116.29337 -32.751099 4294967295
186.01736 114.93312 -32.657814 4294967295
186.0276 115.95814 -32.698296 4294967295
186.04581 121.86975 -32.270863 4294967295
186.0717 116.99396 -32.673157 4294967295
186.08537 122.5648 -32.234413 4294967295
186.09731 118.36468 -32.70401 4294967295
186.13339 117.69504 -32.5938 4294967295
186.1633 117.36393 -32.51572 4294967295
186.22639 120.11022 -32.554386 4294967295
186.23766 114.21197 -32.923962 4294967295
186.25731 119.09805 -32.434124 4294967295
186.2793 114.56544 -32.863441 4294967295
186.2849 120.47026 -32.461178 4294967295
186.28683 115.24886 -32.889053 4294967295
186.30186 113.55077 -32.759361 4294967295
186.31404 113.8951 -32.755913 4294967295
186.32318 115.94138 -32.858864 4294967295
186.3334 121.84962 -32.447685 4294967295
186.35732 121.17592 -32.361092 4294967295
186.37799 116.29932 -32.772865 4294967295
186.37994 120.84254 -32.2971 4294967295
186.38609 121.52638 -32.325436 4294967295
186.41125 116.65049 -32.728523 4294967295
186.41202 122.21684 -32.315468 4294967295
186.4614 118.36983 -32.732059 4294967295
186.46974 122.57717 -32.223755 4294967295
186.47017 117.00993 -32.634583 4294967295
186.49989 117.70086 -32.617241 4294967295
186.50113 119.74549 -32.73558 4294967295
186.50458 118.72451 -32.668552 4294967295
186.51016 113.5074 -33.088715 4294967295
186.5163 118.04686 -32.605644 4294967295
186.53117 119.07387 -32.637161 4294967295
186.59041 120.11551 -32.582863 4294967295
186.59123 114.55396 -32.992134 4294967295
186.59709 115.57731 -33.041164 4294967295
186.60612 114.89912 -32.983429 4294967295
186.60658 120.46162 -32.571709 4294967295
186.61913 113.88152 -32.897999 4294967295
186.67307 115.26061 -32.874088 4294967295
186.70273 122.19773 -32.486195 4294967295
186.71231 121.51918 -32.427452 4294967295
186.71919 115.95634 -32.825054 4294967295
186.72955 121.18401 -32.373932 4294967295
186.73631 116.64304 -32.832161 4294967295
186.74208 121.87002 -32.389946 4294967295
186.75052 116.30689 -32.784565 4294967295
186.76109 122.55821 -32.393406 4294967295
186.77077 117.33533 -32.805717 4294967295
186.79416 117.00211 -32.740372 4294967295
186.8045 118.36818 -32.800842 4294967295
186.82613 117.69374 -32.718758 4294967295
186.84012 118.03898 -32.711823 4294967295
186.85605 119.74776 -32.781578 4294967295
186.89272 114.87971 -33.16106 4294967295
186.89859 114.20054 -33.10952 4294967295
186.9048 119.42294 -32.667255 4294967295
186.90518 119.08228 -32.646347 4294967295
186.925 120.11112 -32.668404 4294967295
186.92566 118.74814 -32.586647 4294967295
186.94775 113.87521 -32.994415 4294967295
186.95102 114.55733 -33.028366 4294967295
186.9622 113.53907 -32.946449 4294967295
186.96428 115.58315 -33.063034 4294967295
186.96686 120.46568 -32.607613 4294967295
186.96938 121.14816 -32.642952 4294967295
186.98282 115.24838 -33.007126 4294967295
187.01439 121.84482 -32.596176 4294967295
187.03079 120.82765 -32.504078 4294967295
187.0636 122.20216 -32.521141 4294967295
187.06387 122.54314 -32.540737 4294967295
187.06703 121.52146 -32.474289 4294967295
187.06798 116.29703 -32.902885 4294967295
187.07266 117.66109 -32.974243 4294967295
187.10971 117.33228 -32.882557 4294967295
187.12355 116.99601 -32.835739 4294967295
187.16466 118.03131 -32.816624 4294967295
187.18117 119.05882 -32.845085 4294967295
187.18683 118.37918 -32.793907 4294967295
187.19186 119.74377 -32.864635 4294967295
187.19749 113.1636 -33.203049 4294967295
187.23819 113.51659 -33.144581 4294967295
187.25116 119.42236 -32.729996 4294967295
187.25134 114.54224 -33.179474 4294967295
187.25522 115.22451 -33.212154 4294967295
187.26286 113.86473 -33.117027 4294967295
187.27612 114.8905 -33.151695 4294967295
187.2919 121.13977 -32.7519 4294967295
187.29544 121.48176 -32.76519 4294967295
187.31381 120.8062 -32.689468 4294967295
187.34502 120.47561 -32.60907 4294967295
187.35771 115.59716 -33.03447 4294967295
187.35973 121.84399 -32.66114 4294967295
187.37286 115.94255 -33.025341 4294967295
187.40607 122.20037 -32.591774 4294967295
187.4068 116.63457 -33.000008 4294967295
187.42436 117.32149 -33.006355 4294967295
187.48003 116.99852 -32.878845 4294967295
187.50473 118.36937 -32.911602 4294967295
187.522 119.39718 -32.93858 4294967295
187.52858 119.74006 -32.946003 4294967295
187.53024 113.15858 -33.291386 4294967295
187.53581 117.69781 -32.811394 4294967295
187.54404 114.18431 -33.325066 4294967295
187.55267 119.06639 -32.859344 4294967295
187.55966 118.72787 -32.825729 4294967295
187.57947 113.85471 -33.236671 4294967295
187.58466 114.5374 -33.266838 4294967295
187.59398 114.88084 -33.268932 4294967295
187.6037 121.12784 -32.881493 4294967295
187.60738 120.10661 -32.814075 4294967295
187.61963 120.45147 -32.810547 4294967295
187.62793 115.57255 -33.243713 4294967295
187.62819 115.23206 -33.223099 4294967295
187.68446 115.93087 -33.154816 4294967295
187.68552 121.83668 -32.763916 4294967295
187.69693 116.27544 -33.150894 4294967295
187.70325 121.50169 -32.709602 4294967295
187.73549 117.30958 -33.136826 4294967295
187.75072 116.63308 -33.067322 4294967295
187.75241 117.65564 -33.12431 4294967295
187.77866 118.34541 -33.11396 4294967295
187.78049 118.0053 -33.090324 4294967295
187.79807 116.98878 -32.996128 4294967295
187.84955 118.70898 -32.997425 4294967295
187.85275 119.73227 -33.051521 4294967295
187.86632 119.05518 -32.985191 4294967295
187.90289 113.50626 -33.32304 4294967295
187.90465 119.40839 -32.931442 4294967295
187.9077 113.16719 -33.29372 4294967295
187.92348 115.55589 -33.403893 4294967295
187.94589 114.20062 -33.280399 4294967295
187.95552 115.22534 -33.322147 4294967295
187.96213 113.86504 -33.22905 4294967295
187.96272 114.54641 -33.268097 4294967295
187.96953 115.91087 -33.335339 4294967295
187.96999 116.2516 -33.35453 4294967295
187.9716 120.11189 -32.842674 4294967295
187.9828 120.45644 -32.841179 4294967295
187.98711 121.13959 -32.873074 4294967295
188.00439 120.80442 -32.819695 4294967295
188.00786 116.60413 -33.301697 4294967295
188.01299 121.48901 -32.84338 4294967295
188.02753 114.90715 -33.163376 4294967295
188.06226 116.96201 -33.217045 4294967295
188.09174 117.31203 -33.180435 4294967295
188.09935 122.54056 -32.737328 4294967295
188.1378 118.00816 -33.131969 4294967295
188.13795 118.34894 -33.151711 4294967295
188.16396 113.13879 -33.529369 4294967295
188.1696 119.38134 -33.1511 4294967295
188.17119 119.04112 -33.127956 4294967295
188.19554 114.16995 -33.528816 4294967295
188.22856 113.8396 -33.445274 4294967295
188.23016 120.08261 -33.074722 4294967295
188.2442 118.72393 -32.967297 4294967295
188.25487 120.77231 -33.067348 4294967295
188.26837 120.43593 -33.021259 4294967295
188.28009 115.8989 -33.466591 4294967295
188.28949 115.22069 -33.40839 4294967295
188.28986 119.76125 -32.939762 4294967295
188.30411 114.88464 -33.360222 4294967295
188.31909 114.54869 -33.311287 4294967295
188.32423 121.47688 -32.974133 4294967295
188.32603 115.5727 -33.358189 4294967295
188.32715 121.13696 -32.94841 4294967295
188.32736 116.59494 -33.415878 4294967295
188.33052 121.81982 -32.982109 4294967295
188.37402 116.26903 -33.306107 4294967295
188.37836 116.95171 -33.337925 4294967295
188.38503 117.29446 -33.345177 4294967295
188.4052 122.52654 -32.878609 4294967295
188.4296 122.19371 -32.811607 4294967295
188.43445 118.33228 -33.31039 4294967295
188.44754 117.65507 -33.245056 4294967295
188.47569 119.02697 -33.271255 4294967295
188.50328 118.01362 -33.15797 4294967295
188.52321 113.14184 -33.566837 4294967295
188.52736 114.50515 -33.639149 4294967295
188.58429 120.42538 -33.142906 4294967295
188.59523 120.08814 -33.101807 4294967295
188.60101 113.84674 -33.457512 4294967295
188.61536 121.11724 -33.12339 4294967295
188.62373 119.75658 -33.02692 4294967295
188.62384 113.51313 -33.393631 4294967295
188.62405 120.77927 -33.086559 4294967295
188.64941 114.20223 -33.384651 4294967295
188.67975 116.59613 -33.466873 4294967295
188.6861 117.27938 -33.494858 4294967295
188.70482 115.24135 -33.338459 4294967295
188.71793 116.26749 -33.373489 4294967295
188.72426 121.49411 -32.934185 4294967295
188.7326 122.17877 -32.958309 4294967295
188.74612 115.93566 -33.299259 4294967295
188.74954 122.52536 -32.945877 4294967295
188.75383 121.84487 -32.897442 4294967295
188.76859 116.96487 -33.316391 4294967295
188.76961 117.98733 -33.374634 4294967295
188.78 118.67207 -33.394852 4294967295
188.80513 113.12131 -33.75288 4294967295
188.80531 117.658 -33.286018 4294967295
188.85561 119.71874 -33.309895 4294967295
188.85701 118.35606 -33.226906 4294967295
188.85706 119.37843 -33.287022 4294967295
188.85922 113.81884 -33.689186 4294967295
188.89236 114.85062 -33.685806 4294967295
188.90375 119.05275 -33.177277 4294967295
188.92262 120.42218 -33.221405 4294967295
188.92667 120.76434 -33.233711 4294967295
188.93028 114.18121 -33.57291 4294967295
188.93083 113.50018 -33.531738 4294967295
188.93295 115.20378 -33.62796 4294967295
188.94188 121.11018 -33.224617 4294967295
188.94954 120.09014 -33.149654 4294967295
188.98964 115.56204 -33.539295 4294967295
188.9998 114.54326 -33.459602 4294967295
189.03029 121.82114 -33.095097 4294967295
189.03238 121.48092 -33.070969 4294967295
189.04037 122.16542 -33.095802 4294967295
189.08191 117.2944 -33.462658 4294967295
189.09267 116.27564 -33.381802 4294967295
189.09853 118.32178 -33.491013 4294967295
189.10126 118.66335 -33.505829 4294967295
189.10747 116.96175 -33.393589 4294967295
189.11108 122.52995 -32.980152 4294967295
189.12973 119.01324 -33.471333 4294967295
189.16145 119.36422 -33.430534 4294967295
189.19286 113.81406 -33.776012 4294967295
189.20041 118.01363 -33.275524 4294967295
189.23207 119.72791 -33.315201 4294967295
189.23454 113.14568 -33.656002 4294967295
189.25333 120.41649 -33.314579 4294967295
189.25333 120.75732 -33.334656 4294967295
189.26003 113.49403 -33.627239 4294967295
189.26434 120.07923 -33.273438 4294967295
189.26825 121.44389 -33.346249 4294967295
189.27322 115.54166 -33.722286 4294967295
189.28104 114.5223 -33.647144 4294967295
189.29617 115.20821 -33.658264 4294967295
189.31281 114.19144 -33.5662 4294967295
189.33476 114.87953 -33.56424 4294967295
189.33934 121.12645 -33.189838 4294967295
189.34129 121.8089 -33.22628 4294967295
189.38655 116.25837 -33.545273 4294967295
189.42416 115.92944 -33.453171 4294967295
189.42445 116.95174 -33.512779 4294967295
189.43103 116.61306 -33.480122 4294967295
189.43675 122.18153 -33.06337 4294967295
189.44136 122.52406 -33.074589 4294967295
189.46321 117.30473 -33.458637 4294967295
189.47357 117.64879 -33.458847 4294967295
189.4924 117.99554 -33.442852 4294967295
189.49501 118.67794 -33.477959 4294967295
189.51854 113.1258 -33.83799 4294967295
189.52339 118.34624 -33.403542 4294967295
189.53252 114.15166 -33.871353 4294967295
189.54095 119.37432 -33.430115 4294967295
189.55206 119.71872 -33.428894 4294967295
189.55766 113.47826 -33.783173 4294967295
189.558 113.81895 -33.802521 4294967295
189.60509 120.75853 -33.387562 4294967295
189.60577 121.78129 -33.44648 4294967295
189.61052 120.07858 -33.337013 4294967295
189.64113 121.4521 -33.358723 4294967295
189.65494 120.43395 -33.271999 4294967295
189.66776 114.87453 -33.652649 4294967295
189.68048 115.21915 -33.6483 4294967295
189.68051 122.14693 -33.323425 4294967295
189.68726 116.24328 -33.695538 4294967295
189.69238 116.58556 -33.705811 4294967295
189.71695 115.91189 -33.618664 4294967295
189.72284 122.50194 -33.262478 4294967295
189.73463 117.28025 -33.665062 4294967295
189.75864 117.62858 -33.639225 4294967295
189.76035 117.96985 -33.655952 4294967295
189.82219 118.33033 -33.55772 4294967295
189.84888 114.14161 -33.991302 4294967295
189.85686 113.12242 -33.915901 4294967295
189.87785 119.71143 -33.531479 4294967295
189.88614 120.05495 -33.535686 4294967295
189.89485 114.49629 -33.923416 4294967295
189.90234 119.03769 -33.444496 4294967295
189.91702 114.8437 -33.901066 4294967295
189.91757 115.18446 -33.920036 4294967295
189.93793 119.39003 -33.396507 4294967295
189.94171 113.82945 -33.793755 4294967295
189.94258 120.41416 -33.447823 4294967295
189.95483 115.87722 -33.888916 4294967295
189.96432 116.2208 -33.890873 4294967295
189.968 121.78602 -33.479435 4294967295
190.026 115.55872 -33.732872 4294967295
190.04091 122.15106 -33.360069 4294967295
190.05203 116.58896 -33.743286 4294967295
190.10541 117.28723 -33.681377 4294967295
190.11058 122.51519 -33.246895 4294967295
190.12589 116.95294 -33.622185 4294967295
190.14984 117.64207 -33.616535 4294967295
190.15997 117.9861 -33.617184 4294967295
190.17699 113.45407 -34.04863 4294967295
190.18472 118.67561 -33.610001 4294967295
190.2205 118.34623 -33.521599 4294967295
190.244 113.13385 -33.90057 4294967295
190.24701 119.03644 -33.511093 4294967295
190.25577 119.72102 -33.534447 4294967295
190.27846 115.18812 -33.955078 4294967295
190.28909 114.16949 -33.874641 4294967295
190.29875 120.75764 -33.512508 4294967295
190.29942 113.83199 -33.834873 4294967295
190.30399 121.44116 -33.542656 4294967295
190.31201 121.10289 -33.507267 4294967295
190.31255 122.12577 -33.566399 4294967295
190.315 114.85876 -33.865253 4294967295
190.33659 115.54678 -33.864136 4294967295
190.34534 114.52742 -33.787296 4294967295
190.34618 116.57179 -33.905949 4294967295
190.3654 116.23713 -33.849228 4294967295
190.39297 116.9272 -33.836685 4294967295
190.40883 121.81667 -33.362431 4294967295
190.4183 115.91291 -33.728161 4294967295
190.42212 117.27711 -33.801117 4294967295
190.4454 117.96599 -33.796722 4294967295
190.44562 117.6253 -33.776268 4294967295
190.5307 118.33395 -33.654007 4294967295
190.5621 113.12432 -34.017303 4294967295
190.56267 120.73013 -33.733307 4294967295
190.56738 119.70912 -33.664169 4294967295
190.57269 114.14937 -34.057198 4294967295
190.58762 120.05653 -33.64563 4294967295
190.59433 113.47472 -33.975872 4294967295
190.60173 119.37933 -33.578571 4294967295
190.65002 120.41772 -33.546585 4294967295
190.65582 116.55951 -34.038952 4294967295
190.65712 114.51588 -33.916256 4294967295
190.65775 115.19745 -33.955132 4294967295
190.65833 115.53831 -33.974049 4294967295
190.66165 121.78523 -33.604637 4294967295
190.66179 121.44435 -33.584343 4294967295
190.67471 121.10766 -33.539597 4294967295
190.67834 114.8631 -33.895847 4294967295
190.70689 117.59761 -34.001671 4294967295
190.73515 116.24363 -33.867634 4294967295
190.75095 117.95229 -33.937729 4294967295
190.75258 117.27134 -33.894531 4294967295
190.76912 122.50274 -33.43972 4294967295
190.76947 118.63968 -33.942482 4294967295
190.77104 122.16235 -33.415977 4294967295
190.77766 116.93848 -33.82666 4294967295
190.82388 119.33866 -33.878819 4294967295
190.83092 118.3185 -33.805321 4294967295
190.8842 119.01723 -33.743847 4294967295
190.88712 119.69987 -33.778358 4294967295
190.90117 120.38611 -33.791714 4294967295
190.91135 120.73029 -33.792313 4294967295
190.91238 114.14642 -34.132736 4294967295
190.92242 121.07475 -33.791286 4294967295
190.93695 115.17584 -34.146049 4294967295
190.94725 114.49773 -34.086338 4294967295
190.97838 116.55127 -34.14727 4294967295
190.98097 114.84874 -34.042194 4294967295
191.00348 115.53708 -34.03933 4294967295
191.01483 121.78692 -33.655254 4294967295
191.01974 121.44758 -33.625828 4294967295
191.02081 115.88316 -34.02636 4294967295
191.02832 122.47327 -33.669659 4294967295
191.03517 122.13457 -33.63657 4294967295
191.06055 116.91773 -34.010818 4294967295
191.06598 117.6009 -34.040562 4294967295
191.07672 116.24131 -33.939888 4294967295
191.12132 118.29996 -33.975212 4294967295
191.13747 113.76796 -34.406387 4294967295
191.13936 118.98727 -33.980949 4294967295
191.14973 119.67218 -34.00124 4294967295
191.17783 118.65879 -33.887665 4294967295
191.17902 120.36324 -33.985615 4294967295
191.18764 113.10207 -34.270882 4294967295
191.19553 119.34612 -33.89407 4294967295
191.20134 120.71131 -33.963142 4294967295
191.20778 114.47053 -34.312622 4294967295
191.2229 114.13457 -34.263847 4294967295
191.26149 114.82763 -34.230469 4294967295
191.29366 115.51882 -34.209347 4294967295
191.30223 115.86214 -34.213066 4294967295
191.306 122.44999 -33.864128 4294967295
191.31013 122.11046 -33.836182 4294967295
191.31958 121.43171 -33.778149 4294967295
191.33446 116.21284 -34.171707 4294967295
191.33896 120.0742 -33.661041 4294967295
191.37589 115.20354 -34.032883 4294967295
191.38249 117.59072 -34.160492 4294967295
191.41396 116.91915 -34.0606 4294967295
191.42447 121.80717 -33.598518 4294967295
191.45784 116.5921 -33.957085 4294967295
191.46597 118.63949 -34.061813 4294967295
191.483 117.28165 -33.949333 4294967295
191.49039 113.4285 -34.436642 4294967295
191.49583 118.30818 -33.984993 4294967295
191.54198 117.982 -33.877163 4294967295
191.54523 119.68736 -33.971184 4294967295
191.563 120.03397 -33.957417 4294967295
191.56587 113.79198 -34.313156 4294967295
191.58826 115.16134 -34.350693 4294967295
191.60164 114.82481 -34.30526 4294967295
191.60616 114.48556 -34.276672 4294967295
191.6109 121.41309 -33.946472 4294967295
191.6292 122.10089 -33.951805 4294967295
191.63548 114.15384 -34.20089 4294967295
191.64131 121.08209 -33.868675 4294967295
191.6479 116.54244 -34.31744 4294967295
191.65057 115.52123 -34.252327 4294967295
191.66934 115.86775 -34.236687 4294967295
191.67114 120.4099 -33.771835 4294967295
191.68169 121.77723 -33.83197 4294967295
191.68797 122.46124 -33.8601 4294967295
191.70801 117.24268 -34.243305 4294967295
191.72472 117.58867 -34.231552 4294967295
191.76227 116.91896 -34.120186 4294967295
191.77618 116.24171 -34.053699 4294967295
191.81259 113.42025 -34.545311 4294967295
191.82005 117.95957 -34.070503 4294967295
191.82443 118.64262 -34.102226 4294967295
191.83682 118.30573 -34.058647 4294967295
191.84035 118.98852 -34.092072 4294967295
191.86502 114.79846 -34.52581 4294967295
191.88153 113.10049 -34.394409 4294967295
191.88454 121.04784 -34.128262 4294967295
191.90884 115.49316 -34.482674 4294967295
191.92604 115.8391 -34.470043 4294967295
191.93367 121.40476 -34.054985 4294967295
191.95383 122.09318 -34.056763 4294967295
191.96333 114.48793 -34.319218 4294967295
191.9673 119.37009 -33.870918 4294967295
191.99054 119.71854 -33.846832 4294967295
191.99377 115.17868 -34.301445 4294967295
192.02133 116.20935 -34.309216 4294967295
192.03253 122.46009 -33.927368 4294967295
192.05386 117.92319 -34.347553 4294967295
192.06718 117.58666 -34.302292 4294967295
192.09998 117.25622 -34.220024 4294967295
192.10721 116.57687 -34.166279 4294967295
192.11778 118.62501 -34.266293 4294967295
192.11781 116.92101 -34.166176 4294967295
192.14357 118.97403 -34.237389 4294967295
192.14906 113.75685 -34.646912 4294967295
192.14925 113.41635 -34.626579 4294967295
192.17148 114.10423 -34.624382 4294967295
192.17886 119.32614 -34.190514 4294967295
192.21434 113.09539 -34.483143 4294967295
192.24193 118.32361 -34.010769 4294967295
192.24564 120.02936 -34.103859 4294967295
192.24835 121.05293 -34.158775 4294967295
192.27971 114.81852 -34.459248 4294967295
192.28909 115.50277 -34.481438 4294967295
192.30756 115.84914 -34.466469 4294967295
192.31361 121.41513 -34.055023 4294967295
192.31378 117.2138 -34.534691 4294967295
192.31828 120.73476 -34.006073 4294967295
192.31979 116.19363 -34.463299 4294967295
192.32097 120.39464 -33.980972 4294967295
192.34317 121.76579 -34.018982 4294967295
192.34697 115.17986 -34.35173 4294967295
192.40414 116.90138 -34.34346 4294967295
192.43311 118.6144 -34.388588 4294967295
192.43764 117.59347 -34.319973 4294967295
192.44553 116.57351 -34.244957 4294967295
192.46124 118.28254 -34.3153 4294967295
192.46512 117.94294 -34.28791 4294967295
192.46919 113.40741 -34.73951 4294967295
192.52905 119.32666 -34.246811 4294967295
192.52982 115.12874 -34.724686 4294967295
192.58121 114.12256 -34.567398 4294967295
192.58504 113.78306 -34.540119 4294967295
192.60443 121.39638 -34.224136 4294967295
192.61079 119.01187 -34.071938 4294967295
192.61632 120.37746 -34.141518 4294967295
192.62012 120.71963 -34.15432 4294967295
192.62738 121.06294 -34.160572 4294967295
192.62764 114.81807 -34.51947 4294967295
192.64122 122.09027 -34.194458 4294967295
192.66415 120.05193 -34.030846 4294967295
192.67712 116.19618 -34.505775 4294967295
192.67764 114.49262 -34.404812 4294967295
192.69191 116.88226 -34.517815 4294967295
192.71678 115.86771 -34.410744 4294967295
192.74583 117.58067 -34.455769 4294967295
192.76257 116.56353 -34.364037 4294967295
192.77666 117.93118 -34.417419 4294967295
192.79422 118.27753 -34.404213 4294967295
192.8038 118.62139 -34.406025 4294967295
192.81079 113.40501 -34.811508 4294967295
192.83984 117.26936 -34.25779 4294967295
192.84161 119.65598 -34.394493 4294967295
192.85226 114.43932 -34.793037 4294967295
192.88765 113.76884 -34.686142 4294967295
192.91028 119.3371 -34.244507 4294967295
192.929 114.12203 -34.627892 4294967295
192.93346 114.80476 -34.659435 4294967295
192.94431 115.83012 -34.698902 4294967295
192.94969 121.73633 -34.310051 4294967295
192.95804 120.03431 -34.19418 4294967295
192.96062 119.01221 -34.129261 4294967295
192.97589 116.18056 -34.659187 4294967295
192.98004 122.0872 -34.272667 4294967295
192.99721 122.43381 -34.260181 4294967295
192.99942 120.72964 -34.155937 4294967295
193.00023 120.3889 -34.134388 4294967295
193.01205 121.07473 -34.152027 4294967295
193.01587 115.51147 -34.543613 4294967295
193.06282 117.22986 -34.554817 4294967295
193.06311 121.4324 -34.075413 4294967295
193.07947 116.55349 -34.483326 4294967295
193.11435 117.92764 -34.497368 4294967295
193.14191 113.39944 -34.903339 4294967295
193.16743 119.98954 -34.51704 4294967295
193.17458 113.74989 -34.861595 4294967295
193.18182 119.65329 -34.469818 4294967295
193.1958 118.97602 -34.403412 4294967295
193.20605 114.10004 -34.822094 4294967295
193.209 118.63931 -34.358494 4294967295
193.21967 119.32453 -34.378307 4294967295
193.22981 115.1292 -34.837196 4294967295
193.23814 120.35319 -34.403389 4294967295
193.24214 114.7923 -34.793922 4294967295
193.24814 120.69733 -34.40451 4294967295
193.25722 113.09346 -34.665485 4294967295
193.27408 121.38759 -34.395493 4294967295
193.31927 122.42524 -34.370132 4294967295
193.31955 115.49743 -34.687679 4294967295
193.32617 122.08652 -34.337059 4294967295
193.33168 121.74736 -34.306664 4294967295
193.34987 114.48444 -34.570461 4294967295
193.37003 115.85373 -34.612301 4294967295
193.39821 117.56639 -34.659088 4294967295
193.4487 116.55972 -34.503738 4294967295
193.4677 116.90649 -34.487854 4294967295
193.48335 117.93398 -34.518288 4294967295
193.4865 116.23055 -34.412376 4294967295
193.52046 113.74876 -34.925636 4294967295
193.55797 113.07874 -34.814949 4294967295
193.55983 120.00362 -34.493904 4294967295
193.57011 118.30226 -34.374439 4294967295
193.57378 118.9853 -34.407532 4294967295
193.57555 120.34961 -34.484207 4294967295
193.57622 115.1283 -34.900387 4294967295
193.59283 114.45201 -34.829079 4294967295
193.59352 119.67352 -34.410263 4294967295
193.59737 115.47546 -34.880455 4294967295
193.5985 119.33414 -34.380852 4294967295
193.61786 114.11888 -34.761875 4294967295
193.64824 120.71404 -34.366932 4294967295
193.65329 121.39765 -34.397469 4294967295
193.67322 114.81721 -34.697388 4294967295
193.68146 116.52355 -34.781803 4294967295
193.71628 121.7592 -34.298553 4294967295
193.71835 115.85342 -34.672203 4294967295
193.7261 122.10348 -34.300011 4294967295
193.75963 116.20698 -34.614319 4294967295
193.76244 117.23036 -34.668999 4294967295
193.78775 122.46478 -34.203663 4294967295
193.80446 113.72897 -35.106411 4294967295
193.81494 118.26939 -34.629906 4294967295
193.85689 117.9417 -34.530819 4294967295
193.86519 113.40662 -34.972046 4294967295
193.90858 114.10105 -34.930168 4294967295
193.9102 119.32233 -34.510227 4294967295
193.9182 114.44465 -34.932037 4294967295
193.9516 121.72232 -34.572144 4294967295
193.97498 120.02499 -34.428116 4294967295
193.97748 115.48489 -34.880257 4294967295
193.98218 121.05032 -34.474514 4294967295
193.9886 120.71138 -34.442429 4294967295
193.98988 114.80719 -34.816925 4294967295
194.01196 115.15469 -34.795319 4294967295
194.01413 121.4017 -34.434307 4294967295
194.02763 120.38294 -34.348808 4294967295
194.09447 122.11002 -34.322784 4294967295
194.123 122.46049 -34.289032 4294967295
194.22081 114.08974 -35.057869 4294967295
194.22502 113.40964 -35.010002 4294967295
194.23386 114.43436 -35.053299 4294967295
194.24538 117.95409 -34.515427 4294967295
194.25298 118.29748 -34.52108 4294967295
194.26006 119.66363 -34.587708 4294967295
194.2831 120.01197 -34.56432 4294967295
194.2928 117.28693 -34.386051 4294967295
194.29913 120.35811 -34.554092 4294967295
194.30727 120.70174 -34.558769 4294967295
194.31158 113.77641 -34.866989 4294967295
194.32469 121.38939 -34.565933 4294967295
194.33798 121.73472 -34.56089 4294967295
194.3736 115.15839 -34.830215 4294967295
194.37451 122.08768 -34.512074 4294967295
194.3806 122.43073 -34.520634 4294967295
194.39455 118.68324 -34.274368 4294967295
194.40149 115.8486 -34.817646 4294967295
194.48422 113.38247 -35.237289 4294967295
194.61307 116.59578 -34.459412 4294967295
194.67638 120.36729 -34.560215 4294967295
194.68138 122.41515 -34.670708 4294967295
194.69968 120.03371 -34.496365 4294967295
194.70734 121.74153 -34.581936 4294967295
194.7119 118.33209 -34.373386 4294967295
194.72794 117.65483 -34.303268 4294967295
194.73091 120.72592 -34.477615 4294967295
194.73242 119.70308 -34.414768 4294967295
194.76523 116.9841 -34.193062 4294967295
194.80504 119.38504 -34.258167 4294967295
194.81314 122.11715 -34.402908 4294967295
194.83505 113.38278 -35.292301 4294967295
194.85324 119.05913 -34.147469 4294967295
194.92064 113.06768 -35.111633 4294967295
194.95938 114.10156 -35.098759 4294967295
194.9753 115.57643 -34.433918 4294967295
194.9908 117.62779 -34.524719 4294967295
195.00719 117.97401 -34.513893 4294967295
195.01596 116.6123 -34.417377 4294967295
195.03601 122.41721 -34.719551 4294967295
195.04675 120.71534 -34.599434 4294967295
195.06386 115.94473 -34.28743 4294967295
195.07446 121.40648 -34.587357 4294967295
195.07758 121.74862 -34.601475 4294967295
195.08682 120.38711 -34.504158 4294967295
195.09424 117.31891 -34.310257 4294967295
195.16093 120.06966 -34.34491 4294967295
195.16919 122.11961 -34.449333 4294967295
195.17592 117.00307 -34.136723 4294967295
195.21425 119.06286 -34.184734 4294967295
195.21877 118.38166 -34.136211 4294967295
195.23766 119.4116 -34.160713 4294967295
195.25558 113.74468 -35.236534 4294967295
195.25943 115.55634 -34.61517 4294967295
195.29602 115.22644 -34.526485 4294967295
195.29617 113.41606 -35.140499 4294967295
195.30696 114.88865 -34.485939 4294967295
195.36856 116.95436 -34.490177 4294967295
195.38542 117.30077 -34.478485 4294967295
195.39226 122.41978 -34.765457 4294967295
195.40895 121.74303 -34.694157 4294967295
195.41518 122.08617 -34.702446 4294967295
195.41696 116.62817 -34.379272 4294967295
195.43289 121.06852 -34.609207 4294967295
195.45613 118.00523 -34.385742 4294967295
195.46857 116.30286 -34.262421 4294967295
195.47804 118.35332 -34.36462 4294967295
195.47847 114.15257 -34.83844 4294967295
195.48793 115.96752 -34.2061 4294967295
195.49307 117.67552 -34.296402 4294967295
195.56793 120.0882 -34.295788 4294967295
195.57123 119.4066 -34.24968 4294967295
195.58127 118.72712 -34.190788 4294967295
195.59009 119.07126 -34.194233 4294967295
195.59729 120.43891 -34.260704 4294967295
195.60213 113.40292 -35.279938 4294967295
195.61156 115.21597 -34.64872 4294967295
195.64287 120.7949 -34.195179 4294967295
195.65846 114.88911 -34.540726 4294967295
195.67581 115.5767 -34.548126 4294967295
195.72339 116.27361 -34.49894 4294967295
195.75574 122.4247 -34.797913 4294967295
195.7867 122.09367 -34.719902 4294967295
195.79712 120.04991 -34.580471 4294967295
195.83121 121.76694 -34.616478 4294967295
195.83232 118.69612 -34.434517 4294967295
195.84001 116.65082 -34.300171 4294967295
195.8427 116.99294 -34.315125 4294967295
195.84538 117.33508 -34.33007 4294967295
195.84807 117.67722 -34.345024 4294967295
195.85075 118.01936 -34.359978 4294967295
195.85344 118.3615 -34.374928 4294967295
195.86386 113.82217 -34.80954 4294967295
