# .PCD v0.7 - Point Cloud Data file format
VERSION 0.7
FIELDS x y z rgb
SIZE 4 4 4 4
TYPE F F F U
COUNT 1 1 1 1
WIDTH 1120
HEIGHT 1
VIEWPOINT 0 0 0 1 0 0 0
POINTS 1120
DATA ascii
-68.572052 48.848793 -28.351894 4294967295
-68.57061 47.938869 -28.160978 4294967295
-68.56179 47.793427 -28.028736 4294967295
-68.559425 48.098934 -28.059126 4294967295
-68.559212 48.40284 -28.114687 4294967295
-68.558075 48.251808 -28.07234 4294967295
-68.554581 49.013714 -28.176476 4294967295
-68.554398 49.621155 -28.290367 4294967295
-68.552505 49.470783 -28.239183 4294967295
-68.547928 49.929722 -28.272697 4294967295
-68.542282 48.567276 -27.945555 4294967295
-68.537872 49.178154 -28.010033 4294967295
-68.536797 49.786438 -28.113436 4294967295
-68.535477 50.546597 -28.243004 4294967295
-68.5345 50.699165 -28.260576 4294967295
-68.533524 51.003513 -28.30718 4294967295
-68.532684 50.245125 -28.152357 4294967295
-68.531647 51.156784 -28.314182 4294967295
-68.53141 49.334923 -27.963438 4294967295
-68.5308 50.094738 -28.101377 4294967295
-68.52906 50.399773 -28.13899 4294967295
-68.519775 51.317993 -28.204388 4294967295
-68.517174 50.864574 -28.087006 4294967295
-68.417198 47.937557 -28.155373 4294967295
-68.411339 48.24559 -28.144909 4294967295
-68.404343 48.554493 -28.12125 4294967295
-68.403534 49.010677 -28.198639 4294967295
-68.395218 49.927975 -28.275366 4294967295
-68.392479 48.867073 -28.040741 4294967295
-68.391396 49.171646 -28.086067 4294967295
-68.391174 50.082901 -28.25713 4294967295
-68.390541 48.412788 -27.931282 4294967295
-68.389656 48.717274 -27.978907 4294967295
-68.387177 48.111389 -27.834085 4294967295
-68.385567 50.542675 -28.278624 4294967295
-68.384773 49.784126 -28.124613 4294967295
-68.383995 51.302853 -28.404955 4294967295
-68.380829 50.242702 -28.165445 4294967295
-68.380478 49.331757 -27.987638 4294967295
-68.37339 50.85582 -28.194513 4294967295
-68.370361 51.010025 -28.188133 4294967295
-68.36631 50.709515 -28.083073 4294967295
-68.366302 51.165047 -28.169798 4294967295
-68.267525 48.085388 -28.222359 4294967295
-68.266075 48.693844 -28.321131 4294967295
-68.253662 48.247395 -28.09005 4294967295
-68.249931 49.009544 -28.191147 4294967295
-68.244972 50.683319 -28.451283 4294967295
-68.242584 47.951637 -27.903305 4294967295
-68.237137 48.56337 -27.955582 4294967295
-68.237114 48.411453 -27.92647 4294967295
-68.236359 49.171574 -28.062227 4294967295
-68.235397 48.868488 -27.993231 4294967295
-68.235199 49.476212 -28.106564 4294967295
-68.234009 50.995449 -28.381599 4294967295
-68.231209 50.238548 -28.204672 4294967295
-68.231026 47.808052 -27.739882 4294967295
-68.230247 49.63184 -28.077841 4294967295
-68.22641 49.786633 -28.062183 4294967295
-68.225998 49.331257 -27.970636 4294967295
-68.224297 49.940132 -28.066448 4294967295
-68.22374 50.548004 -28.175596 4294967295
-68.221794 50.853195 -28.210796 4294967295
-68.220932 51.309334 -28.287386 4294967295
-68.111427 48.086025 -28.185802 4294967295
-68.101898 48.70052 -28.190779 4294967295
-68.099373 48.550503 -28.132572 4294967295
-68.09024 49.620422 -28.22863 4294967295
-68.086449 50.230671 -28.300083 4294967295
-68.079155 49.325012 -28.042393 4294967295
-68.078766 50.084713 -28.182184 4294967295
-68.077232 49.934017 -28.13558 4294967295
-68.074997 49.176208 -27.965364 4294967295
-68.074661 47.960766 -27.730461 4294967295
-68.074059 50.543892 -28.214134 4294967295
-68.070328 49.78738 -28.026642 4294967295
-68.068573 48.421181 -27.746523 4294967295
-68.067528 50.700802 -28.167265 4294967295
-68.064537 51.006832 -28.190266 4294967295
-68.059235 50.859116 -28.099958 4294967295
-68.056396 51.165058 -28.124815 4294967295
-68.054031 50.407471 -27.953131 4294967295
-67.961159 48.082405 -28.217098 4294967295
-67.947433 48.548092 -28.144787 4294967295
-67.94339 48.247223 -28.040405 4294967295
-67.932983 50.684959 -28.380882 4294967295
-67.932098 49.318943 -28.111456 4294967295
-67.931625 48.407745 -27.933102 4294967295
-67.925903 49.475491 -28.06863 4294967295
-67.923248 49.021702 -27.951492 4294967295
-67.922417 50.237572 -28.17234 4294967295
-67.92157 50.541946 -28.220142 4294967295
-67.921509 47.959152 -27.729656 4294967295
-67.917641 49.633617 -28.001928 4294967295
-67.915428 51.154095 -28.264317 4294967295
-67.910339 50.398708 -28.06159 4294967295
-67.910294 49.183289 -27.830593 4294967295
-67.909546 49.943588 -27.965965 4294967295
-67.908638 50.096199 -27.984272 4294967295
-67.903282 49.796394 -27.864784 4294967295
-67.89888 51.015152 -28.044329 4294967295
-67.795792 47.785824 -28.016672 4294967295
-67.794258 48.090816 -28.056501 4294967295
-67.782883 48.554901 -28.01166 4294967295
-67.776886 49.62278 -28.143778 4294967295
-67.775108 48.256645 -27.864466 4294967295
-67.773956 48.713398 -27.937479 4294967295
-67.770157 49.779747 -28.094988 4294967295
-67.7677 50.844765 -28.267885 4294967295
-67.767441 50.085606 -28.12114 4294967295
-67.767204 48.870331 -27.888329 4294967295
-67.766495 48.414902 -27.793871 4294967295
-67.765114 50.543037 -28.18062 4294967295
-67.764359 49.176361 -27.913107 4294967295
-67.760582 49.331131 -27.898331 4294967295
-67.758278 49.940647 -27.986776 4294967295
-67.757637 50.244976 -28.036936 4294967295
-67.754829 49.031448 -27.774498 4294967295
-67.735611 51.021553 -27.926838 4294967295
-67.654716 48.079433 -28.211632 4294967295
-67.648109 48.388031 -28.193108 4294967295
-67.641815 47.936783 -28.03458 4294967295
-67.639427 48.698185 -28.150717 4294967295
-67.638832 48.546703 -28.115097 4294967295
-67.637764 48.243607 -28.04538 4294967295
-67.634453 47.790096 -27.92115 4294967295
-67.627731 48.8587 -28.044889 4294967295
-67.621727 49.926586 -28.176802 4294967295
-67.621628 49.16708 -28.032152 4294967295
-67.618446 49.777153 -28.110441 4294967295
-67.61731 49.322227 -28.0112 4294967295
-67.612068 50.997101 -28.266739 4294967295
-67.604187 49.028008 -27.802938 4294967295
-67.602615 50.852539 -28.129412 4294967295
-67.601715 50.549427 -28.061644 4294967295
-67.598465 49.488232 -27.823305 4294967295
-67.592308 50.708572 -27.982246 4294967295
-67.500046 48.078976 -28.192532 4294967295
-67.482506 48.243549 -28.020115 4294967295
-67.479988 48.54929 -28.048559 4294967295
-67.474091 47.945633 -27.866219 4294967295
-67.473808 49.313522 -28.120998 4294967295
-67.473747 48.85775 -28.034321 4294967295
-67.468376 50.077137 -28.202059 4294967295
-67.465996 49.623192 -28.088772 4294967295
-67.465546 49.015736 -27.968962 4294967295
-67.464287 49.47253 -28.040524 4294967295
-67.461403 49.170753 -27.950169 4294967295
-67.45697 50.997158 -28.243275 4294967295
-67.443634 49.943867 -27.889805 4294967295
-67.443039 50.400204 -27.968998 4294967295
-67.436867 50.25293 -27.869638 4294967295
-67.435295 50.861973 -27.966257 4294967295
-67.43206 50.712505 -27.90052 4294967295
-67.334091 48.390503 -28.101967 4294967295
-67.327454 47.939346 -27.940224 4294967295
-67.320526 47.792274 -27.832329 4294967295
-67.317894 48.85815 -28.002676 4294967295
-67.316628 48.251118 -27.873623 4294967295
-67.311806 48.558609 -27.875822 4294967295
-67.304108 50.691692 -28.188421 4294967295
-67.303589 50.236343 -28.09663 4294967295
-67.303551 49.172642 -27.895922 4294967295
-67.301682 48.717983 -27.788694 4294967295
-67.296936 49.025497 -27.791693 4294967295
-67.296684 50.089607 -27.989164 4294967295
-67.289169 49.487286 -27.788744 4294967295
-67.288376 49.639885 -27.808313 4294967295
-67.278381 49.951389 -27.751356 4294967295
-67.272202 50.412098 -27.766603 4294967295
-67.173805 48.394058 -28.019678 4294967295
-67.167732 48.246426 -27.921892 4294967295
-67.159515 47.948246 -27.771004 4294967295
-67.157295 49.621891 -28.060003 4294967295
-67.155731 50.230824 -28.156439 4294967295
-67.155472 49.16732 -27.953501 4294967295
-67.154129 49.016312 -27.909626 4294967295
-67.152702 50.081173 -28.093342 4294967295
-67.150566 48.71487 -27.811935 4294967295
-67.141159 50.545727 -28.047522 4294967295
-67.138985 48.571217 -27.651237 4294967295
-67.138763 49.483639 -27.820295 4294967295
-67.138596 49.939785 -27.904026 4294967295
-67.138527 48.115292 -27.560247 4294967295
-67.136353 48.877254 -27.678461 4294967295
-67.133774 50.399368 -27.934809 4294967295
-67.132126 49.792606 -27.801798 4294967295
-67.126472 50.860851 -27.937319 4294967295
-67.033508 47.927307 -28.079721 4294967295
-67.023338 48.238533 -28.021103 4294967295
-67.019066 48.089577 -27.944017 4294967295
-67.015091 48.396442 -27.955881 4294967295
-67.013992 48.54924 -27.971899 4294967295
-67.008339 48.70533 -27.936138 4294967295
-67.00795 49.617508 -28.102863 4294967295
-67.003838 50.228352 -28.170202 4294967295
-67.003197 49.013081 -27.934769 4294967295
-66.998711 49.168365 -27.912304 4294967295
-66.996147 48.866192 -27.826126 4294967295
-66.993698 50.691818 -28.140535 4294967295
-66.988525 49.479877 -27.853636 4294967295
-66.982285 49.332443 -27.754189 4294967295
-66.980431 50.853874 -28.018311 4294967295
-66.972679 50.403797 -27.844738 4294967295
-66.972298 50.100048 -27.78327 4294967295
-66.969032 49.950447 -27.717718 4294967295
-66.964554 49.801727 -27.63826 4294967295
-66.855042 48.095661 -27.820461 4294967295
-66.849045 49.012192 -27.923422 4294967295
-66.844261 48.559536 -27.783737 4294967295
-66.843811 48.255722 -27.721651 4294967295
-66.839912 48.866783 -27.791452 4294967295
-66.839195 50.691315 -28.125025 4294967295
-66.83857 49.627926 -27.918652 4294967295
-66.83625 48.413208 -27.664436 4294967295
-66.833275 50.543839 -28.02944 4294967295
-66.831093 49.177311 -27.748474 4294967295
-66.827713 49.331844 -27.738636 4294967295
-66.826736 49.484615 -27.756073 4294967295
-66.821495 49.944645 -27.782072 4294967295
-66.820351 50.249569 -27.826057 4294967295
-66.81852 50.859001 -27.919212 4294967295
-66.809654 49.801373 -27.619471 4294967295
-66.701653 48.398266 -27.874939 4294967295
-66.700378 48.095058 -27.803633 4294967295
-66.687218 47.952267 -27.626442 4294967295
-66.680496 49.933994 -27.920183 4294967295
-66.680061 49.630264 -27.858395 4294967295
-66.675766 48.264629 -27.553843 4294967295
-66.674255 49.482483 -27.764357 4294967295
-66.671188 48.572147 -27.559021 4294967295
-66.669418 49.181862 -27.652794 4294967295
-66.66877 48.878128 -27.588579 4294967295
-66.667465 50.399788 -27.858271 4294967295
-66.665787 49.032398 -27.583319 4294967295
-66.664642 49.33744 -27.627314 4294967295
-66.663589 49.794476 -27.700689 4294967295
-66.662857 50.099148 -27.749311 4294967295
-66.656761 50.559875 -27.765734 4294967295
-66.652893 50.714844 -27.750504 4294967295
-66.64817 50.262184 -27.611834 4294967295
-66.548996 47.940037 -27.795715 4294967295
-66.533646 50.079731 -28.020058 4294967295
-66.532028 48.408325 -27.689606 4294967295
-66.531578 47.800159 -27.570869 4294967295
-66.528358 49.019325 -27.761803 4294967295
-66.524605 48.261486 -27.577509 4294967295
-66.524124 50.390839 -27.969574 4294967295
-66.518394 48.87442 -27.621134 4294967295
-66.511414 49.640011 -27.684465 4294967295
-66.508835 49.793995 -27.683802 4294967295
-66.504997 50.557213 -27.782482 4294967295
-66.502411 49.342373 -27.526224 4294967295
-66.498878 50.713879 -27.741894 4294967295
-66.496971 50.259068 -27.635317 4294967295
-66.401566 47.934319 -27.860609 4294967295
-66.383011 48.555779 -27.765404 4294967295
-66.379684 48.253929 -27.671335 4294967295
-66.378876 49.014999 -27.803974 4294967295
-66.376511 48.712521 -27.72068 4294967295
-66.375061 47.800758 -27.534286 4294967295
-66.373123 48.867046 -27.711039 4294967295
-66.370384 48.108356 -27.538414 4294967295
-66.36673 49.632137 -27.78084 4294967295
-66.36541 49.481018 -27.737671 4294967295
-66.362343 49.179043 -27.646526 4294967295
-66.35965 48.420269 -27.474468 4294967295
-66.358124 50.550877 -27.85424 4294967295
-66.356667 50.095779 -27.752796 4294967295
-66.354355 49.793304 -27.670174 4294967295
-66.350624 50.252346 -27.713264 4294967295
-66.35022 49.948448 -27.6521 4294967295
-66.346512 50.407494 -27.695396 4294967295
-66.247696 48.085201 -27.881437 4294967295
-66.223976 48.710373 -27.728786 4294967295
-66.221275 48.408047 -27.641869 4294967295
-66.221153 49.472862 -27.838669 4294967295
-66.220001 50.081944 -27.938869 4294967295
-66.218407 49.018581 -27.722963 4294967295
-66.214317 48.260811 -27.535627 4294967295
-66.213646 47.95694 -27.471437 4294967295
-66.21225 48.870876 -27.625664 4294967295
-66.211388 48.567204 -27.559374 4294967295
-66.210106 49.328793 -27.68656 4294967295
-66.208069 49.786587 -27.748585 4294967295
-66.207909 50.242943 -27.831684 4294967295
-66.205353 49.94067 -27.746513 4294967295
-66.204185 49.637325 -27.676798 4294967295
-66.203026 50.550705 -27.833586 4294967295
-66.185928 50.411362 -27.613758 4294967295
-66.079384 49.310879 -27.938725 4294967295
-66.077477 47.791157 -27.634874 4294967295
-66.076965 48.24794 -27.713909 4294967295
-66.068886 49.774696 -27.906136 4294967295
-66.068237 48.406227 -27.644585 4294967295
-66.067383 49.471638 -27.832897 4294967295
-66.066338 48.863979 -27.708147 4294967295
-66.066124 49.624641 -27.847031 4294967295
-66.065941 50.080975 -27.929708 4294967295
-66.058441 47.956585 -27.450329 4294967295
-66.058075 49.022022 -27.644073 4294967295
-66.054123 48.568371 -27.515083 4294967295
-66.053009 48.721329 -27.530977 4294967295
-66.050179 49.940483 -27.725361 4294967295
-66.039566 50.252518 -27.663353 4294967295
-66.027657 50.565613 -27.586746 4294967295
-65.935143 47.934021 -27.785139 4294967295
-65.921303 48.095806 -27.659101 4294967295
-65.919518 49.009853 -27.808456 4294967295
-65.915863 49.316685 -27.824144 4294967295
-65.904938 49.172421 -27.674204 4294967295
-65.90358 48.869095 -27.602615 4294967295
-65.902077 48.565819 -27.529449 4294967295
-65.901772 48.413853 -27.497772 4294967295
-65.900581 50.088291 -27.794909 4294967295
-65.899506 49.48061 -27.670078 4294967295
-65.895058 47.809669 -27.310017 4294967295
-65.89312 48.72435 -27.457865 4294967295
-65.89241 48.268219 -27.36521 4294967295
-65.891579 49.638496 -27.609966 4294967295
-65.871986 50.413631 -27.532709 4294967295
-65.763405 48.249523 -27.636116 4294967295
-65.761612 48.555107 -27.672541 4294967295
-65.760521 49.01231 -27.744951 4294967295
-65.756187 49.47179 -27.781298 4294967295
-65.75042 47.954178 -27.435423 4294967295
-65.748375 48.716618 -27.553635 4294967295
-65.745056 49.93623 -27.742052 4294967295
-65.741783 49.634338 -27.649328 4294967295
-65.739944 48.87479 -27.48807 4294967295
-65.736427 49.181686 -27.505314 4294967295
-65.727898 49.79657 -27.52327 4294967295
-65.727547 49.340252 -27.434834 4294967295
-65.615196 49.157131 -27.861519 4294967295
-65.59787 50.38649 -27.894413 4294967295
-65.596878 47.952629 -27.433468 4294967295
-65.595459 48.105843 -27.445877 4294967295
-65.591606 49.782604 -27.712574 4294967295
-65.590164 49.47934 -27.640347 4294967295
-65.583664 48.57077 -27.399584 4294967295
-65.583405 49.332012 -27.537365 4294967295
-65.57872 50.248432 -27.654173 4294967295
-65.574593 50.099289 -27.580347 4294967295
-65.457825 47.941071 -27.59193 4294967295
-65.454514 47.791138 -27.527233 4294967295
-65.454063 48.400265 -27.6346 4294967295
-65.451942 49.923237 -27.891823 4294967295
-65.447594 49.165695 -27.703463 4294967295
-65.446083 48.862423 -27.630621 4294967295
-65.444824 49.015495 -27.644737 4294967295
-65.439796 48.257996 -27.448767 4294967295
-65.439735 48.562489 -27.504295 4294967295
-65.43602 49.63047 -27.659796 4294967295
-65.432556 48.110771 -27.340647 4294967295
-65.431587 48.720432 -27.442333 4294967295
-65.427757 49.788609 -27.596531 4294967295
-65.423508 50.248215 -27.633787 4294967295
-65.421806 50.097282 -27.586954 4294967295
-65.310959 48.391479 -27.747585 4294967295
-65.309242 48.697002 -27.784742 4294967295
-65.304962 49.00433 -27.793554 4294967295
-65.296112 48.097382 -27.527788 4294967295
-65.294434 48.555191 -27.593483 4294967295
-65.293633 49.620991 -27.780823 4294967295
-65.292419 49.317547 -27.711399 4294967295
-65.290253 48.86253 -27.603443 4294967295
-65.288857 50.08086 -27.812281 4294967295
-65.284279 49.475533 -27.649689 4294967295
-65.280594 49.9347 -27.693201 4294967295
-65.27803 50.240879 -27.721006 4294967295
-65.276466 49.785507 -27.619654 4294967295
-65.270241 47.962948 -27.214521 4294967295
-65.164841 47.928303 -27.743027 4294967295
-65.150452 48.394806 -27.668776 4294967295
-65.149475 48.852043 -27.742048 4294967295
-65.147758 49.461903 -27.835062 4294967295
-65.139748 48.706676 -27.607065 4294967295
-65.138206 49.012165 -27.646112 4294967295
-65.135788 49.774773 -27.759514 4294967295
-65.134972 48.101055 -27.442564 4294967295
-65.133179 47.797749 -27.366863 4294967295
-65.13176 49.321117 -27.631256 4294967295
-65.128929 50.236198 -27.768087 4294967295
-65.126472 48.563713 -27.433161 4294967295
-65.124695 50.087109 -27.693575 4294967295
-65.116013 49.180065 -27.430147 4294967295
-64.999153 48.39172 -27.691509 4294967295
-64.99469 49.612244 -27.866163 4294967295
-64.993698 47.938808 -27.547859 4294967295
-64.991791 48.244587 -27.582912 4294967295
-64.984375 49.163052 -27.669287 4294967295
-64.967712 48.565765 -27.374834 4294967295
-64.966164 49.784832 -27.581457 4294967295
-64.966087 50.089298 -27.636497 4294967295
-64.961456 49.94043 -27.557781 4294967295
-64.960945 48.875046 -27.356537 4294967295
-64.959122 49.028606 -27.364502 4294967295
-64.957085 49.486843 -27.426054 4294967295
-64.841469 49.306221 -27.81193 4294967295
-64.833321 49.768528 -27.806471 4294967295
-64.831535 48.552143 -27.563801 4294967295
-64.825432 49.469769 -27.664457 4294967295
-64.824081 49.927315 -27.733456 4294967295
-64.817085 49.627914 -27.60116 4294967295
-64.813057 48.869518 -27.417574 4294967295
-64.812538 47.956066 -27.244379 4294967295
-64.81057 49.175797 -27.446251 4294967295
-64.808258 49.02515 -27.393057 4294967295
-64.805801 50.092663 -27.561514 4294967295
-64.803917 48.266632 -27.205971 4294967295
-64.691452 48.541271 -27.709373 4294967295
-64.690208 49.15094 -27.807171 4294967295
-64.684769 48.241405 -27.58075 4294967295
-64.676567 48.094753 -27.463425 4294967295
-64.675735 49.008869 -27.621574 4294967295
-64.675674 49.313362 -27.676617 4294967295
-64.675537 47.790871 -27.396452 4294967295
-64.674301 50.075317 -27.800873 4294967295
-64.673126 48.7062 -27.537397 4294967295
-64.670135 48.860535 -27.532631 4294967295
-64.669106 49.926853 -27.716434 4294967295
-64.650719 49.483223 -27.432442 4294967295
-64.530273 48.849461 -27.680468 4294967295
-64.52459 49.005646 -27.646547 4294967295
-64.523582 49.158585 -27.663393 4294967295
-64.518433 48.248569 -27.440485 4294967295
-64.51416 47.946861 -27.338322 4294967295
-64.513542 48.556515 -27.442953 4294967295
-64.513458 49.470165 -27.608971 4294967295
-64.511177 48.405842 -27.389395 4294967295
-64.507446 49.626663 -27.571392 4294967295
-64.506439 49.931858 -27.616098 4294967295
-64.501503 48.1078 -27.22855 4294967295
-64.495552 49.330505 -27.386486 4294967295
-64.492867 49.789268 -27.440733 4294967295
-64.385941 48.384842 -27.695866 4294967295
-64.382027 48.539764 -27.681242 4294967295
-64.368294 49.462727 -27.698923 4294967295
-64.365753 48.094055 -27.4214 4294967295
-64.356224 49.014397 -27.484783 4294967295
-64.353592 48.711624 -27.400663 4294967295
-64.351387 48.256161 -27.293362 4294967295
-64.346703 47.954628 -27.186962 4294967295
-64.344437 49.631794 -27.468094 4294967295
-64.342613 48.871536 -27.309387 4294967295
-64.341484 49.786167 -27.463861 4294967295
-64.219452 48.848915 -27.637951 4294967295
-64.216644 49.612083 -27.746202 4294967295
-64.214409 48.547836 -27.527946 4294967295
-64.212463 48.092247 -27.423691 4294967295
-64.211586 49.158894 -27.608368 4294967295
-64.210327 47.94136 -27.372849 4294967295
-64.209183 49.465092 -27.637774 4294967295
-64.202614 48.251263 -27.344889 4294967295
-64.199272 49.015163 -27.447468 4294967295
-64.198334 49.777245 -27.576008 4294967295
-64.197975 48.406765 -27.322447 4294967295
-64.18869 49.936348 -27.499466 4294967295
-64.066795 48.237587 -27.536001 4294967295
-64.066734 48.999023 -27.673813 4294967295
-64.060356 48.089626 -27.4389 4294967295
-64.059883 49.612804 -27.710625 4294967295
-64.057068 48.396507 -27.458763 4294967295
-64.055443 48.549927 -27.468966 4294967295
-64.054237 48.85537 -27.511358 4294967295
-64.052361 49.161259 -27.546499 4294967295
-64.034821 49.325768 -27.385002 4294967295
-63.923588 47.924377 -27.591486 4294967295
-63.913364 48.540482 -27.592079 4294967295
-63.906494 48.088188 -27.435251 4294967295
-63.902641 49.004719 -27.559692 4294967295
-63.898281 48.703091 -27.45752 4294967295
-63.89613 49.466114 -27.572584 4294967295
-63.895935 48.400017 -27.376949 4294967295
-63.891033 49.621967 -27.545429 4294967295
-63.886833 49.167953 -27.41732 4294967295
-63.885643 48.254623 -27.238577 4294967295
-63.880657 49.324574 -27.378576 4294967295
-63.759384 48.843746 -27.64226 4294967295
-63.755299 49.455673 -27.708805 4294967295
-63.75124 49.153927 -27.610079 4294967295
-63.75119 48.392395 -27.471514 4294967295
-63.750187 47.93602 -27.377932 4294967295
-63.748398 49.003586 -27.55201 4294967295
-63.744164 49.615707 -27.61701 4294967295
-63.74411 48.701878 -27.450809 4294967295
-63.740978 48.551666 -27.389601 4294967295
-63.740944 49.770248 -27.610056 4294967295
-63.740616 49.31358 -27.523741 4294967295
-63.737297 47.792244 -27.212002 4294967295
-63.734386 48.098995 -27.236021 4294967295
-63.611919 48.076466 -27.569189 4294967295
-63.610653 47.924984 -27.528069 4294967295
-63.603909 48.843452 -27.621315 4294967295
-63.593079 49.155499 -27.560568 4294967295
-63.59235 49.003677 -27.525202 4294967295
-63.591614 48.39481 -27.407063 4294967295
-63.584682 49.465935 -27.52586 4294967295
-63.581955 48.706085 -27.358881 4294967295
-63.573986 48.559116 -27.246023 4294967295
-63.566246 49.326355 -27.301094 4294967295
-63.564644 49.632206 -27.339113 4294967295
-63.453178 48.535278 -27.596214 4294967295
-63.439285 48.849373 -27.503004 4294967295
-63.437836 48.393288 -27.404938 4294967295
-63.434032 49.005306 -27.474464 4294967295
-63.432411 48.092152 -27.292025 4294967295
-63.431702 49.616245 -27.559702 4294967295
-63.42421 49.469105 -27.452246 4294967295
-63.420437 48.70982 -27.27437 4294967295
-63.290157 48.692371 -27.522915 4294967295
-63.288334 48.084126 -27.393538 4294967295
-63.281334 48.850712 -27.45648 4294967295
-63.280575 48.241699 -27.338446 4294967295
-63.276882 49.310822 -27.491583 4294967295
-63.268208 48.402401 -27.234341 4294967295
-63.266293 48.55611 -27.241451 4294967295
-63.144104 48.228592 -27.520548 4294967295
-63.13826 49.603561 -27.705408 4294967295
-63.13427 48.539917 -27.471045 4294967295
-63.130566 48.694786 -27.459146 4294967295
-63.12949 48.390739 -27.392851 4294967295
-63.126457 49.459377 -27.552742 4294967295
-63.12598 49.002632 -27.465393 4294967295
-63.125481 47.936176 -27.267939 4294967295
-63.116211 49.161671 -27.389158 4294967295
-63.116066 48.856983 -27.332703 4294967295
-63.103329 49.322884 -27.279903 4294967295
-62.991653 48.226173 -27.532614 4294967295
-62.977516 49.149868 -27.54735 4294967295
-62.977211 47.93095 -27.324911 4294967295
-62.969334 48.85067 -27.40596 4294967295
-62.962616 48.397934 -27.25264 4294967295
-62.959305 48.705021 -27.272404 4294967295
-62.959198 49.009937 -27.326078 4294967295
-62.952061 48.100037 -27.086054 4294967295
-62.944588 49.324738 -27.226273 4294967295
-62.942299 49.478741 -27.229437 4294967295
-62.829628 48.230099 -27.443672 4294967295
-62.829052 47.925659 -27.382877 4294967295
-62.827343 48.536415 -27.474276 4294967295
-62.8251 48.080685 -27.368521 4294967295
-62.823734 49.148361 -27.545628 4294967295
-62.822124 48.387493 -27.391825 4294967295
-62.813675 49.307583 -27.466789 4294967295
-62.806843 48.702564 -27.285221 4294967295
-62.804905 49.465965 -27.401598 4294967295
-62.674809 49.29591 -27.622486 4294967295
-62.674122 47.92482 -27.369387 4294967295
-62.673805 48.229881 -27.420687 4294967295
-62.671062 48.536526 -27.44648 4294967295
-62.664188 48.998352 -27.456038 4294967295
-62.662727 48.389652 -27.331373 4294967295
-62.661533 48.695309 -27.373465 4294967295
-62.660934 49.15295 -27.449095 4294967295
-62.654202 48.852661 -27.323574 4294967295
-62.637444 48.101429 -27.010443 4294967295
-62.516407 47.925793 -27.326874 4294967295
-62.516083 48.078457 -27.350735 4294967295
-62.504593 48.23848 -27.257366 4294967295
-62.498959 48.39468 -27.225445 4294967295
-62.496304 49.158737 -27.334015 4294967295
-62.488876 48.706345 -27.174156 4294967295
-62.485851 47.793266 -26.97859 4294967295
-62.484795 49.014038 -27.185894 4294967295
-62.36578 48.37944 -27.440704 4294967295
-62.356304 48.08078 -27.28693 4294967295
-62.354973 48.234123 -27.300262 4294967295
-62.349857 48.542431 -27.301168 4294967295
-62.348381 49.305641 -27.421888 4294967295
-62.34779 47.933865 -27.170481 4294967295
-62.341343 48.853035 -27.26646 4294967295
-62.340881 49.158264 -27.316114 4294967295
-62.323803 48.712246 -27.055479 4294967295
-62.316647 49.022076 -27.035067 4294967295
-62.203747 48.07835 -27.299063 4294967295
-62.197308 48.692471 -27.340622 4294967295
-62.189049 48.392975 -27.199938 4294967295
-62.187737 47.936295 -27.104591 4294967295
-62.184269 47.786015 -27.041111 4294967295
-62.175346 49.164574 -27.192846 4294967295
-62.174252 49.01281 -27.154202 4294967295
-62.164162 48.867031 -27.021566 4294967295
-62.028645 49.158211 -27.266521 4294967295
-62.02499 48.092999 -27.038258 4294967295
-62.020935 48.400753 -27.05036 4294967295
-62.020645 48.24839 -27.02018 4294967295
-62.020519 47.943348 -26.964495 4294967295
-62.016151 48.55645 -27.027702 4294967295
-62.007462 48.714752 -26.964334 4294967295
-62.006027 49.020824 -27.003748 4294967295
-61.88134 48.237251 -27.170988 4294967295
-61.878044 49.001976 -27.272381 4294967295
-61.87698 48.850182 -27.234203 4294967295
-61.874813 48.699104 -27.184559 4294967295
-61.873966 49.157192 -27.257113 4294967295
-61.864925 48.553093 -27.05464 4294967295
-61.860794 48.098083 -26.930286 4294967295
-61.859829 47.946114 -26.893137 4294967295
-61.854134 48.407612 -26.915337 4294967295
-61.728386 48.540089 -27.233883 4294967295
-61.724434 47.932507 -27.084513 4294967295
-61.716625 48.85289 -27.166136 4294967295
-61.716129 48.70068 -27.133928 4294967295
-61.712605 47.787556 -26.934771 4294967295
-61.697281 48.102676 -26.830128 4294967295
-61.695038 48.25676 -26.833958 4294967295
-61.69191 48.411419 -26.828638 4294967295
-61.573757 48.538982 -27.225271 4294967295
-61.573505 48.23407 -27.168587 4294967295
-61.570694 48.846046 -27.247702 4294967295
-61.562862 49.00375 -27.193787 4294967295
-61.558784 48.396214 -27.043411 4294967295
-61.551613 48.706062 -27.023394 4294967295
-61.547127 47.945961 -26.841661 4294967295
-61.431763 47.91951 -27.239113 4294967295
-61.426563 48.380482 -27.266514 4294967295
-61.418667 48.233063 -27.158077 4294967295
-61.416981 48.691807 -27.221754 4294967295
-61.385818 48.559616 -26.873362 4294967295
-61.385502 48.865059 -26.924158 4294967295
-61.249317 48.088806 -26.971537 4294967295
-61.247959 47.937057 -26.930576 4294967295
-61.236904 48.402073 -26.897848 4294967295
-61.236744 48.249542 -26.869181 4294967295
-61.236095 48.707848 -26.943501 4294967295
-61.234688 48.556145 -26.90204 4294967295
-61.23011 48.864391 -26.908928 4294967295
-61.113834 48.07531 -27.160503 4294967295
-61.105877 47.927814 -27.051886 4294967295
-61.102581 48.692898 -27.152784 4294967295
-61.100395 48.236546 -27.049536 4294967295
-61.087635 48.55003 -26.972511 4294967295
-61.066486 48.869102 -26.809435 4294967295
-60.946796 48.387299 -27.079466 4294967295
-60.945282 48.235664 -27.03705 4294967295
-60.934753 48.089783 -26.902414 4294967295
-60.926632 47.942307 -26.792362 4294967295
-60.921547 48.708916 -26.874884 4294967295
-60.912415 48.562176 -26.75452 4294967295
-60.775841 47.785915 -26.797899 4294967295
-60.772999 48.551102 -26.903297 4294967295
-60.765251 48.25074 -26.77046 4294967295
-60.754288 48.410488 -26.685406 4294967295
-60.633869 48.387253 -27.027498 4294967295
-60.632507 48.235481 -26.986797 4294967295
-60.632298 48.540901 -27.038309 4294967295
-60.63208 48.083103 -26.955608 4294967295
-60.629776 47.9319 -26.905338 4294967295
-60.610031 47.791702 -26.677425 4294967295
-60.48867 48.22736 -27.089552 4294967295
-60.471836 48.543434 -26.972155 4294967295
-60.463612 47.937935 -26.781458 4294967295
-60.452351 47.792316 -26.640257 4294967295
-60.44696 48.101223 -26.639124 4294967295
-60.327122 48.077866 -26.985712 4294967295
-60.312298 48.23996 -26.862316 4294967295
-60.310009 48.54681 -26.892632 4294967295
-60.302269 48.399063 -26.787477 4294967295
-60.302002 47.941048 -26.704462 4294967295
-60.181007 48.376522 -27.118608 4294967295
-60.162262 48.235767 -26.902506 4294967295
-60.151184 47.937328 -26.737095 4294967295
-60.144241 48.552673 -26.773863 4294967295
-60.129574 48.103725 -26.545473 4294967295
-60.026592 47.917145 -27.034061 4294967295
-60.022003 48.072712 -27.014467 4294967295
-60.004143 48.236694 -26.86113 4294967295
-59.994041 48.395824 -26.786034 4294967295
-59.990692 47.786915 -26.645508 4294967295
-59.841156 48.240669 -26.7712 4294967295
-59.833988 48.397961 -26.72579 4294967295
-59.833233 47.940117 -26.638258 4294967295
-59.832798 48.09317 -26.660536 4294967295
-59.830822 47.788834 -26.587328 4294967295
-59.707973 48.073132 -26.954124 4294967295
-59.705059 48.227676 -26.951525 4294967295
-59.697235 47.92712 -26.819859 4294967295
-59.668396 48.403564 -26.610498 4294967295
-59.548275 48.227726 -26.924137 4294967295
-59.509312 47.946526 -26.481224 4294967295
-59.397381 48.071327 -26.929276 4294967295
-59.356113 48.249916 -26.544044 4294967295
-59.223217 47.929348 -26.702866 4294967295
-59.204182 48.093998 -26.539894 4294967295
-59.203598 47.788651 -26.481058 4294967295
-59.064789 48.08313 -26.686821 4294967295
-59.046478 47.788754 -26.452047 4294967295
-58.892109 47.940037 -26.477028 4294967295
-58.891354 47.787613 -26.443087 4294967295
-58.751949 47.929691 -26.616047 4294967295
-58.583248 47.936897 -26.473217 4294967295
-58.433159 47.932652 -26.514238 4294967295
-62.897011 23.52836 -25.364445 4294967295
-62.438351 23.36618 -25.363001 4294967295
-62.423222 24.289085 -25.368166 4294967295
-62.284657 23.210142 -25.336035 4294967295
-62.283741 22.750622 -25.244347 4294967295
-62.126472 23.055098 -25.262325 4294967295
-62.122524 22.902725 -25.19368 4294967295
-62.116928 23.363817 -25.217049 4294967295
-61.970905 22.592836 -25.161837 4294967295
-61.968231 23.819571 -25.352158 4294967295
-61.941681 25.358562 -25.347759 4294967295
-61.817612 23.509541 -25.330685 4294967295
-61.809174 23.971298 -25.324516 4294967295
-61.678104 22.430643 -25.288799 4294967295
-61.665653 22.893227 -25.241064 4294967295
-61.664284 23.353369 -25.308435 4294967295
-61.66394 22.587008 -25.168829 4294967295
-61.659828 23.507671 -25.289331 4294967295
-61.656097 22.742041 -25.114567 4294967295
-61.6558 23.661888 -25.274706 4294967295
-61.639999 25.045095 -25.355362 4294967295
-61.514545 22.889793 -25.269207 4294967295
-61.509151 23.197582 -25.267656 4294967295
-61.493801 23.047747 -25.081434 4294967295
-61.487328 24.122456 -25.204531 4294967295
-61.482445 25.196577 -25.344046 4294967295
-61.478134 25.044441 -25.272247 4294967295
-61.476864 25.504541 -25.340548 4294967295
-61.373501 22.73086 -25.374273 4294967295
-61.36594 22.885805 -25.323236 4294967295
-61.364376 23.039436 -25.334219 4294967295
-61.363621 22.426414 -25.217913 4294967295
-61.353714 23.348425 -25.278269 4294967295
-61.339371 24.27153 -25.292767 4294967295
-61.332027 24.42662 -25.244038 4294967295
-61.315586 26.116823 -25.372461 4294967295
-61.314152 25.504181 -25.24922 4294967295
-61.219723 22.728016 -25.374712 4294967295
-61.211494 22.423197 -25.235695 4294967295
-61.20599 22.271036 -25.151865 4294967295
-61.197781 23.499392 -25.283936 4294967295
-61.185352 24.728622 -25.372448 4294967295
-61.18325 22.88936 -25.025797 4294967295
-61.182064 23.349691 -25.094835 4294967295
-61.170143 25.498852 -25.351126 4294967295
-61.159214 25.808302 -25.292721 4294967295
-61.064259 22.265623 -25.276791 4294967295
-61.058167 22.726864 -25.295284 4294967295
-61.053062 22.881294 -25.269848 4294967295
-61.052963 22.574675 -25.214733 4294967295
-61.050636 23.18845 -25.299 4294967295
-61.043427 23.343395 -25.251892 4294967295
-61.027092 23.80715 -25.165133 4294967295
-61.022636 23.501503 -25.065222 4294967295
-61.021389 24.115168 -25.160582 4294967295
-61.013817 25.036928 -25.245031 4294967295
-61.013367 25.496904 -25.321487 4294967295
-60.906155 22.570311 -25.287291 4294967295
-60.90593 22.723675 -25.311998 4294967295
-60.901588 22.417957 -25.213442 4294967295
-60.897789 23.338709 -25.336515 4294967295
-60.888676 23.034121 -25.189053 4294967295
-60.87941 23.802895 -25.229057 4294967295
-60.879406 24.262823 -25.310041 4294967295
-60.878029 22.269554 -24.944805 4294967295
-60.87706 24.110086 -25.259001 4294967295
-60.876331 23.496943 -25.143517 4294967295
-60.870884 23.19146 -25.033615 4294967295
-60.867561 24.57234 -25.242607 4294967295
-60.864429 25.339609 -25.345493 4294967295
-60.863049 24.726776 -25.223385 4294967295
-60.849815 25.650034 -25.249722 4294967295
-60.848068 26.263645 -25.339825 4294967295
-60.846943 25.957394 -25.274302 4294967295
-60.74287 23.182819 -25.298965 4294967295
-60.739822 22.11002 -25.078999 4294967295
-60.738487 22.417055 -25.119259 4294967295
-60.729675 22.725689 -25.083061 4294967295
-60.727264 22.266027 -24.977489 4294967295
-60.727234 22.879597 -25.085091 4294967295
-60.722885 23.95405 -25.229389 4294967295
-60.716022 24.875605 -25.320993 4294967295
-60.713516 24.569614 -25.241455 4294967295
-60.709564 24.263918 -25.147108 4294967295
-60.709274 24.41733 -25.171101 4294967295
-60.703892 23.805174 -25.008177 4294967295
-60.702827 25.33889 -25.266973 4294967295
-60.701706 24.112452 -25.039782 4294967295
-60.690269 25.955441 -25.246433 4294967295
-60.686192 26.109854 -25.231737 4294967295
-60.685349 25.496782 -25.115269 4294967295
-60.59734 22.411503 -25.249741 4294967295
-60.587402 22.106842 -25.094463 4294967295
-60.586746 23.180502 -25.27631 4294967295
-60.585659 22.26059 -25.103613 4294967295
-60.582573 22.721371 -25.152937 4294967295
-60.579147 23.795542 -25.30649 4294967295
-60.576878 23.02935 -25.148678 4294967295
-60.56839 23.644709 -25.169828 4294967295
-60.562508 24.872761 -25.325245 4294967295
-60.557301 24.260738 -25.164442 4294967295
-60.553127 24.568451 -25.175728 4294967295
-60.551071 24.722303 -25.181683 4294967295
-60.545231 24.417032 -25.068275 4294967295
-60.544724 25.490568 -25.25157 4294967295
-60.539806 25.185183 -25.147598 4294967295
-60.537956 25.339003 -25.155668 4294967295
-60.535252 26.259647 -25.289614 4294967295
-60.534943 25.03307 -25.071077 4294967295
-60.534927 25.646471 -25.178638 4294967295
-60.529247 25.801317 -25.147617 4294967295
-60.526184 25.955477 -25.143337 4294967295
-60.437267 22.870018 -25.26775 4294967295
-60.420727 24.253778 -25.341427 4294967295
-60.420509 24.100513 -25.312321 4294967295
-60.419636 23.640713 -25.222759 4294967295
-60.418354 24.560972 -25.371052 4294967295
-60.418026 22.107145 -24.937397 4294967295
-60.417648 23.027689 -25.094976 4294967295
-60.413712 23.18195 -25.081821 4294967295
-60.411697 23.949265 -25.195795 4294967295
-60.411449 23.489227 -25.112574 4294967295
-60.410778 22.722382 -24.971239 4294967295
-60.410545 22.569006 -24.94199 4294967295
-60.410072 22.262232 -24.883343 4294967295
-60.407284 25.176956 -25.365961 4294967295
-60.400642 25.485271 -25.352194 4294967295
-60.399548 23.338531 -24.964584 4294967295
-60.399448 25.332277 -25.313171 4294967295
-60.393349 24.873842 -25.170477 4294967295
-60.387421 24.72196 -25.083292 4294967295
-60.380852 25.030357 -25.07025 4294967295
-60.380264 26.103931 -25.252491 4294967295
-60.372009 26.259506 -25.195436 4294967295
-60.29911 22.250439 -25.320509 4294967295
-60.288406 22.099283 -25.18495 4294967295
-60.285248 23.020115 -25.314013 4294967295
-60.279266 22.714706 -25.199593 4294967295
-60.277203 23.48193 -25.312893 4294967295
-60.275997 22.868784 -25.193256 4294967295
-60.272774 22.56271 -25.10681 4294967295
-60.26688 23.637638 -25.234991 4294967295
-60.265572 22.410822 -25.006844 4294967295
-60.260883 23.178875 -25.093546 4294967295
-60.253407 23.794123 -25.125095 4294967295
-60.248768 24.715405 -25.239153 4294967295
-60.244816 25.023073 -25.252762 4294967295
-60.242954 23.949957 -25.045883 4294967295
-60.236507 25.791859 -25.302671 4294967295
-60.23159 24.566273 -25.037998 4294967295
-60.23148 25.94652 -25.278513 4294967295
-60.227894 26.100807 -25.269016 4294967295
-60.225475 26.254786 -25.27133 4294967295
-60.214851 25.490852 -25.029308 4294967295
-60.131401 23.017271 -25.314949 4294967295
-60.128353 22.711212 -25.230482 4294967295
-60.125854 22.865122 -25.231981 4294967295
-60.12487 22.251781 -25.114752 4294967295
-60.124523 22.558649 -25.164845 4294967295
-60.118862 23.480124 -25.268423 4294967295
-60.114037 23.327848 -25.192755 4294967295
-60.111801 21.947594 -24.928705 4294967295
-60.103878 23.636915 -25.143562 4294967295
-60.102905 24.557314 -25.29458 4294967295
-60.10252 24.864071 -25.344292 4294967295
-60.097546 25.171967 -25.347572 4294967295
-60.097248 22.410967 -24.861805 4294967295
-60.091156 23.793247 -25.041588 4294967295
-60.087597 25.327841 -25.273731 4294967295
-60.078312 26.250242 -25.340595 4294967295
-60.078159 26.096968 -25.312265 4294967295
-60.075619 24.41058 -24.991608 4294967295
-60.068481 25.639513 -25.133905 4294967295
-60.067326 25.946541 -25.175856 4294967295
-60.066364 25.486691 -25.085682 4294967295
-59.985981 22.245806 -25.267271 4294967295
-59.983467 22.55307 -25.295427 4294967295
-59.977795 21.940689 -25.130993 4294967295
-59.975887 22.401285 -25.19206 4294967295
-59.971298 22.095419 -25.092138 4294967295
-59.970192 22.862656 -25.214901 4294967295
-59.966908 23.783562 -25.34239 4294967295
-59.965157 23.323893 -25.244364 4294967295
-59.956871 22.712118 -25.053553 4294967295
-59.956295 23.019075 -25.101334 4294967295
-59.954163 24.706608 -25.374302 4294967295
-59.953968 23.633179 -25.184956 4294967295
-59.953571 24.553423 -25.341564 4294967295
-59.947075 23.174522 -25.034983 4294967295
-59.93639 23.483772 -24.980637 4294967295
-59.936234 24.097483 -25.086191 4294967295
-59.935692 24.404402 -25.134319 4294967295
-59.923512 23.947054 -24.930952 4294967295
-59.920692 25.175049 -25.116789 4294967295
-59.912182 25.944143 -25.164736 4294967295
-59.833328 22.089293 -25.253723 4294967295
-59.817242 22.399401 -25.145117 4294967295
-59.814762 21.939627 -25.039892 4294967295
-59.813221 22.707066 -25.158121 4294967295
-59.807247 23.47534 -25.231651 4294967295
-59.805897 24.24246 -25.351709 4294967295
-59.803402 23.782972 -25.246384 4294967295
-59.801662 23.323204 -25.148623 4294967295
-59.800785 23.169991 -25.113068 4294967295
-59.798492 23.937487 -25.223658 4294967295
-59.79689 24.091238 -25.23427 4294967295
-59.790867 24.39942 -25.227089 4294967295
-59.785088 22.559586 -24.847887 4294967295
-59.784546 25.321127 -25.323856 4294967295
-59.767349 25.17214 -25.123985 4294967295
-59.766376 25.479158 -25.167645 4294967295
-59.761055 25.787298 -25.167551 4294967295
-59.760357 24.867079 -25.00009 4294967295
-59.747578 25.944252 -25.05862 4294967295
-59.745495 25.63798 -24.984198 4294967295
-59.675678 21.93376 -25.190132 4294967295
-59.670513 22.70182 -25.271751 4294967295
-59.661453 22.243486 -25.100557 4294967295
-59.657063 22.09094 -25.029701 4294967295
-59.656502 23.011623 -25.184357 4294967295
-59.655514 23.625401 -25.281218 4294967295
-59.6549 21.784451 -24.954533 4294967295
-59.651806 23.166058 -25.163837 4294967295
-59.640106 22.554821 -24.939421 4294967295
-59.639595 23.32218 -25.067881 4294967295
-59.635838 24.85701 -25.297152 4294967295
-59.635281 23.93684 -25.131332 4294967295
-59.63306 24.550949 -25.215849 4294967295
-59.632309 24.704512 -25.234991 4294967295
-59.630257 24.398237 -25.16099 4294967295
-59.626392 24.092335 -25.068762 4294967295
-59.624256 23.479061 -24.940445 4294967295
-59.621941 25.627319 -25.291067 4294967295
-59.620518 24.24715 -25.036457 4294967295
-59.616661 26.242094 -25.34481 4294967295
-59.616657 25.93541 -25.291397 4294967295
-59.608604 25.017178 -25.050339 4294967295
-59.605801 25.784908 -25.155668 4294967295
-59.604832 25.171547 -25.03916 4294967295
-59.599388 25.479773 -25.037903 4294967295
-59.596634 25.327055 -24.983517 4294967295
-59.522392 22.390961 -25.27733 4294967295
-59.507885 21.933636 -25.051891 4294967295
-59.499542 22.702579 -25.101622 4294967295
-59.492393 22.857544 -25.056606 4294967295
-59.487076 24.699606 -25.323324 4294967295
-59.486599 21.784372 -24.811756 4294967295
-59.483665 22.245485 -24.862392 4294967295
-59.479229 23.320766 -25.004686 4294967295
-59.478058 23.167566 -24.96629 4294967295
-59.47699 25.008831 -25.275604 4294967295
-59.476849 25.162233 -25.300825 4294967295
-59.475544 24.0888 -25.101131 4294967295
-59.47435 25.469585 -25.329128 4294967295
-59.473087 23.015177 -24.889765 4294967295
-59.471375 23.782894 -25.006012 4294967295
-59.471233 24.24324 -25.084608 4294967295
-59.470097 23.629732 -24.966501 4294967295
-59.469536 23.476395 -24.934204 4294967295
-59.467037 24.397667 -25.069214 4294967295
-59.444969 25.63056 -25.061504 4294967295
-59.444527 26.244287 -25.163713 4294967295
-59.441853 26.09161 -25.110279 4294967295
-59.437092 25.939465 -25.035912 4294967295
-59.351444 22.698477 -25.1612 4294967295
-59.349358 23.312588 -25.246859 4294967295
-59.348663 22.545626 -25.106756 4294967295
-59.344574 23.006805 -25.14576 4294967295
-59.340588 21.779896 -24.892763 4294967295
-59.339855 22.087034 -24.938753 4294967295
-59.338409 24.388817 -25.323776 4294967295
-59.336773 23.468803 -25.147686 4294967295
-59.328938 23.623999 -25.095989 4294967295
-59.325958 24.698584 -25.252592 4294967295
-59.325371 24.85211 -25.273352 4294967295
-59.323303 21.936836 -24.746546 4294967295
-59.322681 22.244024 -24.793642 4294967295
-59.320972 25.620052 -25.362518 4294967295
-59.320152 23.779444 -25.034781 4294967295
-59.316231 25.927992 -25.368349 4294967295
-59.313824 23.934355 -24.998138 4294967295
-59.312782 24.241499 -25.041025 4294967295
-59.312271 23.167303 -24.849422 4294967295
-59.312225 24.088181 -25.008835 4294967295
-59.310265 25.162653 -25.175644 4294967295
-59.308388 24.549433 -25.050377 4294967295
-59.305916 25.317156 -25.158804 4294967295
-59.304909 25.470816 -25.175369 4294967295
-59.289742 25.014355 -24.943941 4294967295
-59.285313 25.782719 -25.032858 4294967295
-59.210949 22.385954 -25.243273 4294967295
-59.209072 22.079477 -25.17137 4294967295
-59.192848 22.696592 -25.115931 4294967295
-59.185875 23.311859 -25.152761 4294967295
-59.185165 22.237778 -24.959459 4294967295
-59.184967 21.777308 -24.877657 4294967295
-59.184299 24.692812 -25.376348 4294967295
-59.18412 21.623951 -24.842598 4294967295
-59.18166 22.852423 -25.030928 4294967295
-59.181484 23.466269 -25.135565 4294967295
-59.180882 24.080088 -25.235909 4294967295
-59.175957 22.546661 -24.92083 4294967295
-59.165142 23.009453 -24.89278 4294967295
-59.159878 23.62458 -24.946695 4294967295
-59.159569 24.238514 -25.050026 4294967295
-59.157543 25.006166 -25.162813 4294967295
-59.152836 25.160757 -25.142471 4294967295
-59.152782 25.927765 -25.274857 4294967295
-59.150463 25.62159 -25.198587 4294967295
-59.148216 26.235731 -25.282539 4294967295
-59.143299 25.470018 -25.10059 4294967295
-59.13818 24.857506 -24.943197 4294967295
-59.131474 25.31958 -24.956139 4294967295
-59.130375 25.780222 -25.02496 4294967295
-59.127151 26.087946 -25.046047 4294967295
-59.046242 21.771412 -25.030897 4294967295
-59.031414 23.462564 -25.175579 4294967295
-59.02916 23.309624 -25.126585 4294967295
-59.029148 21.621222 -24.83419 4294967295
-59.028812 22.388866 -24.963739 4294967295
-59.024349 23.617586 -25.131851 4294967295
-59.021652 21.92976 -24.812773 4294967295
-59.019836 24.07893 -25.166622 4294967295
-59.018349 24.692949 -25.258047 4294967295
-59.018112 25.306553 -25.361887 4294967295
-59.015766 22.852097 -24.913626 4294967295
-59.014763 23.159307 -24.956783 4294967295
-59.01302 24.233959 -25.12538 4294967295
-59.01157 23.927399 -25.057861 4294967295
-59.01136 25.615015 -25.347868 4294967295
-59.00819 25.155659 -25.236698 4294967295
-59.00795 23.774759 -24.995289 4294967295
-59.00705 22.239782 -24.720613 4294967295
-59.005634 25.769871 -25.317472 4294967295
-58.988842 26.081059 -25.203651 4294967295
-58.987801 25.007298 -25.007408 4294967295
-58.985836 24.393854 -24.881598 4294967295
-58.97953 24.85586 -24.898592 4294967295
-58.975266 25.931213 -25.04213 4294967295
-58.966152 26.240524 -25.004642 4294967295
-58.890125 22.229378 -25.090456 4294967295
-58.888397 21.769257 -24.993736 4294967295
-58.883316 22.53772 -25.075922 4294967295
-58.882294 22.384451 -25.039259 4294967295
-58.879307 23.305874 -25.168779 4294967295
-58.872723 22.846903 -25.023863 4294967295
-58.871605 24.228205 -25.251495 4294967295
-58.86652 21.619961 -24.749977 4294967295
-58.860962 24.844406 -25.251957 4294967295
-58.860508 23.770443 -25.061806 4294967295
-58.859653 23.463682 -25.000269 4294967295
-58.85812 21.467989 -24.640055 4294967295
-58.855377 22.697052 -24.825172 4294967295
-58.853252 22.083269 -24.697906 4294967295
-58.852909 23.158159 -24.880295 4294967295
-58.851196 24.079521 -25.022469 4294967295
-58.851135 24.693369 -25.127979 4294967295
-58.843365 23.620823 -24.86517 4294967295
-58.841625 25.309471 -25.139715 4294967295
-58.839474 25.156569 -25.091867 4294967295
-58.839111 24.389318 -24.955654 4294967295
-58.836956 24.543318 -24.960798 4294967295
-58.83382 25.004513 -25.009281 4294967295
-58.83374 26.078623 -25.194124 4294967295
-58.830746 25.925989 -25.137899 4294967295
-58.828773 25.773067 -25.091824 4294967295
-58.828541 25.466228 -25.036459 4294967295
-58.811634 25.624023 -24.895348 4294967295
-58.737789 21.765686 -25.028515 4294967295
-58.730698 21.460012 -24.9053 4294967295
-58.729664 22.074293 -25.001076 4294967295
-58.729599 21.613752 -24.920923 4294967295
-58.725601 22.535614 -25.04031 4294967295
-58.723305 22.689581 -25.044071 4294967295
-58.715748 23.458601 -25.101736 4294967295
-58.715443 22.84473 -24.992746 4294967295
-58.710735 24.227015 -25.184561 4294967295
-58.710083 23.306372 -25.01915 4294967295
-58.706982 23.614029 -25.04146 4294967295
-58.705334 24.53517 -25.184065 4294967295
-58.704891 22.386349 -24.808752 4294967295
-58.69836 23.001886 -24.850115 4294967295
-58.697727 25.304171 -25.241184 4294967295
-58.684303 24.847155 -25.028948 4294967295
-58.68383 24.38681 -24.944792 4294967295
-58.683281 23.158684 -24.727325 4294967295
-58.680653 24.080532 -24.86035 4294967295
-58.678505 24.695076 -24.945082 4294967295
-58.677135 25.00239 -24.984501 4294967295
-58.67281 25.156946 -24.968204 4294967295
-58.664047 26.233484 -25.066931 4294967295
-58.660347 26.081003 -25.003826 4294967295
-58.656643 25.928497 -24.940704 4294967295
-58.65448 25.622063 -24.866341 4294967295
-58.649361 25.469849 -24.789202 4294967295
-58.584702 21.45557 -24.985867 4294967295
-58.583992 21.609224 -25.005337 4294967295
-58.576595 22.224714 -25.038109 4294967295
-58.566833 22.380201 -24.968155 4294967295
-58.563274 21.920307 -24.853611 4294967295
-58.562969 22.073915 -24.877068 4294967295
-58.561382 23.916235 -25.178894 4294967295
-58.558121 22.842562 -24.961477 4294967295
-58.55331 23.457626 -25.019817 4294967295
-58.552544 24.532087 -25.197403 4294967295
-58.551716 21.768993 -24.712969 4294967295
-58.550369 22.690659 -24.858479 4294967295
-58.54668 23.6126 -24.980801 4294967295
-58.540279 22.999884 -24.811752 4294967295
-58.538898 22.539476 -24.718699 4294967295
-58.537724 25.609777 -25.236244 4294967295
-58.53751 25.149523 -25.154818 4294967295
-58.536106 23.768488 -24.902884 4294967295
-58.535782 24.382593 -25.005514 4294967295
-58.535709 24.075609 -24.951868 4294967295
-58.533733 26.071058 -25.276215 4294967295
-58.532063 23.308767 -24.783552 4294967295
-58.526821 24.231188 -24.890581 4294967295
-58.526272 24.998831 -25.017433 4294967295
-58.511246 25.309546 -24.922049 4294967295
-58.506397 25.924761 -24.980038 4294967295
-58.505047 24.850504 -24.781515 4294967295
-58.496513 26.234337 -24.935419 4294967295
-58.417355 21.455156 -24.855803 4294967295
-58.410183 22.070765 -24.890831 4294967295
-58.408901 22.685162 -24.983946 4294967295
-58.405495 22.22525 -24.871094 4294967295
