# .PCD v0.7 - Point Cloud Data file format
VERSION 0.7
FIELDS x y z rgb
SIZE 4 4 4 4
TYPE F F F U
COUNT 1 1 1 1
WIDTH 1147
HEIGHT 1
VIEWPOINT 0 0 0 1 0 0 0
POINTS 1147
DATA ascii
48.771732 7.8291321 -11.615556 4294967295
48.785801 13.653669 -12.210649 4294967295
48.787231 13.006739 -12.13346 4294967295
48.788898 11.550878 -11.965496 4294967295
48.792267 12.683322 -12.078846 4294967295
48.795319 11.227361 -11.905749 4294967295
48.811794 11.065688 -11.826688 4294967295
48.813274 13.330772 -12.072902 4294967295
48.813934 14.301319 -12.178299 4294967295
48.815441 10.742072 -11.777202 4294967295
48.816387 13.816128 -12.115292 4294967295
48.818867 8.1501188 -12.096313 4294967295
48.819031 12.036609 -11.907746 4294967295
48.833099 8.4734716 -12.079509 4294967295
48.834503 11.874998 -11.832429 4294967295
48.852619 7.5026984 -11.899351 4294967295
48.854641 10.414186 -12.215331 4294967295
48.854733 7.9880037 -11.945452 4294967295
48.864845 8.7967625 -11.997833 4294967295
48.871307 9.7672825 -12.081717 4294967295
48.876072 7.664186 -11.830421 4294967295
48.877533 8.9584637 -11.968811 4294967295
48.877682 9.2820015 -12.004197 4294967295
48.878448 10.252532 -12.109183 4294967295
48.883682 11.384706 -12.215571 4294967295
48.885811 13.163501 -12.405285 4294967295
48.891899 13.97204 -12.472532 4294967295
48.921211 13.002484 -12.256266 4294967295
48.922783 12.193841 -12.160616 4294967295
48.924515 9.9290771 -11.902611 4294967295
48.930244 13.487838 -12.276714 4294967295
48.931129 11.870449 -12.093777 4294967295
48.932194 11.061617 -11.999973 4294967295
48.933121 13.326174 -12.248103 4294967295
48.939194 10.576301 -11.920136 4294967295
48.942589 12.355883 -12.105255 4294967295
48.947151 11.547091 -11.998504 4294967295
48.948261 11.708883 -12.012363 4294967295
48.949337 14.135187 -12.277904 4294967295
48.950336 12.032461 -12.040628 4294967295
48.961395 10.090939 -11.78398 4294967295
48.967281 14.459126 -12.24741 4294967295
48.972103 12.841676 -12.04989 4294967295
48.972824 14.297536 -12.208933 4294967295
48.983967 8.1462851 -12.103614 4294967295
48.995102 7.9844251 -12.044436 4294967295
49.004478 7.8225603 -11.991756 4294967295
49.013199 8.6312923 -12.049315 4294967295
49.014534 9.6017723 -12.152149 4294967295
49.016071 11.057273 -12.308105 4294967295
49.021683 9.2782688 -12.089767 4294967295
49.022339 9.9252462 -12.159197 4294967295
49.03862 9.4399853 -12.045055 4294967295
49.039616 8.9546728 -11.987464 4294967295
49.044159 8.4692945 -11.916744 4294967295
49.051262 12.836459 -12.375458 4294967295
49.057991 11.866275 -12.242822 4294967295
49.059898 12.189752 -12.271677 4294967295
49.061108 12.028043 -12.249249 4294967295
49.061523 13.968525 -12.4632 4294967295
49.064617 11.381137 -12.164416 4294967295
49.066563 8.7927389 -11.869765 4294967295
49.067947 7.4981675 -11.720862 4294967295
49.074341 14.292228 -12.451708 4294967295
49.07497 10.895952 -12.072234 4294967295
49.08033 8.3071899 -11.764888 4294967295
49.082253 11.543063 -12.117146 4294967295
49.083408 9.7635012 -11.915241 4294967295
49.088078 13.807468 -12.347052 4294967295
49.090626 13.160635 -12.265791 4294967295
49.091927 10.734281 -11.991527 4294967295
49.096813 13.484224 -12.278823 4294967295
49.098148 10.08712 -11.896628 4294967295
49.100788 12.352092 -12.138391 4294967295
49.110474 9.1161709 -11.743191 4294967295
49.113998 13.322851 -12.19731 4294967295
49.114426 10.410785 -11.87235 4294967295
49.114861 14.45503 -12.319846 4294967295
49.125534 11.219906 -11.921099 4294967295
49.130447 12.999658 -12.100546 4294967295
49.132347 14.132022 -12.219269 4294967295
49.134163 13.646801 -12.158669 4294967295
49.155884 8.9511042 -12.175549 4294967295
49.184319 7.4949636 -11.908755 4294967295
49.197254 7.6565948 -11.878881 4294967295
49.198486 7.9801803 -11.910257 4294967295
49.205292 8.3037081 -11.92101 4294967295
49.206501 7.8182893 -11.862644 4294967295
49.212364 8.1418419 -11.876899 4294967295
49.213593 9.2743959 -11.998094 4294967295
49.213657 9.9214973 -12.069703 4294967295
49.215332 9.5979519 -12.027594 4294967295
49.215508 13.964623 -12.511709 4294967295
49.216347 12.347656 -12.329101 4294967295
49.220459 11.86254 -12.260044 4294967295
49.222191 12.994605 -12.379311 4294967295
49.225422 10.406829 -12.080086 4294967295
49.231766 8.6271133 -11.859041 4294967295
49.239483 8.7888813 -11.848477 4294967295
49.240456 9.7597237 -11.952664 4294967295
49.24408 11.701074 -12.154801 4294967295
49.250786 12.833409 -12.255709 4294967295
49.257774 12.510036 -12.193979 4294967295
49.266644 13.157194 -12.233025 4294967295
49.267097 11.377768 -12.033811 4294967295
49.26738 14.289352 -12.355977 4294967295
49.267582 12.671954 -12.17569 4294967295
49.268486 9.4360657 -11.813104 4294967295
49.281414 11.054295 -11.944969 4294967295
49.282784 11.539715 -11.993799 4294967295
49.282814 10.083387 -11.832003 4294967295
49.289791 11.216171 -11.93197 4294967295
49.293083 10.892562 -11.883878 4294967295
49.295307 13.319535 -12.145089 4294967295
49.303196 7.8152313 -12.12299 4294967295
49.303909 12.187178 -11.987576 4294967295
49.304161 8.4621906 -12.191231 4294967295
49.304672 10.730803 -11.823083 4294967295
49.312576 14.128783 -12.171071 4294967295
49.323067 13.6437 -12.07845 4294967295
49.352547 10.726403 -12.26383 4294967295
49.358879 8.1381855 -11.953179 4294967295
49.361393 7.9763627 -11.92594 4294967295
49.36887 12.020352 -12.347147 4294967295
49.369678 8.2998848 -11.931239 4294967295
49.383759 9.5941639 -12.022894 4294967295
49.390244 9.270566 -11.963019 4294967295
49.391388 8.7851448 -11.904929 4294967295
49.398098 9.1087341 -11.916048 4294967295
49.398979 13.961448 -12.451356 4294967295
49.4016 10.888453 -12.100641 4294967295
49.404728 9.4323339 -11.927479 4294967295
49.406883 11.535575 -12.152949 4294967295
49.415184 10.079561 -11.960704 4294967295
49.415741 8.623167 -11.797007 4294967295
49.42915 12.344689 -12.160512 4294967295
49.429485 14.447377 -12.392612 4294967295
49.431084 10.241407 -11.919935 4294967295
49.432545 11.374049 -12.040248 4294967295
49.436485 14.285839 -12.348829 4294967295
49.439125 10.403252 -11.908207 4294967295
49.43959 11.697706 -12.050147 4294967295
49.448215 11.859602 -12.036258 4294967295
49.449539 9.7559395 -11.797901 4294967295
49.453136 9.9177856 -11.802584 4294967295
49.455406 12.992228 -12.135398 4294967295
49.45694 13.154035 -12.147694 4294967295
49.465836 13.639549 -12.168711 4294967295
49.469032 12.183482 -11.995326 4294967295
49.482052 12.830925 -12.019083 4294967295
49.489311 13.478283 -12.064121 4294967295
49.499325 12.669409 -11.937364 4294967295
49.509632 9.7521753 -12.193223 4294967295
49.520184 7.4871712 -11.902971 4294967295
49.522881 8.9433117 -12.054597 4294967295
49.525288 8.4579334 -11.991858 4294967295
49.525528 7.9725313 -11.937111 4294967295
49.5266 7.6489005 -11.897254 4294967295
49.527267 8.6197119 -12.002495 4294967295
49.532211 8.2960768 -11.948357 4294967295
49.543041 9.2668066 -12.016096 4294967295
49.547768 11.04635 -12.196097 4294967295
49.55336 14.280946 -12.534313 4294967295
49.575809 12.340724 -12.236237 4294967295
49.588303 12.502678 -12.208103 4294967295
49.603733 13.797042 -12.294772 4294967295
49.607819 13.95889 -12.297655 4294967295
45.65073 18.892761 -12.646475 4294967295
45.659435 16.954819 -12.396937 4294967295
45.659561 18.085634 -12.522882 4294967295
45.66993 15.814676 -12.860136 4294967295
45.685925 20.832886 -12.730365 4294967295
45.699398 16.945927 -12.87534 4294967295
45.699574 17.430243 -12.928803 4294967295
45.700924 14.685428 -12.616919 4294967295
45.709164 18.237839 -12.982859 4294967295
45.709972 18.883541 -13.051971 4294967295
45.711468 16.300604 -12.757652 4294967295
45.715569 16.13929 -12.724139 4294967295
45.715752 14.524354 -12.542942 4294967295
45.726616 14.847703 -12.538073 4294967295
45.734905 17.754789 -12.831709 4294967295
45.735203 15.171005 -12.541804 4294967295
45.739361 16.624678 -12.688576 4294967295
45.741093 17.109201 -12.736194 4294967295
45.744102 16.786364 -12.688749 4294967295
45.744499 18.078176 -12.831635 4294967295
45.745712 20.015503 -13.043558 4294967295
45.758858 18.563295 -12.831641 4294967295
45.761154 19.047794 -12.877123 4294967295
45.768219 18.402315 -12.778315 4294967295
45.76952 19.532629 -12.89973 4294967295
45.775253 15.010744 -12.372711 4294967295
45.791138 19.856833 -12.854343 4294967295
45.795738 21.148745 -12.981354 4294967295
45.795914 20.664421 -12.926563 4294967295
45.810249 20.503891 -12.854515 4294967295
45.815262 21.311533 -12.925846 4294967295
45.816856 20.827257 -12.865705 4294967295
45.81736 19.696926 -12.737504 4294967295
45.817898 20.988792 -12.879831 4294967295
45.835613 19.213463 -12.614565 4294967295
45.835823 14.519481 -12.718971 4294967295
45.847786 20.344799 -12.695052 4294967295
45.84972 19.375795 -12.579468 4294967295
45.85284 14.84294 -12.690929 4294967295
45.857243 16.134865 -12.818686 4294967295
45.864185 15.973662 -12.774496 4294967295
45.876209 18.234488 -12.98175 4294967295
45.880589 15.3283 -12.640535 4294967295
45.883278 16.781767 -12.792781 4294967295
45.900955 15.167458 -12.545762 4294967295
45.903988 17.26709 -12.768911 4294967295
45.909931 18.397657 -12.872805 4294967295
45.910069 20.334908 -13.088709 4294967295
45.915726 16.298609 -12.616449 4294967295
45.922478 20.658541 -13.078058 4294967295
45.928226 19.20594 -12.894118 4294967295
45.929184 15.653006 -12.493558 4294967295
45.935226 15.007007 -12.398596 4294967295
45.940231 18.076241 -12.722643 4294967295
45.948448 19.852966 -12.890143 4294967295
45.949043 20.983156 -13.014147 4294967295
45.949268 18.884167 -12.778814 4294967295
45.953285 17.59235 -12.619352 4294967295
45.953869 16.946268 -12.544966 4294967295
45.95657 16.461758 -12.480652 4294967295
45.962383 17.915825 -12.62119 4294967295
45.96859 21.145926 -12.958616 4294967295
45.971664 21.307589 -12.965084 4294967295
45.973125 19.046976 -12.707042 4294967295
45.977947 21.469481 -12.959469 4294967295
45.986488 20.824196 -12.855187 4294967295
45.994717 19.532738 -12.679885 4294967295
46.020813 18.726515 -12.491409 4294967295
46.028091 19.696234 -12.572302 4294967295
46.02932 16.131599 -12.798693 4294967295
46.03867 18.230902 -12.997944 4294967295
46.049984 14.67881 -12.55858 4294967295
46.050434 15.001867 -12.592966 4294967295
46.051994 20.505444 -12.572554 4294967295
46.056343 15.971129 -12.678971 4294967295
46.074387 15.164156 -12.520866 4294967295
46.074905 17.909792 -12.825565 4294967295
46.079487 17.102568 -12.718149 4294967295
46.082119 19.847673 -13.014819 4294967295
46.082138 15.810558 -12.56386 4294967295
46.084038 17.425766 -12.737107 4294967295
46.084972 15.326044 -12.499063 4294967295
46.087509 16.7799 -12.651895 4294967295
46.095966 14.51859 -12.367452 4294967295
46.096321 16.295687 -12.564613 4294967295
46.101807 14.841906 -12.381571 4294967295
46.104382 16.619076 -12.570372 4294967295
46.108864 18.072954 -12.715872 4294967295
46.108997 19.041925 -12.82357 4294967295
46.125942 19.365856 -12.795917 4294967295
46.127831 21.465076 -13.023219 4294967295
46.128578 20.980772 -12.966324 4294967295
46.130939 15.650743 -12.362161 4294967295
46.131031 16.458607 -12.45205 4294967295
46.13311 15.489233 -12.335953 4294967295
46.134029 18.881805 -12.711398 4294967295
46.134857 20.819727 -12.924687 4294967295
46.144421 17.751635 -12.546026 4294967295
46.1492 19.528706 -12.726478 4294967295
46.161861 16.944603 -12.390186 4294967295
46.170078 19.691454 -12.666011 4294967295
46.171387 18.56074 -12.534805 4294967295
46.176525 20.014896 -12.677847 4294967295
46.177967 20.499552 -12.726536 4294967295
46.183056 18.722918 -12.50895 4294967295
46.189903 21.307915 -12.771832 4294967295
46.199093 14.836267 -12.643203 4294967295
46.20126 20.339506 -12.620905 4294967295
46.201481 16.935717 -12.868636 4294967295
46.206718 17.581799 -12.921061 4294967295
46.220203 20.17914 -12.531632 4294967295
46.221703 21.148567 -12.634245 4294967295
46.224277 14.998565 -12.566555 4294967295
46.246315 17.099146 -12.718155 4294967295
46.24651 16.130049 -12.60922 4294967295
46.25119 14.514713 -12.411233 4294967295
46.253941 17.745506 -12.761615 4294967295
46.258751 14.676502 -12.400849 4294967295
46.262619 20.329569 -13.017451 4294967295
46.263145 15.807585 -12.51061 4294967295
46.265285 15.646106 -12.484516 4294967295
46.274124 18.231007 -12.739861 4294967295
46.282318 17.423798 -12.618914 4294967295
46.284485 16.616173 -12.520576 4294967295
46.285881 17.908556 -12.65962 4294967295
46.287075 15.485291 -12.384566 4294967295
46.293812 15.162335 -12.323148 4294967295
46.295433 19.201187 -12.767984 4294967295
46.304501 17.263256 -12.5175 4294967295
46.30735 20.816853 -12.903502 4294967295
46.309044 15.970836 -12.356105 4294967295
46.309196 15.324441 -12.283354 4294967295
46.310963 18.071325 -12.583402 4294967295
46.312614 18.879105 -12.667362 4294967295
46.319607 16.779196 -12.406601 4294967295
46.321556 21.302259 -12.904219 4294967295
46.33881 18.718973 -12.550907 4294967295
46.345142 20.17325 -12.689425 4294967295
46.352249 20.98134 -12.752882 4294967295
46.355392 19.689245 -12.596812 4294967295
46.362953 18.55868 -12.442152 4294967295
46.371902 15.155962 -12.656749 4294967295
46.381359 19.36762 -12.463185 4294967295
46.387249 20.66057 -12.585359 4294967295
46.390247 21.145443 -12.628197 4294967295
46.392456 14.510442 -12.507415 4294967295
46.3946 18.063822 -12.895982 4294967295
46.394936 20.014763 -12.484331 4294967295
46.400669 15.318432 -12.566733 4294967295
46.401821 16.287664 -12.670585 4294967295
46.403076 15.964661 -12.629813 4294967295
46.412605 18.872126 -12.918494 4294967295
46.413071 16.934202 -12.700455 4294967295
46.420372 14.995955 -12.456665 4294967295
46.443878 18.389299 -12.747041 4294967295
46.448532 16.774166 -12.549266 4294967295
46.456127 14.835465 -12.30432 4294967295
46.460125 17.582439 -12.595895 4294967295
46.463051 17.259466 -12.548851 4294967295
46.4631 17.905674 -12.62079 4294967295
46.467182 19.844183 -12.821786 4294967295
46.478821 14.67452 -12.201039 4294967295
46.48167 20.329592 -12.821486 4294967295
46.482014 16.613977 -12.405517 4294967295
46.488861 15.48298 -12.253528 4294967295
46.490891 20.653198 -12.822937 4294967295
46.49181 20.007191 -12.747381 4294967295
46.496147 19.684393 -12.69505 4294967295
46.496647 20.815084 -12.819364 4294967295
46.500137 20.976828 -12.824286 4294967295
46.5065 17.423008 -12.403743 4294967295
46.509457 18.715824 -12.536922 4294967295
46.512665 19.200699 -12.578975 4294967295
46.513695 19.039192 -12.557084 4294967295
46.515163 21.462391 -12.821968 4294967295
46.518627 14.990293 -12.714193 4294967295
46.529331 18.555294 -12.444279 4294967295
46.548679 20.495388 -12.588058 4294967295
46.549126 19.364347 -12.460157 4294967295
46.552467 14.506702 -12.533124 4294967295
46.554478 15.314491 -12.615718 4294967295
46.556553 21.142164 -12.630628 4294967295
46.559227 15.476189 -12.615921 4294967295
46.565884 21.304367 -12.613641 4294967295
46.576874 17.5767 -12.784013 4294967295
46.57951 15.638435 -12.557845 4294967295
46.592392 18.546495 -12.833934 4294967295
46.597713 17.739199 -12.723877 4294967295
46.600605 18.385414 -12.785109 4294967295
46.6036 17.254871 -12.64773 4294967295
46.61348 15.80121 -12.448419 4294967295
46.619247 19.678499 -12.859359 4294967295
46.626404 16.124859 -12.43599 4294967295
46.629799 19.840633 -12.83781 4294967295
46.630569 20.809664 -12.943019 4294967295
46.633392 15.963528 -12.391736 4294967295
46.635941 20.487026 -12.886853 4294967295
46.637386 18.225756 -12.629143 4294967295
46.641666 20.325886 -12.847373 4294967295
46.647511 16.933659 -12.446958 4294967295
46.64817 17.903168 -12.552656 4294967295
46.649261 18.711027 -12.638691 4294967295
46.654339 16.610748 -12.385286 4294967295
46.654644 19.034422 -12.65455 4294967295
46.654755 18.872875 -12.636112 4294967295
46.661274 20.004061 -12.737817 4294967295
46.66256 19.196415 -12.642886 4294967295
46.670483 16.449785 -12.306682 4294967295
46.67086 16.773041 -12.341339 4294967295
46.700394 19.36013 -12.51905 4294967295
46.700665 14.987243 -12.657196 4294967295
46.708015 20.653202 -12.634686 4294967295
46.718811 20.169161 -12.540134 4294967295
46.727238 16.280418 -12.701736 4294967295
46.73354 16.603725 -12.714148 4294967295
46.733822 21.139629 -12.592013 4294967295
46.742069 21.463354 -12.597159 4294967295
46.745117 21.301983 -12.567711 4294967295
46.747025 17.73497 -12.789734 4294967295
46.748112 19.027033 -12.929753 4294967295
46.75367 16.76609 -12.656733 4294967295
46.755768 17.250797 -12.702919 4294967295
46.767609 18.543575 -12.802674 4294967295
46.767925 18.705109 -12.819506 4294967295
46.769081 17.897551 -12.725102 4294967295
46.771698 18.382267 -12.769339 4294967295
46.775928 15.635974 -12.447145 4294967295
46.776672 16.120758 -12.498438 4294967295
46.776791 14.828002 -12.353791 4294967295
46.777943 15.959222 -12.475648 4294967295
46.78112 16.928802 -12.571878 4294967295
46.78447 16.444221 -12.505252 4294967295
46.7868 20.159748 -12.910907 4294967295
46.790741 14.666798 -12.283455 4294967295
46.790855 20.805981 -12.967771 4294967295
46.792778 15.313342 -12.347938 4294967295
46.800289 17.414358 -12.554104 4294967295
46.803009 15.798535 -12.363679 4294967295
46.805408 19.514805 -12.769164 4294967295
46.809971 17.57638 -12.535853 4294967295
46.817429 18.223045 -12.579994 4294967295
46.817577 19.838591 -12.759609 4294967295
46.834675 20.485796 -12.767636 4294967295
46.83606 17.092764 -12.384026 4294967295
46.841789 18.062675 -12.470704 4294967295
46.85294 19.194405 -12.555092 4294967295
46.857841 20.648832 -12.698899 4294967295
46.862411 21.295341 -12.753839 4294967295
46.863388 20.326063 -12.642091 4294967295
46.89212 20.974226 -12.606556 4294967295
46.918266 16.439449 -12.629326 4294967295
46.918388 16.116333 -12.592834 4294967295
46.924328 18.216652 -12.804768 4294967295
46.931068 18.701559 -12.833564 4294967295
46.934242 14.824183 -12.389322 4294967295
46.935486 17.732599 -12.708963 4294967295
46.948784 16.279072 -12.497054 4294967295
46.951637 15.632786 -12.414286 4294967295
46.953075 17.248734 -12.589089 4294967295
46.953503 15.148009 -12.353231 4294967295
46.957645 16.925777 -12.53595 4294967295
46.957664 14.663256 -12.283577 4294967295
46.967316 18.865038 -12.715912 4294967295
46.968582 15.956615 -12.386881 4294967295
46.970627 15.310191 -12.307129 4294967295
46.972736 18.542217 -12.659607 4294967295
46.974594 18.380749 -12.634632 4294967295
46.974789 14.987048 -12.255499 4294967295
46.977982 17.896196 -12.567919 4294967295
46.985447 19.350702 -12.702103 4294967295
46.986488 16.603777 -12.391925 4294967295
46.992466 19.027971 -12.639813 4294967295
46.997772 19.189837 -12.637966 4294967295
47.000057 18.058865 -12.503301 4294967295
47.005753 20.805885 -12.788212 4294967295
47.014053 17.413078 -12.378836 4294967295
47.014286 16.766552 -12.305866 4294967295
47.018227 19.675737 -12.615464 4294967295
47.032253 19.838156 -12.580989 4294967295
47.048729 21.293442 -12.68147 4294967295
47.051311 21.132042 -12.6538 4294967295
47.052345 20.324169 -12.559857 4294967295
47.054638 21.455423 -12.677374 4294967295
47.065632 16.27367 -12.684443 4294967295
47.073231 20.64871 -12.517757 4294967295
47.07785 16.920357 -12.710772 4294967295
47.084538 20.972677 -12.511494 4294967295
47.087807 14.658643 -12.421376 4294967295
47.088085 14.981858 -12.456357 4294967295
47.091038 20.488234 -12.433114 4294967295
47.096066 15.305312 -12.46254 4294967295
47.099518 14.8206 -12.395581 4294967295
47.102364 16.436674 -12.565062 4294967295
47.108501 18.375692 -12.758205 4294967295
47.11105 18.698906 -12.78469 4294967295
47.112247 15.790676 -12.456037 4294967295
47.113663 17.245033 -12.612856 4294967295
47.122005 19.022577 -12.779738 4294967295
47.122189 17.406992 -12.598989 4294967295
47.127796 17.084072 -12.541989 4294967295
47.130264 18.053671 -12.640821 4294967295
47.132263 17.730618 -12.597327 4294967295
47.135086 17.569166 -12.568767 4294967295
47.141426 16.114979 -12.382927 4294967295
47.148727 17.89299 -12.553777 4294967295
47.151272 19.508879 -12.724339 4294967295
47.154839 18.86281 -12.638986 4294967295
47.156265 15.145635 -12.219311 4294967295
47.158504 15.630681 -12.264986 4294967295
47.158638 16.600538 -12.372594 4294967295
47.160316 15.469088 -12.240193 4294967295
47.179317 18.217705 -12.47541 4294967295
47.181026 20.318491 -12.703148 4294967295
47.181732 16.763126 -12.304239 4294967295
47.18404 20.641815 -12.7279 4294967295
47.196407 20.481037 -12.663676 4294967295
47.199718 19.188467 -12.507222 4294967295
47.23111 20.160013 -12.497949 4294967295
47.241459 19.999022 -12.441242 4294967295
47.244942 16.916929 -12.710137 4294967295
47.249348 20.969284 -12.519841 4294967295
47.253117 15.301476 -12.499537 4294967295
47.258144 17.725279 -12.75082 4294967295
47.266716 21.293707 -12.490948 4294967295
47.268394 16.594765 -12.5865 4294967295
47.272415 16.271746 -12.53547 4294967295
47.274544 16.110229 -12.509503 4294967295
47.275818 16.756655 -12.576777 4294967295
47.280411 19.180311 -12.829638 4294967295
47.286064 17.080269 -12.574504 4294967295
47.288063 18.049839 -12.675062 4294967295
47.289715 14.817762 -12.308728 4294967295
47.296917 17.888695 -12.623981 4294967295
47.298405 15.464604 -12.348296 4294967295
47.304489 17.404276 -12.541675 4294967295
47.311821 14.980088 -12.244119 4294967295
47.323772 21.121418 -12.883688 4294967295
47.327969 15.142264 -12.201775 4294967295
47.330471 15.627357 -12.246468 4294967295
47.337311 19.82983 -12.689141 4294967295
47.340485 20.314745 -12.731296 4294967295
47.342388 18.37575 -12.508137 4294967295
47.351048 20.800127 -12.745852 4294967295
47.357384 19.992626 -12.632184 4294967295
47.358486 16.436747 -12.231857 4294967295
47.359116 18.214972 -12.427656 4294967295
47.362854 19.346537 -12.539743 4294967295
47.364723 18.538525 -12.442725 4294967295
47.365665 20.962666 -12.709276 4294967295
47.382393 14.65042 -12.568231 4294967295
47.382549 19.024387 -12.430174 4294967295
47.388023 14.973756 -12.583218 4294967295
47.39851 15.94357 -12.652064 4294967295
47.400318 20.156864 -12.489869 4294967295
47.405678 21.450161 -12.613902 4294967295
47.417461 20.642845 -12.479886 4294967295
47.425838 21.289932 -12.520624 4294967295
47.433945 15.460037 -12.465771 4294967295
47.438004 16.591423 -12.576635 4294967295
47.438511 18.368763 -12.772704 4294967295
47.446091 17.722874 -12.672444 4294967295
47.446934 15.298846 -12.399261 4294967295
47.450863 17.23834 -12.600635 4294967295
47.452457 17.400002 -12.61268 4294967295
47.456978 16.915409 -12.54181 4294967295
47.459957 19.339243 -12.800647 4294967295
47.469002 15.622869 -12.35288 4294967295
47.471043 16.754385 -12.471304 4294967295
47.472233 17.562506 -12.556873 4294967295
47.478134 19.178703 -12.714845 4294967295
47.482796 19.502113 -12.733431 4294967295
47.493176 16.432007 -12.352675 4294967295
47.496181 15.138781 -12.197387 4294967295
47.499622 15.785605 -12.256577 4294967295
47.507427 18.695515 -12.551547 4294967295
47.509148 19.826822 -12.671124 4294967295
47.520134 19.665876 -12.612136 4294967295
47.521301 19.989147 -12.643773 4294967295
47.521652 20.958689 -12.750444 4294967295
47.525097 20.150976 -12.647612 4294967295
47.526844 21.120613 -12.74908 4294967295
47.527264 18.211653 -12.423518 4294967295
47.530983 18.535126 -12.445647 4294967295
47.535957 20.313251 -12.625091 4294967295
47.539352 20.636671 -12.648424 4294967295
47.539787 19.020512 -12.466801 4294967295
47.541828 18.050722 -12.351162 4294967295
47.543152 17.889124 -12.328213 4294967295
47.553684 14.808599 -12.570011 4294967295
47.55658 21.445822 -12.674153 4294967295
47.557228 21.284266 -12.653743 4294967295
47.567219 18.860352 -12.346438 4294967295
47.579792 16.102203 -12.616592 4294967295
47.58416 15.779176 -12.564317 4294967295
47.602432 20.802399 -12.431143 4294967295
47.602901 16.264681 -12.548409 4294967295
47.607059 15.456739 -12.442913 4294967295
47.60815 15.941651 -12.492833 4294967295
47.60857 15.295158 -12.419276 4294967295
47.614605 16.588362 -12.540756 4294967295
47.618732 16.911751 -12.561357 4294967295
47.619514 18.366114 -12.720383 4294967295
47.629551 17.881853 -12.628985 4294967295
47.641312 14.972892 -12.261142 4294967295
47.647594 18.690742 -12.651687 4294967295
47.64769 17.07461 -12.471381 4294967295
47.647762 19.821831 -12.776997 4294967295
47.650841 19.66044 -12.74754 4294967295
47.653915 17.398149 -12.484166 4294967295
47.663666 18.853201 -12.609777 4294967295
47.664066 19.01483 -12.626271 4294967295
47.668156 20.954084 -12.82692 4294967295
47.67181 15.620612 -12.219408 4294967295
47.672417 20.792797 -12.793051 4294967295
47.67614 16.752518 -12.329297 4294967295
47.680893 18.207605 -12.473569 4294967295
47.686176 21.278435 -12.795753 4294967295
47.689899 17.23811 -12.331989 4294967295
47.710861 20.148846 -12.577831 4294967295
47.711536 18.047468 -12.341337 4294967295
47.72224 20.472807 -12.571408 4294967295
47.726559 18.533247 -12.339336 4294967295
47.737514 19.180527 -12.370502 4294967295
47.744003 15.775433 -12.590918 4294967295
47.74453 16.906572 -12.714872 4294967295
47.750168 19.989601 -12.413343 4294967295
47.764732 15.452921 -12.477703 4294967295
47.764938 17.392206 -12.69281 4294967295
47.778851 18.039196 -12.712945 4294967295
47.781574 21.446608 -12.458296 4294967295
47.782585 14.64525 -12.321188 4294967295
47.790314 15.292128 -12.364383 4294967295
47.796368 17.070389 -12.539758 4294967295
47.797646 16.423922 -12.463037 4294967295
47.80249 14.969182 -12.28301 4294967295
47.812218 15.131165 -12.264771 4294967295
47.813534 16.747847 -12.439828 4294967295
47.818577 18.364378 -12.600963 4294967295
47.818817 17.556273 -12.510118 4294967295
47.818844 19.172419 -12.689914 4294967295
47.823578 18.687864 -12.618318 4294967295
47.825108 20.142317 -12.774497 4294967295
47.825573 15.616653 -12.268991 4294967295
47.841682 16.102289 -12.26298 4294967295
47.846916 21.274776 -12.819199 4294967295
47.85899 19.982782 -12.630371 4294967295
47.863972 19.336571 -12.539863 4294967295
47.868732 20.306618 -12.630079 4294967295
47.86937 18.528625 -12.429791 4294967295
47.871574 19.66028 -12.54754 4294967295
47.87199 17.720407 -12.330063 4294967295
47.874889 21.438284 -12.733051 4294967295
47.875439 20.953506 -12.677052 4294967295
47.879066 20.468889 -12.609585 4294967295
47.880081 20.792196 -12.641793 4294967295
47.895115 19.014996 -12.387907 4294967295
47.902313 14.963587 -12.533306 4294967295
47.90884 21.117359 -12.570713 4294967295
47.909298 19.500816 -12.389075 4294967295
47.926468 17.065365 -12.677206 4294967295
47.945187 18.035782 -12.715439 4294967295
47.972538 15.935795 -12.379833 4294967295
47.974953 14.804129 -12.244903 4294967295
47.976879 16.744247 -12.453629 4294967295
47.984612 16.906223 -12.44284 4294967295
47.98571 14.642745 -12.186854 4294967295
47.993587 16.583269 -12.373456 4294967295
47.995968 19.816076 -12.724321 4294967295
48.001152 15.613448 -12.23735 4294967295
48.005318 20.139841 -12.725497 4294967295
48.010654 17.877329 -12.453869 4294967295
48.014328 17.554176 -12.404215 4294967295
48.014492 15.128758 -12.133697 4294967295
48.017471 21.271786 -12.806163 4294967295
48.021946 16.422714 -12.249921 4294967295
48.023186 18.68623 -12.497176 4294967295
48.027927 16.261242 -12.209658 4294967295
48.028214 20.464485 -12.676313 4294967295
48.031498 18.848324 -12.484241 4294967295
48.035099 21.11138 -12.722629 4294967295
48.040493 19.980364 -12.576684 4294967295
48.047501 16.100262 -12.118822 4294967295
48.053661 18.526155 -12.365814 4294967295
48.056778 19.49637 -12.462156 4294967295
48.060085 20.628145 -12.575752 4294967295
48.063026 21.436514 -12.65473 4294967295
48.082542 20.952908 -12.528214 4294967295
48.100662 19.013758 -12.244933 4294967295
48.101673 19.337244 -12.277164 4294967295
48.102783 20.79257 -12.434957 4294967295
48.109833 14.799634 -12.364655 4294967295
48.117119 17.709425 -12.661244 4294967295
48.11924 16.41651 -12.509517 4294967295
48.119743 19.176535 -12.191939 4294967295
48.120113 19.661737 -12.244558 4294967295
48.123001 15.608387 -12.405605 4294967295
48.13496 15.770473 -12.379131 4294967295
48.144032 17.387409 -12.525232 4294967295
48.144672 17.225792 -12.504878 4294967295
48.148815 15.124198 -12.255651 4294967295
48.150143 14.962538 -12.232722 4294967295
48.1604 17.873106 -12.518332 4294967295
48.167137 15.286491 -12.2055 4294967295
48.180069 16.095493 -12.247366 4294967295
48.185699 16.742523 -12.298388 4294967295
48.1875 17.065989 -12.327671 4294967295
48.19313 15.449075 -12.126832 4294967295
48.196774 20.946167 -12.724755 4294967295
48.202724 20.461685 -12.648714 4294967295
48.205143 18.521984 -12.423956 4294967295
48.206116 18.198673 -12.384369 4294967295
48.206558 19.492058 -12.526594 4294967295
48.208145 15.934807 -12.124979 4294967295
48.211475 18.683992 -12.418406 4294967295
48.213745 20.300739 -12.589787 4294967295
48.21537 17.55233 -12.27803 4294967295
48.217014 16.582085 -12.163974 4294967295
48.217083 16.905542 -12.199705 4294967295
48.224361 20.786346 -12.60428 4294967295
48.225491 20.624773 -12.582115 4294967295
48.227428 19.65493 -12.46703 4294967295
48.228188 18.038065 -12.284353 4294967295
48.241203 19.008965 -12.343891 4294967295
48.242836 18.847351 -12.319837 4294967295
48.245426 19.170897 -12.346188 4294967295
48.24971 21.434641 -12.582026 4294967295
48.261909 15.118969 -12.456304 4294967295
48.262169 20.142059 -12.391878 4294967295
48.268494 17.058849 -12.647557 4294967295
48.274597 16.089306 -12.517039 4294967295
48.293381 17.868084 -12.644996 4294967295
48.294693 21.114342 -12.378954 4294967295
48.298866 21.276327 -12.381439 4294967295
48.303631 15.443669 -12.337262 4294967295
48.307636 17.707127 -12.574079 4294967295
48.30872 16.575598 -12.444219 4294967295
48.326992 18.031343 -12.538148 4294967295
48.329468 14.635928 -12.15134 4294967295
48.334579 15.768132 -12.258254 4294967295
48.345982 16.41539 -12.287824 4294967295
48.354027 20.780657 -12.743328 4294967295
48.354801 16.739159 -12.291041 4294967295
48.355 17.224272 -12.344253 4294967295
48.358898 17.547838 -12.365734 4294967295
48.36145 14.960361 -12.06848 4294967295
48.369892 19.003529 -12.486727 4294967295
48.377617 20.943827 -12.673738 4294967295
48.37875 15.607943 -12.076164 4294967295
48.379131 20.620647 -12.632171 4294967295
48.379505 15.931474 -12.10935 4294967295
48.389233 20.13632 -12.540752 4294967295
48.393284 19.651546 -12.471789 4294967295
48.393448 19.813234 -12.489158 4294967295
48.397434 17.387875 -12.204635 4294967295
48.402916 18.35849 -12.29218 4294967295
48.406368 18.843809 -12.333321 4294967295
48.415039 15.115007 -12.508012 4294967295
48.422787 18.521231 -12.236387 4294967295
48.42728 18.683197 -12.237683 4294967295
48.435623 19.977448 -12.350571 4294967295
48.4552 16.247999 -12.484769 4294967295
48.457092 20.463923 -12.324821 4294967295
48.469856 14.955032 -12.286566 4294967295
48.475822 21.435474 -12.363203 4294967295
48.48447 16.410805 -12.394133 4294967295
48.493111 19.644316 -12.721487 4294967295
48.502804 15.279506 -12.200238 4294967295
48.51553 17.705637 -12.422684 4294967295
48.523769 15.603679 -12.158387 4294967295
48.526794 16.73591 -12.27303 4294967295
48.534313 19.485052 -12.550709 4294967295
48.535084 14.795258 -12.026471 4294967295
48.538517 17.86842 -12.355375 4294967295
48.542835 17.38348 -12.285425 4294967295
48.544872 16.089676 -12.134028 4294967295
48.547958 18.353998 -12.374283 4294967295
48.551353 18.515875 -12.37967 4294967295
48.552071 18.839312 -12.412951 4294967295
48.553455 18.677687 -12.389849 4294967295
48.558128 18.031078 -12.300608 4294967295
48.559975 16.899023 -12.167892 4294967295
48.561462 17.546053 -12.234298 4294967295
48.581478 17.223455 -12.124068 4294967295
48.592377 14.788467 -12.433978 4294967295
48.598328 20.944111 -12.475062 4294967295
48.600044 18.19488 -12.163082 4294967295
48.6077 20.783024 -12.422344 4294967295
48.612968 20.136492 -12.330904 4294967295
48.614479 21.106882 -12.433158 4294967295
48.618488 19.328129 -12.220534 4294967295
48.623787 19.813673 -12.254826 4294967295
48.630634 19.005283 -12.139525 4294967295
48.630795 14.627892 -12.273545 4294967295
48.630806 15.759804 -12.399305 4294967295
48.631439 16.729898 -12.504781 4294967295
48.631714 20.299379 -12.279363 4294967295
48.636299 17.215099 -12.540658 4294967295
48.648266 15.113568 -12.262683 4294967295
48.654591 17.05422 -12.454897 4294967295
48.662529 18.832935 -12.623098 4294967295
48.664425 14.952339 -12.184792 4294967295
48.682354 18.510649 -12.513704 4294967295
48.682686 16.893715 -12.332772 4294967295
48.68819 15.276581 -12.132613 4294967295
48.696865 17.864605 -12.388051 4294967295
48.698891 17.541281 -12.344604 4294967295
48.706448 16.24774 -12.172795 4294967295
48.712051 16.571459 -12.187974 4294967295
48.726646 20.129936 -12.529249 4294967295
48.726948 18.351225 -12.330476 4294967295
48.729397 16.410385 -12.105699 4294967295
48.729916 20.938519 -12.606966 4294967295
48.731186 21.423592 -12.656147 4294967295
48.735161 20.777189 -12.569565 4294967295
48.735954 18.02821 -12.261147 4294967295
48.752537 19.161207 -12.325519 4294967295
48.755405 18.19091 -12.207046 4294967295
48.758297 17.382227 -12.106443 4294967295
48.758522 20.293592 -12.429135 4294967295
48.770443 19.485683 -12.295106 4294967295
48.770603 19.809164 -12.33046 4294967295
48.779007 18.677393 -12.1735 4294967295
48.78231 16.402458 -12.529009 4294967295
48.789154 19.972008 -12.279706 4294967295
48.791756 19.648661 -12.234117 4294967295
48.800259 21.266609 -12.382345 4294967295
48.803165 20.458111 -12.281717 4294967295
48.813412 19.798513 -12.790973 4294967295
48.815708 19.152126 -12.710647 4294967295
48.819485 15.59535 -12.301498 4294967295
48.821198 16.242271 -12.367028 4294967295
48.824501 20.445665 -12.821733 4294967295
48.831108 15.919206 -12.294381 4294967295
48.840839 15.43434 -12.204428 4294967295
48.841484 14.625588 -12.112185 4294967295
48.844711 16.56662 -12.315873 4294967295
48.845623 16.081469 -12.258586 4294967295
48.85384 18.992558 -12.551537 4294967295
48.858269 16.728897 -12.283633 4294967295
48.861115 15.758536 -12.165277 4294967295
48.863098 14.787988 -12.050084 4294967295
48.866631 17.376173 -12.324541 4294967295
48.870743 17.538084 -12.327281 4294967295
48.875633 20.12554 -12.596586 4294967295
48.883141 18.185575 -12.353249 4294967295
48.885105 16.891752 -12.202224 4294967295
48.902119 17.701273 -12.229081 4294967295
48.903881 18.024857 -12.258484 4294967295
48.906086 19.318842 -12.394066 4294967295
48.909039 17.054531 -12.131562 4294967295
48.909832 17.216337 -12.146598 4294967295
48.910507 18.8339 -12.323802 4294967295
48.913143 14.619315 -12.465751 4294967295
48.915451 18.510677 -12.269563 4294967295
48.9174 18.349026 -12.244379 4294967295
48.927319 20.775551 -12.477146 4294967295
48.931183 19.481995 -12.319126 4294967295
48.951591 21.424017 -12.459184 4294967295
48.970142 15.752995 -12.380522 4294967295
48.972748 19.309872 -12.765906 4294967295
48.97316 18.663336 -12.692585 4294967295
48.973846 21.263803 -12.358863 4294967295
48.975498 18.98675 -12.719829 4294967295
48.976017 15.106313 -12.286934 4294967295
48.980698 18.178751 -12.610841 4294967295
48.990108 17.532492 -12.504205 4294967295
48.990429 16.077158 -12.341393 4294967295
48.991199 16.238907 -12.356501 4294967295
48.999317 16.562662 -12.362388 4294967295
48.999336 15.43054 -12.23657 4294967295
48.999374 16.886095 -12.3981 4294967295
49.007557 17.048155 -12.385784 4294967295
49.010376 14.945627 -12.141822 4294967295
49.015083 19.635586 -12.645253 4294967295
49.019192 17.210379 -12.360711 4294967295
49.022594 14.784219 -12.078631 4294967295
49.024502 18.504324 -12.484735 4294967295
49.032951 20.121653 -12.633041 4294967295
49.037319 18.019831 -12.383452 4294967295
49.039841 19.47533 -12.535761 4294967295
49.042942 21.415592 -12.739719 4294967295
49.04385 20.283997 -12.610706 4294967295
49.050644 17.373507 -12.262316 4294967295
49.050991 18.343958 -12.368816 4294967295
49.062538 20.446846 -12.559571 4294967295
49.065102 20.932076 -12.603955 4294967295
49.07206 16.403776 -12.075286 4294967295
49.074738 19.962484 -12.460588 4294967295
49.087872 15.262738 -12.509404 4294967295
49.090931 15.101151 -12.480142 4294967295
49.097282 21.257608 -12.520895 4294967295
49.099651 15.424809 -12.483807 4294967295
49.102974 19.155422 -12.266377 4294967295
49.107563 21.096584 -12.464931 4294967295
49.109531 14.616602 -12.357496 4294967295
49.109726 16.556942 -12.572231 4294967295
49.113125 15.748652 -12.469899 4294967295
49.120285 14.778632 -12.335704 4294967295
49.128559 18.659367 -12.735958 4294967295
49.129097 20.774529 -12.349401 4294967295
49.139191 16.234707 -12.42742 4294967295
49.1399 19.629822 -12.801716 4294967295
49.143761 15.588002 -12.338696 4294967295
49.146168 17.528574 -12.545252 4294967295
49.147488 16.396736 -12.414702 4294967295
49.148666 17.043608 -12.482162 4294967295
49.149357 19.307077 -12.7309 4294967295
49.149605 17.205345 -12.496651 4294967295
49.150921 20.115374 -12.814843 4294967295
49.152039 17.690531 -12.541507 4294967295
49.152737 16.0735 -12.359388 4294967295
49.157745 18.014177 -12.556314 4294967295
49.167797 17.367853 -12.447361 4294967295
49.169518 20.439796 -12.782037 4294967295
49.193851 15.913256 -12.189449 4294967295
49.198719 18.50132 -12.458774 4294967295
49.213238 18.340334 -12.38717 4294967295
49.215134 21.251043 -12.703287 4294967295
49.216228 19.795948 -12.537705 4294967295
49.233147 19.95866 -12.493163 4294967295
49.241627 16.723997 -12.102674 4294967295
49.259449 21.415741 -12.55757 4294967295
49.25983 14.612575 -12.419767 4294967295
49.260635 16.067827 -12.578332 4294967295
49.262951 20.769112 -12.47284 4294967295
49.266975 20.607641 -12.440022 4294967295
49.269325 20.931252 -12.467248 4294967295
49.275463 18.990601 -12.229099 4294967295
49.276062 15.745009 -12.485473 4294967295
49.285728 19.152941 -12.209142 4294967295
49.298218 14.775408 -12.295929 4294967295
49.299721 18.009569 -12.649354 4294967295
49.299866 19.30282 -12.792339 4294967295
49.301014 15.907604 -12.411263 4294967295
49.306236 16.392944 -12.445829 4294967295
49.320274 19.465622 -12.734962 4294967295
49.333008 17.040907 -12.418775 4294967295
49.334126 17.687822 -12.486452 4294967295
49.334866 15.423556 -12.232398 4294967295
49.335148 16.879271 -12.392933 4294967295
49.335339 15.585332 -12.248595 4294967295
49.345314 18.658598 -12.552831 4294967295
49.345749 16.556229 -12.317887 4294967295
49.347046 18.173573 -12.492599 4294967295
49.347504 20.113873 -12.706231 4294967295
49.347832 19.628872 -12.651198 4294967295
49.354496 20.760969 -12.75219 4294967295
49.362453 19.791409 -12.615182 4294967295
49.365864 16.233492 -12.207704 4294967295
49.372791 18.336576 -12.415502 4294967295
49.392941 21.248524 -12.664167 4294967295
49.392998 20.278345 -12.556297 4294967295
49.395142 19.14642 -12.422758 4294967295
49.400452 17.367352 -12.205672 4294967295
49.401184 18.49976 -12.328659 4294967295
49.401985 14.931693 -12.547912 4294967295
49.420444 20.441771 -12.47297 4294967295
49.428509 18.986488 -12.281648 4294967295
49.430847 20.60416 -12.452529 4294967295
49.432968 15.579457 -12.505373 4294967295
49.438927 21.08989 -12.476565 4294967295
49.442604 19.957888 -12.337346 4294967295
49.464817 15.903995 -12.423747 4294967295
49.466759 20.929976 -12.355931 4294967295
49.46917 21.415415 -12.400875 4294967295
49.470451 16.712791 -12.492688 4294967295
49.471737 18.329775 -12.667337 4294967295
49.474834 15.09565 -12.29706 4294967295
49.4772 16.066172 -12.396008 4294967295
49.4776 16.227917 -12.412484 4294967295
49.481312 19.623611 -12.775524 4294967295
49.481354 15.257607 -12.290956 4294967295
49.485279 20.270447 -12.832639 4294967295
49.487885 17.198664 -12.482216 4294967295
49.493385 16.390255 -12.372196 4294967295
49.502136 17.846172 -12.501412 4294967295
49.503834 18.49309 -12.566924 4294967295
49.506996 18.816652 -12.591136 4294967295
49.514915 18.008503 -12.472226 4294967295
49.516449 20.757374 -12.771529 4294967295
49.525391 15.744391 -12.182326 4294967295
49.528652 19.949739 -12.636866 4294967295
49.528934 18.656096 -12.49231 4294967295
49.533157 19.788311 -12.602322 4294967295
49.533817 18.979797 -12.51018 4294967295
49.537727 17.03907 -12.280421 4294967295
49.543392 20.920795 -12.690145 4294967295
49.543667 21.244177 -12.725008 4294967295
49.550323 17.524927 -12.287798 4294967295
49.55468 17.36335 -12.25379 4294967295
49.557625 20.436615 -12.583875 4294967295
49.563175 20.598675 -12.581347 4294967295
49.57605 19.143835 -12.372399 4294967295
49.596622 14.92899 -12.44657 4294967295
49.610504 19.618107 -12.915462 4294967295
49.631786 15.738767 -12.406655 4294967295
49.638088 18.81139 -12.724216 4294967295
49.639278 18.4881 -12.683964 4294967295
49.654266 19.782301 -12.772195 4294967295
49.679226 19.298683 -12.626468 4294967295
49.685936 19.94585 -12.673491 4294967295
49.686085 20.10755 -12.69087 4294967295
45.656033 22.606798 -13.041593 4294967295
45.677956 22.124132 -12.90481 4294967295
45.697815 22.771481 -12.902127 4294967295
45.711319 23.256941 -12.905356 4294967295
45.770638 22.438234 -13.220171 4294967295
45.780888 22.761797 -13.217643 4294967295
45.802189 21.956367 -13.047235 4294967295
45.818115 21.796085 -12.969213 4294967295
45.824989 22.11948 -12.979393 4294967295
45.842556 22.928049 -13.003431 4294967295
45.857468 22.283361 -12.875115 4294967295
45.858646 23.413683 -12.996946 4294967295
45.879128 23.253887 -12.901782 4294967295
45.953743 23.081915 -13.230843 4294967295
45.957207 21.790888 -13.073578 4294967295
45.979477 22.115383 -13.025852 4294967295
45.991817 22.923517 -13.069581 4294967295
45.99918 21.632442 -12.897606 4294967295
46.002541 22.278551 -12.957101 4294967295
46.012955 21.956383 -12.881845 4294967295
46.017143 23.409876 -13.028387 4294967295
46.019398 22.60276 -12.929747 4294967295
46.026154 22.764753 -12.922362 4294967295
46.049469 22.443571 -12.798564 4294967295
46.094517 21.785566 -13.184499 4294967295
46.117313 21.948633 -13.116832 4294967295
46.163826 23.405106 -13.104227 4294967295
46.16695 22.27519 -12.966302 4294967295
46.178341 23.244837 -13.031664 4294967295
46.183704 23.083807 -12.993471 4294967295
46.185196 21.630592 -12.825588 4294967295
46.192802 22.6001 -12.905192 4294967295
46.295055 22.43055 -13.1299 4294967295
46.300915 21.623756 -13.017791 4294967295
46.339996 22.595425 -12.979169 4294967295
46.347755 22.111565 -12.895958 4294967295
46.36821 23.082069 -12.927298 4294967295
46.370289 23.405209 -12.955544 4294967295
46.370441 22.920755 -12.900898 4294967295
46.383389 21.791136 -12.726088 4294967295
46.393578 22.276478 -12.741913 4294967295
46.422699 23.247944 -12.740754 4294967295
46.491776 21.622246 -12.927745 4294967295
46.508537 22.430904 -12.954959 4294967295
46.514057 22.269831 -12.916228 4294967295
46.538464 21.948608 -12.788633 4294967295
46.550438 23.241655 -12.88788 4294967295
46.553986 21.788195 -12.712375 4294967295
46.571026 23.404837 -12.828688 4294967295
46.663288 22.426815 -13.00052 4294967295
46.668491 23.073124 -13.053063 4294967295
46.673527 22.266096 -12.944142 4294967295
46.67366 22.589088 -12.979665 4294967295
46.676773 22.104837 -12.913961 4294967295
46.68898 23.397726 -13.012316 4294967295
46.691444 21.944399 -12.840964 4294967295
46.69207 22.9135 -12.94671 4294967295
46.692238 21.621408 -12.801953 4294967295
46.69582 21.783192 -12.806545 4294967295
46.722328 23.238918 -12.869355 4294967295
46.800087 21.614025 -13.023238 4294967295
46.827366 23.230816 -13.101161 4294967295
46.828831 23.069462 -13.077676 4294967295
46.847355 22.747942 -12.97232 4294967295
46.8591 22.264303 -12.874314 4294967295
46.861443 22.587517 -12.901578 4294967295
46.871536 22.426762 -12.845773 4294967295
46.903252 22.913815 -12.781073 4294967295
46.989811 22.258429 -13.009891 4294967295
47.008842 21.775291 -12.884706 4294967295
47.01442 21.614161 -12.845828 4294967295
47.058968 23.071325 -12.841284 4294967295
47.062695 22.102282 -12.719285 4294967295
47.073128 23.39555 -12.824337 4294967295
47.099472 22.589773 -12.635764 4294967295
47.107391 22.913568 -12.642172 4294967295
47.111935 23.23711 -12.661213 4294967295
47.193012 21.773315 -12.820392 4294967295
47.202942 23.38941 -12.963303 4294967295
47.207893 22.259047 -12.818797 4294967295
47.213078 22.905624 -12.871432 4294967295
47.219612 22.421476 -12.793019 4294967295
47.234615 22.099453 -12.700954 4294967295
47.246616 22.746668 -12.72813 4294967295
47.248852 21.9389 -12.629752 4294967295
47.272221 22.58704 -12.614458 4294967295
47.272591 23.233461 -12.685106 4294967295
47.274006 21.61747 -12.499737 4294967295
47.282513 23.072653 -12.63003 4294967295
47.351685 21.769518 -12.851462 4294967295
47.357536 22.416117 -12.901605 4294967295
47.38736 22.90304 -12.844277 4294967295
47.410679 21.612118 -12.613236 4294967295
47.419788 22.259193 -12.651244 4294967295
47.420647 23.067223 -12.738046 4294967295
47.431385 22.09844 -12.589951 4294967295
47.441643 23.392082 -12.695682 4294967295
47.49461 22.410696 -13.013212 4294967295
47.494717 22.73373 -13.048788 4294967295
47.54813 21.606823 -12.723674 4294967295
47.572742 23.386045 -12.829819 4294967295
47.576099 22.093613 -12.673352 4294967295
47.579674 22.901859 -12.749997 4294967295
47.6031 23.226898 -12.698636 4294967295
47.612179 21.772968 -12.502808 4294967295
47.628304 23.06728 -12.586673 4294967295
47.664886 21.600082 -12.911042 4294967295
47.678692 22.085712 -12.913562 4294967295
47.70573 23.380167 -12.956717 4294967295
47.710297 22.249598 -12.813811 4294967295
47.722919 22.5737 -12.802766 4294967295
47.751198 22.899054 -12.733399 4294967295
47.757046 21.92981 -12.603672 4294967295
47.75861 21.768291 -12.57985 4294967295
47.759228 23.222885 -12.739476 4294967295
47.763947 23.061655 -12.703906 4294967295
47.826584 21.758043 -12.948815 4294967295
47.841816 21.597563 -12.874139 4294967295
47.854454 22.244722 -12.899021 4294967295
47.885441 22.893347 -12.855628 4294967295
47.893929 22.73242 -12.806063 4294967295
47.895615 22.570959 -12.781802 4294967295
47.904755 22.410048 -12.729816 4294967295
47.930004 22.088671 -12.599861 4294967295
47.952507 23.060198 -12.624045 4294967295
47.957207 23.222206 -12.624557 4294967295
47.99836 21.916731 -12.949123 4294967295
48.057293 23.375315 -12.891786 4294967295
48.06332 21.759783 -12.689612 4294967295
48.067261 22.891338 -12.800812 4294967295
48.067757 21.598471 -12.65513 4294967295
48.082813 22.73093 -12.725018 4294967295
48.09203 22.570009 -12.672771 4294967295
48.099209 22.247274 -12.610116 4294967295
48.120792 23.218784 -12.637773 4294967295
48.127228 23.057648 -12.595857 4294967295
48.196373 22.077345 -12.852056 4294967295
48.206543 21.916485 -12.796307 4294967295
48.227795 22.564468 -12.789266 4294967295
48.236217 21.595348 -12.650128 4294967295
48.241924 23.21199 -12.808678 4294967295
48.253147 22.889641 -12.731053 4294967295
48.253826 21.758232 -12.602696 4294967295
48.280102 22.73008 -12.612967 4294967295
48.289249 22.245777 -12.525048 4294967295
48.337635 21.749126 -12.911966 4294967295
48.384609 22.722124 -12.845448 4294967295
48.402077 22.400217 -12.744699 4294967295
48.429893 23.210505 -12.73134 4294967295
48.436932 22.241156 -12.597401 4294967295
48.445709 23.05011 -12.654687 4294967295
48.454269 21.919065 -12.497115 4294967295
48.479588 22.08259 -12.421141 4294967295
48.513325 21.58493 -12.862092 4294967295
48.544128 21.910326 -12.783817 4294967295
48.576149 22.720827 -12.754934 4294967295
48.60442 21.752964 -12.542331 4294967295
48.608719 22.076632 -12.562338 4294967295
48.61837 22.239017 -12.544529 4294967295
48.695942 22.06764 -12.858509 4294967295
48.700493 23.199179 -12.967336 4294967295
48.70488 22.714731 -12.897237 4294967295
48.712738 21.90723 -12.778353 4294967295
48.746181 22.879524 -12.762255 4294967295
48.746937 23.04122 -12.777422 4294967295
48.760242 22.395636 -12.656301 4294967295
48.766373 22.234419 -12.61564 4294967295
48.767044 22.55781 -12.649082 4294967295
48.829155 23.371073 -12.508909 4294967295
48.877937 21.903889 -12.785584 4294967295
48.881443 23.35874 -12.934163 4294967295
48.884838 21.742739 -12.742093 4294967295
48.886219 22.227758 -12.790842 4294967295
48.893574 22.38994 -12.781587 4294967295
48.898746 22.551966 -12.7804 4294967295
48.907558 22.067667 -12.693937 4294967295
48.925884 22.877335 -12.715916 4294967295
48.931232 22.71608 -12.678181 4294967295
