# .PCD v0.7 - Point Cloud Data file format
VERSION 0.7
FIELDS x y z rgb
SIZE 4 4 4 4
TYPE F F F U
COUNT 1 1 1 1
WIDTH 1121
HEIGHT 1
VIEWPOINT 0 0 0 1 0 0 0
POINTS 1121
DATA ascii
-77.87323 86.512947 -34.292171 4294967295
-77.872742 86.960686 -34.381828 4294967295
-77.87072 87.262192 -34.417667 4294967295
-77.868683 88.308174 -34.613895 4294967295
-77.866753 88.758255 -34.683155 4294967295
-77.861748 88.618584 -34.580589 4294967295
-77.85984 88.175415 -34.457329 4294967295
-77.782463 83.129761 -34.435947 4294967295
-77.777023 83.884026 -34.520107 4294967295
-77.772339 83.594078 -34.390015 4294967295
-77.771454 83.446571 -34.345455 4294967295
-77.767349 83.304535 -34.255714 4294967295
-77.76577 83.754364 -34.329792 4294967295
-77.760658 84.210213 -34.354385 4294967295
-77.760475 84.508545 -34.415951 4294967295
-77.760162 85.40287 -34.60408 4294967295
-77.755539 84.368088 -34.314507 4294967295
-77.755493 85.262093 -34.506508 4294967295
-77.748329 86.466171 -34.662495 4294967295
-77.74514 85.876114 -34.489418 4294967295
-77.744957 84.982536 -34.294285 4294967295
-77.744095 85.728996 -34.442646 4294967295
-77.742661 87.369568 -34.775349 4294967295
-77.73745 87.230057 -34.670185 4294967295
-77.737 85.145447 -34.214588 4294967295
-77.736847 86.635521 -34.533344 4294967295
-77.73497 87.53228 -34.699471 4294967295
-77.733368 86.343819 -34.420372 4294967295
-77.726273 88.590004 -34.801811 4294967295
-77.725525 88.889023 -34.855366 4294967295
-77.724876 87.699371 -34.589851 4294967295
-77.723991 88.445328 -34.737762 4294967295
-77.722733 88.149902 -34.655987 4294967295
-77.720772 87.85569 -34.56432 4294967295
-77.720612 86.813423 -34.337555 4294967295
-77.720512 88.749374 -34.752998 4294967295
-77.718987 87.11425 -34.378975 4294967295
-77.717606 86.967758 -34.327488 4294967295
-77.714699 88.313385 -34.575359 4294967295
-77.71228 88.019974 -34.477219 4294967295
-77.620651 83.296791 -34.319359 4294967295
-77.618973 82.852425 -34.199646 4294967295
-77.615059 83.902512 -34.369148 4294967295
-77.614265 83.009483 -34.16576 4294967295
-77.614174 84.798042 -34.548927 4294967295
-77.609238 82.719742 -34.031254 4294967295
-77.608818 83.167816 -34.121487 4294967295
-77.607086 85.704117 -34.641834 4294967295
-77.606346 84.364578 -34.343224 4294967295
-77.606079 84.216003 -34.307461 4294967295
-77.604546 84.665726 -34.382153 4294967295
-77.604004 85.26265 -34.502659 4294967295
-77.599182 86.164818 -34.62722 4294967295
-77.598335 85.868431 -34.551346 4294967295
-77.597633 85.124763 -34.381405 4294967295
-77.597321 84.976295 -34.345024 4294967295
-77.593231 84.536255 -34.191685 4294967295
-77.59269 85.580399 -34.408298 4294967295
-77.589592 85.436813 -34.332939 4294967295
-77.587036 87.377686 -34.713322 4294967295
-77.583656 86.043243 -34.377949 4294967295
-77.581009 86.345879 -34.404968 4294967295
-77.580872 86.793022 -34.499046 4294967295
-77.580757 86.4953 -34.43351 4294967295
-77.579666 87.688705 -34.674171 4294967295
-77.57766 86.947685 -34.486191 4294967295
-77.573601 87.252831 -34.493393 4294967295
-77.570473 87.556305 -34.513702 4294967295
-77.568695 88.601822 -34.712749 4294967295
-77.567589 87.114616 -34.3773 4294967295
-77.564941 87.864128 -34.500347 4294967295
-77.563179 88.760742 -34.667645 4294967295
-77.561172 88.1688 -34.511551 4294967295
-77.557831 89.06826 -34.656822 4294967295
-77.548912 88.339943 -34.372177 4294967295
-77.477417 82.836044 -34.335152 4294967295
-77.46714 83.002449 -34.223667 4294967295
-77.466606 83.301537 -34.280132 4294967295
-77.464836 82.558975 -34.095562 4294967295
-77.463821 83.45533 -34.273251 4294967295
-77.462723 83.159019 -34.193928 4294967295
-77.457031 84.659332 -34.434204 4294967295
-77.456345 85.256516 -34.552402 4294967295
-77.455765 82.723351 -34.000877 4294967295
-77.45575 84.512512 -34.38438 4294967295
-77.4543 83.918777 -34.236267 4294967295
-77.454247 85.707077 -34.618969 4294967295
-77.450783 84.073875 -34.219151 4294967295
-77.449844 84.373619 -34.27005 4294967295
-77.448967 85.120331 -34.417583 4294967295
-77.446693 84.975243 -34.353951 4294967295
-77.44622 83.634346 -34.059559 4294967295
-77.443001 86.173676 -34.557949 4294967295
-77.442497 84.237152 -34.135521 4294967295
-77.440018 86.923645 -34.676033 4294967295
-77.438637 85.436325 -34.337429 4294967295
-77.438507 85.585579 -34.36758 4294967295
-77.436752 85.886673 -34.406944 4294967295
-77.435448 86.484901 -34.516613 4294967295
-77.432304 87.086288 -34.600433 4294967295
-77.432037 87.682426 -34.724392 4294967295
-77.431984 87.384712 -34.659813 4294967295
-77.431793 86.044373 -34.36977 4294967295
-77.430656 87.535988 -34.673283 4294967295
-77.425797 88.438057 -34.797085 4294967295
-77.425629 88.28949 -34.762814 4294967295
-77.423836 86.803406 -34.41853 4294967295
-77.418434 89.04686 -34.822109 4294967295
-77.415619 88.158661 -34.591454 4294967295
-77.41523 89.35041 -34.841213 4294967295
-77.411911 88.612099 -34.635525 4294967295
-77.409241 87.872269 -34.43866 4294967295
-77.40786 88.023705 -34.451405 4294967295
-77.396179 88.938522 -34.480225 4294967295
-77.395737 88.790382 -34.442146 4294967295
-77.321953 82.992195 -34.308231 4294967295
-77.312828 83.305771 -34.245094 4294967295
-77.311554 82.562256 -34.067814 4294967295
-77.309586 84.205734 -34.391403 4294967295
-77.307594 83.761909 -34.268093 4294967295
-77.307518 85.252419 -34.585876 4294967295
-77.30722 83.46434 -34.199093 4294967295
-77.30719 83.911682 -34.294357 4294967295
-77.306274 83.615059 -34.217762 4294967295
-77.303596 84.365021 -34.340107 4294967295
-77.30262 83.173843 -34.071297 4294967295
-77.302292 85.112457 -34.481365 4294967295
-77.295868 85.719627 -34.5196 4294967295
-77.294609 84.827637 -34.310822 4294967295
-77.294312 82.889473 -33.891853 4294967295
-77.286552 86.182899 -34.485695 4294967295
-77.283203 86.933662 -34.59856 4294967295
-77.28318 85.890762 -34.375172 4294967295
-77.281723 84.700722 -34.099773 4294967295
-77.28022 84.554184 -34.046974 4294967295
-77.279427 87.53614 -34.673473 4294967295
-77.272507 86.058472 -34.258659 4294967295
-77.27121 86.656876 -34.368214 4294967295
-77.269722 87.255501 -34.47504 4294967295
-77.267433 86.365456 -34.252003 4294967295
-77.266174 88.60231 -34.712429 4294967295
-77.266006 88.30481 -34.646339 4294967295
-77.264603 88.00946 -34.563198 4294967295
-77.26458 86.817596 -34.307995 4294967295
-77.259773 87.422188 -34.36871 4294967295
-77.257256 87.724678 -34.397427 4294967295
-77.253967 88.922241 -34.606632 4294967295
-77.249878 88.482811 -34.454281 4294967295
-77.249863 89.078621 -34.581455 4294967295
-77.166161 82.850632 -34.213581 4294967295
-77.164246 83.00296 -34.218891 4294967295
-77.161606 83.156509 -34.214214 4294967295
-77.160179 84.500687 -34.480843 4294967295
-77.159142 83.608009 -34.275555 4294967295
-77.156525 84.357887 -34.398335 4294967295
-77.155396 84.806961 -34.478157 4294967295
-77.152443 83.768448 -34.214539 4294967295
-77.150597 83.324158 -34.093399 4294967295
-77.148933 83.476105 -34.102249 4294967295
-77.148048 84.074135 -34.217293 4294967295
-77.14695 85.417625 -34.488403 4294967295
-77.139908 83.938828 -34.072613 4294967295
-77.134041 85.58902 -34.341415 4294967295
-77.132011 87.082657 -34.631302 4294967295
-77.131401 84.997246 -34.177654 4294967295
-77.130348 84.253372 -34.003876 4294967295
-77.129196 87.385536 -34.655983 4294967295
-77.126068 86.646172 -34.453651 4294967295
-77.125122 85.157166 -34.122448 4294967295
-77.122482 85.758141 -34.213158 4294967295
-77.121323 86.80352 -34.419842 4294967295
-77.120811 85.910126 -34.221855 4294967295
-77.119034 82.630798 -33.496635 4294967295
-77.117096 88.002892 -34.61557 4294967295
-77.115532 87.26078 -34.435055 4294967295
-77.109245 86.973831 -34.284466 4294967295
-77.104271 88.472733 -34.533539 4294967295
-77.104012 87.728271 -34.370941 4294967295
-77.103775 88.77153 -34.59021 4294967295
-77.101593 87.881584 -34.369308 4294967295
-77.100983 89.670105 -34.74213 4294967295
-77.095779 88.934921 -34.511395 4294967295
-77.095047 88.638306 -34.437664 4294967295
-77.094864 89.532349 -34.625767 4294967295
-77.092293 89.239151 -34.526661 4294967295
-77.09201 89.388603 -34.554588 4294967295
-77.090469 88.348534 -34.310749 4294967295
-77.01915 82.843437 -34.272881 4294967295
-77.010468 82.70874 -34.12114 4294967295
-77.005981 84.803833 -34.503819 4294967295
-76.99868 83.175934 -34.053596 4294967295
-76.994904 83.629791 -34.096783 4294967295
-76.993195 84.080139 -34.168453 4294967295
-76.992546 84.379501 -34.223022 4294967295
-76.99202 84.976807 -34.342773 4294967295
-76.990997 83.785538 -34.074596 4294967295
-76.989624 84.533592 -34.214443 4294967295
-76.988762 84.236794 -34.139038 4294967295
-76.988167 83.939476 -34.067345 4294967295
-76.98629 83.345886 -33.914242 4294967295
-76.986229 86.179207 -34.516769 4294967295
-76.984535 86.778168 -34.620304 4294967295
-76.982864 83.500839 -33.898788 4294967295
-76.977379 86.045547 -34.362957 4294967295
-76.977287 85.896645 -34.329941 4294967295
-76.976921 85.599121 -34.261387 4294967295
-76.976723 82.615555 -33.623112 4294967295
-76.976128 86.941925 -34.535999 4294967295
-76.974281 85.752777 -34.25668 4294967295
-76.973236 85.158127 -34.115261 4294967295
-76.972755 86.500763 -34.39436 4294967295
-76.970901 85.460396 -34.146587 4294967295
-76.970467 84.715408 -33.98172 4294967295
-76.969429 86.357521 -34.316689 4294967295
-76.967148 87.404755 -34.50732 4294967295
-76.96637 87.704117 -34.560066 4294967295
-76.966331 86.661057 -34.337418 4294967295
-76.964462 87.111458 -34.406895 4294967295
-76.964386 89.345901 -34.881409 4294967295
-76.963722 82.487778 -33.411678 4294967295
-76.958168 88.016678 -34.510326 4294967295
-76.957756 88.166397 -34.536362 4294967295
-76.954002 88.471062 -34.548084 4294967295
-76.9505 87.285118 -34.245998 4294967295
-76.949165 88.330734 -34.449646 4294967295
-76.945984 87.59124 -34.247131 4294967295
-76.94352 88.936829 -34.498619 4294967295
-76.94323 88.788368 -34.462925 4294967295
-76.941368 89.834435 -34.659161 4294967295
-76.941177 87.897881 -34.244377 4294967295
-76.934486 88.65506 -34.310692 4294967295
-76.933945 89.550026 -34.493557 4294967295
-76.928055 89.113708 -34.317181 4294967295
-76.923973 89.71714 -34.387741 4294967295
-76.858589 83.753685 -34.33548 4294967295
-76.855698 84.35498 -34.422379 4294967295
-76.853149 83.017014 -34.102097 4294967295
-76.851425 82.721474 -34.014957 4294967295
-76.845573 83.477211 -34.092968 4294967295
-76.842873 85.420372 -34.467712 4294967295
-76.841957 83.334061 -34.011482 4294967295
-76.839485 83.934975 -34.104221 4294967295
-76.839478 84.531593 -34.230949 4294967295
-76.833633 83.646423 -33.960289 4294967295
-76.831772 84.992104 -34.219986 4294967295
-76.828674 86.786301 -34.557426 4294967295
-76.827934 84.700356 -34.103806 4294967295
-76.826523 85.895752 -34.33783 4294967295
-76.823692 85.60244 -34.235554 4294967295
-76.820839 87.247078 -34.544643 4294967295
-76.818275 85.76088 -34.192799 4294967295
-76.817383 87.104126 -34.465511 4294967295
-76.816216 86.509956 -34.322742 4294967295
-76.815704 86.65992 -34.347424 4294967295
-76.814812 86.959602 -34.398434 4294967295
-76.813057 86.217262 -34.216 4294967295
-76.812988 85.322533 -34.025005 4294967295
-76.810997 86.369942 -34.219364 4294967295
-76.810844 88.009743 -34.565529 4294967295
-76.807259 88.761009 -34.674427 4294967295
-76.807228 89.058952 -34.737232 4294967295
-76.806389 82.497337 -33.331451 4294967295
-76.801308 89.814232 -34.814083 4294967295
-76.800522 87.879044 -34.391953 4294967295
-76.799484 87.731827 -34.346096 4294967295
-76.796455 89.376244 -34.652515 4294967295
-76.793198 88.935204 -34.512882 4294967295
-76.791176 89.236801 -34.548424 4294967295
-76.790695 87.598282 -34.193638 4294967295
-76.790108 89.685623 -34.628605 4294967295
-76.787315 88.647713 -34.368816 4294967295
-76.782539 88.209076 -34.208202 4294967295
-76.772942 89.567726 -34.361153 4294967295
-76.701263 83.167053 -34.126514 4294967295
-76.700897 82.869247 -34.05822 4294967295
-76.698952 82.723244 -33.999855 4294967295
-76.695244 83.773834 -34.17049 4294967295
-76.694771 85.116806 -34.448467 4294967295
-76.690781 84.377998 -34.235706 4294967295
-76.68399 84.240273 -34.111034 4294967295
-76.683289 83.943069 -34.038162 4294967295
-76.682411 85.585213 -34.373867 4294967295
-76.678452 84.995483 -34.19318 4294967295
-76.677971 85.294586 -34.249844 4294967295
-76.676849 84.550705 -34.076313 4294967295
-76.676422 82.611122 -33.659111 4294967295
-76.674294 84.704216 -34.072899 4294967295
-76.672104 86.795601 -34.485382 4294967295
-76.669273 83.518791 -33.750935 4294967295
-76.667198 86.505997 -34.35503 4294967295
-76.665695 86.061295 -34.239597 4294967295
-76.665016 82.48056 -33.470921 4294967295
-76.663246 86.661957 -34.332405 4294967295
-76.662888 87.854958 -34.580261 4294967295
-76.661392 87.261467 -34.433437 4294967295
-76.658569 87.713562 -34.489475 4294967295
-76.657112 88.759132 -34.690548 4294967295
-76.654915 88.167084 -34.534214 4294967295
-76.654556 87.124367 -34.308193 4294967295
-76.654503 88.46582 -34.591713 4294967295
-76.653969 86.230682 -34.110493 4294967295
-76.650688 89.813271 -34.823452 4294967295
-76.649239 89.071159 -34.645844 4294967295
-76.648636 89.221207 -34.669201 4294967295
-76.643982 88.33551 -34.416058 4294967295
-76.643967 87.590202 -34.257927 4294967295
-76.643044 86.995377 -34.118797 4294967295
-76.642082 89.530922 -34.64262 4294967295
-76.638168 89.389 -34.557472 4294967295
-76.630516 88.657578 -34.294788 4294967295
-76.628731 88.958878 -34.333527 4294967295
-76.627274 89.706642 -34.471416 4294967295
-76.557716 83.00489 -34.201839 4294967295
-76.548683 83.169029 -34.109962 4294967295
-76.542976 83.775337 -34.15818 4294967295
-76.542274 83.627319 -34.116978 4294967295
-76.53698 82.591316 -33.823574 4294967295
-76.536491 85.42691 -34.416557 4294967295
-76.536423 84.532234 -34.226326 4294967295
-76.536156 84.681839 -34.25425 4294967295
-76.527672 83.950127 -33.980534 4294967295
-76.526215 84.40023 -34.055332 4294967295
-76.524422 86.789375 -34.535446 4294967295
-76.524231 84.851173 -34.122875 4294967295
-76.522453 85.301704 -34.193279 4294967295
-76.521355 86.645638 -34.462051 4294967295
-76.521057 86.347984 -34.39492 4294967295
-76.519569 85.604935 -34.216938 4294967295
-76.518982 85.15844 -34.114273 4294967295
-76.514091 85.017555 -34.015865 4294967295
-76.513504 82.480484 -33.471004 4294967295
-76.511612 86.215157 -34.234447 4294967295
-76.510681 87.111404 -34.410908 4294967295
-76.509117 82.935837 -33.505749 4294967295
-76.508141 85.922829 -34.123936 4294967295
-76.506752 86.521812 -34.23114 4294967295
-76.50647 87.715034 -34.479404 4294967295
-76.504478 87.271309 -34.35775 4294967295
-76.503845 88.76281 -34.664124 4294967295
-76.501663 88.468674 -34.571419 4294967295
-76.498749 82.80352 -33.332432 4294967295
-76.49778 87.581207 -34.32935 4294967295
-76.495667 87.435822 -34.268902 4294967295
-76.494667 87.88485 -34.349838 4294967295
-76.487671 89.834641 -34.663887 4294967295
-76.48703 89.090797 -34.497761 4294967295
-76.482239 89.695442 -34.558308 4294967295
-76.480827 89.548973 -34.507591 4294967295
-76.479912 88.059937 -34.180004 4294967295
-76.474564 89.262138 -34.359123 4294967295
-76.473015 88.668579 -34.211967 4294967295
-76.400749 83.014091 -34.125484 4294967295
-76.392326 83.177223 -34.04213 4294967295
-76.390213 83.777634 -34.139385 4294967295
-76.389008 83.928856 -34.154423 4294967295
-76.388382 84.675812 -34.303345 4294967295
-76.388145 84.377869 -34.23719 4294967295
-76.382385 82.895035 -33.843727 4294967295
-76.380074 83.645256 -33.969719 4294967295
-76.378349 85.289391 -34.292622 4294967295
-76.36972 85.154854 -34.143654 4294967295
-76.365356 86.802879 -34.430382 4294967295
-76.363647 85.911057 -34.21838 4294967295
-76.360794 83.527924 -33.675636 4294967295
-76.359856 85.768372 -34.135254 4294967295
-76.359764 84.1269 -33.787579 4294967295
-76.359673 85.022636 -33.975403 4294967295
-76.359261 84.8741 -33.938229 4294967295
-76.358765 85.621033 -34.088997 4294967295
-76.35833 84.577141 -33.862625 4294967295
-76.357208 82.637627 -33.437534 4294967295
-76.356857 86.96669 -34.346233 4294967295
-76.356247 86.371223 -34.212025 4294967295
-76.355278 83.387718 -33.56892 4294967295
-76.355026 86.074989 -34.132465 4294967295
-76.352913 85.481781 -33.977821 4294967295
-76.352127 86.527466 -34.187496 4294967295
-76.351852 87.720886 -34.43536 4294967295
-76.351204 86.678223 -34.206333 4294967295
-76.350426 87.276093 -34.321609 4294967295
-76.343628 88.331604 -34.449352 4294967295
-76.343193 87.139534 -34.191761 4294967295
-76.342468 87.588196 -34.276272 4294967295
-76.340538 88.784241 -34.501572 4294967295
-76.337769 88.192856 -34.338196 4294967295
-76.335472 87.898682 -34.243996 4294967295
-76.32975 88.057854 -34.197605 4294967295
-76.327705 88.657906 -34.29565 4294967295
-76.321167 89.862106 -34.458248 4294967295
-76.320793 89.564682 -34.390316 4294967295
-76.320473 89.26712 -34.323032 4294967295
-76.318924 89.120796 -34.270531 4294967295
-76.318443 89.419815 -34.326939 4294967295
-76.314056 88.980331 -34.172962 4294967295
-76.248428 83.612495 -34.238495 4294967295
-76.247162 83.017662 -34.095612 4294967295
-76.245071 84.214828 -34.318653 4294967295
-76.244217 83.47023 -34.149963 4294967295
-76.23716 84.82476 -34.33688 4294967295
-76.234276 84.978775 -34.329159 4294967295
-76.233887 84.084267 -34.135391 4294967295
-76.231628 84.386475 -34.167557 4294967295
-76.229507 82.897324 -33.824406 4294967295
-76.225792 83.351357 -33.868324 4294967295
-76.222328 85.148094 -34.198494 4294967295
-76.216805 85.306625 -34.154888 4294967295
-76.214844 83.966675 -33.845425 4294967295
-76.213913 84.565346 -33.958542 4294967295
-76.209419 86.512589 -34.305939 4294967295
-76.205093 83.833534 -33.681675 4294967295
-76.201958 88.165649 -34.549953 4294967295
-76.199409 82.647758 -33.352737 4294967295
-76.19912 86.977768 -34.260452 4294967295
-76.198631 85.785103 -34.002544 4294967295
-76.198219 86.233452 -34.09119 4294967295
-76.198029 86.382973 -34.120033 4294967295
-76.197662 87.576813 -34.366261 4294967295
-76.195816 85.491386 -33.901569 4294967295
-76.195206 87.879311 -34.395706 4294967295
-76.193954 87.434135 -34.284611 4294967295
-76.193192 82.50843 -33.236855 4294967295
-76.191734 85.946083 -33.940422 4294967295
-76.188766 88.337883 -34.402569 4294967295
-76.187248 88.042336 -34.319263 4294967295
-76.18557 86.851982 -34.045319 4294967295
-76.181297 88.947395 -34.42683 4294967295
-76.177452 88.506897 -34.280586 4294967295
-76.168365 88.672035 -34.188843 4294967295
-76.16787 89.865707 -34.433144 4294967295
-76.166512 89.122696 -34.257835 4294967295
-76.164825 89.42392 -34.297688 4294967295
-76.161919 89.727287 -34.32106 4294967295
-76.161003 89.281601 -34.214577 4294967295
-76.160149 89.581352 -34.265739 4294967295
-76.090958 83.324005 -34.093586 4294967295
-76.085403 84.974594 -34.3633 4294967295
-76.078644 83.49353 -33.95826 4294967295
-76.077393 83.196976 -33.878563 4294967295
-76.075317 84.245392 -34.070084 4294967295
-76.070213 84.403145 -34.032391 4294967295
-76.069946 84.851326 -34.122833 4294967295
-76.064087 83.965462 -33.85545 4294967295
-76.061195 85.761368 -34.192554 4294967295
-76.059227 82.927971 -33.57 4294967295
-76.057236 82.632385 -33.480274 4294967295
-76.057045 84.723663 -33.916985 4294967295
-76.056549 84.575203 -33.878933 4294967295
-76.052788 83.834816 -33.671165 4294967295
-76.052483 83.685951 -33.635666 4294967295
-76.051849 86.821564 -34.285637 4294967295
-76.050919 84.136604 -33.708698 4294967295
-76.05056 85.331642 -33.954773 4294967295
-76.049179 85.184692 -33.904736 4294967295
-76.048615 87.871063 -34.461166 4294967295
-76.047882 87.424995 -34.357224 4294967295
-76.046745 83.097771 -33.432487 4294967295
-76.046486 85.935547 -34.025036 4294967295
-76.044716 86.983002 -34.220524 4294967295
-76.044174 88.326096 -34.495064 4294967295
-76.043266 88.476768 -34.514095 4294967295
-76.042046 86.092339 -33.996349 4294967295
-76.041138 85.646095 -33.89006 4294967295
-76.039139 88.931244 -34.552219 4294967295
-76.038391 86.546265 -34.041023 4294967295
-76.037621 89.530098 -34.656918 4294967295
-76.037354 86.24958 -33.964249 4294967295
-76.036331 86.69902 -34.04451 4294967295
-76.032486 87.75 -34.211926 4294967295
-76.031746 82.524315 -33.103756 4294967295
-76.028374 87.160362 -34.030998 4294967295
-76.02684 88.654724 -34.323551 4294967295
-76.025299 88.806557 -34.334026 4294967295
-76.022324 87.618477 -34.043205 4294967295
-76.021812 88.21611 -34.161655 4294967295
-76.019287 89.264519 -34.346691 4294967295
-76.012115 89.128075 -34.218613 4294967295
-76.005135 89.438736 -34.186905 4294967295
-75.93718 84.670975 -34.343559 4294967295
-75.936623 83.179451 -34.023083 4294967295
-75.930069 84.5336 -34.216419 4294967295
-75.928459 83.342094 -33.944332 4294967295
-75.919273 85.44696 -34.258522 4294967295
-75.915031 84.409332 -33.982376 4294967295
-75.911522 84.863014 -34.028923 4294967295
-75.911354 84.266129 -33.901524 4294967295
-75.90976 86.507362 -34.349216 4294967295
-75.909256 84.120285 -33.841892 4294967295
-75.908188 85.316376 -34.077812 4294967295
-75.907753 83.077209 -33.602386 4294967295
-75.907333 85.019279 -34.003796 4294967295
-75.907166 83.825058 -33.751099 4294967295
-75.90715 83.974434 -33.782143 4294967295
-75.905502 86.812958 -34.354385 4294967295
-75.904984 86.217125 -34.222378 4294967295
-75.904762 85.620628 -34.094257 4294967295
-75.904114 86.367805 -34.241905 4294967295
-75.902458 82.936401 -33.499706 4294967295
-75.901985 85.177513 -33.962982 4294967295
-75.901619 86.968773 -34.333363 4294967295
-75.901505 87.118126 -34.363075 4294967295
-75.900009 86.673187 -34.249146 4294967295
-75.895264 83.695259 -33.559269 4294967295
-75.894295 82.650749 -33.3269 4294967295
-75.894112 85.787865 -33.981976 4294967295
-75.892296 85.940193 -33.988811 4294967295
-75.891663 87.58255 -34.324291 4294967295
-75.891289 89.074242 -34.631599 4294967295
-75.89109 86.091492 -34.00388 4294967295
-75.889763 88.033279 -34.392372 4294967295
-75.885979 88.487228 -34.435234 4294967295
-75.885338 82.515755 -33.174664 4294967295
-75.882332 88.79184 -34.448593 4294967295
-75.881989 88.643341 -34.412678 4294967295
-75.881775 82.820557 -33.189301 4294967295
-75.879662 89.541962 -34.56881 4294967295
-75.878265 88.948097 -34.425045 4294967295
-75.87413 87.762085 -34.119362 4294967295
-75.872459 89.852875 -34.534386 4294967295
-75.869392 87.91951 -34.086826 4294967295
-75.869019 89.411728 -34.394329 4294967295
-75.864777 89.717445 -34.39975 4294967295
-75.85997 88.383537 -34.053738 4294967295
-75.788109 83.771744 -34.187698 4294967295
-75.787323 83.623764 -34.145885 4294967295
-75.770699 83.35231 -33.859993 4294967295
-75.769745 84.399086 -34.065826 4294967295
-75.768898 84.549774 -34.085621 4294967295
-75.767967 85.297577 -34.229214 4294967295
-75.765259 86.19735 -34.380047 4294967295
-75.765137 83.06263 -33.722706 4294967295
-75.76445 83.213135 -33.744678 4294967295
-75.763023 84.11158 -33.913052 4294967295
-75.76207 84.710381 -34.02512 4294967295
-75.75843 85.164276 -34.069916 4294967295
-75.758232 85.015327 -34.036053 4294967295
-75.754044 83.528877 -33.667362 4294967295
-75.75399 84.873116 -33.947781 4294967295
-75.751495 86.668282 -34.288795 4294967295
-75.750237 85.77507 -34.084732 4294967295
-75.749939 85.626312 -34.049488 4294967295
-75.749367 85.925797 -34.10421 4294967295
-75.749176 87.119781 -34.35128 4294967295
-75.746223 86.826462 -34.249287 4294967295
-75.744873 86.082626 -34.07513 4294967295
-75.744667 88.469749 -34.571434 4294967295
-75.738655 88.331116 -34.459538 4294967295
-75.737282 87.438553 -34.254055 4294967295
-75.736923 82.51046 -33.218353 4294967295
-75.736076 87.291443 -34.206615 4294967295
-75.735008 87.890015 -34.317043 4294967295
-75.733566 82.665398 -33.204487 4294967295
-75.732147 86.551979 -33.997902 4294967295
-75.728264 88.945747 -34.444836 4294967295
-75.722 88.807587 -34.329613 4294967295
-75.71859 88.067642 -34.127869 4294967295
-75.718437 88.217102 -34.157097 4294967295
-75.715652 88.669518 -34.213295 4294967295
-75.709427 89.426262 -34.28569 4294967295
-75.708916 89.87458 -34.372276 4294967295
-75.70195 89.141083 -34.123009 4294967295
-75.692833 89.604721 -34.094276 4294967295
-75.635742 83.773247 -34.175388 4294967295
-75.634842 84.073265 -34.225586 4294967295
-75.629898 83.932106 -34.128197 4294967295
-75.627266 83.637802 -34.030624 4294967295
-75.62394 84.240463 -34.110752 4294967295
-75.623154 82.897728 -33.819706 4294967295
-75.622406 85.287796 -34.30825 4294967295
-75.621101 83.349174 -33.8857 4294967295
-75.618324 83.503044 -33.879726 4294967295
-75.615738 83.208511 -33.782654 4294967295
-75.61319 85.153915 -34.153694 4294967295
-75.611328 82.617981 -33.598846 4294967295
-75.608116 83.071457 -33.649395 4294967295
-75.607269 85.611572 -34.167942 4294967295
-75.602058 85.918816 -34.160511 4294967295
-75.60022 84.727547 -33.886612 4294967295
-75.598427 87.118706 -34.360893 4294967295
-75.59742 85.478783 -34.004906 4294967295
-75.597 86.524315 -34.21735 4294967295
-75.594986 85.034904 -33.878834 4294967295
-75.593536 84.43988 -33.734711 4294967295
-75.593102 84.589973 -33.760067 4294967295
-75.592979 87.575562 -34.38142 4294967295
-75.591278 82.799751 -33.361397 4294967295
-75.590385 88.32579 -34.502254 4294967295
-75.589218 85.791115 -33.957458 4294967295
-75.585709 86.841957 -34.128525 4294967295
-75.584549 88.186752 -34.39315 4294967295
-75.583382 89.083565 -34.564125 4294967295
-75.582024 86.251129 -33.95459 4294967295
-75.580345 87.746475 -34.243492 4294967295
-75.579971 89.238632 -34.549706 4294967295
-75.577507 86.706642 -33.987606 4294967295
-75.576385 88.051689 -34.252834 4294967295
-75.576347 88.499306 -34.345623 4294967295
-75.575096 88.948929 -34.422276 4294967295
-75.568214 88.811798 -34.29911 4294967295
-75.567474 87.917854 -34.102539 4294967295
-75.566299 89.411758 -34.397987 4294967295
-75.562241 87.479088 -33.939083 4294967295
-75.56205 88.673347 -34.185562 4294967295
-75.550919 89.886307 -34.28569 4294967295
-75.476845 83.337364 -33.982841 4294967295
-75.467651 85.442581 -34.295433 4294967295
-75.466087 84.997414 -34.18129 4294967295
-75.465485 84.550545 -34.079937 4294967295
-75.45919 83.963516 -33.871586 4294967295
-75.457191 85.758545 -34.217941 4294967295
-75.456718 85.908577 -34.242752 4294967295
-75.454193 84.121063 -33.835911 4294967295
-75.45266 84.42231 -33.877666 4294967295
-75.452362 86.06514 -34.215702 4294967295
-75.451904 83.826027 -33.743126 4294967295
-75.44455 84.734383 -33.831631 4294967295
-75.443939 86.228546 -34.134472 4294967295
-75.442757 85.18541 -33.901001 4294967295
-75.442024 84.29039 -33.704586 4294967295
-75.43853 86.834717 -34.186554 4294967295
-75.438385 88.028587 -34.433178 4294967295
-75.436028 86.988205 -34.18428 4294967295
-75.434578 82.957344 -33.325039 4294967295
-75.433937 87.140999 -34.187477 4294967295
-75.432808 86.695152 -34.079155 4294967295
-75.431793 82.513206 -33.194389 4294967295
-75.429779 87.595787 -34.225269 4294967295
-75.426247 88.347885 -34.333427 4294967295
-75.424904 88.201012 -34.284492 4294967295
-75.420929 87.461693 -34.076153 4294967295
-75.419815 88.95575 -34.371929 4294967295
-75.41967 88.508453 -34.276833 4294967295
-75.419235 87.912338 -34.146828 4294967295
-75.418785 86.569557 -33.86108 4294967295
-75.418083 87.317276 -34.00716 4294967295
-75.416031 88.663971 -34.259335 4294967295
-75.405792 89.875259 -34.371353 4294967295
-75.40535 89.577713 -34.303337 4294967295
-75.399803 89.289055 -34.167278 4294967295
-75.398537 89.440468 -34.18153 4294967295
-75.396027 89.146423 -34.085941 4294967295
-75.394638 89.745728 -34.191608 4294967295
-75.323486 84.087036 -34.113544 4294967295
-75.321945 84.686768 -34.217121 4294967295
-75.31955 84.541412 -34.154217 4294967295
-75.310844 83.360733 -33.790108 4294967295
-75.310753 85.003799 -34.130257 4294967295
-75.30864 85.156593 -34.133156 4294967295
-75.30777 83.66452 -33.811256 4294967295
-75.302269 85.465744 -34.110535 4294967295
-75.301682 84.869438 -33.978622 4294967295
-75.300941 83.825012 -33.75145 4294967295
-75.298874 83.977791 -33.754993 4294967295
-75.295265 83.236427 -33.551682 4294967295
-75.293701 86.823509 -34.275753 4294967295
-75.292267 85.631691 -34.008499 4294967295
-75.285492 85.941628 -33.980492 4294967295
-75.283722 84.45079 -33.646595 4294967295
-75.283104 86.39357 -34.041809 4294967295
-75.282875 86.543251 -34.06979 4294967295
-75.281952 86.09687 -33.964447 4294967295
-75.28157 82.510796 -33.214027 4294967295
-75.281029 85.799744 -33.890106 4294967295
-75.278954 82.963646 -33.272442 4294967295
-75.278954 87.594749 -34.234699 4294967295
-75.275864 83.118156 -33.26244 4294967295
-75.275406 87.899284 -34.249523 4294967295
-75.273071 82.673943 -33.131947 4294967295
-75.271721 87.009979 -34.014523 4294967295
-75.268272 87.165123 -33.999725 4294967295
-75.267975 88.061256 -34.181786 4294967295
-75.267227 89.10701 -34.388783 4294967295
-75.265587 87.318977 -33.995094 4294967295
-75.265335 89.5578 -34.45657 4294967295
-75.262138 88.519005 -34.197292 4294967295
-75.261757 88.6689 -34.223156 4294967295
-75.261375 89.266373 -34.342033 4294967295
-75.259636 89.866081 -34.442879 4294967295
-75.256737 89.722008 -34.373417 4294967295
-75.249542 89.436203 -34.215931 4294967295
-75.247925 88.842087 -34.070404 4294967295
-75.245262 88.995949 -34.06612 4294967295
-75.170738 83.790359 -34.035233 4294967295
-75.166367 83.946815 -34.008167 4294967295
-75.16391 84.548203 -34.099499 4294967295
-75.163544 84.250107 -34.032749 4294967295
-75.163109 83.205101 -33.81012 4294967295
-75.162308 85.297371 -34.233059 4294967295
-75.162079 84.700531 -34.106163 4294967295
-75.160248 83.657959 -33.865051 4294967295
-75.156189 84.112717 -33.904221 4294967295
-75.154892 85.757507 -34.227623 4294967295
-75.152573 83.37149 -33.701298 4294967295
-75.149277 84.870872 -33.967442 4294967295
-75.148201 83.079582 -33.581318 4294967295
-75.147568 83.528999 -33.665909 4294967295
-75.145332 86.519836 -34.255623 4294967295
-75.145218 85.624268 -34.06847 4294967295
-75.144913 84.429878 -33.816624 4294967295
-75.144325 85.028374 -33.932739 4294967295
-75.141045 85.183151 -33.920189 4294967295
-75.136353 82.799515 -33.362122 4294967295
-75.136299 86.385696 -34.104992 4294967295
-75.134315 86.687622 -34.140575 4294967295
-75.133934 86.091011 -34.011814 4294967295
-75.132851 82.505981 -33.253632 4294967295
-75.12587 87.000427 -34.090607 4294967295
-75.123322 85.959358 -33.840157 4294967295
-75.121574 89.246201 -34.497684 4294967295
-75.120941 88.650574 -34.365646 4294967295
-75.12059 82.974258 -33.184124 4294967295
-75.119408 86.264626 -33.850266 4294967295
-75.119324 88.354927 -34.282383 4294967295
-75.118767 88.206642 -34.244095 4294967295
-75.118065 86.864265 -33.956329 4294967295
-75.114471 87.318314 -34.001507 4294967295
-75.113052 88.962616 -34.322968 4294967295
-75.110977 87.921455 -34.078999 4294967295
-75.110184 88.519882 -34.192226 4294967295
-75.109108 88.073921 -34.085251 4294967295
-75.107689 87.628448 -33.97361 4294967295
-75.106323 82.697815 -32.932743 4294967295
-75.103798 87.485741 -33.891121 4294967295
-75.103073 89.129112 -34.221806 4294967295
-75.095818 89.589409 -34.218571 4294967295
-75.090927 89.448692 -34.122864 4294967295
-75.023155 84.082672 -34.149338 4294967295
-75.021683 83.935715 -34.098942 4294967295
-75.016029 83.347282 -33.900608 4294967295
-75.013878 84.695114 -34.150272 4294967295
-75.006203 85.15567 -34.141602 4294967295
-75.004463 85.90506 -34.273083 4294967295
-75.003693 86.204887 -34.324646 4294967295
-75.003036 83.667015 -33.790722 4294967295
-75.000305 84.418518 -33.909153 4294967295
-74.999748 84.867569 -33.994488 4294967295
-74.999596 83.523109 -33.714287 4294967295
-74.997711 85.318977 -34.060268 4294967295
-74.995316 85.472267 -34.059528 4294967295
-74.991982 86.075104 -34.139034 4294967295
-74.988441 84.288383 -33.721447 4294967295
-74.986298 84.590744 -33.754959 4294967295
-74.984108 82.501213 -33.292938 4294967295
-74.983101 85.791161 -33.95998 4294967295
-74.977753 86.845428 -34.105579 4294967295
-74.976189 82.962532 -33.281021 4294967295
-74.972641 86.405983 -33.945461 4294967295
-74.969421 85.664413 -33.748333 4294967295
-74.96814 87.608147 -34.133064 4294967295
-74.964905 82.681274 -33.069981 4294967295
-74.963181 88.213699 -34.191135 4294967295
-74.959167 88.369827 -34.169033 4294967295
-74.957245 87.029236 -33.865665 4294967295
-74.956375 86.58255 -33.761494 4294967295
-74.955597 82.845718 -32.977844 4294967295
-74.954216 88.826126 -34.196251 4294967295
-74.953995 87.48278 -33.915489 4294967295
-74.953255 87.932037 -33.998352 4294967295
-74.95182 89.128754 -34.226406 4294967295
-74.950905 87.786713 -33.93642 4294967295
-74.947701 88.98661 -34.141174 4294967295
-74.94104 88.102188 -33.867939 4294967295
-74.940674 89.297302 -34.110115 4294967295
-74.939087 89.598572 -34.150959 4294967295
-74.936043 89.454597 -34.079914 4294967295
-74.935265 89.754478 -34.131416 4294967295
-74.935188 89.903862 -34.161263 4294967295
-74.865761 83.64399 -33.979588 4294967295
-74.864388 83.347359 -33.899765 4294967295
-74.852043 84.861282 -34.045647 4294967295
-74.848007 84.270264 -33.869061 4294967295
-74.847366 85.167664 -34.045708 4294967295
-74.845192 84.42424 -33.8629 4294967295
-74.845116 84.573784 -33.892666 4294967295
-74.843681 84.127815 -33.781284 4294967295
-74.840866 83.833443 -33.682442 4294967295
-74.838196 83.53875 -33.585545 4294967295
-74.837013 85.782127 -34.032711 4294967295
-74.835724 85.634888 -33.984936 4294967295
-74.833206 86.833771 -34.198318 4294967295
-74.831764 84.744934 -33.747673 4294967295
-74.831062 85.493187 -33.892643 4294967295
-74.830795 82.952423 -33.364513 4294967295
-74.826172 83.258904 -33.365395 4294967295
-74.825188 86.548515 -34.031136 4294967295
-74.823624 86.10302 -33.918076 4294967295
-74.819809 86.408104 -33.929588 4294967295
-74.817757 88.352654 -34.303112 4294967295
-74.813835 86.268646 -33.820118 4294967295
-74.811996 88.511734 -34.258205 4294967295
-74.81041 87.170647 -33.960014 4294967295
-74.807693 87.921906 -34.078384 4294967295
-74.807426 82.690254 -32.994762 4294967295
-74.80529 82.543961 -32.935703 4294967295
-74.804611 88.673637 -34.191864 4294967295
-74.804451 89.718605 -34.405323 4294967295
-74.79998 88.084328 -34.007675 4294967295
-74.799217 88.981445 -34.182491 4294967295
-74.798752 89.430031 -34.268738 4294967295
-74.798218 87.04174 -33.768677 4294967295
-74.797989 87.340912 -33.827328 4294967295
-74.794609 87.495987 -33.813736 4294967295
-74.793495 89.289848 -34.168816 4294967295
-74.792603 89.589912 -34.218735 4294967295
-74.783363 89.158012 -34.004807 4294967295
-74.706345 83.955383 -33.938286 4294967295
-74.704277 84.40696 -34.00346 4294967295
-74.697075 84.119728 -33.847355 4294967295
-74.695366 83.823563 -33.763313 4294967295
-74.69339 83.378258 -33.644985 4294967295
-74.692741 86.068825 -34.190533 4294967295
-74.692024 84.277321 -33.811768 4294967295
-74.686394 85.481834 -33.984146 4294967295
-74.684746 83.541573 -33.562233 4294967295
-74.68396 84.888161 -33.829052 4294967295
-74.682983 86.980942 -34.246983 4294967295
-74.682289 82.648132 -33.345051 4294967295
-74.67823 85.644623 -33.907799 4294967295
-74.677185 85.198067 -33.801723 4294967295
-74.67646 85.946342 -33.946053 4294967295
-74.674713 83.707146 -33.461266 4294967295
-74.673653 86.697853 -34.063042 4294967295
-74.6726 84.607658 -33.618393 4294967295
-74.669067 85.061859 -33.664352 4294967295
-74.66864 86.85556 -34.028065 4294967295
-74.668419 87.7519 -34.20974 4294967295
-74.665886 85.36599 -33.684212 4294967295
-74.663719 86.565002 -33.90197 4294967295
-74.659546 82.53434 -33.01545 4294967295
-74.659393 88.662926 -34.275829 4294967295
-74.657516 83.285812 -33.142971 4294967295
-74.657074 86.277191 -33.753235 4294967295
-74.656303 82.988457 -33.065357 4294967295
-74.655411 86.429382 -33.762211 4294967295
-74.655304 88.819183 -34.252964 4294967295
-74.653458 89.717842 -34.413109 4294967295
-74.652443 87.9282 -34.030998 4294967295
-74.649971 89.126862 -34.244534 4294967295
-74.64946 89.277023 -34.268478 4294967295
-74.649055 88.083282 -34.017265 4294967295
-74.647926 88.383865 -34.063992 4294967295
-74.647232 87.488892 -33.870373 4294967295
-74.646088 87.192024 -33.793751 4294967295
-74.645454 88.238731 -34.000843 4294967295
-74.633469 89.901703 -34.18182 4294967295
-74.63179 89.606018 -34.098404 4294967295
-74.631485 88.561195 -33.879185 4294967295
-74.630577 89.010818 -33.959568 4294967295
-74.56089 83.945534 -34.01886 4294967295
-74.555664 84.551575 -34.073269 4294967295
-74.553978 83.657715 -33.866856 4294967295
-74.551445 84.259537 -33.956676 4294967295
-74.550522 83.36425 -33.760223 4294967295
-74.54763 84.415108 -33.937481 4294967295
-74.543327 84.123131 -33.819714 4294967295
-74.541069 85.023415 -33.974499 4294967295
-74.536217 85.180725 -33.941666 4294967295
-74.532181 85.48613 -33.950348 4294967295
-74.531914 85.635979 -33.977543 4294967295
-74.531837 86.084274 -34.068615 4294967295
-74.531494 83.843094 -33.603401 4294967295
-74.530853 85.338875 -33.90229 4294967295
-74.529968 85.937973 -34.013462 4294967295
-74.528008 86.538689 -34.110714 4294967295
-74.527748 83.250862 -33.431343 4294967295
-74.521309 84.906029 -33.685215 4294967295
-74.520935 86.401016 -33.987534 4294967295
-74.519493 84.759476 -33.630688 4294967295
-74.519196 87.150749 -34.118221 4294967295
-74.516808 87.752075 -34.209782 4294967295
-74.514091 86.262924 -33.867245 4294967295
-74.513199 87.011391 -34.009148 4294967295
-74.513039 85.816338 -33.761372 4294967295
-74.508881 88.810555 -34.32085 4294967295
-74.503464 82.690674 -32.990334 4294967295
-74.502563 88.522713 -34.177036 4294967295
-74.502235 88.224625 -34.111347 4294967295
-74.502151 87.328606 -33.926052 4294967295
-74.502068 82.992241 -33.033607 4294967295
-74.501671 88.076241 -34.073269 4294967295
-74.499275 86.885162 -33.796356 4294967295
-74.498459 83.147629 -33.01712 4294967295
-74.49791 82.849106 -32.948433 4294967295
-74.494743 82.554665 -32.845341 4294967295
-74.494324 87.491096 -33.854504 4294967295
-74.492294 89.43605 -34.226818 4294967295
-74.49144 87.944138 -33.908821 4294967295
-74.489212 89.739914 -34.24789 4294967295
-74.487511 87.651932 -33.79615 4294967295
-74.485672 89.148788 -34.07896 4294967295
-74.483711 88.704094 -33.961334 4294967295
-74.481758 89.006134 -33.997177 4294967295
-74.481369 89.902725 -34.176136 4294967295
-74.480865 88.410172 -33.862747 4294967295
-74.475258 89.315956 -33.973602 4294967295
-74.473915 89.616951 -34.017437 4294967295
-74.401947 83.35936 -33.800385 4294967295
-74.397682 84.711288 -34.020779 4294967295
-74.393166 83.672287 -33.747196 4294967295
-74.389534 83.827576 -33.730442 4294967295
-74.387398 85.325615 -34.009216 4294967295
-74.386032 84.132172 -33.74612 4294967295
-74.385376 83.535141 -33.614857 4294967295
-74.383415 86.527206 -34.202358 4294967295
-74.382797 84.286842 -33.734638 4294967295
-74.382652 86.379105 -34.161819 4294967295
-74.379219 86.832832 -34.208996 4294967295
-74.379036 85.040298 -33.838894 4294967295
-74.377708 86.237869 -34.066738 4294967295
-74.376648 85.492531 -33.899677 4294967295
-74.375191 83.102539 -33.389915 4294967295
-74.372665 85.648468 -33.878403 4294967295
-74.372597 85.947441 -33.938828 4294967295
-74.371292 84.454811 -33.615227 4294967295
-74.371101 85.202629 -33.766037 4294967295
-74.36982 83.26062 -33.350521 4294967295
-74.369263 87.148064 -34.140499 4294967295
-74.369141 86.700157 -34.046959 4294967295
-74.367737 82.665375 -33.2005 4294967295
-74.367165 85.8069 -33.837334 4294967295
-74.36586 86.10791 -33.881702 4294967295
-74.361931 87.459 -34.106194 4294967295
-74.358772 88.360313 -34.248795 4294967295
-74.347107 89.27594 -34.280529 4294967295
-74.346848 88.081741 -34.032204 4294967295
-74.34436 88.683357 -34.12228 4294967295
-74.343605 89.132622 -34.204258 4294967295
-74.342789 87.789787 -33.918091 4294967295
-74.34201 87.342842 -33.815987 4294967295
-74.341995 88.239288 -33.999626 4294967295
-74.341682 82.855949 -32.891201 4294967295
-74.341042 87.045563 -33.742046 4294967295
-74.34053 82.558258 -32.814804 4294967295
-74.340073 89.586563 -34.250103 4294967295
-74.339462 88.542313 -34.027836 4294967295
-74.338516 89.439934 -34.199219 4294967295
-74.33728 87.948441 -33.876884 4294967295
-74.252785 83.50489 -33.863491 4294967295
-74.252388 84.252869 -34.011307 4294967295
-74.251907 83.954712 -33.943951 4294967295
-74.250053 83.359703 -33.797356 4294967295
-74.248177 83.661674 -33.834194 4294967295
-74.235847 83.83075 -33.704437 4294967295
-74.23555 85.774261 -34.098309 4294967295
-74.233025 85.031212 -33.91256 4294967295
-74.231682 84.136421 -33.711533 4294967295
-74.230339 85.932167 -34.06118 4294967295
-74.22924 83.242958 -33.49612 4294967295
-74.228775 86.382912 -34.132629 4294967295
-74.227615 84.441948 -33.719917 4294967295
-74.223183 86.69088 -34.121075 4294967295
-74.221375 85.199486 -33.791824 4294967295
-74.219154 86.996292 -34.129925 4294967295
-74.21405 86.108208 -33.880154 4294967295
-74.211914 84.915741 -33.607578 4294967295
-74.209496 86.564011 -33.912724 4294967295
-74.204025 88.216408 -34.177959 4294967295
-74.203712 87.619469 -34.051605 4294967295
-74.197945 88.674683 -34.190632 4294967295
-74.195175 89.127357 -34.246319 4294967295
-74.194122 88.97982 -34.20211 4294967295
-74.193115 89.578781 -34.311211 4294967295
-74.192505 83.151115 -32.98764 4294967295
-74.192192 86.891441 -33.749153 4294967295
-74.189888 82.706017 -32.861614 4294967295
-74.188828 87.195946 -33.766579 4294967295
-74.188759 88.540833 -34.040829 4294967295
-74.18808 89.736687 -34.276428 4294967295
-74.188004 87.795105 -33.878151 4294967295
-74.186684 82.561249 -32.789322 4294967295
-74.175926 89.906837 -34.149246 4294967295
-74.173576 88.118134 -33.751957 4294967295
-74.096901 83.810547 -33.869884 4294967295
-74.088684 84.122589 -33.824471 4294967295
-74.083656 85.326454 -34.003597 4294967295
-74.081055 84.58326 -33.817261 4294967295
-74.077087 84.73912 -33.796318 4294967295
-74.072334 82.652481 -33.306911 4294967295
-74.071014 86.542442 -34.083992 4294967295
-74.069794 84.900322 -33.732384 4294967295
-74.069611 86.096466 -33.974277 4294967295
-74.068245 85.650307 -33.864998 4294967295
-74.067543 83.557808 -33.428215 4294967295
-74.066322 86.99836 -34.114799 4294967295
-74.065247 85.505684 -33.795597 4294967295
-74.063957 86.852859 -34.053658 4294967295
-74.061981 85.211929 -33.692303 4294967295
-74.058243 87.609291 -34.132191 4294967295
-74.05687 85.070618 -33.595516 4294967295
-74.054657 85.971352 -33.750057 4294967295
-74.052277 87.170967 -33.963459 4294967295
-74.051155 85.827538 -33.674171 4294967295
-74.048355 86.72908 -33.821114 4294967295
-74.047356 86.282257 -33.716602 4294967295
-74.046021 88.824654 -34.218029 4294967295
-74.045776 82.54409 -32.931969 4294967295
-74.045563 88.676079 -34.181602 4294967295
-74.044403 86.436584 -33.708897 4294967295
-74.040588 88.385704 -34.056232 4294967295
-74.037819 87.34433 -33.806786 4294967295
-74.037315 88.092384 -33.952827 4294967295
-74.036118 87.795517 -33.876312 4294967295
-74.035622 87.497444 -33.808849 4294967295
-74.035179 87.946518 -33.894707 4294967295
-74.034676 89.291901 -34.162663 4294967295
-74.034584 83.010803 -32.878677 4294967295
-74.034103 89.89019 -34.27721 4294967295
-74.027916 89.751434 -34.166714 4294967295
-74.024742 89.458138 -34.064617 4294967295
-74.020592 88.269814 -33.766869 4294967295
-74.018524 89.618095 -34.014679 4294967295
-73.936455 83.375694 -33.665199 4294967295
-73.932419 83.531609 -33.643532 4294967295
-73.931396 83.832352 -33.691292 4294967295
-73.930405 84.282562 -33.769932 4294967295
-73.929543 83.685707 -33.636848 4294967295
-73.927895 84.735123 -33.828995 4294967295
-73.927094 83.988708 -33.666225 4294967295
-73.925117 84.889076 -33.823574 4294967295
-73.919052 85.048309 -33.775665 4294967295
-73.917633 85.200096 -33.787891 4294967295
-73.917 83.256569 -33.383255 4294967295
-73.916298 85.351761 -33.801094 4294967295
-73.914505 84.606949 -33.625507 4294967295
-73.911774 86.853798 -34.047333 4294967295
-73.910812 83.116592 -33.272766 4294967295
-73.910324 87.0056 -34.059093 4294967295
-73.90844 86.560371 -33.943409 4294967295
-73.905853 85.667633 -33.727196 4294967295
-73.901718 85.973373 -33.734737 4294967295
-73.90062 86.722633 -33.87291 4294967295
-73.898743 82.835991 -33.055756 4294967295
-73.898422 88.220551 -34.148998 4294967295
-73.897057 85.831398 -33.644073 4294967295
-73.896843 85.532639 -33.580357 4294967295
-73.895264 87.628174 -33.986488 4294967295
-73.894653 82.542839 -32.94191 4294967295
-73.892944 82.695251 -32.950302 4294967295
-73.892632 86.436707 -33.708885 4294967295
-73.891502 88.680275 -34.151077 4294967295
-73.887863 87.192032 -33.799648 4294967295
-73.88649 87.792168 -33.903721 4294967295
-73.885117 87.346046 -33.794647 4294967295
-73.885033 86.150002 -33.549843 4294967295
-73.88134 87.50177 -33.776344 4294967295
-73.88047 88.848213 -34.039169 4294967295
-73.877243 89.301826 -34.088905 4294967295
-73.875786 89.453682 -34.100483 4294967295
-73.874725 88.409576 -33.873734 4294967295
-73.874016 88.560204 -33.895065 4294967295
-73.873642 88.112457 -33.798908 4294967295
-73.869827 89.76255 -34.084526 4294967295
-73.867523 87.973167 -33.689445 4294967295
-73.864502 89.024521 -33.863689 4294967295
-73.861641 89.925873 -34.009411 4294967295
-73.861115 89.627968 -33.941746 4294967295
-73.790146 84.264442 -33.917583 4294967295
-73.780212 84.878242 -33.911388 4294967295
-73.779816 83.682533 -33.662865 4294967295
-73.777122 83.985916 -33.689079 4294967295
-73.773392 84.739586 -33.793179 4294967295
-73.771362 84.443718 -33.706215 4294967295
-73.769745 85.94146 -33.98951 4294967295
-73.769737 85.044479 -33.806961 4294967295
-73.769157 83.848869 -33.556042 4294967295
-73.765884 84.153229 -33.57476 4294967295
-73.763168 83.259705 -33.357128 4294967295
-73.762138 85.654755 -33.830753 4294967295
-73.758705 85.51075 -33.756229 4294967295
-73.758324 86.408401 -33.933723 4294967295
-73.754974 85.367203 -33.677723 4294967295
-73.749214 85.226868 -33.573189 4294967295
-73.748894 86.872208 -33.903618 4294967295
-73.744446 87.626831 -33.998318 4294967295
-73.741165 88.229988 -34.077663 4294967295
-73.740219 87.484344 -33.913601 4294967295
-73.739731 86.139549 -33.633671 4294967295
-73.736572 86.593315 -33.684299 4294967295
-73.73436 82.855324 -32.894722 4294967295
-73.732117 87.348213 -33.77895 4294967295
-73.731659 87.049934 -33.71228 4294967295
-73.7304 88.397346 -33.969635 4294967295
-73.729225 82.56366 -32.767628 4294967295
-73.728699 89.296677 -34.130028 4294967295
-73.728485 87.204666 -33.701817 4294967295
-73.727989 88.102448 -33.877899 4294967295
-73.727234 89.14975 -34.080795 4294967295
-73.726173 88.553841 -33.94566 4294967295
-73.72509 87.808296 -33.77977 4294967295
-73.724892 86.761917 -33.564442 4294967295
-73.720284 89.012016 -33.961128 4294967295
-73.718521 89.463257 -34.029583 4294967295
-73.715553 88.721054 -33.839512 4294967295
-73.714035 89.919067 -34.063011 4294967295
-73.708427 88.882462 -33.778328 4294967295
-73.70208 89.78994 -33.879005 4294967295
-73.633881 83.374229 -33.676945 4294967295
-73.632843 83.226242 -33.633186 4294967295
-73.618484 84.445511 -33.691837 4294967295
-73.618095 83.09951 -33.41346 4294967295
-73.614616 86.096542 -33.97607 4294967295
-73.613571 86.397186 -34.023357 4294967295
-73.612785 83.856049 -33.497257 4294967295
-73.611938 83.558083 -33.425564 4294967295
-73.611641 84.755508 -33.664726 4294967295
-73.608452 83.713196 -33.411171 4294967295
-73.606735 85.062462 -33.662533 4294967295
-73.605705 84.316071 -33.49752 4294967295
-73.60025 85.820656 -33.731133 4294967295
-73.600136 82.977654 -33.152451 4294967295
-73.59977 84.175789 -33.390896 4294967295
-73.599197 87.317398 -34.021053 4294967295
-73.598137 85.375343 -33.612953 4294967295
-73.597679 86.572464 -33.849876 4294967295
-73.596733 84.030899 -33.321518 4294967295
-73.596321 82.833809 -33.073086 4294967295
-73.596321 86.275627 -33.771736 4294967295
-73.59552 87.173958 -33.943581 4294967295
-73.595131 85.978455 -33.695839 4294967295
-73.589447 85.239632 -33.471054 4294967295
-73.588249 85.540771 -33.516438 4294967295
-73.587837 82.697128 -32.933723 4294967295
