# .PCD v0.7 - Point Cloud Data file format
VERSION 0.7
FIELDS x y z rgb
SIZE 4 4 4 4
TYPE F F F U
COUNT 1 1 1 1
WIDTH 1147
HEIGHT 1
VIEWPOINT 0 0 0 1 0 0 0
POINTS 1147
DATA ascii
50.648407 44.262791 -10.57466 4294967295
50.64875 43.450981 -10.48346 4294967295
50.654469 42.964916 -10.408475 4294967295
50.654865 40.366104 -10.11904 4294967295
50.659527 43.777878 -10.479831 4294967295
50.668114 41.343235 -10.178346 4294967295
50.669094 42.480484 -10.300728 4294967295
50.669735 41.66843 -10.20838 4294967295
50.692104 38.554413 -10.402674 4294967295
50.693588 42.322704 -10.192692 4294967295
50.694912 43.135178 -10.277822 4294967295
50.708122 42.162991 -10.121273 4294967295
50.709587 39.856426 -10.482361 4294967295
50.709949 44.11274 -10.33052 4294967295
50.711678 40.18153 -10.510653 4294967295
50.712528 44.925365 -10.411006 4294967295
50.72105 40.832661 -10.548174 4294967295
50.723026 43.952911 -10.264482 4294967295
50.724312 44.76535 -10.349726 4294967295
50.732712 44.604626 -10.300873 4294967295
50.743908 41.973377 -10.590116 4294967295
50.752396 39.539101 -10.289106 4294967295
50.757404 38.40292 -10.144725 4294967295
50.758686 41.813778 -10.517861 4294967295
50.76656 41.003296 -10.399002 4294967295
50.767048 39.21677 -10.199277 4294967295
50.773235 38.73048 -10.12255 4294967295
50.774101 42.466183 -10.533186 4294967295
50.779171 42.304768 -10.49659 4294967295
50.78717 40.682201 -10.287314 4294967295
50.798828 42.146088 -10.406417 4294967295
50.800205 39.059986 -10.059451 4294967295
50.803089 43.770798 -10.570623 4294967295
50.809307 43.934406 -10.565776 4294967295
50.811306 41.336315 -10.270625 4294967295
50.813751 40.037155 -10.117682 4294967295
50.817661 40.525234 -10.157314 4294967295
50.825665 43.450474 -10.451768 4294967295
50.842663 42.804111 -10.317398 4294967295
50.843491 44.103615 -10.458261 4294967295
50.849316 40.368416 -10.023026 4294967295
50.850681 43.130524 -10.323944 4294967295
50.857159 42.969341 -10.282166 4294967295
50.857815 41.507339 -10.117809 4294967295
50.859856 43.294743 -10.30825 4294967295
50.865891 44.757763 -10.447981 4294967295
50.867935 44.920589 -10.458461 4294967295
50.869774 43.621567 -10.307815 4294967295
50.881279 44.436039 -10.355519 4294967295
50.893791 37.74543 -10.189841 4294967295
50.904007 37.909542 -10.170329 4294967295
50.921204 40.186489 -10.359072 4294967295
50.925087 38.725285 -10.182906 4294967295
50.927666 41.162079 -10.443275 4294967295
50.936237 38.564701 -10.123985 4294967295
50.938904 41.488941 -10.438001 4294967295
50.943031 40.677635 -10.332934 4294967295
50.943035 38.40337 -10.081033 4294967295
50.959579 42.142406 -10.434072 4294967295
50.960457 43.116947 -10.538736 4294967295
50.970047 44.093105 -10.611436 4294967295
50.973351 40.033257 -10.149697 4294967295
50.973724 39.870853 -10.130342 4294967295
50.98217 42.471508 -10.387168 4294967295
50.982437 43.608414 -10.512052 4294967295
50.984768 40.36021 -10.143785 4294967295
50.985661 39.710461 -10.06853 4294967295
50.986839 41.660233 -10.280108 4294967295
50.99073 42.310707 -10.337769 4294967295
50.991646 40.523911 -10.136534 4294967295
50.998024 41.824757 -10.257055 4294967295
51.001041 44.424091 -10.533714 4294967295
51.006897 44.262871 -10.494267 4294967295
51.013535 42.802368 -10.30808 4294967295
51.013821 41.340294 -10.14512 4294967295
51.015686 44.914253 -10.53395 4294967295
51.024719 42.642063 -10.249063 4294967295
51.032871 41.018799 -10.039239 4294967295
51.035034 43.293873 -10.28316 4294967295
51.047005 43.94603 -10.311206 4294967295
51.063347 44.761551 -10.341193 4294967295
51.07069 45.087944 -10.350235 4294967295
51.080563 40.507374 -10.427734 4294967295
51.085842 43.79126 -10.150771 4294967295
51.092583 37.9104 -10.095886 4294967295
51.104393 39.374554 -10.21448 4294967295
51.10667 38.40015 -10.098196 4294967295
51.108269 39.700123 -10.236243 4294967295
51.112305 39.863277 -10.239429 4294967295
51.118164 39.214455 -10.145997 4294967295
51.122093 38.240223 -10.023642 4294967295
51.122616 42.626366 -10.507289 4294967295
51.130196 39.054031 -10.083877 4294967295
51.134453 41.329239 -10.320084 4294967295
51.135159 40.029747 -10.173614 4294967295
51.142296 41.168232 -10.27334 4294967295
51.15633 43.444908 -10.473628 4294967295
51.16082 41.821449 -10.277383 4294967295
51.163185 44.907871 -10.610259 4294967295
51.166973 43.771828 -10.470575 4294967295
51.174866 40.849209 -10.117972 4294967295
51.18325 41.013214 -10.105222 4294967295
51.192436 41.989819 -10.179471 4294967295
51.192665 42.47728 -10.23259 4294967295
51.192913 45.076351 -10.519339 4294967295
51.194248 44.426952 -10.442541 4294967295
51.195751 42.315395 -10.203292 4294967295
51.196712 42.965446 -10.271712 4294967295
51.20076 44.265827 -10.400717 4294967295
51.20784 44.754559 -10.428699 4294967295
51.215595 42.156651 -10.112585 4294967295
51.228115 43.946381 -10.264524 4294967295
51.232853 43.297401 -10.175237 4294967295
51.236504 43.623085 -10.197826 4294967295
51.244022 38.230103 -10.193701 4294967295
51.251945 44.113602 -10.195202 4294967295
51.25433 39.368999 -10.28181 4294967295
51.258514 44.602379 -10.225073 4294967295
51.276363 39.697708 -10.237048 4294967295
51.276711 38.560478 -10.109897 4294967295
51.279301 40.99778 -10.370119 4294967295
51.288738 42.298897 -10.479347 4294967295
51.289688 39.050117 -10.116311 4294967295
51.296406 39.863667 -10.181621 4294967295
51.298363 41.813438 -10.390183 4294967295
51.301449 38.727119 -10.037243 4294967295
51.303139 40.352261 -10.210892 4294967295
51.315533 43.440926 -10.507046 4294967295
51.325756 41.493614 -10.253921 4294967295
51.343964 44.908279 -10.564702 4294967295
51.344128 44.096241 -10.474254 4294967295
51.347462 41.660095 -10.192423 4294967295
51.349136 40.847946 -10.096374 4294967295
51.349659 40.035492 -10.004532 4294967295
51.351952 42.798233 -10.301826 4294967295
51.370743 41.17688 -10.053211 4294967295
51.373829 42.964909 -10.239717 4294967295
51.376812 45.077415 -10.462446 4294967295
51.381245 42.15387 -10.122663 4294967295
51.385509 43.617081 -10.268854 4294967295
51.388702 43.13026 -10.203237 4294967295
51.389164 43.942745 -10.291439 4294967295
51.390419 43.780521 -10.268858 4294967295
51.410362 42.484398 -10.052007 4294967295
51.421955 44.274246 -10.207364 4294967295
51.425621 38.554798 -10.181028 4294967295
51.432606 44.438877 -10.18636 4294967295
51.433006 44.763954 -10.220845 4294967295
51.433403 38.068642 -10.098607 4294967295
51.446156 38.720718 -10.123838 4294967295
51.457497 40.347431 -10.262109 4294967295
51.463192 39.373566 -10.13341 4294967295
51.473587 41.649994 -10.347022 4294967295
51.47715 38.888439 -10.028376 4294967295
51.490009 42.790195 -10.412738 4294967295
51.491543 40.840939 -10.191456 4294967295
51.499912 41.167423 -10.196797 4294967295
51.503597 42.955246 -10.381009 4294967295
51.514275 42.46991 -10.288042 4294967295
51.522049 40.683922 -10.061872 4294967295
51.528336 41.822617 -10.164718 4294967295
51.534359 41.498722 -10.106718 4294967295
51.541584 43.287521 -10.278021 4294967295
51.54364 41.012859 -10.018831 4294967295
51.547401 43.776085 -10.310651 4294967295
51.547951 43.451241 -10.272712 4294967295
51.550934 44.426651 -10.369621 4294967295
51.560081 41.991043 -10.066552 4294967295
51.570335 42.155491 -10.047021 4294967295
51.577091 44.10693 -10.238029 4294967295
51.579113 44.594803 -10.284554 4294967295
51.589783 44.271961 -10.209587 4294967295
51.602203 43.949413 -10.128221 4294967295
51.615353 45.089657 -10.205963 4294967295
51.62151 40.506779 -10.295958 4294967295
51.629017 40.670582 -10.286486 4294967295
51.635002 41.159054 -10.318513 4294967295
51.639488 38.559959 -10.014548 4294967295
51.642948 41.322968 -10.307426 4294967295
51.655323 40.187805 -10.136412 4294967295
51.670155 40.352932 -10.100158 4294967295
51.675323 39.703751 -10.009363 4294967295
51.697575 41.820492 -10.161691 4294967295
51.703194 41.496506 -10.105213 4294967295
51.717625 43.449284 -10.268124 4294967295
51.721203 42.149929 -10.111288 4294967295
51.734585 41.664822 -10.008456 4294967295
51.737614 44.753132 -10.338825 4294967295
51.740868 44.591309 -10.308971 4294967295
51.748604 43.780357 -10.190875 4294967295
51.754116 42.806282 -10.062909 4294967295
51.754662 43.131454 -10.096855 4294967295
51.75816 42.481964 -10.012184 4294967295
51.759003 43.294827 -10.098967 4294967295
51.767502 45.084194 -10.265571 4294967295
51.773712 42.972584 -10.009271 4294967295
51.79158 44.276463 -10.087778 4294967295
51.799675 44.115528 -10.04023 4294967295
51.80843 44.930027 -10.098117 4294967295
51.838226 40.025475 -10.065477 4294967295
51.867729 43.930935 -10.388906 4294967295
51.868877 41.006115 -10.06136 4294967295
51.874939 44.094833 -10.380557 4294967295
51.877575 41.4953 -10.083508 4294967295
51.87809 43.120541 -10.261291 4294967295
51.882252 42.146278 -10.138311 4294967295
51.885498 44.259411 -10.359971 4294967295
51.903992 43.775597 -10.238597 4294967295
51.904335 42.475494 -10.093615 4294967295
51.917923 43.453293 -10.151818 4294967295
51.920341 44.753883 -10.286696 4294967295
51.936462 44.594631 -10.209903 4294967295
51.964569 39.690746 -10.183126 4294967295
51.978714 38.555492 -10.005749 4294967295
51.982067 40.181316 -10.173162 4294967295
51.985332 45.092155 -10.08546 4294967295
51.990101 40.020214 -10.12589 4294967295
51.999821 42.784389 -10.395743 4294967295
52.002708 41.647556 -10.259514 4294967295
52.005768 42.135601 -10.302234 4294967295
52.021709 41.000977 -10.11836 4294967295
52.035988 44.416138 -10.443387 4294967295
52.044193 43.605366 -10.323704 4294967295
52.052513 42.469406 -10.167654 4294967295
52.07103 41.985264 -10.046232 4294967295
52.091831 42.314278 -10.006297 4294967295
52.092266 44.752441 -10.274128 4294967295
52.093861 45.077785 -10.304223 4294967295
52.106808 43.455063 -10.077424 4294967295
52.119694 44.107807 -10.102291 4294967295
52.12059 43.945431 -10.081056 4294967295
52.154434 39.692074 -10.104912 4294967295
52.160324 39.530556 -10.065479 4294967295
52.161854 44.929089 -10.038384 4294967295
52.166821 42.294445 -10.347066 4294967295
52.168633 41.157288 -10.214787 4294967295
52.174709 42.620907 -10.354222 4294967295
52.190952 42.461487 -10.277088 4294967295
52.212799 44.903088 -10.46675 4294967295
52.225929 42.955688 -10.203513 4294967295
52.226109 41.330273 -10.02329 4294967295
52.241165 43.446217 -10.201872 4294967295
52.245117 41.984032 -10.025863 4294967295
52.249283 43.93539 -10.226166 4294967295
52.251488 44.423397 -10.271997 4294967295
52.259121 44.749969 -10.280098 4294967295
52.270454 45.077312 -10.274714 4294967295
52.273304 43.127338 -10.048883 4294967295
52.275772 44.103168 -10.147626 4294967295
52.276443 43.778198 -10.109276 4294967295
52.289597 43.293056 -10.007485 4294967295
52.332909 39.366322 -10.032487 4294967295
52.357151 40.345871 -10.051942 4294967295
52.363163 42.622459 -10.281388 4294967295
52.366177 42.460514 -10.252478 4294967295
52.37207 41.811497 -10.15921 4294967295
52.377914 40.837246 -10.030207 4294967295
52.382961 43.113789 -10.263171 4294967295
52.393639 42.303146 -10.13456 4294967295
52.397221 44.90419 -10.408683 4294967295
52.402462 43.442612 -10.228098 4294967295
52.405117 41.980175 -10.05687 4294967295
52.405544 42.955593 -10.163029 4294967295
52.406654 41.655319 -10.015364 4294967295
52.414818 43.770092 -10.219037 4294967295
52.460598 44.266796 -10.10628 4294967295
52.464634 44.755299 -10.145453 4294967295
52.482368 44.596298 -10.062968 4294967295
52.491665 44.435574 -10.011189 4294967295
52.495281 39.200321 -10.036738 4294967295
52.512676 40.828876 -10.152972 4294967295
52.513969 39.691216 -10.022611 4294967295
52.539566 41.321377 -10.109002 4294967295
52.540684 42.4594 -10.230566 4294967295
52.546219 40.997456 -10.048904 4294967295
52.554302 43.924732 -10.342532 4294967295
52.556801 44.250248 -10.369329 4294967295
52.557144 42.78759 -10.206601 4294967295
52.562004 41.813175 -10.081239 4294967295
52.566898 44.577282 -10.368505 4294967295
52.576511 44.904243 -10.369435 4294967295
52.582161 45.067905 -10.366839 4294967295
52.592754 42.144043 -10.005317 4294967295
52.593807 43.444843 -10.145072 4294967295
52.601425 44.421665 -10.225045 4294967295
52.637936 44.10379 -10.056425 4294967295
52.662579 44.759083 -10.038633 4294967295
52.692478 40.666008 -10.093925 4294967295
52.699791 40.992447 -10.103239 4294967295
52.700031 42.130352 -10.227957 4294967295
52.7061 42.944164 -10.295601 4294967295
52.709381 41.481873 -10.12222 4294967295
52.71619 40.832813 -10.025692 4294967295
52.72337 41.32185 -10.053443 4294967295
52.7458 43.114315 -10.169332 4294967295
52.750183 43.927937 -10.243117 4294967295
52.751209 42.790215 -10.113797 4294967295
52.753105 42.627998 -10.088968 4294967295
52.758904 43.767094 -10.1935 4294967295
52.760864 42.466877 -10.042841 4294967295
52.767021 44.418919 -10.23578 4294967295
52.775002 43.282505 -10.081203 4294967295
52.796459 44.262211 -10.110928 4294967295
52.809902 44.752655 -10.115921 4294967295
52.845383 44.922413 -10.005023 4294967295
52.859062 39.85043 -10.011237 4294967295
52.862617 41.151665 -10.141866 4294967295
52.863186 40.664062 -10.085973 4294967295
52.87302 40.340633 -10.01439 4294967295
52.883587 41.480614 -10.101618 4294967295
52.884178 42.293556 -10.189166 4294967295
52.892082 42.4576 -10.178413 4294967295
52.913498 42.136456 -10.064797 4294967295
52.917171 42.624905 -10.105291 4294967295
52.924541 44.902195 -10.329633 4294967295
52.925556 43.276821 -10.146607 4294967295
52.943581 44.580925 -10.224689 4294967295
52.951702 43.119259 -10.033786 4294967295
52.959236 44.746635 -10.185824 4294967295
52.975967 43.937 -10.035431 4294967295
53.049427 42.290684 -10.20111 4294967295
53.055729 41.47897 -10.08859 4294967295
53.061207 42.455456 -10.176335 4294967295
53.063011 40.992496 -10.008376 4294967295
53.068649 42.131691 -10.113485 4294967295
53.083065 44.735497 -10.348091 4294967295
53.093277 43.762177 -10.203503 4294967295
53.096172 45.063232 -10.336442 4294967295
53.124859 43.605743 -10.071091 4294967295
53.131088 44.582558 -10.156095 4294967295
53.131302 43.281765 -10.011861 4294967295
53.265942 43.598198 -10.170816 4294967295
53.271187 42.786205 -10.062187 4294967295
53.279987 44.576469 -10.227513 4294967295
53.299496 44.905556 -10.19272 4294967295
53.302731 43.442719 -10.019649 4294967295
53.311768 43.932354 -10.040714 4294967295
53.32597 44.097771 -10.007214 4294967295
53.336742 44.750439 -10.039918 4294967295
53.420033 42.129795 -10.062043 4294967295
53.425964 42.61874 -10.094352 4294967295
53.431091 43.107533 -10.129578 4294967295
53.432964 42.782673 -10.086953 4294967295
53.462589 44.089291 -10.123153 4294967295
53.484867 44.418934 -10.078394 4294967295
53.48679 45.069794 -10.143138 4294967295
53.493786 44.908588 -10.099898 4294967295
53.501835 44.584946 -10.034933 4294967295
53.587482 41.639431 -10.012523 4294967295
53.631607 43.924568 -10.1039 4294967295
53.633583 44.738037 -10.186344 4294967295
53.667816 44.582253 -10.044703 4294967295
53.68084 44.910152 -10.033477 4294967295
53.803822 44.573589 -10.162742 4294967295
53.804321 43.272606 -10.017618 4294967295
53.80846 44.411888 -10.128081 4294967295
53.955807 43.267094 -10.079695 4294967295
53.977409 43.921852 -10.073402 4294967295
53.983368 44.736237 -10.14146 4294967295
53.988808 44.412037 -10.086011 4294967295
54.188007 44.903946 -10.029881 4294967295
36.705791 52.579525 -12.968556 4294967295
36.748905 52.430046 -12.778437 4294967295
36.826954 52.404377 -13.130785 4294967295
36.831188 52.566631 -13.132262 4294967295
36.877285 52.256821 -12.912115 4294967295
36.978806 52.237579 -13.17068 4294967295
37.06097 52.582062 -12.880647 4294967295
37.085201 52.427422 -12.765964 4294967295
37.159344 52.400738 -13.133224 4294967295
37.173706 52.243469 -13.057859 4294967295
37.212563 52.576271 -12.94017 4294967295
37.349491 51.921879 -12.98455 4294967295
37.377987 51.607067 -12.834834 4294967295
37.388416 51.771038 -12.811766 4294967295
37.408875 52.098927 -12.767236 4294967295
37.50362 51.916805 -13.03387 4294967295
37.516655 51.597912 -12.945576 4294967295
37.531784 52.407864 -12.97717 4294967295
37.534569 52.086235 -12.929505 4294967295
37.545826 51.76683 -12.848248 4294967295
37.558334 52.253799 -12.853627 4294967295
37.632011 51.582623 -13.148459 4294967295
37.660877 52.234886 -13.107363 4294967295
37.701248 52.406895 -12.965826 4294967295
37.703659 52.568737 -12.97459 4294967295
37.709221 51.764206 -12.861017 4294967295
37.815849 52.391186 -13.171563 4294967295
37.820164 51.425365 -13.044706 4294967295
37.828869 51.588833 -13.028578 4294967295
37.833481 52.557087 -13.120123 4294967295
37.846432 51.109848 -12.904201 4294967295
37.852016 51.917332 -12.973614 4294967295
37.854366 51.273132 -12.891102 4294967295
37.901485 52.252953 -12.814552 4294967295
37.91885 52.09634 -12.727552 4294967295
37.995632 52.070644 -13.08281 4294967295
38.016518 50.947727 -12.8722 4294967295
38.016983 51.109074 -12.888664 4294967295
38.023064 51.91674 -12.956131 4294967295
38.0256 51.756203 -12.927806 4294967295
38.058487 51.281132 -12.742952 4294967295
38.0611 51.604332 -12.769228 4294967295
38.062447 52.572151 -12.873707 4294967295
38.062851 52.411026 -12.853799 4294967295
38.072849 51.446156 -12.704495 4294967295
38.162315 51.585339 -13.027669 4294967295
38.169846 51.264904 -12.961358 4294967295
38.177662 51.428158 -12.948795 4294967295
38.187729 51.108337 -12.872466 4294967295
38.210304 52.081673 -12.89311 4294967295
38.212646 52.565987 -12.93873 4294967295
38.268681 52.419781 -12.699273 4294967295
38.317287 51.096905 -13.018798 4294967295
38.31834 51.258381 -13.032923 4294967295
38.325104 50.776501 -12.951403 4294967295
38.32682 50.615719 -12.92635 4294967295
38.334419 50.940128 -12.93294 4294967295
38.344513 52.232498 -13.03942 4294967295
38.354946 52.557705 -13.034838 4294967295
38.36179 51.592186 -12.898149 4294967295
38.365078 51.754292 -12.903471 4294967295
38.379066 51.435467 -12.811732 4294967295
38.50856 50.456512 -12.848621 4294967295
38.517857 51.265148 -12.903403 4294967295
38.519146 51.426723 -12.916609 4294967295
38.543324 50.626675 -12.729934 4294967295
38.586838 52.250912 -12.741382 4294967295
38.58831 50.960854 -12.589282 4294967295
38.590614 51.768021 -12.671644 4294967295
38.606571 51.610901 -12.590496 4294967295
38.608593 52.418018 -12.673972 4294967295
38.648136 50.286533 -12.93706 4294967295
38.654354 50.771824 -12.967406 4294967295
38.671005 52.065968 -13.04805 4294967295
38.718555 51.272198 -12.76956 4294967295
38.732803 52.566177 -12.859716 4294967295
38.739594 52.245438 -12.796454 4294967295
38.740181 51.600426 -12.721025 4294967295
38.743599 50.633438 -12.597878 4294967295
38.769211 51.124031 -12.55193 4294967295
38.770832 52.415066 -12.691813 4294967295
38.862186 50.941853 -12.823878 4294967295
38.878677 51.268684 -12.795582 4294967295
38.884686 51.431534 -12.790245 4294967295
38.894867 51.756779 -12.786757 4294967295
38.898563 51.919044 -12.790507 4294967295
38.911221 49.986462 -12.521419 4294967295
38.932011 52.411827 -12.713859 4294967295
38.942101 52.253193 -12.655926 4294967295
38.94791 50.318462 -12.413723 4294967295
38.950905 52.578201 -12.657873 4294967295
38.955807 52.095493 -12.583768 4294967295
38.957458 50.159496 -12.357886 4294967295
39.028275 50.133404 -12.735081 4294967295
39.069141 50.627739 -12.629372 4294967295
39.069214 52.402199 -12.830048 4294967295
39.071121 50.466908 -12.603316 4294967295
39.073212 50.306095 -12.576838 4294967295
39.085533 51.115959 -12.619816 4294967295
39.108711 49.992321 -12.400835 4294967295
39.109512 50.960793 -12.507368 4294967295
39.114555 52.252945 -12.633746 4294967295
39.130733 52.579948 -12.60677 4294967295
39.13261 51.289513 -12.453207 4294967295
39.194542 51.905628 -12.937872 4294967295
39.205021 51.585815 -12.860244 4294967295
39.224514 49.977646 -12.601114 4294967295
39.237152 50.142174 -12.569799 4294967295
39.262753 51.762241 -12.652041 4294967295
39.266071 50.472229 -12.492862 4294967295
39.267063 50.3111 -12.4707 4294967295
39.269211 51.279873 -12.571904 4294967295
39.281979 49.830673 -12.357358 4294967295
39.287056 50.800346 -12.447081 4294967295
39.289314 52.576008 -12.639176 4294967295
39.298168 50.641792 -12.385201 4294967295
39.363304 51.259239 -12.856991 4294967295
39.364765 50.614403 -12.778252 4294967295
39.393494 49.976334 -12.592601 4294967295
39.39386 50.783157 -12.682474 4294967295
39.402336 51.108009 -12.685776 4294967295
39.402451 50.946701 -12.667059 4294967295
39.409534 50.141727 -12.547983 4294967295
39.425346 49.661541 -12.431199 4294967295
39.434792 51.439114 -12.595098 4294967295
39.447163 51.926441 -12.6014 4294967295
39.448166 49.828636 -12.360018 4294967295
39.470417 51.609772 -12.47375 4294967295
39.474361 52.417751 -12.54962 4294967295
39.478115 52.580135 -12.553164 4294967295
39.526436 50.288635 -12.761789 4294967295
39.534969 51.097397 -12.819622 4294967295
39.537159 50.775326 -12.774558 4294967295
39.539162 52.066307 -12.912707 4294967295
39.561543 52.394833 -12.861591 4294967295
39.578938 49.494976 -12.464908 4294967295
39.58094 51.270599 -12.657897 4294967295
39.584839 51.432961 -12.660901 4294967295
39.585186 51.917099 -12.714292 4294967295
39.628208 52.573917 -12.618912 4294967295
39.630341 50.476307 -12.373196 4294967295
39.640545 51.608837 -12.46107 4294967295
39.642044 50.640709 -12.345639 4294967295
39.653717 49.35202 -12.153779 4294967295
39.654335 50.966717 -12.334045 4294967295
39.666336 49.839573 -12.159181 4294967295
39.707073 50.128937 -12.689408 4294967295
39.708729 49.483925 -12.609937 4294967295
39.726261 49.004101 -12.486584 4294967295
39.734348 50.781265 -12.655726 4294967295
39.737347 49.652397 -12.51623 4294967295
39.750206 50.94669 -12.611947 4294967295
39.750305 50.301193 -12.538555 4294967295
39.755169 49.172581 -12.391739 4294967295
39.764568 51.273136 -12.592291 4294967295
39.775215 51.437275 -12.568892 4294967295
39.780617 50.470257 -12.438252 4294967295
39.782967 49.825157 -12.356028 4294967295
39.784859 51.762562 -12.567687 4294967295
39.784966 51.601196 -12.549019 4294967295
39.804848 49.992065 -12.288695 4294967295
39.805004 51.929234 -12.507159 4294967295
39.807293 52.41404 -12.55297 4294967295
39.808277 52.091499 -12.512609 4294967295
39.817394 49.349327 -12.166554 4294967295
39.85128 52.587151 -12.399222 4294967295
39.878494 50.773651 -12.744452 4294967295
39.881725 49.967686 -12.640617 4294967295
39.88945 49.808239 -12.592188 4294967295
39.889931 51.099274 -12.736253 4294967295
39.894543 51.907185 -12.809437 4294967295
39.90609 49.328178 -12.47241 4294967295
39.909927 49.167713 -12.439152 4294967295
39.913731 51.589497 -12.698005 4294967295
39.924908 51.43103 -12.636089 4294967295
39.926052 52.560883 -12.75931 4294967295
39.930866 51.271187 -12.594572 4294967295
39.940075 48.8522 -12.284825 4294967295
39.947273 49.49976 -12.329706 4294967295
39.956017 50.309139 -12.386806 4294967295
39.956097 50.470592 -12.404748 4294967295
39.960091 52.247162 -12.589865 4294967295
39.966682 50.957581 -12.418138 4294967295
39.97501 52.089691 -12.513344 4294967295
39.984119 49.670341 -12.203968 4294967295
39.995117 52.417839 -12.471305 4294967295
40.046486 48.674194 -12.502872 4294967295
40.062855 49.323799 -12.511937 4294967295
40.068634 51.584602 -12.744728 4294967295
40.082573 52.395039 -12.781508 4294967295
40.083511 49.16745 -12.413037 4294967295
40.08387 50.943039 -12.612314 4294967295
40.086674 50.782364 -12.58313 4294967295
40.10051 51.270096 -12.583859 4294967295
40.104916 50.302753 -12.457201 4294967295
40.107635 51.917526 -12.628997 4294967295
40.107864 49.011955 -12.299705 4294967295
40.109512 49.658165 -12.366272 4294967295
40.111256 52.079865 -12.633111 4294967295
40.117748 49.498749 -12.31588 4294967295
40.133999 51.440163 -12.471393 4294967295
40.140137 48.535336 -12.118939 4294967295
40.151321 49.830009 -12.221303 4294967295
40.159534 51.769669 -12.408237 4294967295
40.16832 52.256306 -12.428684 4294967295
40.169346 48.865421 -12.041413 4294967295
40.171459 50.642483 -12.233955 4294967295
40.230232 50.129047 -12.601244 4294967295
40.235058 51.098587 -12.691824 4294967295
40.235378 49.323292 -12.489976 4294967295
40.249512 50.295292 -12.544287 4294967295
40.252632 49.00465 -12.386204 4294967295
40.258228 50.94313 -12.583244 4294967295
40.26041 50.78228 -12.556507 4294967295
40.261349 50.621105 -12.534602 4294967295
40.273716 51.915539 -12.63227 4294967295
40.277748 48.52634 -12.233509 4294967295
40.283176 49.173557 -12.285324 4294967295
40.28368 49.980988 -12.374574 4294967295
40.289593 51.596859 -12.533906 4294967295
40.30191 52.245758 -12.558823 4294967295
40.302036 51.761517 -12.503624 4294967295
40.306034 49.502125 -12.232666 4294967295
40.315014 48.858334 -12.124643 4294967295
40.318478 50.474117 -12.293611 4294967295
40.326622 49.830208 -12.188874 4294967295
40.345356 51.288368 -12.280025 4294967295
40.37524 48.991959 -12.558922 4294967295
40.382362 48.832275 -12.512943 4294967295
40.395931 48.512691 -12.423599 4294967295
40.408569 50.452881 -12.593159 4294967295
40.422478 51.424847 -12.648352 4294967295
40.426159 48.358482 -12.287571 4294967295
40.445469 50.300743 -12.431188 4294967295
40.446201 52.560837 -12.683555 4294967295
40.451271 50.786545 -12.463285 4294967295
40.45742 52.402401 -12.621645 4294967295
40.457436 51.111 -12.475747 4294967295
40.460999 51.59623 -12.516562 4294967295
40.46151 49.174435 -12.241041 4294967295
40.468571 52.082497 -12.541768 4294967295
40.477512 49.339848 -12.196937 4294967295
40.479855 52.246895 -12.516049 4294967295
40.480209 49.825008 -12.241141 4294967295
40.494251 51.766315 -12.40529 4294967295
40.509605 50.639874 -12.217832 4294967295
40.51104 49.994183 -12.139281 4294967295
40.513222 50.156246 -12.149019 4294967295
40.516018 49.51083 -12.065153 4294967295
40.535275 50.969425 -12.154335 4294967295
40.555546 48.347565 -12.433855 4294967295
40.566475 49.803116 -12.555381 4294967295
40.569283 49.158085 -12.47153 4294967295
40.574097 48.513458 -12.37988 4294967295
40.58707 50.453957 -12.548125 4294967295
40.601234 51.264683 -12.584146 4294967295
40.606911 49.65168 -12.379781 4294967295
40.607433 50.297642 -12.450658 4294967295
40.617294 51.591679 -12.558098 4294967295
40.629337 51.756241 -12.529476 4294967295
40.639645 50.144241 -12.307092 4294967295
40.649815 50.95422 -12.358665 4294967295
40.652981 52.085304 -12.473949 4294967295
40.654655 51.116936 -12.358065 4294967295
40.658981 52.571243 -12.505273 4294967295
40.661343 48.857479 -12.076743 4294967295
40.666462 48.212513 -11.983845 4294967295
40.672775 49.344875 -12.086971 4294967295
40.674576 50.799026 -12.244096 4294967295
40.681034 49.0238 -12.01834 4294967295
40.682762 50.639591 -12.194009 4294967295
40.690479 52.256618 -12.346296 4294967295
40.696857 51.450771 -12.230334 4294967295
40.718212 51.940872 -12.201952 4294967295
40.723942 48.02306 -12.391756 4294967295
40.745441 49.319885 -12.453961 4294967295
40.748489 50.934998 -12.624307 4294967295
40.774548 48.196548 -12.213188 4294967295
40.776688 49.489014 -12.350701 4294967295
40.77676 49.004574 -12.295728 4294967295
40.778336 50.619698 -12.471856 4294967295
40.785767 49.168259 -12.278935 4294967295
40.790825 48.523457 -12.186351 4294967295
40.791393 50.461525 -12.402885 4294967295
40.793457 51.592274 -12.52241 4294967295
40.798428 51.10918 -12.448435 4294967295
40.806736 48.365738 -12.106252 4294967295
40.819027 50.791473 -12.33192 4294967295
40.820312 49.984287 -12.235779 4294967295
40.823044 51.438446 -12.389192 4294967295
40.827919 52.408554 -12.479576 4294967295
40.835556 51.280174 -12.322349 4294967295
40.848095 50.152733 -12.146009 4294967295
40.849873 51.929867 -12.339608 4294967295
40.857719 48.862652 -11.962703 4294967295
40.86483 52.579784 -12.35438 4294967295
40.872822 52.09737 -12.268644 4294967295
40.916862 49.964909 -12.509554 4294967295
40.928616 50.290745 -12.500345 4294967295
40.929382 48.676201 -12.315167 4294967295
40.930328 48.837921 -12.329711 4294967295
40.931309 50.614326 -12.526309 4294967295
40.941128 48.032982 -12.196642 4294967295
40.959835 49.006561 -12.23333 4294967295
40.960922 48.1992 -12.137966 4294967295
40.962486 51.913921 -12.550971 4294967295
40.96455 50.138252 -12.34257 4294967295
40.967167 51.59222 -12.496378 4294967295
40.981415 49.819431 -12.240628 4294967295
40.987362 49.174778 -12.144631 4294967295
40.98756 47.720821 -11.979781 4294967295
40.987579 51.758976 -12.435332 4294967295
40.991055 52.244312 -12.476497 4294967295
40.994694 50.791836 -12.298404 4294967295
41.001125 51.277996 -12.328099 4294967295
41.001923 49.501419 -12.124543 4294967295
41.004852 49.663685 -12.131392 4294967295
41.006706 50.471832 -12.215314 4294967295
41.01001 52.572258 -12.439346 4294967295
41.010338 48.372517 -11.964234 4294967295
41.010605 51.118912 -12.273066 4294967295
41.036179 48.540279 -11.882092 4294967295
41.037872 52.418114 -12.31296 4294967295
41.079479 48.34724 -12.344375 4294967295
41.094582 47.866302 -12.231109 4294967295
41.096321 49.643196 -12.42474 4294967295
41.101616 48.675533 -12.294901 4294967295
41.107166 48.999878 -12.309813 4294967295
41.11108 52.068798 -12.640631 4294967295
41.111145 48.839333 -12.276152 4294967295
41.111679 51.907513 -12.620099 4294967295
41.114079 49.324566 -12.319424 4294967295
41.121109 51.264137 -12.510696 4294967295
41.124104 49.165501 -12.26231 4294967295
41.129524 48.520699 -12.168397 4294967295
41.137211 50.94529 -12.411827 4294967295
41.138294 48.038143 -12.079679 4294967295
41.138847 47.553585 -12.022854 4294967295
41.140831 47.715618 -12.033391 4294967295
41.169533 50.307392 -12.213578 4294967295
41.170399 50.792202 -12.264877 4294967295
41.184311 51.441853 -12.283776 4294967295
41.193241 48.212734 -11.884674 4294967295
41.194351 52.413574 -12.354129 4294967295
41.197086 50.152718 -12.088468 4294967295
41.198441 51.122398 -12.192546 4294967295
41.213928 50.480076 -12.05958 4294967295
41.216393 50.642273 -12.068246 4294967295
41.241108 52.264317 -12.154587 4294967295
41.260818 48.833233 -12.343481 4294967295
41.262184 48.995064 -12.356389 4294967295
41.265747 49.480419 -12.397217 4294967295
41.267044 48.188671 -12.246487 4294967295
41.271976 49.804932 -12.409492 4294967295
41.287224 50.293198 -12.405018 4294967295
41.290745 48.032738 -12.136395 4294967295
41.301426 49.973721 -12.313565 4294967295
41.31583 47.553913 -11.984473 4294967295
41.320999 51.593746 -12.419804 4294967295
41.321793 47.232109 -11.924903 4294967295
41.321892 49.171066 -12.143171 4294967295
41.324081 48.525337 -12.061812 4294967295
41.332317 51.919678 -12.412351 4294967295
41.33392 47.71973 -11.932567 4294967295
41.351479 49.339836 -12.046712 4294967295
41.356701 51.279877 -12.245052 4294967295
41.363976 48.373257 -11.888938 4294967295
41.364681 50.150982 -12.086624 4294967295
41.365765 50.635963 -12.137072 4294967295
41.371346 50.960506 -12.151875 4294967295
41.38549 50.479347 -12.042422 4294967295
41.397522 51.775055 -12.141532 4294967295
41.399097 52.583279 -12.226482 4294967295
41.399666 52.098747 -12.169642 4294967295
41.412903 51.455856 -12.045502 4294967295
41.414207 47.374409 -12.232472 4294967295
41.42551 49.638245 -12.443583 4294967295
41.441463 47.219166 -12.108685 4294967295
41.452633 47.060169 -12.047206 4294967295
41.453552 47.868217 -12.134722 4294967295
41.461124 50.29306 -12.37852 4294967295
41.473015 52.556969 -12.58727 4294967295
41.474125 51.749859 -12.492002 4294967295
41.486176 49.814693 -12.22691 4294967295
41.492741 52.077682 -12.456348 4294967295
41.493305 50.139549 -12.23572 4294967295
41.499012 49.010021 -12.08616 4294967295
41.501892 50.626331 -12.257099 4294967295
41.510414 51.597717 -12.333343 4294967295
41.511265 51.436405 -12.311847 4294967295
41.512768 47.558876 -11.868934 4294967295
41.517075 48.044746 -11.906915 4294967295
41.518307 48.853085 -11.993232 4294967295
41.529057 48.53244 -11.915174 4294967295
41.533115 47.725254 -11.808346 4294967295
41.533306 49.987907 -12.062654 4294967295
41.539104 48.696468 -11.894476 4294967295
41.546947 49.506462 -11.955195 4294967295
41.55241 51.123806 -12.116171 4294967295
41.553246 50.962433 -12.094727 4294967295
41.55386 49.346531 -11.910213 4294967295
41.553867 49.184906 -11.89197 4294967295
41.562775 52.419064 -12.221726 4294967295
41.565445 50.803925 -12.029292 4294967295
41.568199 51.289421 -12.073274 4294967295
41.596497 48.022133 -12.246354 4294967295
41.610756 47.37925 -12.118358 4294967295
41.625107 49.159744 -12.263088 4294967295
41.631058 48.514973 -12.16726 4294967295
41.647491 50.780617 -12.358516 4294967295
41.648941 47.226482 -11.952386 4294967295
41.653393 48.197121 -12.044438 4294967295
41.656723 47.551502 -11.958697 4294967295
41.66037 47.067493 -11.889954 4294967295
41.673111 50.948631 -12.277648 4294967295
41.676029 49.495266 -12.10253 4294967295
41.677814 47.718033 -11.895315 4294967295
41.685833 51.113415 -12.246645 4294967295
41.687469 49.821243 -12.094696 4294967295
41.70348 52.248829 -12.305807 4294967295
41.703892 51.764275 -12.249627 4294967295
41.707268 50.14933 -12.054531 4294967295
41.708595 50.31126 -12.067607 4294967295
41.711357 51.927769 -12.238951 4294967295
41.713669 51.443653 -12.17542 4294967295
41.718792 51.283382 -12.137409 4294967295
41.719997 48.85947 -11.859614 4294967295
41.720261 49.667702 -11.949656 4294967295
41.723499 50.476585 -12.028169 4294967295
41.725685 49.022484 -11.855824 4294967295
41.74707 52.42181 -12.155486 4294967295
41.748825 50.644562 -11.948438 4294967295
41.753006 47.048409 -12.178013 4294967295
41.763588 52.587746 -12.10983 4294967295
41.769886 48.506302 -12.27656 4294967295
41.769924 46.890709 -12.094403 4294967295
41.777779 48.185074 -12.209662 4294967295
41.779747 48.023979 -12.183848 4294967295
41.787186 47.379417 -12.082295 4294967295
41.792477 50.450184 -12.407595 4294967295
41.81094 49.000809 -12.172508 4294967295
41.815559 47.547592 -11.99082 4294967295
41.816219 47.870956 -12.024685 4294967295
41.830418 51.913536 -12.424752 4294967295
41.832645 50.621788 -12.270607 4294967295
41.846252 49.170929 -12.054242 4294967295
41.850033 48.363766 -11.948621 4294967295
41.852291 48.849167 -11.99451 4294967295
41.85527 50.304302 -12.146817 4294967295
41.855274 49.334724 -12.037592 4294967295
41.855995 46.748688 -11.743469 4294967295
41.85743 47.718964 -11.847198 4294967295
41.867699 49.984196 -12.062389 4294967295
41.870476 52.570137 -12.342808 4294967295
41.871883 49.82362 -12.028024 4294967295
41.873386 51.27837 -12.186008 4294967295
41.876022 49.663017 -11.993825 4294967295
41.87822 52.249054 -12.276518 4294967295
41.882908 52.088707 -12.240208 4294967295
41.889507 49.504688 -11.923515 4294967295
41.905807 48.700348 -11.769492 4294967295
41.9161 51.12764 -12.002826 4294967295
41.92157 47.531429 -12.226916 4294967295
41.922245 50.805927 -11.942677 4294967295
41.92775 50.96896 -11.939623 4294967295
41.934669 48.503819 -12.285496 4294967295
41.934868 46.726616 -12.084581 4294967295
41.956081 48.024189 -12.148252 4294967295
41.956837 47.054817 -12.036142 4294967295
41.959301 48.348103 -12.172215 4294967295
41.972122 50.451477 -12.359196 4294967295
41.976841 47.867462 -12.049907 4294967295
41.97945 49.807087 -12.258159 4294967295
41.979706 48.191341 -12.07524 4294967295
41.986835 46.900051 -11.902101 4294967295
41.994793 50.941811 -12.326278 4294967295
41.995277 51.911179 -12.433511 4294967295
41.997681 48.842022 -12.078626 4294967295
42.0047 51.428982 -12.342608 4294967295
42.02832 51.11187 -12.215088 4294967295
42.029217 49.011219 -11.97508 4294967295
42.042931 52.408222 -12.30421 4294967295
42.044823 48.691677 -11.87844 4294967295
42.051086 52.0872 -12.236376 4294967295
42.05109 50.794434 -12.090824 4294967295
42.052959 52.249271 -12.247332 4294967295
42.057148 49.502903 -11.921873 4294967295
42.062935 51.767086 -12.15428 4294967295
42.065536 49.989899 -11.944093 4294967295
42.075588 49.669064 -11.868886 4294967295
42.085903 47.044102 -12.183051 4294967295
42.090263 50.157669 -11.866858 4294967295
42.10508 51.616302 -11.973469 4294967295
42.121929 48.183514 -12.171422 4294967295
42.136608 49.964321 -12.31486 4294967295
42.145546 50.28965 -12.316766 4294967295
42.152916 50.614605 -12.324724 4294967295
42.153835 47.867794 -12.011975 4294967295
42.165222 46.738934 -11.840665 4294967295
42.173328 51.104435 -12.300581 4294967295
42.173805 49.811897 -12.153247 4294967295
42.173981 47.387562 -11.879673 4294967295
42.174263 46.579311 -11.787577 4294967295
42.174732 51.589481 -12.349702 4294967295
42.178917 46.418686 -11.751425 4294967295
42.180164 50.459843 -12.201487 4294967295
42.186024 48.036972 -11.906013 4294967295
42.195 47.554085 -11.81679 4294967295
42.199299 47.716751 -11.818412 4294967295
42.199734 48.848461 -11.944124 4294967295
42.200649 49.495235 -12.013368 4294967295
42.201344 49.333771 -11.992496 4294967295
42.207436 52.082623 -12.278198 4294967295
42.210571 50.952271 -12.138818 4294967295
42.228283 52.411224 -12.23421 4294967295
42.231049 51.44231 -12.114445 4294967295
42.235626 50.796963 -12.024048 4294967295
42.243664 48.697296 -11.756499 4294967295
42.250927 49.669163 -11.83769 4294967295
42.251038 50.154205 -11.891857 4294967295
42.252995 51.932816 -12.084422 4294967295
42.267418 51.289948 -11.956057 4294967295
42.268452 46.237591 -12.032672 4294967295
42.277691 51.777546 -11.971038 4294967295
42.299713 52.268234 -11.940728 4294967295
42.307774 46.731327 -11.935694 4294967295
42.307972 46.408077 -11.898534 4294967295
42.325008 50.452431 -12.287555 4294967295
42.342533 47.38588 -11.874508 4294967295
42.34362 47.224464 -11.852131 4294967295
42.343845 49.649113 -12.124102 4294967295
42.347412 46.901985 -11.801123 4294967295
42.348434 49.003738 -12.033672 4294967295
42.350796 48.357742 -11.951818 4294967295
42.352135 51.267155 -12.273976 4294967295
42.353874 49.328312 -12.049087 4294967295
42.354668 47.065319 -11.791361 4294967295
42.3605 49.814808 -12.078134 4294967295
42.361958 50.138412 -12.108888 4294967295
42.362854 48.037266 -11.868981 4294967295
42.366787 50.947678 -12.181197 4294967295
42.375748 48.848644 -11.910258 4294967295
42.378006 49.980743 -12.028878 4294967295
42.37804 47.879139 -11.792276 4294967295
42.379047 50.304272 -12.061244 4294967295
42.383133 50.790176 -12.100058 4294967295
42.392666 52.408733 -12.24515 4294967295
42.393635 51.600948 -12.150523 4294967295
42.399967 47.722549 -11.689587 4294967295
42.403503 52.573166 -12.221614 4294967295
42.407791 51.92783 -12.132379 4294967295
42.409271 50.635094 -11.981209 4294967295
42.42564 51.124184 -11.972734 4294967295
42.431232 52.095524 -12.060309 4294967295
42.447166 48.177479 -12.206377 4294967295
42.449066 47.854733 -12.162713 4294967295
42.449181 46.561844 -12.016803 4294967295
42.46402 45.918579 -11.886923 4294967295
42.474766 51.783428 -11.85631 4294967295
42.479881 48.023548 -12.062269 4294967295
42.482555 49.963451 -12.270113 4294967295
42.488693 46.085724 -11.810103 4294967295
42.499432 46.411484 -11.805149 4294967295
42.504707 50.292107 -12.221234 4294967295
42.508156 47.545189 -11.898877 4294967295
42.50919 49.000275 -12.058562 4294967295
42.528263 48.358215 -11.912419 4294967295
42.531113 50.137032 -12.10146 4294967295
42.538017 52.401272 -12.329326 4294967295
42.544491 50.786873 -12.122703 4294967295
42.545536 47.230419 -11.718599 4294967295
42.546665 46.260345 -11.605087 4294967295
42.548267 47.069332 -11.689891 4294967295
42.552307 51.273724 -12.147151 4294967295
42.552536 46.908581 -11.655266 4294967295
42.552696 49.495731 -11.945683 4294967295
42.558941 47.718643 -11.721576 4294967295
42.559082 48.688881 -11.830172 4294967295
42.559566 51.598824 -12.155582 4294967295
42.560879 49.336044 -11.89601 4294967295
42.561371 51.114391 -12.094105 4294967295
42.561905 49.174614 -11.873867 4294967295
42.591751 48.858383 -11.722634 4294967295
42.599705 50.47736 -11.873908 4294967295
42.602989 49.66967 -11.77034 4294967295
42.604496 52.09531 -12.037289 4294967295
42.620865 51.776192 -11.937962 4294967295
42.621944 50.968018 -11.842892 4294967295
42.627018 51.939457 -11.932482 4294967295
42.634811 52.588203 -11.975224 4294967295
42.638664 48.019615 -12.094673 4294967295
42.640007 47.858303 -12.071329 4294967295
42.654869 47.376808 -11.959644 4294967295
42.657551 46.407402 -11.840236 4294967295
42.660225 46.246315 -11.811762 4294967295
42.6651 45.762306 -11.738453 4294967295
42.666115 50.127216 -12.22539 4294967295
42.669857 45.92506 -11.738345 4294967295
42.674812 51.260567 -12.319123 4294967295
42.6772 51.099579 -12.291783 4294967295
42.688042 48.839493 -11.995708 4294967295
42.693062 46.738785 -11.740023 4294967295
42.696949 49.649902 -12.052339 4294967295
42.699913 48.357311 -11.895515 4294967295
42.700619 48.195793 -11.874627 4294967295
42.705471 49.328663 -11.983223 4294967295
42.711346 49.976727 -12.033353 4294967295
42.712635 50.785271 -12.11926 4294967295
42.720894 50.948982 -12.10569 4294967295
42.727463 50.304016 -12.007758 4294967295
42.729748 52.567524 -12.253359 4294967295
42.730083 49.4963 -11.906788 4294967295
42.737278 46.587021 -11.551769 4294967295
42.744213 50.469845 -11.961545 4294967295
42.751572 51.4417 -12.042317 4294967295
42.755669 51.927719 -12.081086 4294967295
42.756226 48.694054 -11.71538 4294967295
42.767578 52.415768 -12.089838 4294967295
42.774689 48.536701 -11.626192 4294967295
42.779068 51.61039 -11.954831 4294967295
42.783516 52.096573 -11.992257 4294967295
42.785397 49.186249 -11.657783 4294967295
42.796562 50.644592 -11.778529 4294967295
42.799961 47.369732 -12.044724 4294967295
42.807919 45.754864 -11.832383 4294967295
42.817097 46.726997 -11.90619 4294967295
42.828579 49.154465 -12.134676 4294967295
42.838375 48.025249 -11.969845 4294967295
42.838448 46.893513 -11.842339 4294967295
42.840702 49.965549 -12.178954 4294967295
42.841324 46.409061 -11.776752 4294967295
42.873341 50.620159 -12.126292 4294967295
42.878319 46.579082 -11.652785 4294967295
42.879154 46.094036 -11.595014 4294967295
42.880867 49.813747 -12.006544 4294967295
42.882446 47.226952 -11.709666 4294967295
42.885891 47.551197 -11.732787 4294967295
42.888393 45.449013 -11.486751 4294967295
42.889759 49.65424 -11.954233 4294967295
42.891876 46.258617 -11.564322 4294967295
42.895897 45.935978 -11.512495 4294967295
42.902912 51.597492 -12.121762 4294967295
42.905136 51.921356 -12.14956 4294967295
42.90527 45.614479 -11.440098 4294967295
42.908157 47.071079 -11.592697 4294967295
42.921715 52.248936 -12.122243 4294967295
42.926319 51.441799 -12.013741 4294967295
42.928249 51.280609 -11.988153 4294967295
42.929344 47.88475 -11.602231 4294967295
42.930889 49.017345 -11.723569 4294967295
42.935162 51.76741 -12.016128 4294967295
42.938511 48.210411 -11.603389 4294967295
42.944847 48.697186 -11.633605 4294967295
42.945698 48.859142 -11.648516 4294967295
42.952843 49.507862 -11.693801 4294967295
42.953117 50.963493 -11.856343 4294967295
42.958256 51.126503 -11.854786 4294967295
42.970154 50.320827 -11.718223 4294967295
42.973602 48.500725 -12.147291 4294967295
42.978325 45.43008 -11.783937 4294967295
42.978779 47.85537 -12.054769 4294967295
42.986973 50.810257 -11.708179 4294967295
42.993526 47.212105 -11.925486 4294967295
42.994801 52.106163 -11.823537 4294967295
42.996952 49.476105 -12.166672 4294967295
43.007648 48.347103 -11.998488 4294967295
43.020023 45.277409 -11.605668 4294967295
43.023495 50.129139 -12.137494 4294967295
43.029736 50.777248 -12.186197 4294967295
43.03014 47.543896 -11.821317 4294967295
43.030354 46.735352 -11.729623 4294967295
43.033775 47.059578 -11.752841 4294967295
43.042629 46.414631 -11.646155 4294967295
43.049313 46.254368 -11.60231 4294967295
43.049362 51.105461 -12.147244 4294967295
43.0504 49.812416 -11.997953 4294967295
43.066437 47.714005 -11.700195 4294967295
43.069679 46.097122 -11.505947 4294967295
43.071659 49.979305 -11.934579 4294967295
43.071815 48.038738 -11.715907 4294967295
43.09359 48.852577 -11.723243 4294967295
43.093922 46.911476 -11.503825 4294967295
43.095692 52.410568 -12.114862 4294967295
43.103432 49.016674 -11.703654 4294967295
43.103821 49.34026 -11.738514 4294967295
43.10685 48.693981 -11.654184 4294967295
43.116699 48.210995 -11.561855 4294967295
43.12241 50.476974 -11.794402 4294967295
43.128353 50.963654 -11.82612 4294967295
43.135242 52.582554 -11.981364 4294967295
43.140617 50.643242 -11.742749 4294967295
43.141609 50.319984 -11.702595 4294967295
43.142715 51.937653 -11.880051 4294967295
43.148254 51.45388 -11.804301 4294967295
43.148361 52.100826 -11.876563 4294967295
43.172913 49.314671 -12.115167 4294967295
43.173893 47.536491 -11.911637 4294967295
43.175098 49.153538 -12.088631 4294967295
43.176338 45.596424 -11.684227 4294967295
43.180519 51.78561 -11.716912 4294967295
43.185509 51.301571 -11.643266 4294967295
43.187393 46.73101 -11.76904 4294967295
43.191662 46.893703 -11.770843 4294967295
43.193817 51.627239 -11.647748 4294967295
43.19426 45.923847 -11.651838 4294967295
43.197906 48.027157 -11.874067 4294967295
43.201557 46.57246 -11.696558 4294967295
43.230618 46.255428 -11.548773 4294967295
43.231411 49.490479 -11.909135 4294967295
43.232216 48.682091 -11.815227 4294967295
43.232914 47.388321 -11.667192 4294967295
43.235603 50.946743 -12.056509 4294967295
43.236439 46.094933 -11.508263 4294967295
43.23695 47.712761 -11.68806 4294967295
43.237743 47.227665 -11.630499 4294967295
43.252262 48.201588 -11.683872 4294967295
43.252876 47.878212 -11.64517 4294967295
43.253407 49.980972 -11.879331 4294967295
43.260197 47.071003 -11.526244 4294967295
43.265869 52.247879 -12.085811 4294967295
43.267555 48.85223 -11.69793 4294967295
43.269073 49.661335 -11.782969 4294967295
43.270699 48.36768 -11.631376 4294967295
43.275188 50.471508 -11.850363 4294967295
43.276218 52.088867 -12.028021 4294967295
43.28104 50.796421 -11.864255 4294967295
43.292961 51.60804 -11.909402 4294967295
43.302425 45.261925 -11.805871 4294967295
43.323181 51.777489 -11.811795 4294967295
43.332752 46.400616 -11.816837 4294967295
43.335789 46.077839 -11.768877 4294967295
43.336967 47.856922 -11.964141 4294967295
43.338852 45.755039 -11.720814 4294967295
43.339626 48.504284 -12.026588 4294967295
43.344959 50.650604 -11.601186 4294967295
43.346054 49.637508 -12.129052 4294967295
43.347752 47.69772 -11.904693 4294967295
43.349472 51.298885 -11.656569 4294967295
43.352139 48.668926 -11.99684 4294967295
43.353004 45.596386 -11.648424 4294967295
43.356838 47.538105 -11.851718 4294967295
43.362526 47.377686 -11.811776 4294967295
43.368885 48.834595 -11.950868 4294967295
43.372803 46.247787 -11.645247 4294967295
43.376389 45.925041 -11.595173 4294967295
43.380634 50.615997 -12.105582 4294967295
43.389355 48.192551 -11.799846 4294967295
43.393108 46.575855 -11.603806 4294967295
43.403152 45.445515 -11.438111 4294967295
43.406635 49.490494 -11.87896 4294967295
43.407124 46.740784 -11.568295 4294967295
43.422668 49.33263 -11.799422 4294967295
43.425549 47.068531 -11.534065 4294967295
43.430485 49.98148 -11.842143 4294967295
43.434002 50.790989 -11.919458 4294967295
43.435028 47.232487 -11.515928 4294967295
43.435684 51.114845 -11.949337 4294967295
43.441761 50.469463 -11.853455 4294967295
43.444656 51.602257 -11.969457 4294967295
43.445282 51.764126 -11.985214 4294967295
43.447727 46.911743 -11.430934 4294967295
43.449768 49.177383 -11.677493 4294967295
43.456787 51.928783 -11.959347 4294967295
43.467686 49.01989 -11.590735 4294967295
43.468765 48.372936 -11.513922 4294967295
43.486149 51.451065 -11.7925 4294967295
43.488911 47.528019 -11.986638 4294967295
43.491688 46.558426 -11.867075 4294967295
43.492371 50.320213 -11.641556 4294967295
43.494232 48.175999 -12.038877 4294967295
43.496487 50.159431 -11.607634 4294967295
43.511299 45.754089 -11.701235 4294967295
43.519989 46.241264 -11.722464 4294967295
43.529202 49.316093 -12.032168 4294967295
43.532017 45.43507 -11.585608 4294967295
43.537426 46.406898 -11.673888 4294967295
43.539677 47.377937 -11.774245 4294967295
43.540302 47.8633 -11.82633 4294967295
43.543327 48.510921 -11.887374 4294967295
43.548458 46.894669 -11.686163 4294967295
43.554562 49.160477 -11.917014 4294967295
43.556103 47.219933 -11.693244 4294967295
43.556267 47.058201 -11.674454 4294967295
43.559734 50.455387 -12.042443 4294967295
43.560558 48.353241 -11.803303 4294967295
43.565136 45.280437 -11.440671 4294967295
