# .PCD v0.7 - Point Cloud Data file format
VERSION 0.7
FIELDS x y z rgb
SIZE 4 4 4 4
TYPE F F F U
COUNT 1 1 1 1
WIDTH 1147
HEIGHT 1
VIEWPOINT 0 0 0 1 0 0 0
POINTS 1147
DATA ascii
45.82893 83.876617 -14.147712 4294967295
45.832462 84.362587 -14.188407 4294967295
45.833199 86.945869 -14.473437 4294967295
45.847069 85.17646 -14.223462 4294967295
45.851658 85.824356 -14.278177 4294967295
45.86285 85.506538 -14.200137 4294967295
45.863605 86.475624 -14.305244 4294967295
45.866104 86.15387 -14.259873 4294967295
45.867836 83.732407 -13.983444 4294967295
45.877281 84.867142 -14.073933 4294967295
45.883137 88.583382 -14.465662 4294967295
45.889256 87.617645 -14.33478 4294967295
45.892761 87.942177 -14.35757 4294967295
45.894711 89.073135 -14.47613 4294967295
45.89872 89.559303 -14.515014 4294967295
45.902798 86.332169 -14.139986 4294967295
45.904354 85.686897 -14.062149 4294967295
45.907543 86.81881 -14.176129 4294967295
45.908844 88.434082 -14.351114 4294967295
45.917797 88.27684 -14.299506 4294967295
45.918236 86.016243 -14.045978 4294967295
45.920101 90.538101 -14.542589 4294967295
45.925011 89.89476 -14.452247 4294967295
45.933723 89.253143 -14.347594 4294967295
45.934109 89.414787 -14.364127 4294967295
45.943676 88.127541 -14.184296 4294967295
45.950809 87.161842 -14.049553 4294967295
45.960827 85.474731 -14.461931 4294967295
45.965893 83.539833 -14.227121 4294967295
45.970451 84.187653 -14.281934 4294967295
45.975086 88.949852 -14.156263 4294967295
45.976723 90.242569 -14.294021 4294967295
45.991215 86.457085 -14.455724 4294967295
45.995045 85.974571 -14.387416 4294967295
45.996666 89.767677 -14.165161 4294967295
45.999763 84.039253 -14.153874 4294967295
46.003437 84.363838 -14.176061 4294967295
46.008228 84.850403 -14.212023 4294967295
46.008305 87.756294 -14.535399 4294967295
46.010281 90.097237 -14.150025 4294967295
46.011383 83.882935 -14.092256 4294967295
46.011459 83.721474 -14.073977 4294967295
46.014454 84.530251 -14.152677 4294967295
46.01841 88.729454 -14.605317 4294967295
46.019985 88.084587 -14.527506 4294967295
46.033653 85.346298 -14.170533 4294967295
46.03661 85.670601 -14.195403 4294967295
46.036686 89.545128 -14.626601 4294967295
46.038105 88.577354 -14.513441 4294967295
46.048153 85.837341 -14.170051 4294967295
46.054249 86.970474 -14.273068 4294967295
46.055199 89.392563 -14.539172 4294967295
46.060902 89.233856 -14.499802 4294967295
46.064114 86.329102 -14.164099 4294967295
46.066742 89.720917 -14.531808 4294967295
46.067348 86.653564 -14.187921 4294967295
46.068714 86.169716 -14.128839 4294967295
46.070175 90.529648 -14.608792 4294967295
46.070538 85.039963 -13.996066 4294967295
46.076725 87.303841 -14.224675 4294967295
46.091919 87.472397 -14.185627 4294967295
46.106121 89.901237 -14.402053 4294967295
46.111584 90.065315 -14.399538 4294967295
46.11652 89.098846 -14.273145 4294967295
46.11742 88.453316 -14.19783 4294967295
46.125656 84.020432 -14.310734 4294967295
46.13253 87.975876 -14.087182 4294967295
46.159046 84.842621 -14.275377 4294967295
46.162899 85.328728 -14.314862 4294967295
46.163811 83.55294 -14.113645 4294967295
46.171028 86.139664 -14.374265 4294967295
46.171822 84.36393 -14.173508 4294967295
46.171997 85.978661 -14.352651 4294967295
46.174541 85.656914 -14.307146 4294967295
46.178596 88.564514 -14.615458 4294967295
46.180534 87.596954 -14.500367 4294967295
46.185608 87.115021 -14.42744 4294967295
46.194489 84.535553 -14.106454 4294967295
46.197292 85.505768 -14.203846 4294967295
46.199005 84.214561 -14.053544 4294967295
46.201916 89.221176 -14.599905 4294967295
46.210823 85.834892 -14.189054 4294967295
46.214081 90.195427 -14.662104 4294967295
46.219944 86.323517 -14.208795 4294967295
46.220287 87.938385 -14.387278 4294967295
46.223606 87.455551 -14.320913 4294967295
46.229713 86.489494 -14.190131 4294967295
46.234428 83.907249 -13.884669 4294967295
46.239014 87.301231 -14.245167 4294967295
46.242241 85.04155 -13.981288 4294967295
46.244869 84.71965 -13.935451 4294967295
46.250202 88.759758 -14.365 4294967295
46.250702 90.535919 -14.560806 4294967295
46.258244 85.210312 -13.939261 4294967295
46.264065 90.058037 -14.456822 4294967295
46.265091 89.735611 -14.417037 4294967295
46.269573 86.830849 -14.076634 4294967295
46.274303 88.932632 -14.292636 4294967295
46.276436 89.418091 -14.338566 4294967295
46.276588 88.287735 -14.212159 4294967295
46.277355 89.580009 -14.353093 4294967295
46.280071 84.821472 -14.450301 4294967295
46.280663 90.388939 -14.430571 4294967295
46.2831 88.129288 -14.169769 4294967295
46.283428 89.905861 -14.366289 4294967295
46.29356 87.003456 -14.004677 4294967295
46.302013 86.68425 -13.937002 4294967295
46.308235 89.110222 -14.183424 4294967295
46.318138 86.61441 -14.505326 4294967295
46.330479 84.036697 -14.171531 4294967295
46.33189 84.521782 -14.220169 4294967295
46.332043 85.65213 -14.345414 4294967295
46.342838 83.719185 -14.089246 4294967295
46.343426 84.365448 -14.158963 4294967295
46.343941 87.91774 -14.552393 4294967295
46.348038 85.820854 -14.303461 4294967295
46.358948 84.210861 -14.082803 4294967295
46.362984 83.566566 -13.995749 4294967295
46.373993 88.738991 -14.529674 4294967295
46.381268 88.096642 -14.430569 4294967295
46.38797 88.907036 -14.495295 4294967295
46.390472 85.03257 -14.054569 4294967295
46.400227 90.527206 -14.629036 4294967295
46.40118 89.88195 -14.553614 4294967295
46.40276 86.976311 -14.224276 4294967295
46.403576 87.784134 -14.311071 4294967295
46.406445 87.301003 -14.246421 4294967295
46.408119 86.171227 -14.114303 4294967295
46.411095 85.364937 -14.013258 4294967295
46.415169 85.205231 -13.980013 4294967295
46.415234 88.596992 -14.35727 4294967295
46.418446 89.405853 -14.435075 4294967295
46.434288 90.220734 -14.465596 4294967295
46.434841 87.152641 -14.122078 4294967295
46.453762 85.308273 -14.481668 4294967295
46.46888 84.507851 -14.335252 4294967295
46.470909 89.753845 -14.274581 4294967295
46.489574 88.470474 -14.060895 4294967295
46.490616 83.871613 -14.181989 4294967295
46.491848 88.30999 -14.034399 4294967295
46.492165 87.585777 -14.5894 4294967295
46.493134 86.133331 -14.42412 4294967295
46.494724 89.119087 -14.113513 4294967295
46.498867 89.2826 -14.115976 4294967295
46.5061 84.847458 -14.231841 4294967295
46.507931 85.494209 -14.296871 4294967295
46.516811 85.013756 -14.209713 4294967295
46.517502 83.721992 -14.063334 4294967295
46.520882 86.630402 -14.374166 4294967295
46.522999 90.101845 -14.11551 4294967295
46.525112 83.563828 -14.016862 4294967295
46.539104 90.432701 -14.091159 4294967295
46.549667 86.320625 -14.230496 4294967295
46.551254 88.90493 -14.512003 4294967295
46.559364 87.455536 -14.319995 4294967295
46.572155 90.044991 -14.559531 4294967295
46.574615 85.84745 -14.083212 4294967295
46.5774 86.010254 -14.090757 4294967295
46.583668 86.820755 -14.157173 4294967295
46.585979 85.206406 -13.968773 4294967295
46.587326 89.729347 -14.466866 4294967295
46.592903 88.117142 -14.266365 4294967295
46.59816 87.796577 -14.210758 4294967295
46.619785 86.998932 -14.039988 4294967295
46.621731 89.099754 -14.266318 4294967295
46.625664 88.455536 -14.179734 4294967295
46.627136 83.857559 -14.298759 4294967295
46.628738 86.518356 -13.952544 4294967295
46.631687 84.343987 -14.335635 4294967295
46.642925 90.563438 -14.34873 4294967295
46.646309 88.626778 -14.120471 4294967295
46.649746 88.30529 -14.071671 4294967295
46.650967 90.244293 -14.282725 4294967295
46.651558 83.706871 -14.189442 4294967295
46.658421 84.032898 -14.199708 4294967295
46.66098 85.810341 -14.387742 4294967295
46.663555 89.604202 -14.163769 4294967295
46.668793 90.414391 -14.23402 4294967295
46.67152 89.446449 -14.116007 4294967295
46.673275 86.946159 -14.467492 4294967295
46.675438 84.201958 -14.154027 4294967295
46.683357 89.936752 -14.125644 4294967295
46.692272 84.694 -14.144981 4294967295
46.695835 88.24823 -14.52681 4294967295
46.697628 85.180954 -14.178853 4294967295
46.700157 87.604431 -14.438833 4294967295
46.700195 86.635605 -14.330922 4294967295
46.701855 87.766678 -14.450443 4294967295
46.706451 85.023399 -14.127891 4294967295
46.707138 83.569847 -13.963571 4294967295
46.729641 84.872261 -14.023191 4294967295
46.736526 87.459824 -14.284922 4294967295
46.739883 89.237732 -14.469924 4294967295
46.741405 90.530106 -14.607859 4294967295
46.742245 86.331833 -14.137794 4294967295
46.743168 88.593376 -14.385822 4294967295
46.744991 89.724564 -14.504691 4294967295
46.746883 88.918098 -14.407843 4294967295
46.748154 85.688354 -14.043814 4294967295
46.748173 88.111244 -14.313228 4294967295
46.753761 85.367775 -13.986911 4294967295
46.769978 88.767494 -14.303587 4294967295
46.773071 88.445923 -14.256096 4294967295
46.78125 86.511223 -14.009923 4294967295
46.784023 86.189346 -13.963609 4294967295
46.788208 90.391167 -14.415048 4294967295
46.78891 84.339104 -14.374877 4294967295
46.79356 83.533783 -14.267715 4294967295
46.798878 89.104179 -14.231503 4294967295
46.816292 89.597038 -14.220313 4294967295
46.816753 89.920326 -14.254509 4294967295
46.817001 85.804878 -14.431532 4294967295
46.817463 87.258102 -14.591376 4294967295
46.821835 85.645607 -14.395525 4294967295
46.827168 89.440666 -14.16171 4294967295
46.831654 87.10321 -14.520424 4294967295
46.832142 85.165817 -14.30315 4294967295
46.834084 85.328178 -14.313847 4294967295
46.834579 84.682426 -14.240168 4294967295
46.845173 90.095459 -14.166283 4294967295
46.845535 83.718185 -14.091449 4294967295
46.848392 84.042511 -14.116702 4294967295
46.861763 90.264977 -14.122271 4294967295
46.864399 88.410042 -14.541745 4294967295
46.864826 87.602936 -14.450404 4294967295
46.869244 84.213287 -14.056746 4294967295
46.870289 85.021439 -14.142673 4294967295
46.872948 86.96077 -14.348252 4294967295
46.880791 85.995323 -14.211216 4294967295
46.880939 86.31842 -14.24658 4294967295
46.882912 84.542465 -14.041624 4294967295
46.883682 88.09613 -14.433843 4294967295
46.885494 83.897369 -13.960094 4294967295
46.887413 88.743767 -14.49172 4294967295
46.890602 85.515182 -14.120676 4294967295
46.903667 86.651855 -14.1976 4294967295
46.903694 86.813393 -14.215467 4294967295
46.911324 90.208305 -14.564002 4294967295
46.911396 86.170776 -14.114862 4294967295
46.940266 89.576202 -14.384178 4294967295
46.947048 90.386925 -14.448605 4294967295
46.949097 87.480484 -14.117751 4294967295
46.951851 86.51236 -13.999678 4294967295
46.952148 84.821281 -14.445503 4294967295
46.956177 90.068306 -14.378635 4294967295
46.960453 89.747322 -14.326765 4294967295
46.961582 89.424812 -14.286639 4294967295
46.962894 83.534225 -14.26177 4294967295
46.965763 84.504417 -14.358782 4294967295
46.978424 85.155991 -14.383333 4294967295
46.984043 84.351059 -14.272593 4294967295
46.984211 86.773239 -14.54123 4294967295
46.984699 83.866837 -14.216275 4294967295
46.989059 87.983757 -14.022408 4294967295
46.989136 86.29113 -14.469006 4294967295
46.99218 84.193169 -14.224264 4294967295
46.997906 84.680237 -14.256768 4294967295
46.999859 85.973061 -14.393099 4294967295
47.000107 88.958397 -14.088941 4294967295
47.000778 85.489021 -14.335819 4294967295
47.002907 85.812958 -14.363779 4294967295
47.002922 89.1213 -14.096391 4294967295
47.008907 87.430435 -14.520865 4294967295
47.010681 87.915619 -14.56809 4294967295
47.024021 86.63002 -14.374748 4294967295
47.035275 86.958168 -14.368652 4294967295
47.048576 85.349045 -14.139472 4294967295
47.049438 90.597702 -14.084414 4294967295
47.059753 87.615463 -14.349131 4294967295
47.06218 88.585564 -14.447767 4294967295
47.068943 88.911713 -14.458436 4294967295
47.072514 88.751907 -14.427177 4294967295
47.077915 85.039101 -13.994061 4294967295
47.082592 88.433632 -14.353689 4294967295
47.091446 86.499329 -14.105204 4294967295
47.093033 90.376511 -14.530109 4294967295
47.094772 85.693001 -14.002997 4294967295
47.115891 90.225975 -14.426937 4294967295
47.11937 84.659393 -14.429484 4294967295
47.120037 90.550972 -14.447361 4294967295
47.125671 88.130707 -14.157095 4294967295
47.13121 89.1026 -14.244157 4294967295
47.138771 83.699051 -14.249451 4294967295
47.13982 89.429764 -14.247946 4294967295
47.141323 84.830666 -14.365585 4294967295
47.142269 84.346611 -14.30821 4294967295
47.142948 87.815613 -14.056734 4294967295
47.146381 85.155907 -14.382607 4294967295
47.156437 84.191383 -14.237431 4294967295
47.157612 89.922867 -14.235464 4294967295
47.158192 87.098915 -14.553904 4294967295
47.165791 85.003105 -14.292301 4294967295
47.167477 86.134338 -14.411642 4294967295
47.173611 85.329628 -14.299034 4294967295
47.190815 88.244263 -14.5579 4294967295
47.190918 89.777168 -14.093296 4294967295
47.191265 87.275627 -14.448571 4294967295
47.194496 88.568909 -14.580059 4294967295
47.200642 85.664848 -14.234168 4294967295
47.201153 86.957191 -14.375831 4294967295
47.20224 85.988617 -14.264103 4294967295
47.218189 86.480446 -14.258489 4294967295
47.221729 83.897141 -13.95803 4294967295
47.223663 86.806007 -14.273981 4294967295
47.225975 86.645531 -14.247423 4294967295
47.23177 87.617348 -14.333508 4294967295
47.243382 87.94577 -14.326129 4294967295
47.246861 85.524147 -14.043896 4294967295
47.247337 90.370102 -14.580501 4294967295
47.247711 87.786255 -14.292047 4294967295
47.248074 84.070366 -13.87775 4294967295
47.249516 87.464027 -14.249424 4294967295
47.251434 90.533539 -14.583179 4294967295
47.276463 89.253471 -14.346422 4294967295
47.282661 88.4487 -14.233597 4294967295
47.302925 85.312172 -14.442404 4294967295
47.307259 84.183647 -14.300661 4294967295
47.31562 88.140953 -14.074873 4294967295
47.315769 89.110481 -14.18202 4294967295
47.316154 89.433792 -14.216483 4294967295
47.323185 89.921814 -14.244134 4294967295
47.324192 90.083847 -14.258327 4294967295
47.331615 89.602692 -14.17683 4294967295
47.334038 86.779594 -14.487983 4294967295
47.338509 90.252251 -14.222942 4294967295
47.338787 85.166763 -14.290887 4294967295
47.341274 83.714066 -14.120095 4294967295
47.342831 84.683998 -14.221982 4294967295
47.343582 86.622475 -14.434495 4294967295
47.352093 84.526581 -14.169543 4294967295
47.352577 85.819038 -14.311305 4294967295
47.36393 84.047165 -14.07159 4294967295
47.364323 87.762451 -14.482845 4294967295
47.374401 87.605621 -14.427379 4294967295
47.379082 87.12326 -14.356133 4294967295
47.386513 87.288193 -14.346407 4294967295
47.391956 89.228752 -14.541381 4294967295
47.394295 84.8685 -14.048233 4294967295
47.394623 83.575912 -13.90338 4294967295
47.397869 88.585556 -14.447634 4294967295
47.399975 87.455925 -14.314224 4294967295
47.401058 86.164078 -14.16664 4294967295
47.402584 86.487885 -14.196849 4294967295
47.410385 87.945335 -14.329296 4294967295
47.411861 89.076645 -14.449361 4294967295
47.44059 88.92865 -14.324491 4294967295
47.441418 90.221237 -14.464912 4294967295
47.44408 88.445656 -14.257671 4294967295
47.444496 88.284294 -14.238187 4294967295
47.447727 89.739685 -14.387626 4294967295
47.465565 88.778831 -14.213589 4294967295
47.467991 87.002533 -14.007133 4294967295
47.470264 84.181305 -14.31849 4294967295
47.472424 83.697708 -14.256643 4294967295
47.477909 85.15374 -14.397675 4294967295
47.481403 84.347755 -14.294982 4294967295
47.48317 84.02549 -14.252527 4294967295
47.483543 84.994759 -14.358767 4294967295
47.491543 85.644363 -14.400751 4294967295
47.499565 86.455482 -14.460572 4294967295
47.506237 90.575363 -14.259574 4294967295
47.506454 85.974106 -14.381135 4294967295
47.512634 84.684677 -14.214641 4294967295
47.512867 86.300034 -14.393155 4294967295
47.513191 85.492599 -14.302264 4294967295
47.523586 83.881744 -14.084166 4294967295
47.525314 85.33651 -14.23921 4294967295
47.525982 89.938469 -14.114327 4294967295
47.528381 90.101212 -14.12334 4294967295
47.530441 90.425385 -14.151564 4294967295
47.530849 87.600304 -14.46973 4294967295
47.543194 88.090523 -14.47762 4294967295
47.547146 86.154068 -14.247691 4294967295
47.549019 86.962608 -14.330412 4294967295
47.554409 88.257248 -14.453837 4294967295
47.566448 83.577385 -13.888725 4294967295
47.571911 88.749962 -14.442548 4294967295
47.573475 88.427658 -14.400865 4294967295
47.576263 89.882553 -14.551867 4294967295
47.580208 88.592331 -14.393755 4294967295
47.581982 89.077728 -14.440966 4294967295
47.588112 84.879875 -13.951706 4294967295
47.592159 87.467079 -14.22376 4294967295
47.597141 87.14624 -14.169346 4294967295
47.602589 86.663994 -14.095263 4294967295
47.615372 90.547249 -14.478192 4294967295
47.620651 89.580582 -14.350977 4294967295
47.623039 85.86525 -13.92944 4294967295
47.635937 89.426262 -14.276213 4294967295
47.636105 87.325745 -14.042364 4294967295
47.646786 84.023407 -14.268161 4294967295
47.664085 90.085899 -14.243293 4294967295
47.666969 88.956139 -14.107005 4294967295
47.672123 85.972992 -14.389166 4294967295
47.672352 87.265114 -14.531742 4294967295
47.673447 90.413521 -14.244363 4294967295
47.681301 85.007942 -14.247458 4294967295
47.689999 85.17337 -14.233055 4294967295
47.690899 86.627586 -14.391111 4294967295
47.691753 87.597038 -14.495502 4294967295
47.692509 84.205124 -14.116101 4294967295
47.694603 85.66008 -14.269753 4294967295
47.699139 84.531204 -14.127331 4294967295
47.7015 86.470894 -14.333784 4294967295
47.701912 87.763237 -14.475686 4294967295
47.703712 83.886902 -14.038561 4294967295
47.704132 85.502815 -14.216395 4294967295
47.706966 89.783089 -14.047991 4294967295
47.70985 86.959305 -14.356537 4294967295
47.726727 85.351387 -14.114469 4294967295
47.731842 88.584724 -14.454116 4294967295
47.731983 84.384163 -13.987286 4294967295
47.733101 88.42379 -14.431509 4294967295
47.734283 86.324242 -14.194003 4294967295
47.747543 89.722717 -14.521265 4294967295
47.74939 86.169518 -14.119923 4294967295
47.756374 83.748413 -13.824815 4294967295
47.758568 87.143181 -14.193441 4294967295
47.762127 88.11422 -14.287823 4294967295
47.764126 88.922905 -14.37004 4294967295
47.774578 89.250916 -14.367072 4294967295
47.818283 90.240974 -14.312318 4294967295
47.819012 89.595024 -14.237887 4294967295
47.821613 90.565697 -14.335808 4294967295
47.8293 86.452568 -14.482551 4294967295
47.831543 88.792946 -14.101667 4294967295
47.832859 88.308708 -14.042957 4294967295
47.845566 89.445984 -14.121323 4294967295
47.846306 90.415939 -14.226172 4294967295
47.848904 85.330742 -14.284273 4294967295
47.864971 86.791847 -14.385961 4294967295
47.866665 84.530838 -14.128649 4294967295
47.868389 86.147247 -14.301568 4294967295
47.868916 90.103516 -14.106329 4294967295
47.871044 87.440742 -14.435111 4294967295
47.876842 83.56575 -13.983223 4294967295
47.87912 84.697945 -14.100329 4294967295
47.881245 89.947746 -14.042608 4294967295
47.887917 83.732208 -13.96003 4294967295
47.897362 84.382828 -13.996703 4294967295
47.900143 84.868889 -14.040187 4294967295
47.907303 88.911316 -14.461838 4294967295
47.916393 89.23864 -14.463944 4294967295
47.918976 85.685341 -14.059937 4294967295
47.921886 83.908745 -13.851794 4294967295
47.930077 85.043839 -13.946968 4294967295
47.931698 87.953384 -14.263745 4294967295
47.933552 88.115814 -14.274793 4294967295
47.939865 89.572792 -14.412678 4294967295
47.940926 87.311317 -14.157778 4294967295
47.948185 85.213562 -13.897651 4294967295
47.952465 85.862038 -13.953512 4294967295
47.954018 86.347633 -14.001565 4294967295
47.956635 86.995308 -14.063591 4294967295
47.963684 89.422478 -14.306377 4294967295
47.964687 88.453461 -14.195087 4294967295
47.965782 87.645958 -14.101366 4294967295
47.967155 87.161743 -14.042468 4294967295
47.967613 83.854874 -14.305359 4294967295
47.968792 89.10173 -14.251563 4294967295
47.970924 89.910622 -14.333275 4294967295
47.981091 88.2995 -14.116273 4294967295
47.981506 86.683403 -13.935383 4294967295
47.981602 85.314835 -14.414763 4294967295
47.99081 88.627251 -14.116065 4294967295
47.991104 89.758606 -14.240472 4294967295
47.991512 87.819466 -14.023797 4294967295
47.999138 83.545563 -14.152524 4294967295
48.002373 86.131783 -14.427316 4294967295
48.003937 90.572662 -14.282493 4294967295
48.004787 84.355888 -14.221197 4294967295
48.005943 90.412033 -14.257129 4294967295
48.009068 90.090324 -14.209674 4294967295
48.012081 88.79882 -14.055058 4294967295
48.014431 85.9757 -14.364664 4294967295
48.034336 84.207344 -14.093638 4294967295
48.035175 84.69249 -14.144304 4294967295
48.051903 90.272339 -14.068673 4294967295
48.05225 83.730392 -13.97337 4294967295
48.061016 85.673553 -14.156005 4294967295
48.062347 86.966766 -14.294476 4294967295
48.069786 87.616425 -14.338569 4294967295
48.071884 84.54715 -13.990173 4294967295
48.074543 88.426392 -14.410534 4294967295
48.090927 86.656639 -14.152623 4294967295
48.093903 89.081627 -14.410434 4294967295
48.096256 88.759621 -14.365862 4294967295
48.098228 85.851898 -14.0359 4294967295
48.098541 87.468094 -14.214019 4294967295
48.100006 86.499161 -14.101027 4294967295
48.101376 86.822998 -14.131804 4294967295
48.105534 87.956078 -14.241861 4294967295
48.111069 84.88781 -13.880658 4294967295
48.112144 85.211594 -13.912539 4294967295
48.118401 89.2547 -14.337525 4294967295
48.123482 88.610764 -14.247005 4294967295
48.130779 87.321297 -14.076541 4294967295
48.132954 84.33815 -14.368431 4294967295
48.134823 90.07032 -14.366248 4294967295
48.138588 88.294601 -14.155149 4294967295
48.147018 84.828979 -14.370055 4294967295
48.147179 87.813721 -14.069508 4294967295
48.149864 88.946297 -14.185044 4294967295
48.153023 89.432587 -14.227099 4294967295
48.158432 90.404709 -14.314582 4294967295
48.159149 87.172661 -13.953393 4294967295
48.187317 85.008446 -14.238612 4294967295
48.199329 89.777702 -14.091283 4294967295
48.201324 86.630371 -14.365883 4294967295
48.204556 84.208138 -14.085095 4294967295
48.205654 85.501366 -14.224408 4294967295
48.211884 87.119843 -14.380506 4294967295
48.21212 84.534683 -14.092902 4294967295
48.214619 89.946587 -14.052538 4294967295
48.223541 83.731613 -13.960928 4294967295
48.225777 83.894218 -13.97057 4294967295
48.241348 86.16378 -14.163815 4294967295
48.24403 88.265541 -14.38682 4294967295
48.244656 85.195595 -14.044021 4294967295
48.245487 86.327255 -14.166412 4294967295
48.249352 89.237335 -14.474586 4294967295
48.257118 89.07943 -14.42791 4294967295
48.258194 89.726128 -14.495574 4294967295
48.258358 83.585167 -13.81393 4294967295
48.273502 86.98642 -14.134291 4294967295
48.276974 89.41188 -14.390194 4294967295
48.279861 87.797379 -14.200337 4294967295
48.285011 89.57724 -14.378354 4294967295
48.285828 88.123344 -14.21407 4294967295
48.286198 89.90094 -14.409774 4294967295
48.287739 86.508018 -14.027764 4294967295
48.305115 88.617119 -14.196395 4294967295
48.311279 88.781609 -14.191481 4294967295
48.322147 88.948311 -14.16914 4294967295
48.326649 84.51088 -14.290689 4294967295
48.329243 87.33519 -13.963625 4294967295
48.333878 83.544594 -14.156406 4294967295
48.33498 84.352989 -14.241909 4294967295
48.33614 84.030342 -14.201791 4294967295
48.340008 85.486183 -14.348696 4294967295
48.340073 87.66349 -13.959355 4294967295
48.343678 88.473442 -14.03564 4294967295
48.347752 90.253342 -14.217673 4294967295
48.350883 84.19841 -14.165108 4294967295
48.360691 90.582748 -14.205595 4294967295
48.382587 83.72747 -13.993927 4294967295
48.383152 86.798157 -14.332286 4294967295
48.396114 86.965637 -14.302222 4294967295
48.398193 88.420677 -14.45571 4294967295
48.399853 85.351349 -14.109214 4294967295
48.401073 90.117027 -14.0023 4294967295
48.407204 87.455444 -14.314909 4294967295
48.41235 88.911934 -14.45705 4294967295
48.432728 84.719406 -13.915806 4294967295
48.439705 88.116776 -14.266284 4294967295
48.441608 89.733482 -14.438337 4294967295
48.441784 89.248856 -14.383966 4294967295
48.4589 90.387947 -14.445993 4294967295
48.459942 88.610977 -14.245135 4294967295
48.464546 89.905899 -14.371383 4294967295
48.476189 90.557762 -14.399951 4294967295
48.476887 89.103722 -14.236173 4294967295
48.476898 83.695068 -14.266435 4294967295
48.485783 88.784637 -14.167428 4294967295
48.501766 89.438644 -14.179941 4294967295
48.504169 87.823288 -13.991873 4294967295
48.506077 84.515762 -14.248046 4294967295
48.512451 90.251823 -14.229981 4294967295
48.513016 83.872444 -14.150717 4294967295
48.514637 90.09124 -14.203982 4294967295
48.515705 88.313614 -14.002951 4294967295
48.524189 84.362152 -14.163136 4294967295
48.552792 89.624321 -14.009088 4294967295
48.554993 83.567513 -13.959577 4294967295
48.566387 84.704018 -14.042858 4294967295
48.568352 84.866524 -14.053504 4294967295
48.578373 84.224358 -13.944764 4294967295
48.58984 88.431664 -14.368077 4294967295
48.607121 87.631653 -14.214661 4294967295
48.609119 90.218018 -14.493745 4294967295
48.612556 88.118996 -14.248291 4294967295
48.619011 88.283592 -14.242332 4294967295
48.635429 87.483017 -14.092072 4294967295
48.649307 89.59066 -14.273614 4294967295
48.651661 88.783638 -14.175372 4294967295
48.659687 87.817467 -14.038217 4294967295
48.6609 89.111221 -14.177028 4294967295
48.672119 90.571159 -14.296743 4294967295
48.679897 88.958458 -14.088901 4294967295
48.689228 84.03743 -14.13807 4294967295
48.691044 90.095261 -14.173073 4294967295
48.691673 89.448952 -14.099113 4294967295
48.711353 89.296516 -14.008456 4294967295
48.712551 89.943779 -14.075687 4294967295
48.719822 83.889183 -14.007073 4294967295
48.729988 90.437065 -14.064981 4294967295
48.730213 84.378685 -14.02242 4294967295
48.742722 88.58622 -14.441744 4294967295
48.754601 89.238045 -14.469461 4294967295
48.757778 88.108437 -14.332437 4294967295
48.769203 83.749069 -13.806646 4294967295
48.770142 83.587776 -13.785256 4294967295
48.771061 88.276184 -14.301281 4294967295
48.779354 89.088051 -14.360161 4294967295
48.794746 88.772011 -14.267515 4294967295
48.822186 90.239464 -14.327312 4294967295
48.828289 89.919106 -14.268973 4294967295
48.843315 88.471291 -14.052337 4294967295
48.851715 83.711555 -14.122475 4294967295
48.855049 90.093399 -14.188087 4294967295
48.861435 89.449768 -14.092873 4294967295
48.864685 83.555565 -14.056684 4294967295
48.887947 89.785599 -14.030799 4294967295
48.901279 90.43866 -14.053218 4294967295
48.910686 90.60482 -14.036388 4294967295
48.913326 84.061768 -13.930799 4294967295
48.928089 88.432678 -14.359704 4294967295
48.966324 89.096916 -14.290233 4294967295
48.995277 89.272087 -14.201317 4294967295
48.999012 90.405319 -14.312824 4294967295
49.011662 83.707817 -14.152111 4294967295
49.01907 89.60656 -14.149356 4294967295
49.022282 88.961372 -14.0659 4294967295
49.026669 89.771805 -14.139224 4294967295
49.04752 88.811432 -13.954887 4294967295
49.052963 83.564125 -13.981854 4294967295
49.076004 90.118454 -13.993052 4294967295
49.077316 90.280785 -14.006126 4294967295
49.095943 89.240593 -14.449738 4294967295
49.108551 88.761658 -14.349613 4294967295
49.125557 88.93119 -14.304825 4294967295
49.133701 89.743118 -14.36426 4294967295
49.140713 89.099884 -14.266856 4294967295
49.166348 89.92012 -14.261857 4294967295
49.169437 83.541496 -14.171844 4294967295
49.210049 90.102409 -14.118722 4294967295
49.217392 90.590935 -14.145347 4294967295
49.230427 89.626907 -13.989933 4294967295
49.232815 90.436569 -14.070637 4294967295
49.30175 88.934975 -14.27487 4294967295
49.309101 89.908241 -14.355127 4294967295
49.31501 89.426102 -14.279717 4294967295
49.324032 89.10701 -14.210718 4294967295
49.344887 90.086761 -14.241269 4294967295
49.353729 89.282539 -14.119276 4294967295
49.394257 89.624916 -14.005862 4294967295
49.395599 90.272392 -14.072495 4294967295
49.428562 90.449722 -13.969048 4294967295
49.494438 89.431435 -14.238008 4294967295
49.567856 90.274399 -14.057434 4294967295
49.667099 89.918602 -14.274945 4294967295
49.6898 89.444191 -14.137907 4294967295
49.726246 90.108124 -14.075529 4294967295
49.754559 89.797958 -13.935747 4294967295
49.765911 90.612068 -13.983471 4294967295
49.802696 90.467712 -13.830446 4294967295
49.843964 89.76107 -14.225032 4294967295
49.861881 89.607758 -14.141392 4294967295
49.867424 89.933769 -14.156794 4294967295
49.877235 90.261803 -14.156544 4294967295
49.878254 90.585701 -14.188553 4294967295
49.906418 90.437302 -14.067311 4294967295
50.021481 90.088898 -14.226468 4294967295
50.031719 90.255417 -14.206784 4294967295
50.03595 90.419121 -14.209156 4294967295
50.056808 90.590683 -14.150545 4294967295
50.083153 89.794365 -13.964579 4294967295
50.11602 89.971542 -13.86195 4294967295
50.22897 90.430893 -14.118224 4294967295
50.250782 90.117653 -14.002581 4294967295
50.270222 90.612122 -13.984984 4294967295
50.283146 89.80925 -13.84828 4294967295
50.308033 90.306358 -13.81075 4294967295
50.355625 90.24968 -14.252506 4294967295
50.451103 90.618156 -13.938865 4294967295
50.484383 90.472031 -13.799215 4294967295
50.540558 90.419334 -14.209235 4294967295
50.554741 90.264259 -14.139529 4294967295
50.600449 89.962135 -13.936705 4294967295
50.644955 90.630287 -13.845458 4294967295
50.733147 90.107323 -14.084611 4294967295
50.802509 90.301628 -13.849149 4294967295
50.941284 90.287834 -13.95706 4294967295
50.969036 90.462677 -13.873662 4294967295
50.974266 90.626968 -13.872434 4294967295
50.99987 90.153419 -13.725448 4294967295
51.069439 90.269089 -14.103524 4294967295
51.105873 90.609772 -14.006416 4294967295
51.153034 90.470085 -13.816677 4294967295
51.232838 90.266853 -14.121434 4294967295
51.250114 90.598534 -14.094204 4294967295
51.483665 90.467346 -13.839157 4294967295
51.515469 90.320335 -13.705613 4294967295
51.590298 90.276695 -14.04588 4294967295
51.637436 90.460564 -13.892399 4294967295
51.655399 90.630844 -13.844959 4294967295
51.749199 90.434158 -14.098125 4294967295
51.759209 90.60067 -14.079603 4294967295
51.834347 90.31205 -13.771137 4294967295
52.024311 90.645988 -13.728835 4294967295
52.034702 90.488914 -13.673316 4294967295
52.188972 90.644279 -13.742764 4294967295
52.318859 90.464417 -13.864786 4294967295
52.3218 90.627701 -13.871947 4294967295
52.491859 90.62851 -13.866308 4294967295
52.737446 90.502502 -13.570045 4294967295
52.898258 90.660957 -13.615984 4294967295
52.902161 90.500771 -13.584093 4294967295
53.086132 90.669998 -13.54654 4294967295
53.126019 90.526482 -13.384906 4294967295
53.283112 90.521179 -13.426674 4294967295
53.434151 90.513077 -13.490223 4294967295
53.436775 90.676346 -13.498574 4294967295
53.478165 90.371368 -13.314006 4294967295
53.556103 90.653542 -13.676076 4294967295
53.741753 90.499451 -13.597272 4294967295
53.855347 90.389816 -13.171441 4294967295
53.912636 90.662582 -13.607224 4294967295
53.971237 90.527596 -13.379133 4294967295
53.996094 90.376945 -13.272145 4294967295
54.146564 90.368576 -13.337851 4294967295
54.324329 90.534904 -13.323503 4294967295
54.355076 90.386909 -13.195595 4294967295
54.588707 90.501335 -13.585465 4294967295
54.682873 90.220306 -13.213287 4294967295
54.7197 90.074966 -13.06385 4294967295
54.808235 90.524742 -13.404224 4294967295
54.827946 90.209465 -13.298289 4294967295
54.840958 90.377602 -13.269591 4294967295
54.859924 90.061905 -13.16631 4294967295
55.003448 90.374741 -13.292382 4294967295
55.017612 90.21904 -13.224077 4294967295
55.027481 90.061348 -13.171095 4294967295
55.134808 90.35762 -13.426172 4294967295
55.237946 90.080345 -13.022983 4294967295
55.328564 90.531258 -13.355299 4294967295
55.372551 90.064735 -13.145377 4294967295
55.447857 89.774429 -12.841641 4294967295
55.482639 90.362358 -13.390319 4294967295
55.503967 90.534309 -13.332192 4294967295
55.593151 90.088295 -12.961617 4294967295
55.743862 90.566849 -13.079953 4294967295
55.750706 90.08313 -13.002366 4294967295
55.764042 89.60228 -12.90169 4294967295
55.781837 89.772644 -12.856194 4294967295
55.783081 89.935532 -12.869528 4294967295
55.837208 89.883469 -13.277686 4294967295
55.844048 90.535461 -13.324371 4294967295
55.859982 90.380508 -13.250043 4294967295
55.912529 89.755318 -12.992444 4294967295
55.91301 90.080124 -13.026234 4294967295
55.925766 90.248222 -12.998683 4294967295
56.003498 90.531189 -13.358121 4294967295
56.003784 90.369102 -13.339376 4294967295
56.034012 89.733856 -13.161167 4294967295
56.067677 90.235939 -13.094957 4294967295
56.074234 89.589745 -13.000713 4294967295
56.078285 90.078468 -13.039577 4294967295
56.124435 89.287689 -12.78708 4294967295
56.186642 89.888748 -13.236961 4294967295
56.225998 83.574883 -12.405149 4294967295
56.226044 90.393425 -13.150509 4294967295
56.231106 90.558014 -13.150314 4294967295
56.254585 90.08181 -13.013865 4294967295
56.279613 89.768486 -12.889665 4294967295
56.295486 89.613297 -12.815659 4294967295
56.318924 88.974319 -12.661573 4294967295
56.347492 90.209602 -13.301304 4294967295
56.391464 89.093483 -13.021443 4294967295
56.395412 90.393639 -13.14935 4294967295
56.399109 90.55761 -13.153993 4294967295
56.417049 83.746201 -12.345067 4294967295
56.433941 89.599518 -12.924232 4294967295
56.4538 88.959007 -12.782924 4294967295
56.464603 83.532921 -12.757893 4294967295
56.467018 89.93914 -12.842585 4294967295
56.468967 89.290543 -12.764706 4294967295
56.474525 88.805878 -12.691777 4294967295
56.489132 89.461975 -12.711039 4294967295
56.50885 90.368431 -13.346114 4294967295
56.512802 83.877731 -12.622687 4294967295
56.53656 90.543289 -13.265806 4294967295
56.545174 90.222656 -13.199885 4294967295
56.557018 89.741142 -13.104795 4294967295
56.589413 84.072182 -12.36912 4294967295
56.590736 89.431671 -12.950035 4294967295
56.599457 88.461449 -12.812745 4294967295
56.619747 89.282326 -12.829654 4294967295
56.623913 89.608932 -12.850391 4294967295
56.627003 89.123199 -12.786233 4294967295
56.639656 89.940765 -12.830167 4294967295
56.693275 88.827942 -12.516255 4294967295
56.705257 83.887238 -12.539957 4294967295
56.712009 83.727638 -12.498324 4294967295
56.714123 89.735786 -13.147096 4294967295
56.748131 88.939415 -12.938242 4294967295
56.766361 88.62281 -12.838326 4294967295
56.766941 89.597221 -12.94267 4294967295
56.771221 90.086197 -12.980736 4294967295
56.777237 89.926559 -12.94174 4294967295
56.802372 89.45076 -12.799708 4294967295
56.822323 89.297302 -12.71145 4294967295
56.827843 89.13736 -12.674191 4294967295
56.872734 84.373528 -12.598974 4294967295
56.87582 83.562744 -12.499356 4294967295
56.877357 89.570892 -13.149998 4294967295
56.885979 90.386284 -13.208155 4294967295
56.894135 90.065369 -13.143915 4294967295
56.900261 89.094177 -13.015947 4294967295
56.901939 90.231209 -13.134081 4294967295
56.902462 84.223572 -12.476149 4294967295
56.925503 89.917198 -13.015429 4294967295
56.928627 83.747139 -12.330432 4294967295
56.93071 89.432487 -12.943867 4294967295
56.937042 90.571785 -13.045591 4294967295
56.94091 84.077202 -12.3225 4294967295
56.95327 88.468269 -12.757821 4294967295
56.965233 89.285561 -12.804233 4294967295
56.987648 89.782806 -12.778267 4294967295
57.005749 88.978813 -12.625681 4294967295
57.021137 83.552597 -12.583469 4294967295
57.025661 84.366508 -12.656157 4294967295
57.029285 90.374664 -13.29911 4294967295
57.0415 84.210732 -12.582493 4294967295
57.043678 88.595749 -13.05346 4294967295
57.052452 90.222862 -13.199674 4294967295
57.060684 90.551201 -13.206072 4294967295
57.064514 83.895485 -12.465751 4294967295
57.078873 84.551262 -12.485999 4294967295
57.08577 89.426201 -12.993545 4294967295
57.088661 88.128548 -12.841558 4294967295
57.096363 87.319962 -12.725733 4294967295
57.102486 89.596046 -12.952301 4294967295
57.112053 88.788437 -12.829918 4294967295
57.122128 89.117699 -12.829831 4294967295
57.13324 89.285049 -12.808352 4294967295
57.137848 88.962296 -12.75664 4294967295
57.153122 88.481804 -12.649549 4294967295
57.153923 90.106339 -12.824009 4294967295
57.157478 84.025894 -12.752319 4294967295
57.18597 83.875374 -12.634075 4294967295
57.194916 89.399391 -13.205021 4294967295
57.203491 84.532333 -12.643177 4294967295
57.210022 83.722946 -12.531489 4294967295
57.214897 90.057594 -13.205436 4294967295
57.228096 84.705101 -12.574113 4294967295
57.233398 87.468269 -12.85676 4294967295
57.235863 87.956474 -12.901233 4294967295
57.243992 87.797661 -12.854864 4294967295
57.246704 88.610741 -12.933894 4294967295
57.269493 88.458435 -12.835845 4294967295
57.270367 85.535187 -12.513679 4294967295
57.270515 84.885414 -12.44221 4294967295
57.270737 89.27092 -12.920053 4294967295
57.293556 85.382576 -12.414153 4294967295
57.296047 88.145325 -12.706776 4294967295
57.304451 87.17437 -12.570784 4294967295
57.308624 89.125412 -12.768794 4294967295
57.322041 83.861366 -12.750622 4294967295
57.336948 83.542763 -12.662625 4294967295
57.344387 89.791115 -12.713624 4294967295
57.351875 84.848206 -12.751801 4294967295
57.352654 84.198921 -12.678174 4294967295
57.357536 89.721123 -13.263258 4294967295
57.359146 84.364044 -12.673012 4294967295
57.363106 90.048225 -13.279049 4294967295
57.365429 90.211578 -13.288577 4294967295
57.376369 89.242599 -13.143818 4294967295
57.377243 89.08065 -13.12304 4294967295
57.382206 88.758179 -13.070143 4294967295
57.387985 84.051231 -12.535918 4294967295
57.392025 85.027542 -12.628037 4294967295
57.402 90.552742 -13.195224 4294967295
57.402702 86.981071 -12.803083 4294967295
57.42194 86.177284 -12.646706 4294967295
57.425137 88.614815 -12.901237 4294967295
57.427635 87.966339 -12.821565 4294967295
57.429585 83.743599 -12.353831 4294967295
57.431042 87.155769 -12.720973 4294967295
57.432461 85.531998 -12.53873 4294967295
57.438103 87.808517 -12.766975 4294967295
57.444035 87.486267 -12.710638 4294967295
57.446491 84.725578 -12.400639 4294967295
57.448551 89.437172 -12.907346 4294967295
57.449696 90.411987 -13.009591 4294967295
57.453308 87.65274 -12.695704 4294967295
57.467648 88.146324 -12.698359 4294967295
57.47049 88.310013 -12.70606 4294967295
57.475037 86.362518 -12.477349 4294967295
57.475964 85.712975 -12.403165 4294967295
57.483372 83.695488 -12.760345 4294967295
57.487724 85.880486 -12.379458 4294967295
57.507442 86.051414 -12.327716 4294967295
57.517979 85.009117 -12.780231 4294967295
57.531197 87.450462 -12.999385 4294967295
57.531647 89.236435 -13.192565 4294967295
57.537792 83.555603 -12.550974 4294967295
57.54451 89.079826 -13.129604 4294967295
57.54747 89.568153 -13.172306 4294967295
57.553421 87.29776 -12.903464 4294967295
57.555679 87.785881 -12.948647 4294967295
57.559319 84.864113 -12.616961 4294967295
57.565083 90.387741 -13.198853 4294967295
57.569489 83.893654 -12.474804 4294967295
57.569939 84.381226 -12.52639 4294967295
57.577461 85.3591 -12.606248 4294967295
57.579636 90.556664 -13.165365 4294967295
57.591221 90.074829 -13.071506 4294967295
57.591667 88.451233 -12.892851 4294967295
57.593502 85.528351 -12.567501 4294967295
57.59853 84.555664 -12.443455 4294967295
57.603458 86.507309 -12.638771 4294967295
57.607788 86.996506 -12.676698 4294967295
57.612896 89.922195 -12.977553 4294967295
57.617371 88.137718 -12.766992 4294967295
57.629025 87.168152 -12.619678 4294967295
57.630997 89.4431 -12.860751 4294967295
57.636124 86.033913 -12.470623 4294967295
57.639427 86.197815 -12.476719 4294967295
57.639954 90.259163 -12.917795 4294967295
57.64077 85.710915 -12.418823 4294967295
57.656315 83.696808 -12.746925 4294967295
57.688164 83.547562 -12.617167 4294967295
57.691917 83.873985 -12.639396 4294967295
57.702072 84.203079 -12.639096 4294967295
57.706711 90.375381 -13.29559 4294967295
57.708714 87.77877 -13.005369 4294967295
57.714272 89.567131 -13.180548 4294967295
57.714561 85.507751 -12.736896 4294967295
57.71521 87.13208 -12.911713 4294967295
57.71619 89.89267 -13.209194 4294967295
57.717419 87.457809 -12.939351 4294967295
57.728943 84.539192 -12.58001 4294967295
57.729286 90.223228 -13.198565 4294967295
57.733631 88.763954 -13.024 4294967295
57.73711 89.414978 -13.08258 4294967295
57.7449 84.870796 -12.559315 4294967295
57.756084 90.560028 -13.139788 4294967295
57.756886 89.74855 -13.04847 4294967295
57.760616 85.039879 -12.521754 4294967295
57.760777 86.502068 -12.680646 4294967295
57.762531 85.365631 -12.550459 4294967295
57.769676 86.993233 -12.702492 4294967295
57.772896 88.618912 -12.868276 4294967295
57.774715 87.970032 -12.791039 4294967295
57.780273 85.210655 -12.470329 4294967295
57.781281 88.947449 -12.874216 4294967295
57.782143 85.698891 -12.516918 4294967295
57.802658 88.144714 -12.710522 4294967295
57.80875 84.735123 -12.317004 4294967295
57.812431 86.199272 -12.463566 4294967295
57.813328 88.474304 -12.708436 4294967295
57.829365 86.694038 -12.457179 4294967295
57.831387 89.132111 -12.715804 4294967295
57.832516 87.34539 -12.51697 4294967295
57.840961 90.111092 -12.788406 4294967295
57.844852 86.86322 -12.42043 4294967295
57.847317 86.051666 -12.323153 4294967295
57.861088 85.173149 -12.781114 4294967295
57.868465 84.201675 -12.648934 4294967295
57.872108 83.553383 -12.56527 4294967295
57.872887 88.101273 -13.058316 4294967295
57.874348 86.640457 -12.893885 4294967295
57.879387 85.01844 -12.699103 4294967295
57.885223 84.371109 -12.607747 4294967295
57.891171 84.04866 -12.551425 4294967295
57.895981 86.324921 -12.782468 4294967295
57.89954 85.514267 -12.681417 4294967295
57.907307 87.953957 -12.91973 4294967295
57.908943 87.62986 -12.878569 4294967295
57.911476 84.707008 -12.550911 4294967295
57.914562 89.9058 -13.106633 4294967295
57.925877 88.449318 -12.90762 4294967295
57.925957 83.90062 -12.41144 4294967295
57.928867 87.313667 -12.773183 4294967295
57.929539 89.100555 -12.965559 4294967295
57.93066 87.152008 -12.749174 4294967295
57.934902 86.179123 -12.628023 4294967295
57.940807 88.943146 -12.90828 4294967295
57.941525 90.405052 -13.065061 4294967295
57.942055 88.294014 -12.833099 4294967295
57.949612 84.885498 -12.434621 4294967295
57.953766 84.562225 -12.384585 4294967295
57.954552 89.761314 -12.948526 4294967295
57.956268 88.62513 -12.81858 4294967295
57.962303 88.790222 -12.815099 4294967295
57.96796 86.030762 -12.494158 4294967295
57.976383 84.175934 -12.864128 4294967295
57.988216 89.451492 -12.794921 4294967295
57.999702 90.106407 -12.825412 4294967295
58.012119 87.02475 -12.44532 4294967295
58.012409 84.353348 -12.755328 4294967295
58.012558 89.299866 -12.691741 4294967295
58.013592 87.837936 -12.528711 4294967295
58.014767 86.538322 -12.382862 4294967295
58.017956 84.842934 -12.788975 4294967295
58.026592 85.17141 -12.794052 4294967295
58.031292 83.548981 -12.600498 4294967295
58.046124 86.316628 -12.849416 4294967295
58.053642 85.50769 -12.734502 4294967295
58.055481 85.833344 -12.763465 4294967295
58.057384 84.534569 -12.615125 4294967295
58.059021 88.433426 -13.034211 4294967295
58.059925 87.621849 -12.942567 4294967295
58.061394 90.220535 -13.22049 4294967295
58.062065 86.973137 -12.864254 4294967295
58.066063 86.650017 -12.814834 4294967295
58.071556 88.601334 -13.007923 4294967295
58.072033 83.890762 -12.492861 4294967295
58.086048 84.059067 -12.461349 4294967295
58.087048 83.734474 -12.422416 4294967295
58.097763 89.26252 -12.986766 4294967295
58.120781 86.511047 -12.605074 4294967295
58.126595 87.813316 -12.726316 4294967295
58.129681 87.977127 -12.733193 4294967295
58.13448 87.329346 -12.645535 4294967295
58.136478 90.41671 -12.974819 4294967295
58.139381 89.443443 -12.858466 4294967295
58.143024 86.19558 -12.491588 4294967295
58.151619 89.611336 -12.833227 4294967295
58.154758 88.150566 -12.662904 4294967295
58.163555 83.695915 -12.747849 4294967295
58.165638 86.855316 -12.483055 4294967295
58.166977 89.780647 -12.797053 4294967295
58.177414 86.047722 -12.353164 4294967295
58.180603 83.865395 -12.705742 4294967295
58.180614 88.97435 -12.660708 4294967295
58.181664 84.190712 -12.737423 4294967295
58.188923 83.54393 -12.641153 4294967295
58.190685 90.116196 -12.749298 4294967295
58.192223 89.954407 -12.726194 4294967295
58.192547 90.604439 -12.795865 4294967295
58.193146 88.817398 -12.599039 4294967295
58.198032 87.283485 -13.016241 4294967295
58.199631 88.096092 -13.099085 4294967295
58.208591 86.80085 -12.92615 4294967295
58.209614 84.689697 -12.692494 4294967295
58.211308 88.26358 -13.075839 4294967295
58.213409 87.452545 -12.980018 4294967295
58.215237 86.966118 -12.920541 4294967295
58.225166 84.858665 -12.655641 4294967295
58.22633 85.671432 -12.740065 4294967295
58.226624 90.543518 -13.269753 4294967295
58.23085 89.733612 -13.166528 4294967295
58.230976 84.048721 -12.546743 4294967295
58.235317 88.923691 -13.06244 4294967295
58.236057 87.13752 -12.865228 4294967295
58.240086 85.352333 -12.65642 4294967295
58.241745 88.439331 -12.986841 4294967295
58.252468 85.520035 -12.6307 4294967295
58.275276 90.078262 -13.046212 4294967295
58.275578 86.017273 -12.602766 4294967295
58.281433 86.344742 -12.617636 4294967295
58.288807 89.434631 -12.928028 4294967295
58.293346 86.18734 -12.558153 4294967295
58.294342 88.787331 -12.837855 4294967295
58.299519 89.11451 -12.855104 4294967295
58.303902 86.679352 -12.574248 4294967295
58.304207 89.279037 -12.856364 4294967295
58.304554 87.817039 -12.695872 4294967295
58.310421 89.93158 -12.905366 4294967295
58.31604 87.659554 -12.637909 4294967295
58.328751 86.527496 -12.469414 4294967295
58.338902 89.619385 -12.770167 4294967295
58.354939 84.192162 -12.723196 4294967295
58.361931 88.654633 -12.583252 4294967295
58.364376 85.170753 -12.796297 4294967295
58.377071 88.262032 -13.087908 4294967295
58.381714 83.878326 -12.59396 4294967295
58.385155 83.71727 -12.564192 4294967295
58.390728 84.531975 -12.633163 4294967295
58.391953 86.806816 -12.876596 4294967295
58.393154 84.857933 -12.660065 4294967295
58.394875 86.645638 -12.848673 4294967295
58.40023 85.510773 -12.706053 4294967295
58.406601 85.675934 -12.701436 4294967295
58.406815 85.351082 -12.665286 4294967295
58.40963 84.052368 -12.513817 4294967295
58.41745 86.980225 -12.804979 4294967295
58.419659 88.605522 -12.974147 4294967295
58.420341 87.143921 -12.812547 4294967295
58.428169 87.309753 -12.802816 4294967295
58.435173 86.013 -12.636725 4294967295
58.435631 90.074318 -13.077388 4294967295
58.438881 83.576897 -12.358186 4294967295
58.447548 89.5924 -12.982607 4294967295
58.450069 86.34433 -12.619922 4294967295
58.452362 84.395149 -12.399465 4294967295
58.454037 90.407402 -13.048318 4294967295
58.456123 85.046829 -12.457107 4294967295
58.465836 86.188553 -12.546991 4294967295
58.47361 84.729088 -12.36042 4294967295
58.481735 89.932526 -12.898283 4294967295
58.482399 88.958061 -12.789818 4294967295
58.486382 87.822426 -12.652003 4294967295
58.488766 86.523376 -12.502063 4294967295
58.49617 88.151688 -12.653118 4294967295
58.500801 89.12867 -12.74307 4294967295
58.50639 83.859657 -12.750069 4294967295
58.513329 89.459198 -12.734588 4294967295
58.513981 90.596825 -12.856146 4294967295
58.521374 88.000183 -12.547153 4294967295
58.523373 88.488617 -12.593252 4294967295
58.535385 83.70916 -12.63085 4294967295
58.545544 84.363258 -12.666062 4294967295
58.545662 85.338089 -12.771796 4294967295
58.571991 84.211761 -12.555766 4294967295
58.578232 88.763222 -13.029221 4294967295
58.583458 84.054001 -12.497916 4294967295
58.586578 87.142517 -12.823163 4294967295
58.59008 87.468933 -12.846284 4294967295
58.590538 90.067947 -13.127596 4294967295
58.59103 89.743355 -13.090522 4294967295
58.599041 86.498001 -12.708797 4294967295
58.613136 88.45369 -12.871733 4294967295
58.615139 88.292114 -12.847036 4294967295
58.615921 84.71759 -12.45505 4294967295
58.617775 85.856003 -12.572441 4294967295
58.618797 86.018944 -12.586563 4294967295
58.620659 88.944351 -12.898465 4294967295
58.621994 85.20771 -12.486892 4294967295
58.628731 84.560394 -12.392507 4294967295
58.642258 84.891136 -12.380555 4294967295
58.649063 89.444298 -12.852157 4294967295
58.650719 90.582222 -12.970156 4294967295
58.660839 87.662086 -12.616374 4294967295
58.664543 83.854828 -12.788838 4294967295
58.674313 87.830452 -12.586927 4294967295
58.675503 88.156006 -12.618147 4294967295
58.676903 83.697472 -12.727917 4294967295
58.678753 84.348053 -12.792183 4294967295
58.679546 89.295326 -12.727835 4294967295
58.68119 90.270988 -12.828208 4294967295
58.695335 87.351959 -12.460274 4294967295
58.702015 90.442818 -12.773067 4294967295
58.710358 85.173523 -12.770081 4294967295
58.713959 85.337502 -12.775166 4294967295
58.714085 83.550285 -12.580149 4294967295
58.738716 85.510399 -12.706274 4294967295
58.740135 85.023537 -12.648239 4294967295
58.753208 86.978813 -12.81477 4294967295
58.754177 87.141693 -12.829066 4294967295
58.755508 86.817337 -12.789042 4294967295
58.767284 86.17244 -12.677116 4294967295
58.767967 88.934654 -12.97535 4294967295
58.775051 85.850739 -12.614578 4294967295
58.778751 89.426735 -12.990697 4294967295
