# .PCD v0.7 - Point Cloud Data file format
VERSION 0.7
FIELDS x y z rgb
SIZE 4 4 4 4
TYPE F F F U
COUNT 1 1 1 1
WIDTH 1147
HEIGHT 1
VIEWPOINT 0 0 0 1 0 0 0
POINTS 1147
DATA ascii
11.975565 79.247772 -19.712286 4294967295
11.975712 81.147873 -19.94058 4294967295
11.983186 80.201897 -19.791172 4294967295
11.990868 80.522675 -19.793434 4294967295
12.005282 80.688713 -19.74515 4294967295
12.007115 82.273087 -19.927376 4294967295
12.010899 82.433479 -19.928776 4294967295
12.019686 79.112442 -19.486935 4294967295
12.036747 79.43821 -19.445366 4294967295
12.046732 80.077171 -19.475065 4294967295
12.047529 80.869667 -19.566797 4294967295
12.051353 80.396469 -19.49165 4294967295
12.076851 80.006538 -20.095993 4294967295
12.080571 81.837936 -19.526922 4294967295
12.087778 80.645424 -20.121246 4294967295
12.090175 82.159996 -19.520226 4294967295
12.146125 82.259735 -20.039572 4294967295
12.154257 79.572319 -19.677399 4294967295
12.158919 81.950066 -19.941734 4294967295
12.163741 81.477684 -19.862026 4294967295
12.23415 81.357208 -19.514338 4294967295
12.234859 81.832863 -19.56827 4294967295
12.252827 79.696434 -19.997267 4294967295
12.269151 80.17997 -19.978338 4294967295
12.280201 81.135696 -20.041176 4294967295
12.289971 79.874298 -19.843132 4294967295
12.306752 81.466591 -19.955524 4294967295
12.309505 79.567833 -19.713907 4294967295
12.310925 80.677132 -19.840755 4294967295
12.332116 81.005165 -19.780098 4294967295
12.341865 81.960579 -19.849039 4294967295
12.35252 80.065651 -19.570549 4294967295
12.372801 82.294121 -19.742981 4294967295
12.378912 80.554901 -19.504723 4294967295
12.447331 80.029282 -19.888716 4294967295
12.461901 81.778687 -20.030455 4294967295
12.478089 81.15406 -19.878878 4294967295
12.507306 79.4272 -19.533146 4294967295
12.510602 79.745781 -19.555931 4294967295
12.534671 81.025932 -19.596371 4294967295
12.543781 80.713921 -19.515821 4294967295
12.568788 80.568748 -19.380312 4294967295
12.575694 81.681702 -19.481634 4294967295
12.589515 79.226242 -19.890596 4294967295
12.617036 80.982506 -19.972103 4294967295
12.620177 79.87571 -19.824163 4294967295
12.625945 80.353844 -19.854483 4294967295
12.628923 82.255524 -20.06916 4294967295
12.640371 79.411118 -19.673065 4294967295
12.651832 81.159447 -19.829336 4294967295
12.658822 80.212822 -19.682516 4294967295
12.680711 79.11525 -19.447287 4294967295
12.691039 81.497246 -19.685114 4294967295
12.692797 79.596931 -19.448254 4294967295
12.693882 81.815598 -19.709997 4294967295
12.707541 79.763123 -19.398731 4294967295
12.708545 81.348213 -19.58466 4294967295
12.724298 81.990448 -19.587631 4294967295
12.739221 82.473862 -19.575405 4294967295
12.742595 80.891014 -19.369135 4294967295
12.752407 82.164116 -19.475988 4294967295
12.784265 81.459435 -20.009924 4294967295
12.906343 82.158821 -19.519146 4294967295
12.911544 80.735229 -19.323519 4294967295
12.927728 79.54847 -19.872631 4294967295
12.930097 81.696182 -19.351683 4294967295
12.940603 79.238403 -19.774809 4294967295
12.98356 81.161758 -19.803919 4294967295
12.991526 81.641212 -19.824066 4294967295
12.99889 80.694679 -19.675694 4294967295
13.012245 79.909485 -19.518524 4294967295
13.013704 80.385628 -19.568884 4294967295
13.018101 79.120155 -19.396122 4294967295
13.019131 80.230034 -19.524666 4294967295
13.022524 81.024101 -19.604128 4294967295
13.030386 81.978951 -19.681883 4294967295
13.037513 82.458099 -19.705935 4294967295
13.092406 79.707291 -19.884357 4294967295
13.10817 80.349068 -19.887403 4294967295
13.14663 80.210907 -19.690144 4294967295
13.15852 79.583351 -19.558908 4294967295
13.196438 82.138657 -19.687714 4294967295
13.20708 81.669029 -19.581324 4294967295
13.254729 80.023262 -19.926077 4294967295
13.264889 79.553398 -19.821997 4294967295
13.274359 80.350334 -19.873251 4294967295
13.290522 81.784378 -19.969582 4294967295
13.298734 81.313614 -19.874538 4294967295
13.30208 80.840179 -19.802002 4294967295
13.321946 79.107666 -19.500782 4294967295
13.32856 79.903473 -19.565308 4294967295
13.330097 82.122459 -19.824488 4294967295
13.343754 81.020714 -19.62816 4294967295
13.351277 80.23233 -19.498213 4294967295
13.373484 81.670441 -19.566679 4294967295
13.397193 82.317131 -19.533072 4294967295
13.408428 80.579437 -19.271755 4294967295
13.450653 79.089439 -19.660378 4294967295
13.508447 80.387276 -19.545322 4294967295
13.512629 80.706444 -19.564028 4294967295
13.542293 79.295296 -19.255676 4294967295
13.568988 80.260536 -19.246426 4294967295
13.621008 79.092728 -19.627316 4294967295
13.623884 81.470787 -19.899103 4294967295
13.635817 82.110802 -19.920013 4294967295
13.636402 80.843735 -19.76531 4294967295
13.641267 80.212494 -19.66683 4294967295
13.643119 79.73806 -19.601248 4294967295
13.652992 80.060165 -19.593679 4294967295
13.665326 80.383583 -19.574749 4294967295
13.667024 81.810699 -19.737968 4294967295
13.675292 81.339729 -19.642788 4294967295
13.682163 79.441322 -19.382919 4294967295
13.71417 79.616463 -19.254128 4294967295
13.724485 80.731743 -19.339634 4294967295
13.728273 81.684975 -19.436234 4294967295
13.732744 81.0532 -19.339539 4294967295
13.755919 79.711479 -19.833881 4294967295
13.769559 80.669136 -19.884943 4294967295
13.894978 80.418053 -19.268576 4294967295
13.902308 82.007492 -19.424862 4294967295
13.937085 82.184715 -19.283539 4294967295
13.966665 81.162018 -19.785749 4294967295
13.97039 79.103706 -19.521688 4294967295
13.973157 79.58065 -19.565935 4294967295
13.988184 80.69796 -19.629677 4294967295
14.009399 81.50164 -19.626926 4294967295
14.010746 80.392784 -19.487766 4294967295
14.016479 82.139381 -19.670292 4294967295
14.021082 80.081116 -19.402161 4294967295
14.031995 81.038078 -19.465891 4294967295
14.042496 81.836304 -19.512508 4294967295
14.044428 79.934715 -19.275618 4294967295
14.063834 80.57917 -19.262245 4294967295
14.076675 80.268707 -19.165089 4294967295
14.101076 80.512711 -19.842505 4294967295
14.117692 79.57058 -19.652168 4294967295
14.125484 79.891586 -19.654289 4294967295
14.139829 80.691513 -19.683216 4294967295
14.186737 79.764847 -19.353476 4294967295
14.26004 82.023544 -19.282194 4294967295
14.290029 79.733383 -19.62948 4294967295
14.294007 79.418419 -19.573233 4294967295
14.295492 80.687187 -19.718231 4294967295
14.308378 81.644867 -19.772863 4294967295
14.314114 80.379936 -19.594715 4294967295
14.317945 81.174484 -19.671993 4294967295
14.318954 79.272728 -19.439604 4294967295
14.332868 81.340874 -19.622417 4294967295
14.354205 81.510712 -19.543369 4294967295
14.359121 79.134789 -19.236008 4294967295
14.370713 80.885231 -19.391602 4294967295
14.380274 80.255905 -19.27173 4294967295
14.382129 82.001205 -19.472031 4294967295
14.397975 82.168236 -19.418224 4294967295
14.410907 81.06498 -19.225925 4294967295
14.476231 81.805489 -19.770924 4294967295
14.500663 80.074608 -19.450146 4294967295
14.56421 80.900726 -19.253399 4294967295
14.581269 80.592415 -19.137146 4294967295
14.589688 81.548645 -19.21241 4294967295
14.595873 81.393288 -19.165049 4294967295
14.603689 82.031975 -19.205111 4294967295
14.628325 80.372765 -19.651728 4294967295
14.629372 79.739212 -19.571079 4294967295
14.638736 81.329292 -19.71777 4294967295
14.64486 79.112968 -19.424198 4294967295
14.676787 81.666473 -19.581299 4294967295
14.686408 79.610062 -19.290625 4294967295
14.689086 79.29422 -19.2404 4294967295
14.691481 81.991379 -19.551893 4294967295
14.707498 80.572632 -19.307785 4294967295
14.711086 80.257278 -19.253391 4294967295
14.713841 81.210365 -19.354591 4294967295
14.71463 80.73497 -19.294065 4294967295
14.727171 81.058777 -19.274527 4294967295
14.818439 79.434952 -19.415354 4294967295
14.835156 80.077904 -19.414658 4294967295
14.880589 80.577339 -19.263535 4294967295
14.901792 79.795097 -19.071619 4294967295
14.930013 81.079147 -19.094177 4294967295
14.956771 79.421707 -19.529963 4294967295
14.973135 81.015686 -19.644611 4294967295
14.982898 79.752281 -19.448374 4294967295
14.991151 80.708008 -19.524343 4294967295
14.992735 79.281548 -19.346519 4294967295
14.993547 81.977692 -19.664953 4294967295
15.011067 81.19416 -19.490126 4294967295
15.014842 81.513306 -19.510767 4294967295
15.02558 80.250145 -19.310047 4294967295
15.033592 80.571556 -19.311323 4294967295
15.046091 79.150185 -19.083517 4294967295
15.049566 80.421234 -19.21932 4294967295
15.071244 81.860359 -19.290817 4294967295
15.07508 80.9105 -19.159536 4294967295
15.258819 81.555496 -19.142935 4294967295
15.275699 79.09977 -19.527859 4294967295
15.297115 79.427872 -19.468014 4294967295
15.305533 81.017998 -19.61895 4294967295
15.321362 79.757507 -19.395262 4294967295
15.340537 79.608727 -19.288837 4294967295
15.344475 79.293457 -19.232981 4294967295
15.351837 80.56636 -19.350929 4294967295
15.357452 80.093361 -19.268494 4294967295
15.362481 81.840889 -19.453882 4294967295
15.364756 81.366241 -19.3867 4294967295
15.400254 81.226234 -19.205847 4294967295
15.403178 81.703766 -19.249336 4294967295
15.429887 81.559174 -19.10858 4294967295
15.480566 80.230782 -19.471397 4294967295
15.50841 81.35553 -19.477032 4294967295
15.525843 80.412842 -19.284029 4294967295
15.544291 80.739738 -19.237843 4294967295
15.645638 79.120865 -19.331564 4294967295
15.648217 79.915352 -19.414448 4294967295
15.658545 80.555176 -19.443136 4294967295
15.662555 80.08136 -19.36812 4294967295
15.670326 81.354408 -19.484131 4294967295
15.679105 79.613899 -19.236013 4294967295
15.683278 80.726654 -19.349508 4294967295
15.684509 80.251328 -19.287127 4294967295
15.688865 79.301521 -19.153727 4294967295
15.713972 81.535957 -19.304461 4294967295
15.743677 81.710266 -19.188231 4294967295
15.760725 80.925636 -19.016006 4294967295
15.786836 79.585007 -19.489632 4294967295
15.854795 80.571808 -19.294201 4294967295
15.880943 79.474365 -19.042875 4294967295
15.891146 81.542824 -19.242502 4294967295
15.994037 80.2416 -19.36669 4294967295
15.996037 80.401283 -19.376516 4294967295
16.019913 81.841583 -19.438297 4294967295
16.025427 79.940369 -19.18634 4294967295
16.025757 79.464417 -19.128098 4294967295
16.025944 80.099335 -19.202913 4294967295
16.031145 80.736786 -19.254948 4294967295
16.040401 79.313141 -19.042679 4294967295
16.061308 81.704681 -19.231503 4294967295
16.061422 81.546043 -19.212067 4294967295
16.074718 79.806877 -18.943615 4294967295
16.076334 81.236412 -19.106558 4294967295
16.098177 80.61277 -18.931717 4294967295
16.132109 79.117607 -19.349817 4294967295
16.146454 79.442223 -19.322559 4294967295
16.209188 80.585236 -19.170403 4294967295
16.305246 79.280739 -19.325171 4294967295
16.307701 79.440666 -19.332945 4294967295
16.311781 80.394753 -19.42783 4294967295
16.317146 79.128075 -19.252356 4294967295
16.327751 81.037651 -19.431067 4294967295
16.347342 79.619522 -19.172268 4294967295
16.350756 79.938698 -19.194603 4294967295
16.355621 81.369507 -19.34264 4294967295
16.371237 80.742813 -19.196337 4294967295
16.385096 80.115013 -19.057961 4294967295
16.429083 80.931519 -18.95326 4294967295
16.504986 80.885742 -19.350323 4294967295
16.533245 80.424194 -19.165819 4294967295
16.552223 81.386414 -19.193321 4294967295
16.566044 81.234871 -19.111914 4294967295
16.57799 80.129631 -18.925596 4294967295
16.614386 81.101204 -18.874359 4294967295
16.614653 81.736557 -18.948746 4294967295
16.634666 79.439796 -19.333632 4294967295
16.663698 79.771957 -19.2402 4294967295
16.691172 80.579651 -19.210476 4294967295
16.705723 81.380829 -19.239145 4294967295
16.706852 81.063957 -19.196278 4294967295
16.716457 79.163666 -18.92621 4294967295
16.720566 81.706039 -19.20986 4294967295
16.759325 80.773544 -18.921431 4294967295
16.7784 81.577477 -18.929701 4294967295
16.841955 81.207565 -19.343973 4294967295
16.858461 80.104935 -19.137356 4294967295
16.877176 79.638145 -18.996246 4294967295
16.879877 80.909729 -19.135103 4294967295
16.927679 80.457954 -18.86273 4294967295
16.950953 81.105278 -18.833252 4294967295
17.028849 80.108002 -19.107044 4294967295
17.029831 79.155792 -18.989365 4294967295
17.032495 79.633522 -19.033979 4294967295
17.04357 81.068176 -19.153915 4294967295
17.075893 79.337822 -18.80056 4294967295
17.082685 81.564819 -19.034233 4294967295
17.088987 80.297523 -18.854818 4294967295
17.0998 80.461899 -18.824961 4294967295
17.099829 79.985359 -18.768181 4294967295
17.108246 80.783928 -18.82465 4294967295
17.167551 80.729889 -19.294973 4294967295
17.19878 79.952034 -19.060055 4294967295
17.303596 81.594246 -18.776857 4294967295
17.316046 79.928078 -19.268946 4294967295
17.340908 80.893288 -19.270252 4294967295
17.365351 79.317871 -18.971746 4294967295
17.368832 80.272491 -19.069262 4294967295
17.368839 79.478447 -18.974924 4294967295
17.369608 79.161186 -18.933737 4294967295
17.382259 81.549728 -19.159731 4294967295
17.393089 81.078949 -19.054466 4294967295
17.403215 80.131187 -18.895765 4294967295
17.406902 80.450752 -18.91691 4294967295
17.482695 80.246727 -19.293255 4294967295
17.500196 80.414413 -19.233484 4294967295
17.58596 80.775925 -18.885967 4294967295
17.599215 79.988312 -18.732134 4294967295
17.675011 79.943344 -19.127129 4294967295
17.68611 79.631332 -19.039637 4294967295
17.700981 79.479996 -18.954058 4294967295
17.70439 81.069969 -19.127214 4294967295
17.741339 80.612419 -18.904919 4294967295
17.752525 80.300385 -18.81703 4294967295
17.752865 81.412628 -18.947449 4294967295
17.769493 79.832298 -18.684334 4294967295
17.774572 79.358093 -18.604973 4294967295
17.804327 80.962471 -18.660048 4294967295
17.841772 80.57972 -19.188913 4294967295
17.860733 80.271759 -19.066277 4294967295
17.87195 80.912781 -19.091362 4294967295
17.917747 81.095139 -18.904995 4294967295
18.023809 79.953369 -19.031757 4294967295
18.024435 79.318283 -18.953632 4294967295
18.039381 80.278946 -18.99972 4294967295
18.045618 79.487778 -18.877632 4294967295
18.067167 79.816391 -18.818842 4294967295
18.074053 81.249825 -18.957527 4294967295
18.078732 80.457817 -18.842421 4294967295
18.089949 80.940224 -18.848722 4294967295
18.11537 80.158585 -18.640753 4294967295
18.209011 81.234673 -19.086639 4294967295
18.221466 80.764481 -18.974495 4294967295
18.243858 79.345703 -18.70492 4294967295
18.260078 81.419815 -18.877195 4294967295
18.299223 80.645218 -18.608059 4294967295
18.363981 79.800087 -18.956827 4294967295
18.36495 79.641693 -18.93368 4294967295
18.374025 80.599525 -19.006062 4294967295
18.3855 81.399719 -19.048899 4294967295
18.410194 81.253532 -18.91984 4294967295
18.42984 80.151108 -18.700359 4294967295
18.461514 80.803001 -18.634232 4294967295
18.480511 81.130653 -18.587067 4294967295
18.584442 80.463921 -18.779549 4294967295
18.630692 80.805328 -18.610909 4294967295
18.644356 79.140182 -19.092489 4294967295
18.699593 80.915512 -19.053202 4294967295
18.705833 81.077576 -19.044201 4294967295
18.714838 79.969864 -18.872469 4294967295
18.737406 80.458023 -18.828348 4294967295
18.741257 79.665253 -18.717142 4294967295
18.770981 79.839119 -18.603519 4294967295
18.780895 79.367096 -18.502899 4294967295
18.798723 80.80706 -18.592812 4294967295
18.828497 79.944244 -19.096043 4294967295
18.901295 81.093376 -18.903687 4294967295
18.921232 80.785652 -18.77738 4294967295
18.942436 80.319473 -18.626621 4294967295
18.957144 80.644905 -18.598785 4294967295
19.027407 80.120377 -18.959023 4294967295
19.041031 80.445076 -18.936047 4294967295
19.052353 79.65609 -18.791767 4294967295
19.069389 79.82357 -18.734833 4294967295
19.091097 79.357445 -18.581942 4294967295
19.093458 81.266403 -18.797009 4294967295
19.117111 80.801514 -18.635508 4294967295
19.118502 80.325203 -18.572937 4294967295
19.207405 80.763817 -18.962736 4294967295
19.29393 81.12571 -18.616232 4294967295
19.344004 79.637238 -18.952549 4294967295
19.367781 79.808044 -18.865883 4294967295
19.37635 80.607071 -18.921766 4294967295
19.3906 80.773232 -18.877356 4294967295
19.431747 80.158035 -18.619787 4294967295
19.434433 80.318398 -18.626657 4294967295
19.440878 79.367439 -18.485355 4294967295
19.474346 81.133713 -18.543617 4294967295
19.509922 79.796776 -18.962524 4294967295
19.594833 79.998169 -18.605196 4294967295
19.618919 80.646393 -18.573635 4294967295
19.685999 79.48452 -18.871347 4294967295
19.70417 80.447365 -18.90353 4294967295
19.70932 79.178101 -18.730623 4294967295
19.729694 80.142212 -18.753084 4294967295
19.7439 79.831291 -18.652702 4294967295
19.763542 79.36393 -18.509481 4294967295
19.763674 80.954353 -18.696611 4294967295
19.783936 80.805573 -18.588215 4294967295
19.785526 80.647331 -18.562408 4294967295
19.946545 79.850121 -18.48214 4294967295
20.04977 80.296494 -18.807123 4294967295
20.05389 79.503471 -18.695179 4294967295
20.072323 80.466805 -18.726339 4294967295
20.079384 79.83419 -18.620161 4294967295
20.100336 80.798965 -18.640213 4294967295
20.105976 80.165558 -18.540298 4294967295
20.108799 80.96228 -18.621626 4294967295
20.182377 79.803474 -18.889509 4294967295
20.257605 79.363594 -18.501583 4294967295
20.350399 80.600014 -18.965603 4294967295
20.359241 79.809456 -18.833 4294967295
20.360685 79.492142 -18.78916 4294967295
20.370295 80.927994 -18.915462 4294967295
20.397409 79.351212 -18.60869 4294967295
20.402765 80.308197 -18.697552 4294967295
20.428865 79.684898 -18.507648 4294967295
20.443853 80.487808 -18.535376 4294967295
20.464685 80.18 -18.406155 4294967295
20.552618 79.346428 -18.647852 4294967295
20.55435 80.460632 -18.77136 4294967295
20.706522 80.454323 -18.823797 4294967295
20.711088 80.297562 -18.785011 4294967295
20.740665 79.516876 -18.561436 4294967295
20.767162 80.166389 -18.519945 4294967295
20.797928 80.659096 -18.440983 4294967295
20.872652 79.818771 -18.740065 4294967295
20.872929 79.659851 -18.720127 4294967295
20.91803 80.000305 -18.559649 4294967295
21.015963 79.330963 -18.775206 4294967295
21.018438 80.445488 -18.895306 4294967295
21.083805 80.000717 -18.552673 4294967295
21.093695 80.64209 -18.584188 4294967295
21.104889 80.170288 -18.478973 4294967295
21.121666 80.815193 -18.480314 4294967295
21.130014 79.546066 -18.293959 4294967295
21.176294 80.282982 -18.904039 4294967295
21.196716 79.815926 -18.75853 4294967295
21.245697 80.794762 -18.656319 4294967295
21.345617 79.967087 -18.84395 4294967295
21.365191 79.499489 -18.702259 4294967295
21.417746 80.161827 -18.547226 4294967295
21.425152 80.483772 -18.552242 4294967295
21.4252 79.369751 -18.421104 4294967295
21.455778 79.703094 -18.324789 4294967295
21.470783 80.824821 -18.390123 4294967295
21.562607 80.470123 -18.669249 4294967295
21.563871 80.152512 -18.626343 4294967295
21.673933 79.966331 -18.843998 4294967295
21.677404 80.604324 -18.903572 4294967295
21.69581 80.295296 -18.78591 4294967295
21.750898 79.685905 -18.470814 4294967295
21.778149 79.540062 -18.333218 4294967295
21.808184 79.873222 -18.239565 4294967295
21.952229 80.3405 -18.384087 4294967295
21.952387 80.658974 -18.420771 4294967295
21.974104 80.192085 -18.270065 4294967295
22.034002 79.822014 -18.687426 4294967295
22.037733 80.301231 -18.727196 4294967295
22.046827 79.350845 -18.575577 4294967295
22.05637 80.628708 -18.683418 4294967295
22.063643 79.995705 -18.577076 4294967295
22.072393 80.159172 -18.557655 4294967295
22.087669 80.485054 -18.528511 4294967295
22.364681 79.981445 -18.696741 4294967295
22.380617 80.466728 -18.683506 4294967295
22.402367 79.840729 -18.514408 4294967295
22.457033 79.389694 -18.220978 4294967295
22.463156 80.188972 -18.287733 4294967295
22.477373 79.71814 -18.16997 4294967295
22.483589 80.358284 -18.217661 4294967295
22.533888 79.346802 -18.6008 4294967295
22.685169 79.499245 -18.675932 4294967295
22.705023 79.668076 -18.608541 4294967295
22.721771 80.472191 -18.629196 4294967295
22.738419 80.32119 -18.538416 4294967295
22.774178 79.861008 -18.327524 4294967295
22.779221 79.385658 -18.249699 4294967295
22.955566 80.187454 -18.291342 4294967295
22.967045 79.874489 -18.204367 4294967295
23.05414 80.473282 -18.613377 4294967295
23.08802 80.17144 -18.429646 4294967295
23.12752 79.394241 -18.165665 4294967295
23.141623 80.038345 -18.179276 4294967295
23.221628 79.996788 -18.544086 4294967295
23.233555 79.206345 -18.399437 4294967295
23.405825 79.36898 -18.384233 4294967295
23.467892 80.354904 -18.22827 4294967295
23.468031 79.876999 -18.171782 4294967295
23.472342 80.197754 -18.190447 4294967295
23.598766 79.860222 -18.317329 4294967295
23.603281 80.021721 -18.316498 4294967295
23.625404 79.554474 -18.165312 4294967295
23.709555 79.356033 -18.492641 4294967295
23.720083 80.157425 -18.540367 4294967295
23.730625 79.206894 -18.383337 4294967295
23.768831 79.703217 -18.27474 4294967295
23.78017 79.54937 -18.207321 4294967295
23.780525 80.346176 -18.298872 4294967295
23.784264 80.029343 -18.24556 4294967295
23.894192 79.683907 -18.443079 4294967295
24.059587 79.206055 -18.383389 4294967295
24.09864 79.862129 -18.290087 4294967295
24.125584 79.397049 -18.118582 4294967295
24.150452 79.090179 -17.974562 4294967295
24.269964 79.865013 -18.261028 4294967295
24.291462 80.194138 -18.206018 4294967295
24.414246 79.854836 -18.347952 4294967295
24.462641 79.240601 -18.06624 4294967295
24.463013 80.197136 -18.176208 4294967295
24.465761 79.720299 -18.108658 4294967295
24.496717 79.416328 -17.938837 4294967295
24.588371 79.380974 -18.251295 4294967295
24.752342 79.220894 -18.235384 4294967295
24.7579 79.382927 -18.230198 4294967295
24.787724 80.034805 -18.177021 4294967295
24.899185 79.530731 -18.348396 4294967295
24.934155 79.706863 -18.217651 4294967295
25.09066 79.861961 -18.27091 4294967295
25.169376 79.580811 -17.898054 4294967295
25.264393 80.025337 -18.250763 4294967295
25.332712 79.898705 -17.941158 4294967295
25.395525 79.211922 -18.300743 4294967295
25.446598 79.714508 -18.139051 4294967295
25.457674 79.560349 -18.073364 4294967295
25.484726 79.413765 -17.939686 4294967295
25.746872 79.699806 -18.262861 4294967295
25.8176 79.414536 -17.925468 4294967295
25.906126 79.377953 -18.248938 4294967295
26.104614 79.234055 -18.087347 4294967295
26.134962 79.407913 -17.977308 4294967295
26.169563 79.743401 -17.867783 4294967295
26.186716 79.113289 -17.720972 4294967295
26.339851 79.586029 -17.82622 4294967295
26.486546 79.577011 -17.90304 4294967295
26.503201 79.106186 -17.777071 4294967295
26.62394 79.244545 -17.981997 4294967295
26.636038 79.728874 -17.986446 4294967295
26.774155 79.396767 -18.062231 4294967295
26.825052 79.739922 -17.884579 4294967295
26.88772 79.60997 -17.601765 4294967295
27.002998 79.426498 -17.792618 4294967295
20.326452 55.474133 -17.570892 4294967295
20.475851 54.512524 -17.522158 4294967295
20.812794 54.990005 -17.538591 4294967295
21.127508 54.823406 -17.577888 4294967295
21.275427 54.179707 -17.57328 4294967295
21.28162 54.022366 -17.527369 4294967295
21.298016 54.664627 -17.530521 4294967295
21.328381 55.948605 -17.54748 4294967295
21.453426 54.501053 -17.549416 4294967295
21.481899 54.98793 -17.480993 4294967295
21.490688 55.787235 -17.536268 4294967295
21.814329 55.46413 -17.518286 4294967295
21.819439 54.828465 -17.421013 4294967295
21.834385 56.745098 -17.580564 4294967295
21.849346 57.387268 -17.590158 4294967295
21.888653 58.356392 -17.530926 4294967295
21.943439 54.495644 -17.55847 4294967295
21.943993 53.858562 -17.481129 4294967295
21.95965 55.137981 -17.562649 4294967295
22.108414 54.175705 -17.517025 4294967295
22.119783 53.860561 -17.430006 4294967295
22.151026 56.101089 -17.555971 4294967295
22.18251 57.545338 -17.587265 4294967295
22.226543 58.51619 -17.507759 4294967295
22.289179 54.816643 -17.519236 4294967295
22.291916 54.498825 -17.469887 4294967295
22.352272 56.74905 -17.469189 4294967295
22.362246 58.027119 -17.575489 4294967295
22.445406 54.971924 -17.572203 4294967295
22.471416 55.776867 -17.552641 4294967295
22.475262 56.256104 -17.592043 4294967295
22.235748 59.156719 -17.54254 4294967295
22.56863 59.633602 -17.57901 4294967295
22.570366 58.837399 -17.477957 4294967295
22.5828 60.275955 -17.592253 4294967295
22.601234 60.919891 -17.586964 4294967295
22.729683 58.834343 -17.499216 4294967295
22.833248 63.333851 -17.573277 4294967295
22.841885 63.815212 -17.591885 4294967295
22.906229 59.952831 -17.576626 4294967295
22.908785 59.634975 -17.528173 4294967295
22.922352 60.4366 -17.562805 4294967295
22.960243 61.884533 -17.566759 4294967295
23.019279 64.137772 -17.572548 4294967295
23.037468 58.82452 -17.588783 4294967295
23.060638 59.151196 -17.52581 4294967295
23.090868 59.958611 -17.488323 4294967295
23.110542 60.762524 -17.496555 4294967295
23.228117 59.629105 -17.567894 4294967295
23.263788 61.076103 -17.581682 4294967295
23.305353 62.685043 -17.588682 4294967295
23.326536 62.852238 -17.515791 4294967295
23.346529 63.975555 -17.560062 4294967295
23.512062 63.81543 -17.536348 4294967295
24.041462 64.622871 -17.473797 4294967295
24.212786 64.943306 -17.481583 4294967295
23.383003 65.424149 -17.570448 4294967295
23.400431 66.068565 -17.569813 4294967295
23.726364 65.74649 -17.544971 4294967295
23.916103 66.71199 -17.547892 4294967295
24.084959 66.234291 -17.473124 4294967295
24.097288 67.195953 -17.531939 4294967295
24.386972 66.221718 -17.588926 4294967295
24.57584 66.868103 -17.558949 4294967295
25.141787 69.765282 -17.584929 4294967295
25.369759 72.183868 -17.593674 4294967295
26.31241 76.381645 -17.571672 4294967295
26.51561 77.196655 -17.502235 4294967295
26.517088 77.516602 -17.533058 4294967295
26.544193 78.965851 -17.585243 4294967295
26.701534 78.642593 -17.580256 4294967295
26.886276 79.130348 -17.552303 4294967295
2.9036634 65.153046 -20.257015 4278255360
3.0608163 64.834473 -20.241215 4278255360
3.1699572 65.125366 -20.543655 4278255360
3.17939 64.341148 -20.398848 4278255360
3.1867678 64.659798 -20.401016 4278255360
3.2076676 65.299911 -20.37464 4278255360
3.2211661 64.517281 -20.209478 4278255360
3.2358737 64.997047 -20.194548 4278255360
3.3874469 64.360413 -20.167742 4278255360
3.5059335 65.286514 -20.501122 4278255360
3.5369947 64.038406 -20.190098 4278255360
3.5500536 65.148468 -20.261593 4278255360
3.5509837 64.833366 -20.217922 4278255360
3.554424 64.203796 -20.122683 4278255360
3.6638885 64.652954 -20.442295 4278255360
3.6648216 64.337929 -20.39864 4278255360
3.6684804 64.024078 -20.341404 4278255360
3.8164668 64.64782 -20.488277 4278255360
3.8452361 64.344986 -20.306175 4278255360
3.8678234 64.512657 -20.21331 4278255360
3.9830222 64.175644 -20.406326 4278255360
2.9173303 65.947784 -20.286266 4278255360
2.9205089 65.791512 -20.250784 4278255360
2.9960973 66.066742 -20.721485 4278255360
3.0168858 65.603264 -20.558836 4278255360
3.152159 65.590317 -20.691204 4278255360
3.2275038 65.78196 -20.334061 4278255360
3.2280653 65.939934 -20.350784 4278255360
3.3908031 65.466148 -20.287668 4278255360
3.3995435 65.627815 -20.263552 4278255360
2.9036634 65.153046 -20.257015 4278255360
3.1699572 65.125366 -20.543655 4278255360
3.2076676 65.299911 -20.37464 4278255360
3.2358737 64.997047 -20.194548 4278255360
3.5059335 65.286514 -20.501122 4278255360
3.5500536 65.148468 -20.261593 4278255360
2.9146109 66.104256 -20.319445 4278255360
2.9173303 65.947784 -20.286266 4278255360
2.9205089 65.791512 -20.250784 4278255360
2.9330347 66.585815 -20.285757 4278255360
2.9960973 66.066742 -20.721485 4278255360
3.0168858 65.603264 -20.558836 4278255360
3.152159 65.590317 -20.691204 4278255360
3.1626236 67.013611 -20.814541 4278255360
3.1725614 66.545341 -20.706326 4278255360
3.1977484 66.399216 -20.560907 4278255360
3.2275038 65.78196 -20.334061 4278255360
3.2280653 65.939934 -20.350784 4278255360
3.3908031 65.466148 -20.287668 4278255360
3.3995435 65.627815 -20.263552 4278255360
3.4059711 66.103935 -20.29003 4278255360
2.9146109 66.104256 -20.319445 4278255360
2.9173303 65.947784 -20.286266 4278255360
2.9207146 67.210922 -20.425678 4278255360
2.9330347 66.585815 -20.285757 4278255360
2.9634154 68.019371 -20.309448 4278255360
2.9960973 66.066742 -20.721485 4278255360
3.0764396 67.83786 -20.534216 4278255360
3.1626236 67.013611 -20.814541 4278255360
3.1725614 66.545341 -20.706326 4278255360
3.1793809 67.651794 -20.808844 4278255360
3.1977484 66.399216 -20.560907 4278255360
3.2238801 67.199562 -20.527906 4278255360
3.2280653 65.939934 -20.350784 4278255360
3.2775896 67.539902 -20.298536 4278255360
3.3537397 67.341492 -20.706867 4278255360
3.4059711 66.103935 -20.29003 4278255360
3.4384856 67.696259 -20.322927 4278255360
3.4534922 68.018753 -20.287071 4278255360
2.9207146 67.210922 -20.425678 4278255360
2.9210861 68.314774 -20.560596 4278255360
2.9634154 68.019371 -20.309448 4278255360
2.9862905 68.818802 -20.292578 4278255360
3.0764396 67.83786 -20.534216 4278255360
3.1526654 68.504601 -20.230965 4278255360
3.1626236 67.013611 -20.814541 4278255360
3.1793809 67.651794 -20.808844 4278255360
3.2238801 67.199562 -20.527906 4278255360
3.2271233 68.147049 -20.628813 4278255360
3.2311773 68.779549 -20.686615 4278255360
3.2578056 68.47686 -20.514538 4278255360
3.2600691 68.635612 -20.522749 4278255360
3.2775896 67.539902 -20.298536 4278255360
3.320262 68.979675 -20.261057 4278255360
3.3537397 67.341492 -20.706867 4278255360
3.4384856 67.696259 -20.322927 4278255360
3.4534922 68.018753 -20.287071 4278255360
3.5640159 68.782188 -20.640627 4278255360
3.5925381 68.953415 -20.517996 4278255360
3.6070256 68.329407 -20.367786 4278255360
2.9069486 69.884209 -20.826719 4278255360
2.9210861 68.314774 -20.560596 4278255360
2.9514687 69.275208 -20.52562 4278255360
2.9634154 68.019371 -20.309448 4278255360
2.9775734 69.603149 -20.433945 4278255360
2.9862905 68.818802 -20.292578 4278255360
3.0984421 70.05545 -20.697489 4278255360
3.1354084 69.44268 -20.434494 4278255360
3.1467502 69.921257 -20.43635 4278255360
3.1491578 69.133865 -20.326654 4278255360
3.1526654 68.504601 -20.230965 4278255360
3.1701372 69.301659 -20.241241 4278255360
3.2271233 68.147049 -20.628813 4278255360
3.2311773 68.779549 -20.686615 4278255360
3.2578056 68.47686 -20.514538 4278255360
3.2600691 68.635612 -20.522749 4278255360
3.2937825 69.755554 -20.49095 4278255360
3.320262 68.979675 -20.261057 4278255360
3.4534922 68.018753 -20.287071 4278255360
3.4823244 69.925339 -20.377392 4278255360
3.489486 69.455566 -20.283121 4278255360
3.5004518 69.618591 -20.247931 4278255360
3.5088768 69.149315 -20.147341 4278255360
3.5118752 70.097404 -20.249489 4278255360
3.5640159 68.782188 -20.640627 4278255360
3.5791361 69.893059 -20.70175 4278255360
3.5925381 68.953415 -20.517996 4278255360
3.6070256 68.329407 -20.367786 4278255360
3.6177852 69.754028 -20.489697 4278255360
3.631546 69.129723 -20.343122 4278255360
3.7567747 69.426788 -20.564713 4278255360
3.9311569 69.2742 -20.483137 4278255360
3.9531107 70.07338 -20.471449 4278255360
3.9953318 69.935997 -20.242161 4278255360
4.0784249 69.739494 -20.614275 4278255360
4.3248873 70.094833 -20.234142 4278255360
3.9830222 64.175644 -20.406326 4278255360
4.0328846 63.881779 -20.119602 4278255360
4.0607896 63.262466 -19.902945 4278255360
4.0657263 63.580303 -19.917419 4278255360
4.1359243 63.381947 -20.35335 4278255360
4.184021 63.876007 -20.173117 4278255360
4.221601 63.260841 -19.908667 4278255360
4.2427621 63.743553 -19.862133 4278255360
4.3248982 62.919025 -20.160564 4278255360
4.3299575 63.710201 -20.232866 4278255360
4.4721684 63.385044 -20.291485 4278255360
4.5414667 63.098938 -19.909512 4278255360
4.5732899 63.586224 -19.810417 4278255360
4.5738759 63.270645 -19.76856 4278255360
4.6445422 63.072762 -20.200851 4278255360
4.8834796 62.946362 -19.801235 4278255360
4.9714694 62.913921 -20.1665 4278255360
3.9311569 69.2742 -20.483137 4278255360
3.9531107 70.07338 -20.471449 4278255360
3.9931595 70.881592 -20.369867 4278255360
3.9953318 69.935997 -20.242161 4278255360
4.0203595 70.579308 -20.195755 4278255360
4.029386 71.057129 -20.209372 4278255360
4.0784249 69.739494 -20.614275 4278255360
4.0969057 71.010033 -20.678293 4278255360
4.1409712 70.558372 -20.401239 4278255360
4.1464567 70.718811 -20.393494 4278255360
4.2670512 70.224693 -20.540251 4278255360
4.3248873 70.094833 -20.234142 4278255360
4.3357759 70.889137 -20.277527 4278255360
4.3404427 71.049225 -20.273867 4278255360
4.3488464 70.42205 -20.154343 4278255360
4.4947715 70.413445 -20.234203 4278255360
4.5146942 70.896599 -20.193985 4278255360
4.6276851 70.871918 -20.436588 4278255360
4.9220347 70.855927 -20.583103 4278255360
3.9531107 70.07338 -20.471449 4278255360
3.9931595 70.881592 -20.369867 4278255360
3.9953318 69.935997 -20.242161 4278255360
4.0203595 70.579308 -20.195755 4278255360
4.029386 71.057129 -20.209372 4278255360
4.0456743 71.38076 -20.167427 4278255360
4.0595093 71.703239 -20.137678 4278255360
4.0969057 71.010033 -20.678293 4278255360
4.1409712 70.558372 -20.401239 4278255360
4.1464567 70.718811 -20.393494 4278255360
4.1558027 71.827675 -20.483418 4278255360
4.1674085 71.517914 -20.386902 4278255360
4.1701589 71.20372 -20.334309 4278255360
4.1834435 71.999176 -20.365767 4278255360
4.2085004 71.69603 -20.202513 4278255360
4.2670512 70.224693 -20.540251 4278255360
4.3248873 70.094833 -20.234142 4278255360
4.3357759 70.889137 -20.277527 4278255360
4.3404427 71.049225 -20.273867 4278255360
4.3488464 70.42205 -20.154343 4278255360
4.3916469 72.021408 -20.136969 4278255360
4.4828119 71.354401 -20.410135 4278255360
4.4947715 70.413445 -20.234203 4278255360
4.5146942 70.896599 -20.193985 4278255360
4.5255499 71.848877 -20.257017 4278255360
4.5316968 72.009743 -20.246059 4278255360
4.5433488 71.226295 -20.091101 4278255360
4.6276851 70.871918 -20.436588 4278255360
4.6440191 71.984344 -20.491961 4278255360
4.6660733 71.364067 -20.305195 4278255360
4.7705855 71.177353 -20.569864 4278255360
4.7895856 71.817711 -20.553808 4278255360
4.8404765 71.527191 -20.263767 4278255360
4.8445144 72.00267 -20.302155 4278255360
4.9220347 70.855927 -20.583103 4278255360
4.9414501 71.180908 -20.526236 4278255360
4.9725542 71.353905 -20.39233 4278255360
5.1540232 71.678307 -20.335712 4278255360
5.1900721 71.853889 -20.177673 4278255360
5.1975665 72.015465 -20.160204 4278255360
5.2868128 71.505371 -20.460484 4278255360
5.5039787 71.847305 -20.228878 4278255360
5.517282 72.011726 -20.182964 4278255360
5.9027553 71.882301 -19.864471 4278255360
4.9714694 62.913921 -20.1665 4278255360
5.0146542 62.616364 -19.914646 4278255360
5.1701536 61.980804 -19.869089 4278255360
5.1827159 62.617722 -19.884985 4278255360
5.1863966 62.461342 -19.847414 4278255360
5.4008136 62.166012 -19.551022 4278255360
5.40346 62.483131 -19.576891 4278255360
5.5109248 61.985291 -19.787292 4278255360
5.5122991 62.301773 -19.819395 4278255360
5.7152758 62.15955 -19.599421 4278255360
5.73736 62.010647 -19.471628 4278255360
5.8667374 62.153931 -19.651913 4278255360
4.9414501 71.180908 -20.526236 4278255360
4.9725542 71.353905 -20.39233 4278255360
5.1540232 71.678307 -20.335712 4278255360
5.1900721 71.853889 -20.177673 4278255360
5.1975665 72.015465 -20.160204 4278255360
5.2868128 71.505371 -20.460484 4278255360
5.311964 72.148994 -20.414459 4278255360
5.486455 72.154388 -20.353722 4278255360
5.5039787 71.847305 -20.228878 4278255360
5.517282 72.011726 -20.182964 4278255360
5.7341995 72.195892 -19.934019 4278255360
5.8851476 72.18959 -19.989494 4278255360
5.9027553 71.882301 -19.864471 4278255360
6.5953178 72.216599 -19.692427 4278255360
4.9253473 72.832268 -20.000465 4278255360
4.9289055 72.67614 -19.963463 4278255360
5.0022054 72.788841 -20.421013 4278255360
5.0136657 72.321106 -20.306255 4278255360
5.0688186 72.980087 -20.112171 4278255360
5.1972151 72.646759 -20.239624 4278255360
5.3321342 72.474655 -20.354118 4278255360
5.3400054 72.636414 -20.334835 4278255360
5.3456078 72.323494 -20.268478 4278255360
5.4976888 72.475647 -20.337368 4278255360
5.5327001 72.808807 -20.204292 4278255360
5.5381021 72.337807 -20.119555 4278255360
5.6974983 72.335701 -20.133377 4278255360
5.8890805 72.349487 -19.989628 4278255360
5.9208479 72.681152 -19.872856 4278255360
5.9213424 72.99736 -19.909225 4278255360
5.9976625 72.638077 -20.291 4278255360
6.2024403 72.500496 -20.063784 4278255360
6.210495 72.662437 -20.043814 4278255360
6.2130394 72.979607 -20.070131 4278255360
6.2435007 72.362762 -19.843849 4278255360
6.2707629 72.850304 -19.768837 4278255360
6.4993258 72.327499 -20.179474 4278255360
6.5107179 72.964882 -20.201378 4278255360
6.5124583 72.8078 -20.17355 4278255360
6.7142262 72.510612 -19.942839 4278255360
6.7238688 72.67337 -19.915272 4278255360
6.8827105 72.670929 -19.932478 4278255360
6.9173198 73.004097 -19.80299 4278255360
6.922071 72.532242 -19.721861 4278255360
5.9607458 61.018948 -19.849747 4278255360
5.9874539 61.18774 -19.738407 4278255360
5.9942274 61.82246 -19.782867 4278255360
6.0284882 61.520458 -19.576357 4278255360
6.1660309 61.509193 -19.696882 4278255360
6.2051582 61.209 -19.466793 4278255360
6.2137198 61.054386 -19.405529 4278255360
6.2199278 61.689232 -19.452803 4278255360
6.2277231 61.850498 -19.434099 4278255360
6.3316793 61.825428 -19.718723 4278255360
6.5012507 61.195061 -19.605242 4278255360
6.539434 61.526676 -19.457817 4278255360
6.5406895 61.052887 -19.39353 4278255360
6.6552458 61.190506 -19.645342 4278255360
6.9018803 61.539585 -19.273556 4278255360
7.0635695 61.221764 -19.238039 4278255360
7.1690588 61.19767 -19.514015 4278255360
7.1734877 61.041336 -19.473175 4278255360
7.1964417 61.524948 -19.419867 4278255360
7.2061324 61.37072 -19.353497 4278255360
7.2998595 61.183788 -19.666716 4278255360
7.5325541 61.368935 -19.345322 4278255360
7.5794997 61.22958 -19.098787 4278255360
7.8659844 61.053535 -19.265005 4278255360
7.96909 61.028675 -19.551064 4278255360
8.0323315 61.212059 -19.265465 4278255360
5.9027553 71.882301 -19.864471 4278255360
6.5953178 72.216599 -19.692427 4278255360
5.9208479 72.681152 -19.872856 4278255360
5.9213424 72.99736 -19.909225 4278255360
5.9976625 72.638077 -20.291 4278255360
6.2024403 72.500496 -20.063784 4278255360
6.210495 72.662437 -20.043814 4278255360
6.2130394 72.979607 -20.070131 4278255360
6.2435007 72.362762 -19.843849 4278255360
6.2707629 72.850304 -19.768837 4278255360
6.4993258 72.327499 -20.179474 4278255360
6.5107179 72.964882 -20.201378 4278255360
6.5124583 72.8078 -20.17355 4278255360
6.7142262 72.510612 -19.942839 4278255360
6.7238688 72.67337 -19.915272 4278255360
6.8827105 72.670929 -19.932478 4278255360
6.9173198 73.004097 -19.80299 4278255360
6.922071 72.532242 -19.721861 4278255360
7.1048245 72.699608 -19.642641 4278255360
7.2221918 72.67675 -19.861324 4278255360
7.3677011 72.983826 -19.981928 4278255360
7.5385122 72.987267 -19.941423 4278255360
7.5553937 72.67942 -19.82119 4278255360
7.667273 72.811989 -20.084837 4278255360
7.9010506 73.004372 -19.760078 4278255360
7.9164271 72.853783 -19.66663 4278255360
6.9018803 61.539585 -19.273556 4278255360
7.0635695 61.221764 -19.238039 4278255360
7.1690588 61.19767 -19.514015 4278255360
7.1734877 61.041336 -19.473175 4278255360
7.1964417 61.524948 -19.419867 4278255360
7.2061324 61.37072 -19.353497 4278255360
7.2998595 61.183788 -19.666716 4278255360
7.5325541 61.368935 -19.345322 4278255360
7.5794997 61.22958 -19.098787 4278255360
7.8659844 61.053535 -19.265005 4278255360
7.96909 61.028675 -19.551064 4278255360
8.0323315 61.212059 -19.265465 4278255360
8.1564522 61.195534 -19.45005 4278255360
8.221302 60.904877 -19.099165 4278255360
8.3062792 61.189281 -19.510622 4278255360
8.3254375 61.038715 -19.399193 4278255360
8.6547127 61.037949 -19.378252 4278255360
8.719038 60.905121 -19.050377 4278255360
8.8714914 61.05817 -19.118109 4278255360
8.895359 61.225929 -19.023035 4278255360
8.9819298 61.036335 -19.367554 4278255360
6.9173198 73.004097 -19.80299 4278255360
6.922071 72.532242 -19.721861 4278255360
7.1048245 72.699608 -19.642641 4278255360
7.2221918 72.67675 -19.861324 4278255360
7.3677011 72.983826 -19.981928 4278255360
7.5385122 72.987267 -19.941423 4278255360
7.5553937 72.67942 -19.82119 4278255360
7.667273 72.811989 -20.084837 4278255360
7.9010506 73.004372 -19.760078 4278255360
7.9164271 72.853783 -19.66663 4278255360
8.1929092 72.986717 -19.919926 4278255360
8.713192 73.00061 -19.763414 4278255360
7.96909 61.028675 -19.551064 4278255360
8.0323315 61.212059 -19.265465 4278255360
8.1564522 61.195534 -19.45005 4278255360
8.221302 60.904877 -19.099165 4278255360
8.3062792 61.189281 -19.510622 4278255360
8.3254375 61.038715 -19.399193 4278255360
8.6547127 61.037949 -19.378252 4278255360
8.719038 60.905121 -19.050377 4278255360
8.8714914 61.05817 -19.118109 4278255360
8.895359 61.225929 -19.023035 4278255360
8.9819298 61.036335 -19.367554 4278255360
9.3299685 61.201172 -19.277063 4278255360
9.5361071 61.058784 -19.050137 4278255360
9.6855869 61.21069 -19.132063 4278255360
9.7300224 61.06982 -18.901249 4278255360
10.067579 61.072075 -18.843582 4278255360
7.9010506 73.004372 -19.760078 4278255360
7.9011087 73.953026 -19.875549 4278255360
7.9164271 72.853783 -19.66663 4278255360
7.9269118 73.333359 -19.673964 4278255360
7.9403262 73.498138 -19.628576 4278255360
8.0194941 73.298187 -20.011002 4278255360
8.1271658 73.825836 -19.550339 4278255360
8.1317329 73.98629 -19.547634 4278255360
8.1929092 72.986717 -19.919926 4278255360
8.1951847 73.304016 -19.947521 4278255360
8.2785254 73.661423 -19.58523 4278255360
8.2854996 73.190285 -19.493832 4278255360
8.4228745 73.809898 -19.692293 4278255360
8.5793123 73.489861 -19.683418 4278255360
8.5881739 73.336037 -19.621639 4278255360
8.6181393 73.192528 -19.458601 4278255360
8.713192 73.00061 -19.763414 4278255360
8.8602142 73.783005 -19.934231 4278255360
8.8969593 73.168427 -19.681417 4278255360
8.9007292 73.328453 -19.682621 4278255360
9.0948801 73.65966 -19.57056 4278255360
9.0992908 73.345352 -19.510998 4278255360
9.2039967 73.47451 -19.807154 4278255360
9.2102928 73.793953 -19.815546 4278255360
9.2275982 73.169662 -19.656031 4278255360
9.2585182 73.975922 -19.604582 4278255360
9.2679005 73.66407 -19.521332 4278255360
9.5361719 73.792923 -19.812971 4278255360
9.5387897 73.1614 -19.723669 4278255360
9.5958977 73.980515 -19.547808 4278255360
9.7275028 73.331596 -19.619173 4278255360
9.7419062 73.971634 -19.627493 4278255360
9.7589302 73.188606 -19.450493 4278255360
9.8781023 73.799721 -19.734465 4278255360
9.8864412 73.329071 -19.63727 4278255360
9.8919811 73.490021 -19.630156 4278255360
10.067477 73.653831 -19.588947 4278255360
10.099175 73.194344 -19.380987 4278255360
8.9819298 61.036335 -19.367554 4278255360
9.3299685 61.201172 -19.277063 4278255360
9.5361071 61.058784 -19.050137 4278255360
9.6855869 61.21069 -19.132063 4278255360
9.7300224 61.06982 -18.901249 4278255360
10.067579 61.072075 -18.843582 4278255360
10.233699 60.913712 -18.808357 4278255360
10.368583 61.218395 -18.97888 4278255360
10.541791 61.221245 -18.929367 4278255360
10.588379 61.081013 -18.689713 4278255360
10.665718 61.204807 -19.112949 4278255360
10.881539 61.065842 -18.843214 4278255360
10.981194 61.040016 -19.141008 4278255360
11.050077 61.225285 -18.835442 4278255360
8.9007292 73.328453 -19.682621 4278255360
9.0948801 73.65966 -19.57056 4278255360
9.0992908 73.345352 -19.510998 4278255360
9.2039967 73.47451 -19.807154 4278255360
9.2102928 73.793953 -19.815546 4278255360
9.2275982 73.169662 -19.656031 4278255360
9.2585182 73.975922 -19.604582 4278255360
9.2679005 73.66407 -19.521332 4278255360
9.5361719 73.792923 -19.812971 4278255360
9.5387897 73.1614 -19.723669 4278255360
9.5958977 73.980515 -19.547808 4278255360
9.7275028 73.331596 -19.619173 4278255360
9.7419062 73.971634 -19.627493 4278255360
9.7589302 73.188606 -19.450493 4278255360
9.8781023 73.799721 -19.734465 4278255360
9.8864412 73.329071 -19.63727 4278255360
9.8919811 73.490021 -19.630156 4278255360
10.067477 73.653831 -19.588947 4278255360
10.099175 73.194344 -19.380987 4278255360
10.238324 73.498802 -19.531614 4278255360
10.257411 73.824707 -19.479548 4278255360
10.541576 73.803169 -19.675838 4278255360
10.604182 73.358604 -19.322437 4278255360
10.606202 73.201218 -19.293718 4278255360
10.612196 73.679222 -19.32291 4278255360
10.688926 73.478447 -19.710564 4278255360
10.706253 73.645134 -19.647926 4278255360
10.753916 73.034851 -19.346283 4278255360
10.928311 73.356445 -19.330423 4278255360
10.947708 73.048988 -19.200649 4278255360
11.018054 73.953659 -19.751625 4278255360
11.063298 73.183945 -19.442879 4278255360
11.089437 73.671661 -19.377226 4278255360
10.067579 61.072075 -18.843582 4278255360
10.233699 60.913712 -18.808357 4278255360
10.368583 61.218395 -18.97888 4278255360
10.541791 61.221245 -18.929367 4278255360
10.588379 61.081013 -18.689713 4278255360
10.665718 61.204807 -19.112949 4278255360
10.881539 61.065842 -18.843214 4278255360
10.981194 61.040016 -19.141008 4278255360
11.050077 61.225285 -18.835442 4278255360
11.163502 61.204781 -19.068134 4278255360
11.372752 61.221611 -18.84968 4278255360
11.575464 61.235851 -18.662544 4278255360
11.677399 61.369392 -18.967848 4278255360
11.705427 60.904781 -18.778927 4278255360
11.909426 61.553608 -18.662987 4278255360
11.945768 61.250576 -18.454424 4278255360
12.019432 61.373234 -18.891703 4278255360
12.033232 61.061543 -18.78887 4278255360
10.753916 73.034851 -19.346283 4278255360
10.947708 73.048988 -19.200649 4278255360
11.236316 73.029732 -19.376223 4278255360
11.430994 73.044228 -19.227146 4278255360
11.766964 72.730675 -19.142242 4278255360
11.947562 72.896782 -19.079205 4278255360
10.981194 61.040016 -19.141008 4278255360
11.050077 61.225285 -18.835442 4278255360
11.163502 61.204781 -19.068134 4278255360
11.372752 61.221611 -18.84968 4278255360
11.575464 61.235851 -18.662544 4278255360
11.677399 61.369392 -18.967848 4278255360
11.705427 60.904781 -18.778927 4278255360
11.909426 61.553608 -18.662987 4278255360
11.945768 61.250576 -18.454424 4278255360
12.019432 61.373234 -18.891703 4278255360
12.033232 61.061543 -18.78887 4278255360
12.237134 61.393246 -18.635685 4278255360
12.245381 61.237854 -18.578011 4278255360
12.36677 60.903412 -18.734114 4278255360
12.428639 61.561665 -18.52177 4278255360
12.59411 61.561367 -18.510504 4278255360
12.600963 61.246746 -18.440325 4278255360
12.611846 61.885544 -18.466049 4278255360
12.716242 61.38567 -18.682051 4278255360
12.953469 61.889111 -18.394314 4278255360
12.998125 61.207581 -18.868357 4278255360
13.052215 61.069744 -18.597994 4278255360
13.067586 61.710186 -18.602942 4278255360
13.07174 72.090851 -19.066097 4278255360
10.947708 73.048988 -19.200649 4278255360
11.236316 73.029732 -19.376223 4278255360
11.430994 73.044228 -19.227146 4278255360
11.766964 72.730675 -19.142242 4278255360
11.947562 72.896782 -19.079205 4278255360
12.145167 72.59539 -18.879576 4278255360
12.266431 72.574913 -19.075127 4278255360
12.274607 72.737289 -19.056053 4278255360
12.375007 72.865395 -19.367611 4278255360
12.602247 72.736534 -19.049547 4278255360
12.605274 73.055023 -19.073622 4278255360
12.654596 72.919823 -18.824806 4278255360
12.956934 72.907059 -18.936768 4278255360
13.077958 72.886475 -19.132544 4278255360
13.084672 72.413986 -19.044201 4278255360
11.909426 61.553608 -18.662987 4278255360
11.945768 61.250576 -18.454424 4278255360
12.019432 61.373234 -18.891703 4278255360
12.033232 61.061543 -18.78887 4278255360
12.237134 61.393246 -18.635685 4278255360
12.245381 61.237854 -18.578011 4278255360
12.36677 60.903412 -18.734114 4278255360
12.428639 61.561665 -18.52177 4278255360
12.59411 61.561367 -18.510504 4278255360
12.600963 61.246746 -18.440325 4278255360
12.611846 61.885544 -18.466049 4278255360
12.716242 61.38567 -18.682051 4278255360
12.953469 61.889111 -18.394314 4278255360
12.998125 61.207581 -18.868357 4278255360
13.052215 61.069744 -18.597994 4278255360
13.067586 61.710186 -18.602942 4278255360
13.233223 62.027218 -18.629324 4278255360
13.248174 61.557076 -18.502722 4278255360
13.258832 61.878532 -18.491436 4278255360
13.37186 61.540619 -18.685532 4278255360
13.373292 61.223911 -18.640755 4278255360
13.386907 61.070477 -18.558584 4278255360
13.394835 62.025417 -18.636282 4278255360
13.452641 61.413059 -18.292116 4278255360
13.474262 61.738865 -18.230089 4278255360
13.627938 62.368866 -18.35058 4278255360
13.690237 61.852383 -18.759909 4278255360
13.701902 61.06366 -18.61071 4278255360
13.727979 61.549648 -18.547337 4278255360
13.748037 61.398666 -18.435547 4278255360
13.772971 62.519264 -18.453718 4278255360
13.802734 62.054691 -18.258965 4278255360
13.836989 61.210346 -18.759312 4278255360
13.87495 62.176815 -18.698317 4278255360
13.925559 61.72036 -18.40752 4278255360
