# .PCD v0.7 - Point Cloud Data file format
VERSION 0.7
FIELDS x y z rgb
SIZE 4 4 4 4
TYPE F F F U
COUNT 1 1 1 1
WIDTH 1120
HEIGHT 1
VIEWPOINT 0 0 0 1 0 0 0
POINTS 1120
DATA ascii
-28.881725 7.2310591 -20.938328 4294967295
-28.851498 8.7904978 -20.954815 4294967295
-28.76218 7.6962471 -21.260321 4294967295
-28.755644 8.6316366 -21.348244 4294967295
-28.751472 6.6042504 -21.034414 4294967295
-28.751448 5.9802589 -20.946289 4294967295
-28.751347 9.4110765 -21.429222 4294967295
-28.750334 6.4482212 -21.004763 4294967295
-28.746511 9.0992661 -21.352774 4294967295
-28.74132 7.8517532 -21.142033 4294967295
-28.741051 8.3195963 -21.206169 4294967295
-28.740692 7.22786 -21.049875 4294967295
-28.723825 6.7593508 -20.870474 4294967295
-28.723429 9.7228374 -21.285538 4294967295
-28.716644 7.3832331 -20.910149 4294967295
-28.715881 6.9151349 -20.839035 4294967295
-28.698637 8.9429646 -21.008987 4294967295
-28.62141 5.9776692 -21.131426 4294967295
-28.616247 5.8214798 -21.074793 4294967295
-28.612358 8.0046272 -21.356197 4294967295
-28.566841 9.2515078 -21.226429 4294967295
-28.559191 9.5633688 -21.219015 4294967295
-28.551537 8.6275158 -21.035847 4294967295
-28.539185 7.6911993 -20.821098 4294967295
-28.425503 7.3765635 -21.072083 4294967295
-28.424934 5.9723978 -20.870661 4294967295
-28.422356 6.9084721 -20.985134 4294967295
-28.422068 8.0004158 -21.136877 4294967295
-28.413031 6.7521591 -20.900675 4294967295
-28.411747 7.6882329 -21.023811 4294967295
-28.396996 9.2478962 -21.144512 4294967295
-28.390066 9.0918779 -21.076138 4294967295
-28.380312 8.7797937 -20.966885 4294967295
-28.3764 8.1556225 -20.85284 4294967295
-28.36904 8.9357128 -20.913322 4294967295
-28.319351 6.5945954 -21.306873 4294967295
-28.302567 6.2820854 -21.150698 4294967295
-28.298805 6.7498765 -21.191328 4294967295
-28.289566 5.9695921 -21.019814 4294967295
-28.266869 8.4647551 -21.218937 4294967295
-28.258226 6.4364977 -20.875927 4294967295
-28.256205 9.5563135 -21.30113 4294967295
-28.234007 9.7122498 -21.174623 4294967295
-28.225121 7.3718491 -20.786093 4294967295
-28.20689 9.4002113 -20.949429 4294967295
-28.118746 9.3968954 -21.413895 4294967295
-28.114229 5.809123 -20.879616 4294967295
-28.101711 8.6170416 -21.190609 4294967295
-28.099049 8.3050432 -21.128998 4294967295
-28.098696 7.2129688 -20.97319 4294967295
-28.093241 6.2764869 -20.805191 4294967295
-28.089052 8.9288721 -21.149925 4294967295
-28.083046 7.8367276 -20.956366 4294967295
-28.080296 7.5245848 -20.894157 4294967295
-28.0802 9.2407827 -21.134661 4294967295
-28.07436 6.1196818 -20.657124 4294967295
-28.070833 9.5527306 -21.115963 4294967295
-28.061916 7.3680701 -20.74947 4294967295
-28.007168 5.9635081 -21.239145 4294967295
-27.988928 7.3665609 -21.314579 4294967295
-27.981604 6.2744956 -21.112444 4294967295
-27.98089 7.6782761 -21.304783 4294967295
-27.962648 8.613678 -21.314558 4294967295
-27.958977 6.585731 -21.005365 4294967295
-27.95365 6.8976173 -21.013647 4294967295
-27.943821 9.3932924 -21.298552 4294967295
-27.939142 7.5213399 -21.004547 4294967295
-27.894537 8.4568119 -20.838646 4294967295
-27.792118 9.7016554 -21.381937 4294967295
-27.788412 6.7376776 -20.941465 4294967295
-27.780212 9.2337532 -21.237093 4294967295
-27.77706 8.9217634 -21.172354 4294967295
-27.776842 7.9857039 -21.039583 4294967295
-27.774569 7.3614945 -20.936884 4294967295
-27.769474 5.9565816 -20.705904 4294967295
-27.762915 6.5807667 -20.749828 4294967295
-27.761562 9.545661 -21.156773 4294967295
-27.758986 5.8000264 -20.614161 4294967295
-27.758446 8.1414185 -20.939047 4294967295
-27.75102 8.6094618 -20.955313 4294967295
-27.673532 6.4233837 -21.182394 4294967295
-27.667433 5.9551144 -21.076246 4294967295
-27.639917 8.6064262 -21.26516 4294967295
-27.638821 6.8903093 -21.017321 4294967295
-27.632772 7.3582535 -21.042751 4294967295
-27.630159 7.6702523 -21.069122 4294967295
-27.623953 6.2655535 -20.830999 4294967295
-27.49625 8.1351023 -21.292578 4294967295
-27.476349 8.2907753 -21.182426 4294967295
-27.464472 5.7934766 -20.753889 4294967295
-27.452446 7.0418739 -20.84902 4294967295
-27.45039 6.1051531 -20.704182 4294967295
-27.448645 9.5385838 -21.173523 4294967295
-27.440351 8.6023493 -20.987404 4294967295
-27.429659 7.19735 -20.719713 4294967295
-27.420296 9.0703487 -20.919983 4294967295
-27.406715 9.226346 -20.851782 4294967295
-27.353798 6.4158607 -21.15325 4294967295
-27.339682 7.5075397 -21.212614 4294967295
-27.334517 6.5712333 -21.047379 4294967295
-27.327875 9.2231951 -21.374582 4294967295
-27.320932 7.9751835 -21.153961 4294967295
-27.31015 7.3507886 -20.995197 4294967295
-27.309114 8.4430571 -21.141216 4294967295
-27.30007 6.2578583 -20.775517 4294967295
-27.296638 9.0670166 -21.145969 4294967295
-27.28569 6.7257242 -20.745819 4294967295
-27.280912 9.3789921 -21.085529 4294967295
-27.17342 8.4397631 -21.286938 4294967295
-27.170441 5.7869444 -20.896254 4294967295
-27.124262 8.7512369 -21.005657 4294967295
-27.117891 7.0340166 -20.723417 4294967295
-27.117186 9.6875153 -21.089836 4294967295
-27.114689 7.8145618 -20.811409 4294967295
-27.111841 9.2193375 -20.989046 4294967295
-27.102381 8.9071121 -20.882875 4294967295
-27.09271 9.5314255 -20.906273 4294967295
-27.03573 6.8764911 -21.201103 4294967295
-27.034056 5.7841215 -21.037413 4294967295
-27.010664 7.6559896 -21.144678 4294967295
-27.009356 7.3438721 -21.092436 4294967295
-27.008215 5.9391475 -20.888609 4294967295
-26.996389 6.2509065 -20.854164 4294967295
-26.995415 6.5630846 -20.891354 4294967295
-26.994726 9.6839876 -21.322918 4294967295
-26.994268 8.1237984 -21.101889 4294967295
-26.9862 7.1871982 -20.917789 4294967295
-26.956053 9.0597162 -20.98057 4294967295
-26.947351 8.27913 -20.8141 4294967295
-26.817768 8.2759571 -21.000315 4294967295
-26.802404 8.587923 -20.942684 4294967295
-26.794125 9.3682928 -20.99712 4294967295
-26.794071 7.1826258 -20.691591 4294967295
-26.790331 7.9632783 -20.775961 4294967295
-26.776684 9.5243359 -20.904039 4294967295
-26.774084 8.7437248 -20.777929 4294967295
-26.680759 7.6484165 -21.050062 4294967295
-26.672562 6.0870714 -20.77833 4294967295
-26.671844 8.89676 -21.165625 4294967295
-26.667679 6.8675776 -20.855118 4294967295
-26.664633 9.5208807 -21.205276 4294967295
-26.660465 8.1162739 -20.981909 4294967295
-26.654261 6.3987074 -20.701475 4294967295
-26.635178 7.8035688 -20.77202 4294967295
-26.617756 8.2717133 -20.722801 4294967295
-26.610603 9.3646479 -20.828253 4294967295
-26.542711 6.0844417 -20.962217 4294967295
-26.525358 6.5521531 -20.913521 4294967295
-26.517071 8.26898 -21.098469 4294967295
-26.490452 8.5807905 -20.967222 4294967295
-26.472618 7.799849 -20.741302 4294967295
-26.4676 8.4243755 -20.795427 4294967295
-26.441338 9.5172052 -20.775394 4294967295
-26.402153 5.7692204 -21.031878 4294967295
-26.381794 7.4854531 -21.13756 4294967295
-26.378265 8.265667 -21.223125 4294967295
-26.37159 6.2363596 -20.896681 4294967295
-26.359716 7.6410356 -21.014565 4294967295
-26.358934 6.5481839 -20.857203 4294967295
-26.357737 8.5775013 -21.13204 4294967295
-26.353729 9.2017078 -21.19273 4294967295
-26.351559 6.8602285 -20.852337 4294967295
-26.351429 9.6698389 -21.24287 4294967295
-26.341398 6.0790696 -20.676941 4294967295
-26.331221 5.9224749 -20.588427 4294967295
-26.318794 8.7331667 -20.898546 4294967295
-26.317598 7.3277688 -20.694927 4294967295
-26.313896 8.8892479 -20.888186 4294967295
-26.243383 6.5459132 -21.134188 4294967295
-26.226994 7.9500694 -21.222424 4294967295
-26.191813 5.7633152 -20.687889 4294967295
-26.17869 9.0419655 -21.058411 4294967295
-26.150711 9.1979055 -20.897093 4294967295
-26.135839 8.8854971 -20.756317 4294967295
-26.070114 5.9172344 -20.946278 4294967295
-26.06764 5.7609978 -20.908392 4294967295
-26.066341 7.9463997 -21.203871 4294967295
-26.065443 6.3854394 -20.980888 4294967295
-26.05751 7.6340656 -21.10276 4294967295
-26.052364 6.8533878 -20.960569 4294967295
-26.051027 9.0386095 -21.255774 4294967295
-26.043091 6.6969638 -20.878241 4294967295
-26.031555 7.4773622 -20.911451 4294967295
-26.027143 7.0087948 -20.817465 4294967295
-26.020264 9.350585 -21.098248 4294967295
-26.012381 9.6627512 -21.090176 4294967295
-26.011127 6.2273231 -20.604166 4294967295
-25.997087 8.7259388 -20.860006 4294967295
-25.995049 8.1012554 -20.759802 4294967295
-25.99082 8.2573652 -20.753899 4294967295
-25.980587 9.1942778 -20.817379 4294967295
-25.87991 8.7227764 -21.125807 4294967295
-25.874575 7.6298842 -20.939125 4294967295
-25.832954 9.6592007 -20.949799 4294967295
-25.816818 8.4097223 -20.670929 4294967295
-25.813124 7.9410105 -20.581701 4294967295
-25.792688 9.5029764 -20.665546 4294967295
-25.751352 6.690371 -21.034933 4294967295
-25.748962 6.2218904 -20.954311 4294967295
-25.734579 6.5336866 -20.90399 4294967295
-25.728592 7.7826343 -21.038475 4294967295
-25.728071 6.8457913 -20.904976 4294967295
-25.717609 9.0313482 -21.140388 4294967295
-25.714373 8.2507553 -21.010921 4294967295
-25.712654 7.4700065 -20.891312 4294967295
-25.701443 8.7189798 -20.991777 4294967295
-25.683193 9.6556635 -21.003075 4294967295
-25.663078 8.874774 -20.763695 4294967295
-25.650364 8.5622311 -20.637526 4294967295
-25.630476 9.186964 -20.594828 4294967295
-25.591888 6.0620689 -20.93796 4294967295
-25.554605 7.934834 -20.955564 4294967295
-25.548782 7.778564 -20.896027 4294967295
-25.546247 5.7478533 -20.597759 4294967295
-25.526844 9.1836977 -20.948446 4294967295
-25.479616 8.7147303 -20.576464 4294967295
-25.423838 6.2141495 -20.893751 4294967295
-25.415642 7.4631639 -21.013762 4294967295
-25.414913 5.7452354 -20.770821 4294967295
-25.404707 7.7752161 -20.986097 4294967295
-25.398956 8.5558214 -21.05703 4294967295
-25.393845 5.9005971 -20.655685 4294967295
-25.377647 6.0562086 -20.572172 4294967295
-25.376799 8.0870295 -20.84827 4294967295
-25.373323 6.6810436 -20.630764 4294967295
-25.368113 7.6182642 -20.726917 4294967295
-25.362318 6.8369493 -20.58098 4294967295
-25.355488 7.3055072 -20.601643 4294967295
-25.339632 9.4923716 -20.802002 4294967295
-25.339285 9.0237617 -20.734781 4294967295
-25.312653 9.1798229 -20.583628 4294967295
-25.247196 6.9907494 -20.880705 4294967295
-25.226582 9.0205135 -21.028414 4294967295
-25.222225 7.3024769 -20.762156 4294967295
-25.2194 6.3650017 -20.613968 4294967295
-25.216646 9.1766005 -20.985687 4294967295
-25.209446 5.739542 -20.46282 4294967295
-25.209099 9.6450367 -21.001709 4294967295
-25.205708 8.7079954 -20.849911 4294967295
-25.200834 8.2393255 -20.753418 4294967295
-25.198669 7.1456308 -20.587847 4294967295
-25.196964 9.3326759 -20.879827 4294967295
-25.183201 7.926558 -20.595869 4294967295
-25.17709 7.7701769 -20.534609 4294967295
-25.17016 8.3951168 -20.576317 4294967295
-25.137697 9.4887199 -20.517582 4294967295
-25.084135 6.986939 -20.847754 4294967295
-25.073793 6.049253 -20.651058 4294967295
-25.070557 6.6741009 -20.716635 4294967295
-25.064169 8.2360449 -20.891586 4294967295
-25.061905 5.8925285 -20.552479 4294967295
-25.051193 6.5172219 -20.569704 4294967295
-25.046009 6.8295932 -20.579432 4294967295
-25.045431 7.1420994 -20.618959 4294967295
-25.03941 7.2982011 -20.601641 4294967295
-25.037949 7.6106791 -20.635448 4294967295
-25.037642 8.5480862 -20.763247 4294967295
-25.033339 8.8604755 -20.778679 4294967295
-25.02944 7.7667561 -20.602039 4294967295
-25.019835 7.9228344 -20.561537 4294967295
-25.008787 8.7040005 -20.598257 4294967295
-25.008492 9.3289976 -20.682877 4294967295
-25.001278 9.4852161 -20.65785 4294967295
-24.990101 9.1726532 -20.542303 4294967295
-24.904264 6.5139022 -20.641577 4294967295
-24.891512 8.0759897 -20.775354 4294967295
-24.864027 8.2317877 -20.61948 4294967295
-24.828272 9.6379023 -20.583179 4294967295
-24.760891 6.9793997 -20.80102 4294967295
-24.760252 7.4480343 -20.861694 4294967295
-24.758959 8.5413485 -21.004499 4294967295
-24.751673 6.8228955 -20.719982 4294967295
-24.749891 6.1978049 -20.622076 4294967295
-24.749704 6.0415244 -20.599268 4294967295
-24.739714 7.760026 -20.772449 4294967295
-24.735563 8.228632 -20.810478 4294967295
-24.728224 9.165822 -20.892733 4294967295
-24.725082 7.9159822 -20.699715 4294967295
-24.721352 9.0095692 -20.826845 4294967295
-24.718639 8.6970949 -20.766167 4294967295
-24.718616 7.6033301 -20.614811 4294967295
-24.71748 7.1344604 -20.542669 4294967295
-24.704237 8.0718746 -20.586912 4294967295
-24.699717 5.7268929 -20.233597 4294967295
-24.609194 8.0693293 -20.992859 4294967295
-24.598349 6.3506021 -20.685659 4294967295
-24.585569 9.1623421 -20.991827 4294967295
-24.554466 7.2869687 -20.532639 4294967295
-24.508965 9.4745111 -20.542036 4294967295
-24.447372 6.5034051 -20.752796 4294967295
-24.441059 7.7531147 -20.884739 4294967295
-24.423326 5.8773999 -20.511915 4294967295
-24.418047 6.6587272 -20.585844 4294967295
-24.417707 8.8462963 -20.885624 4294967295
-24.413622 9.3149061 -20.924061 4294967295
-24.411283 7.2836881 -20.62866 4294967295
-24.411007 7.9087691 -20.713167 4294967295
-24.409687 8.2212601 -20.747824 4294967295
-24.406786 7.1272826 -20.57818 4294967295
-24.40033 8.6898928 -20.752398 4294967295
-24.397045 7.5959306 -20.580296 4294967295
-24.393559 8.0647306 -20.62261 4294967295
-24.390324 9.4710531 -20.795944 4294967295
-24.377655 5.7191973 -20.196676 4294967295
-24.363989 8.3768787 -20.475744 4294967295
-24.350159 9.1583347 -20.494753 4294967295
-24.287554 7.4371276 -20.870844 4294967295
-24.267557 6.8115692 -20.656317 4294967295
-24.260895 9.311367 -20.958376 4294967295
-24.249325 6.3420601 -20.474617 4294967295
-24.219069 8.6860571 -20.603882 4294967295
-24.126848 6.9646721 -20.789354 4294967295
-24.124495 7.9020696 -20.903477 4294967295
-24.103525 5.8698158 -20.489113 4294967295
-24.1001 6.4949894 -20.553345 4294967295
-24.097811 8.2141018 -20.775627 4294967295
-24.096655 7.588994 -20.682068 4294967295
-24.095686 6.8074789 -20.568151 4294967295
-24.087564 7.2761874 -20.580751 4294967295
-24.081839 9.3077183 -20.82408 4294967295
-24.076731 7.7448707 -20.575983 4294967295
-24.066952 8.6825294 -20.642591 4294967295
-24.062593 8.5261803 -20.59314 4294967295
-24.052629 8.994998 -20.593958 4294967295
-24.048367 9.4638777 -20.631279 4294967295
-24.03606 9.7764664 -20.595562 4294967295
-23.952227 7.2731032 -20.726683 4294967295
-23.932541 7.1162949 -20.579243 4294967295
-23.913805 7.8974605 -20.567064 4294967295
-23.80018 6.6444468 -20.679512 4294967295
-23.797367 6.1754231 -20.597002 4294967295
-23.794468 7.7382898 -20.793585 4294967295
-23.792767 6.4878993 -20.610653 4294967295
-23.788864 8.5195017 -20.86533 4294967295
-23.787468 8.0506992 -20.791901 4294967295
-23.782425 8.3631582 -20.802721 4294967295
-23.781313 6.8001781 -20.580524 4294967295
-23.780102 7.1127825 -20.615814 4294967295
-23.771856 5.7053871 -20.369501 4294967295
-23.764708 9.6131039 -20.861658 4294967295
-23.75568 7.2684813 -20.481375 4294967295
-23.753819 8.8316774 -20.684624 4294967295
-23.731583 8.9878063 -20.564203 4294967295
-23.593479 5.7008247 -20.240864 4294967295
-23.591066 8.0464239 -20.548052 4294967295
-23.590504 9.296957 -20.716429 4294967295
-23.588358 6.3262711 -20.294239 4294967295
-23.584433 8.6716642 -20.59177 4294967295
-23.578045 8.2025585 -20.486553 4294967295
-23.57419 6.6386199 -20.24692 4294967295
-23.552536 9.609499 -20.51749 4294967295
-23.481703 5.8553519 -20.558271 4294967295
-23.468674 7.7308245 -20.733112 4294967295
-23.466375 8.1996632 -20.782919 4294967295
-23.45993 6.7926669 -20.548578 4294967295
-23.457603 6.0107784 -20.426327 4294967295
-23.451544 7.8868008 -20.645575 4294967295
-23.450651 8.5120325 -20.725807 4294967295
-23.443405 7.2612662 -20.507843 4294967295
-23.440208 8.8245287 -20.702324 4294967295
-23.435225 6.3227448 -20.326838 4294967295
-23.431097 9.2933865 -20.708792 4294967295
-23.426445 7.104454 -20.378399 4294967295
-23.41367 7.5733171 -20.361561 4294967295
-23.4121 9.1369667 -20.566446 4294967295
-23.411688 6.4783645 -20.19849 4294967295
-23.409773 6.6347361 -20.207794 4294967295
-23.403593 9.6059561 -20.576767 4294967295
-23.311359 7.1019392 -20.652777 4294967295
-23.27903 8.1955948 -20.59762 4294967295
-23.277632 7.8828764 -20.545801 4294967295
-23.265621 8.6644497 -20.576838 4294967295
-23.261026 5.6927028 -20.139591 4294967295
-23.240505 9.1333141 -20.481705 4294967295
-23.164093 5.6914911 -20.52911 4294967295
-23.150372 6.9418564 -20.613672 4294967295
-23.146885 6.1599398 -20.484282 4294967295
-23.134655 7.4104953 -20.578321 4294967295
-23.133343 7.5668168 -20.591455 4294967295
-23.124701 6.7847414 -20.429344 4294967295
-23.120323 7.879262 -20.551762 4294967295
-23.109812 8.1918077 -20.528002 4294967295
-23.109371 6.4714408 -20.289148 4294967295
-23.105835 6.6277533 -20.288174 4294967295
-23.10507 9.5988722 -20.69099 4294967295
-23.101398 9.4425344 -20.646267 4294967295
-23.096107 8.8171015 -20.526896 4294967295
-23.095062 9.2861691 -20.584627 4294967295
-23.082333 7.7221274 -20.289312 4294967295
-23.069319 8.3476067 -20.29262 4294967295
-23.069115 8.6604433 -20.334249 4294967295
-23.056042 9.7552156 -20.40156 4294967295
-22.958351 6.1551285 -20.292372 4294967295
-22.886114 9.438817 -20.285305 4294967295
-22.831516 5.683363 -20.427177 4294967295
-22.820692 5.9957542 -20.401569 4294967295
-22.818331 7.0904455 -20.536623 4294967295
-22.803015 9.2791414 -20.739695 4294967295
-22.79846 7.7155113 -20.496672 4294967295
-22.793684 6.1511846 -20.252161 4294967295
-22.793024 6.7769217 -20.333717 4294967295
-22.77552 7.2457461 -20.287319 4294967295
-22.774702 8.0278692 -20.389307 4294967295
-22.772343 8.9662447 -20.502966 4294967295
-22.770578 9.5917444 -20.577503 4294967295
-22.764156 8.4969597 -20.38693 4294967295
-22.75486 8.3404121 -20.306717 4294967295
-22.753218 8.1839476 -20.2749 4294967295
-22.735889 9.435277 -20.336824 4294967295
-22.730762 9.1223793 -20.261545 4294967295
-22.6724 6.4615989 -20.528954 4294967295
-22.640495 5.6782846 -20.220387 4294967295
-22.636551 7.242569 -20.40967 4294967295
-29.580606 15.668862 -21.526472 4294967295
-29.578218 16.136425 -21.576477 4294967295
-29.564468 16.449015 -21.527367 4294967295
-29.555866 14.891163 -21.248344 4294967295
-29.543386 14.268229 -21.075375 4294967295
-29.537394 10.831191 -21.617508 4294967295
-29.522821 11.298813 -21.584906 4294967295
-29.513994 11.922204 -21.613297 4294967295
-29.50378 13.013015 -21.698431 4294967295
-29.501976 11.766675 -21.509817 4294967295
-29.494135 10.987594 -21.346403 4294967295
-29.409662 16.133966 -21.502066 4294967295
-29.399225 14.576038 -21.210861 4294967295
-29.39492 16.446678 -21.446377 4294967295
-29.393343 13.796755 -21.060709 4294967295
-29.39241 14.108656 -21.098528 4294967295
-29.38707 9.892767 -21.533594 4294967295
-29.385933 10.671844 -21.636072 4294967295
-29.382877 15.044652 -21.166346 4294967295
-29.379719 10.516096 -21.572002 4294967295
-29.379709 10.360276 -21.549904 4294967295
-29.376886 15.512722 -21.191977 4294967295
-29.374456 10.827784 -21.580463 4294967295
-29.364115 15.825361 -21.149637 4294967295
-29.362272 11.295414 -21.564146 4294967295
-29.352341 14.734507 -20.915466 4294967295
-29.352068 16.293928 -21.134275 4294967295
-29.344439 12.074894 -21.553682 4294967295
-29.342026 12.386592 -21.581429 4294967295
-29.341562 15.203035 -20.908695 4294967295
-29.340967 10.048765 -21.243679 4294967295
-29.332613 11.451795 -21.385548 4294967295
-29.323217 13.477912 -21.608467 4294967295
-29.310287 12.855095 -21.432899 4294967295
-29.302668 12.543622 -21.337294 4294967295
-29.243963 15.975458 -21.425274 4294967295
-29.223864 13.637977 -20.958754 4294967295
-29.210424 14.730341 -21.022272 4294967295
-29.179556 16.447706 -21.056183 4294967295
-29.1723 14.576414 -20.742512 4294967295
-29.171696 10.513053 -21.230629 4294967295
-29.162649 15.513041 -20.809633 4294967295
-29.152323 11.760586 -21.276024 4294967295
-29.140114 13.163889 -21.391811 4294967295
-29.136028 12.540504 -21.276138 4294967295
-29.104465 13.321157 -21.173218 4294967295
-29.101517 15.19197 -21.417595 4294967295
-29.084261 13.477905 -21.058867 4294967295
-29.080679 15.816738 -21.365093 4294967295
-29.067757 13.94649 -21.013573 4294967295
-29.059948 14.570699 -21.049006 4294967295
-29.054766 14.259044 -20.969975 4294967295
-29.053583 16.13036 -21.226351 4294967295
-29.052816 11.44423 -21.623598 4294967295
-29.050447 14.727166 -21.006937 4294967295
-29.048901 10.509256 -21.465187 4294967295
-29.044653 10.04167 -21.370523 4294967295
-29.038446 14.103851 -20.837799 4294967295
-29.038309 10.976953 -21.459785 4294967295
-29.032969 16.599592 -21.153378 4294967295
-29.031082 11.912179 -21.543081 4294967295
-29.025005 11.28889 -21.414114 4294967295
-29.02195 9.885829 -21.195415 4294967295
-29.020525 12.84746 -21.60392 4294967295
-29.015482 15.665095 -20.903225 4294967295
-29.014946 10.19771 -21.192213 4294967295
-29.011412 12.380238 -21.476507 4294967295
-29.009956 15.041428 -20.777794 4294967295
-29.009005 15.977497 -20.90361 4294967295
-28.988564 12.536793 -21.344526 4294967295
-28.981104 11.601525 -21.16217 4294967295
-28.972149 12.69321 -21.255903 4294967295
-28.945713 15.188584 -21.429886 4294967295
-28.914324 15.034539 -21.196457 4294967295
-28.88768 15.815837 -21.127058 4294967295
-28.881435 14.568491 -20.908871 4294967295
-28.879322 10.34998 -21.362148 4294967295
-28.863184 10.50601 -21.275503 4294967295
-28.85216 14.882113 -20.755707 4294967295
-28.845135 11.597636 -21.307991 4294967295
-28.841915 11.285872 -21.242327 4294967295
-28.792942 13.00241 -21.154768 4294967295
-28.759304 15.498842 -21.280422 4294967295
-28.756605 15.031255 -21.196301 4294967295
-28.75621 13.471708 -20.973667 4294967295
-28.754332 14.095695 -21.049034 4294967295
-28.748444 13.628021 -20.943436 4294967295
-28.747137 14.407982 -21.044653 4294967295
-28.746908 13.78408 -20.955109 4294967295
-28.741779 16.435453 -21.294538 4294967295
-28.738729 11.281484 -21.60808 4294967295
-28.735275 14.252598 -20.942879 4294967295
-28.730629 14.564816 -20.955637 4294967295
-28.724627 15.96889 -21.11326 4294967295
-28.722965 16.280891 -21.146076 4294967295
-28.721537 11.593496 -21.536499 4294967295
-28.719868 16.592989 -21.169249 4294967295
-28.718063 10.502409 -21.359369 4294967295
-28.715776 10.970115 -21.409924 4294967295
-28.714399 10.034698 -21.268816 4294967295
-28.713869 15.345714 -20.952938 4294967295
-28.711975 14.877829 -20.874199 4294967295
-28.710762 12.061308 -21.530025 4294967295
-28.708435 10.346574 -21.272694 4294967295
-28.69927 10.658501 -21.255058 4294967295
-28.694033 12.685223 -21.505531 4294967295
-28.681349 10.81464 -21.15662 4294967295
-28.681133 12.217968 -21.352978 4294967295
-28.666466 11.126759 -21.100595 4294967295
-28.665773 12.374309 -21.271774 4294967295
-28.622581 15.650137 -21.443182 4294967295
-28.616577 12.843715 -21.007303 4294967295
-28.599695 13.936247 -21.047819 4294967295
-28.598047 14.872078 -21.168642 4294967295
-28.542763 15.499269 -20.885468 4294967295
-28.535366 15.811772 -20.879795 4294967295
-28.503906 11.903195 -21.177637 4294967295
-28.495821 12.527201 -21.211269 4294967295
-28.482311 13.151426 -21.208536 4294967295
-28.481129 11.747745 -21.002922 4294967295
-28.427872 15.025447 -21.107197 4294967295
-28.419937 10.183495 -21.429836 4294967295
-28.419107 14.089971 -20.916649 4294967295
-28.41707 13.465952 -20.815104 4294967295
-28.415548 14.714173 -20.980679 4294967295
-28.408571 10.027634 -21.331781 4294967295
-28.40402 10.963124 -21.432947 4294967295
-28.397755 15.96317 -21.03718 4294967295
-28.394882 15.651381 -20.973997 4294967295
-28.394194 12.210371 -21.542643 4294967295
-28.390575 10.33959 -21.255148 4294967295
-28.389343 15.183691 -20.870974 4294967295
-28.387501 11.742894 -21.432035 4294967295
-28.387238 14.403605 -20.746992 4294967295
-28.386547 10.651502 -21.272064 4294967295
-28.384363 11.275238 -21.345207 4294967295
-28.376682 16.432621 -20.961897 4294967295
-28.369522 10.807638 -21.18 4294967295
-28.368179 11.58739 -21.280743 4294967295
-28.365757 12.055224 -21.330343 4294967295
-28.33802 11.120027 -21.012957 4294967295
-28.336731 11.89999 -21.114088 4294967295
-28.311028 12.368628 -21.007874 4294967295
-28.30545 12.524795 -20.992495 4294967295
-28.304537 13.772686 -21.161978 4294967295
-28.278971 16.269127 -21.341997 4294967295
-28.273388 16.581352 -21.348534 4294967295
-28.271757 16.11371 -21.271824 4294967295
-28.27055 13.150064 -20.846718 4294967295
-28.244823 13.931367 -20.784344 4294967295
-28.231558 14.868333 -20.827335 4294967295
-28.223772 15.961018 -20.928926 4294967295
-28.205374 10.024276 -21.027044 4294967295
-28.163473 13.300766 -21.207592 4294967295
-28.162312 12.988883 -21.155964 4294967295
-28.146734 12.209383 -20.942207 4294967295
-28.109978 14.083002 -20.959866 4294967295
-28.100634 13.459262 -20.809694 4294967295
-28.097223 15.175739 -21.028219 4294967295
-28.095898 10.176522 -21.370926 4294967295
-28.095652 13.771582 -20.820293 4294967295
-28.091917 14.239899 -20.861166 4294967295
-28.090143 15.488167 -21.024815 4294967295
-28.087069 13.147641 -20.675167 4294967295
-28.085518 14.396262 -20.840364 4294967295
-28.082552 16.268631 -21.083771 4294967295
-28.081398 15.95673 -21.032207 4294967295
-28.077772 11.112254 -21.381409 4294967295
-28.072594 15.645288 -20.929546 4294967295
-28.07078 10.488576 -21.247103 4294967295
-28.065544 15.801771 -20.904409 4294967295
-28.056028 16.426533 -20.928617 4294967295
-28.055599 14.866042 -20.706364 4294967295
-28.040539 11.736713 -21.220606 4294967295
-28.039198 12.204612 -21.277395 4294967295
-28.035681 10.956896 -21.078613 4294967295
-28.030731 12.048875 -21.198994 4294967295
-28.001011 11.581547 -20.934944 4294967295
-27.99921 12.517706 -21.054455 4294967295
-27.983603 12.986242 -21.016096 4294967295
-27.981316 12.362212 -20.913158 4294967295
-27.976995 12.830449 -20.950106 4294967295
-27.975302 13.298576 -21.004566 4294967295
-27.974529 13.610628 -21.043251 4294967295
-27.97139 14.078764 -21.088066 4294967295
-27.947027 14.860009 -21.035192 4294967295
-27.939777 16.57626 -21.227886 4294967295
-27.935804 9.8611383 -21.310808 4294967295
-27.935434 10.640818 -21.417801 4294967295
-27.920086 13.144601 -20.614355 4294967295
-27.913292 10.952946 -21.314074 4294967295
-27.906267 12.044614 -21.420513 4294967295
-27.889612 11.265226 -21.200111 4294967295
-27.825562 14.542786 -21.233393 4294967295
-27.781509 14.076939 -20.874445 4294967295
-27.781151 12.360007 -20.631027 4294967295
-27.779922 9.8576107 -21.322678 4294967295
-27.777218 13.296762 -20.736326 4294967295
-27.772943 15.949753 -21.080252 4294967295
-27.77129 10.637394 -21.374638 4294967295
-27.770185 16.417927 -21.127584 4294967295
-27.75629 11.57323 -21.406132 4294967295
-27.751238 10.94953 -21.285034 4294967295
-27.750105 11.41741 -21.34313 4294967295
-27.743443 11.105606 -21.255058 4294967295
-27.733755 10.169737 -21.05933 4294967295
-27.728798 10.481806 -21.070131 4294967295
-27.717575 10.793959 -21.039263 4294967295
-27.715963 11.886024 -21.181736 4294967295
-27.68158 12.978999 -21.1063 4294967295
-27.665138 13.135606 -21.018888 4294967295
-27.662378 14.539756 -21.197489 4294967295
-27.657455 12.511686 -20.88027 4294967295
-27.639772 14.852951 -21.091022 4294967295
-27.638275 16.256882 -21.277979 4294967295
-27.632938 13.761065 -20.892412 4294967295
-27.631376 15.47745 -21.122761 4294967295
-27.626434 15.321748 -21.068047 4294967295
-27.61899 10.166012 -21.344788 4294967295
-27.61372 9.8540993 -21.266069 4294967295
-27.613373 13.605824 -20.740471 4294967295
-27.611898 14.698434 -20.883921 4294967295
-27.601231 12.825679 -20.550268 4294967295
-27.583292 14.387741 -20.650036 4294967295
-27.576488 11.570226 -21.259344 4294967295
-27.575006 16.105259 -20.835812 4294967295
-27.569605 15.16906 -20.668573 4294967295
-27.506903 12.039865 -20.863037 4294967295
-27.504253 13.756452 -21.086035 4294967295
-27.486996 16.097235 -21.299479 4294967295
-27.484632 14.225424 -21.021446 4294967295
-27.454399 14.85117 -20.908365 4294967295
-27.449907 13.290462 -20.659786 4294967295
-27.448645 10.630487 -21.326456 4294967295
-27.448423 10.006577 -21.237604 4294967295
-27.446489 16.256031 -21.052715 4294967295
-27.442291 15.788213 -20.959269 4294967295
-27.431555 15.944972 -20.909933 4294967295
-27.430199 15.164691 -20.791574 4294967295
-27.425133 15.633252 -20.823595 4294967295
-27.416498 10.16272 -21.047796 4294967295
-27.414968 11.722839 -21.256166 4294967295
-27.413143 16.570511 -20.875322 4294967295
-27.409595 11.878944 -21.242405 4294967295
-27.362188 11.567904 -20.88452 4294967295
-27.351614 12.816688 -20.989305 4294967295
-27.349297 13.284897 -21.039515 4294967295
-27.347597 14.221091 -21.159357 4294967295
-27.344351 12.660865 -20.919336 4294967295
-27.337368 12.192825 -20.807486 4294967295
-27.336691 12.036744 -20.781136 4294967295
-27.332064 13.909769 -21.012777 4294967295
-27.329567 13.441718 -20.930676 4294967295
-27.310539 15.159176 -21.045029 4294967295
-27.307259 16.563477 -21.219929 4294967295
-27.306543 13.754828 -20.821867 4294967295
-27.305939 12.974328 -20.708557 4294967295
-27.305103 9.8470364 -21.311157 4294967295
-27.300724 14.535507 -20.892614 4294967295
-27.277941 10.627125 -21.24054 4294967295
-27.269363 10.783216 -21.205612 4294967295
-27.269012 16.254166 -20.923037 4294967295
-27.146576 12.034115 -20.567942 4294967295
-27.14592 15.000229 -20.978664 4294967295
-27.128109 12.659304 -20.533194 4294967295
-27.126932 15.313466 -20.89682 4294967295
-27.12644 9.8435402 -21.172802 4294967295
-27.125698 14.064727 -20.713917 4294967295
-27.125456 10.467585 -21.253567 4294967295
-27.12508 12.50322 -20.491304 4294967295
-27.123804 14.845381 -20.81061 4294967295
-27.121191 10.779621 -21.269024 4294967295
-27.119625 16.406385 -21.001379 4294967295
-27.116898 10.155616 -21.153391 4294967295
-27.111528 11.24774 -21.270641 4294967295
-27.10861 16.095026 -20.884907 4294967295
-27.106762 15.470779 -20.785328 4294967295
-27.1056 15.939145 -20.843172 4294967295
-27.098251 13.90983 -20.510574 4294967295
-27.097528 13.597498 -20.462074 4294967295
-27.093735 14.222387 -20.52441 4294967295
-27.085815 15.159776 -20.603161 4294967295
-27.083315 10.311854 -20.953325 4294967295
-27.081408 11.560313 -21.115313 4294967295
-27.048656 11.717045 -20.920815 4294967295
-27.025892 13.746613 -21.05418 4294967295
-27.009703 15.151739 -21.143669 4294967295
-27.002048 12.811022 -20.765808 4294967295
-27.000917 15.77635 -21.172955 4294967295
-26.998865 12.498865 -20.701118 4294967295
-26.995981 15.464613 -21.096746 4294967295
-26.994837 12.342839 -20.652679 4294967295
-26.993896 10.151936 -21.382843 4294967295
-26.989662 14.372553 -20.902296 4294967295
-26.983414 13.280065 -20.708252 4294967295
-26.982029 13.592379 -20.742781 4294967295
-26.981066 12.187051 -20.5399 4294967295
-26.972702 16.246332 -21.052216 4294967295
-26.866817 13.587255 -21.024525 4294967295
-26.819662 13.745337 -20.73554 4294967295
-26.805794 13.277437 -20.578674 4294967295
-26.797781 9.8365011 -21.086569 4294967295
-26.795383 12.965439 -20.466413 4294967295
-26.794094 13.121685 -20.479734 4294967295
-26.793116 14.99572 -20.735107 4294967295
-26.78536 14.683853 -20.640375 4294967295
-26.781153 10.460816 -21.064234 4294967295
-26.779993 15.464895 -20.714088 4294967295
-26.777096 15.308928 -20.673195 4294967295
-26.772343 11.085147 -21.093374 4294967295
-26.771118 16.090002 -20.742872 4294967295
-26.766914 10.304842 -20.948681 4294967295
-26.763514 16.558918 -20.758217 4294967295
-26.740355 10.773391 -20.839193 4294967295
-26.728355 12.334624 -20.978134 4294967295
-26.725771 11.241958 -20.808559 4294967295
-26.709873 12.179026 -20.834698 4294967295
-26.69684 13.116102 -20.879686 4294967295
-26.695564 14.832993 -21.110973 4294967295
-26.69264 12.804018 -20.808456 4294967295
-26.689322 11.711083 -20.63402 4294967295
-26.683014 11.555036 -20.570692 4294967295
-26.678898 13.429011 -20.80521 4294967295
-26.678122 15.146079 -21.039806 4294967295
-26.675882 15.614384 -21.090443 4294967295
-26.67588 16.394564 -21.199327 4294967295
-26.675243 12.648435 -20.672174 4294967295
-26.662971 12.024058 -20.504183 4294967295
-26.655214 14.210693 -20.758373 4294967295
-26.643684 13.742756 -20.617109 4294967295
-26.636879 13.586863 -20.550531 4294967295
-26.636709 10.301158 -21.130552 4294967295
-26.617746 15.93031 -20.751667 4294967295
-26.614674 14.36883 -20.51346 4294967295
-26.606619 11.237861 -21.063393 4294967295
-26.601736 9.9891472 -20.857088 4294967295
-26.568245 10.457753 -20.702263 4294967295
-26.53035 11.863832 -20.649279 4294967295
-26.521914 16.078997 -21.181816 4294967295
-26.516314 12.176534 -20.600624 4294967295
-26.502235 15.768182 -21.009085 4294967295
-26.491314 13.739161 -20.654242 4294967295
-26.468897 11.078023 -21.173868 4294967295
-26.467094 15.458156 -20.734798 4294967295
-26.466005 10.765947 -21.111391 4294967295
-26.46459 14.989828 -20.653009 4294967295
-26.457777 16.551722 -20.826073 4294967295
-26.451496 10.297821 -20.950899 4294967295
-26.444889 10.610083 -20.951056 4294967295
-26.405523 12.327986 -20.932154 4294967295
-26.400347 12.484243 -20.919956 4294967295
-26.388769 13.577355 -20.996336 4294967295
-26.388136 12.95297 -20.905151 4294967295
-26.381096 11.235488 -20.619522 4294967295
-26.376074 14.514442 -21.043629 4294967295
-26.371929 14.046374 -20.951178 4294967295
-26.367783 13.734337 -20.880465 4294967295
-26.367384 13.265968 -20.812565 4294967295
-26.359621 15.607876 -21.088036 4294967295
-26.352325 11.704634 -20.496086 4294967295
-26.349964 12.017117 -20.524149 4294967295
-26.345686 16.545176 -21.127213 4294967295
-26.343866 15.921031 -21.02828 4294967295
-26.337315 16.233633 -21.028847 4294967295
-26.33596 15.765454 -20.954704 4294967295
-26.328341 9.9819736 -21.135056 4294967295
-26.327677 15.14149 -20.813364 4294967295
-26.32531 13.423756 -20.558393 4294967295
-26.324421 13.892373 -20.617887 4294967295
-26.317137 13.111637 -20.461248 4294967295
-26.313503 16.079153 -20.851025 4294967295
-26.275721 10.918943 -20.920763 4294967295
-26.244768 12.636875 -20.957243 4294967295
-26.230755 11.85658 -20.756725 4294967295
-26.221684 11.544425 -20.653797 4294967295
-26.196005 12.169792 -20.572647 4294967295
-26.195168 14.51229 -20.893433 4294967295
-26.192282 13.419405 -20.7223 4294967295
-26.140844 16.076891 -20.755371 4294967295
-26.140543 15.139869 -20.62289 4294967295
-26.135965 13.890367 -20.418873 4294967295
-26.133003 14.202982 -20.443005 4294967295
-26.130617 10.1347 -20.896032 4294967295
-26.124361 10.603134 -20.920303 4294967295
-26.08429 11.228241 -20.745167 4294967295
-26.079407 12.009142 -20.82192 4294967295
-26.079142 12.32144 -20.863649 4294967295
-26.052269 14.352099 -20.970469 4294967295
-26.051521 12.478383 -20.704803 4294967295
-26.051174 15.913001 -21.180525 4294967295
-26.051121 11.697423 -20.593483 4294967295
-26.049641 13.57158 -20.844654 4294967295
-26.035538 15.601848 -21.034943 4294967295
-26.035099 15.133567 -20.966908 4294967295
-26.034763 13.259839 -20.703941 4294967295
-26.028902 14.821667 -20.882954 4294967295
-26.021469 11.8543 -20.421343 4294967295
-26.018538 14.041407 -20.70657 4294967295
-26.014339 12.948167 -20.526949 4294967295
-26.014158 15.759302 -20.916996 4294967295
-26.011929 10.131005 -21.152353 4294967295
-26.011833 12.167042 -20.401834 4294967295
-26.00901 16.384113 -20.970257 4294967295
-26.008463 9.9749355 -21.108007 4294967295
-25.996778 16.5411 -20.912083 4294967295
-25.996765 13.105018 -20.433819 4294967295
-25.990955 10.755497 -21.102236 4294967295
-25.988853 14.511417 -20.577793 4294967295
-25.986097 14.980175 -20.625 4294967295
-25.984819 13.417969 -20.399221 4294967295
-25.948483 9.8189163 -20.694588 4294967295
-25.937607 10.91226 -20.775618 4294967295
-25.918959 11.693433 -20.762468 4294967295
-25.894974 11.225271 -20.54072 4294967295
-25.867647 13.72538 -20.709944 4294967295
-25.860266 15.28738 -20.878944 4294967295
-25.853716 15.600057 -20.879652 4294967295
-25.819124 10.439912 -20.968117 4294967295
-25.815092 14.665128 -20.497393 4294967295
-25.804594 10.596175 -20.895094 4294967295
-25.802645 10.283879 -20.838991 4294967295
-25.796307 9.9715614 -20.754257 4294967295
-25.753098 11.846337 -20.733072 4294967295
-25.744764 16.061926 -21.264523 4294967295
-25.743668 12.939836 -20.823538 4294967295
-25.74358 11.690346 -20.64934 4294967295
-25.737104 15.750299 -21.17128 4294967295
-25.736189 11.221811 -20.536036 4294967295
-25.72971 12.627925 -20.689192 4294967295
-25.72624 15.126577 -21.013781 4294967295
-25.724625 16.531494 -21.198452 4294967295
-25.72226 14.81455 -20.944469 4294967295
-25.716022 12.159657 -20.534878 4294967295
-25.714563 13.253237 -20.677338 4294967295
-25.709202 11.534794 -20.403568 4294967295
-25.709091 13.878235 -20.728502 4294967295
-25.706861 15.283824 -20.909279 4294967295
-25.704161 14.347012 -20.761496 4294967295
-25.703041 12.00373 -20.42857 4294967295
-25.701998 12.472528 -20.486917 4294967295
-25.697012 13.410117 -20.584698 4294967295
-25.69503 14.503647 -20.723724 4294967295
-25.688362 15.909546 -20.875599 4294967295
-25.680876 14.035702 -20.566412 4294967295
-25.679737 12.785735 -20.385296 4294967295
-25.675438 16.378872 -20.856548 4294967295
-25.673155 9.811801 -20.959406 4294967295
-25.612226 11.061605 -20.736364 4294967295
-25.593287 10.905646 -20.591427 4294967295
-25.569454 13.40556 -20.783426 4294967295
-25.546959 13.093986 -20.593739 4294967295
-25.539694 15.437232 -20.871803 4294967295
-25.487549 10.276847 -20.844782 4294967295
-25.468233 9.9645367 -20.675915 4294967295
-25.45863 10.901866 -20.743574 4294967295
-25.429989 16.211412 -21.294128 4294967295
-25.427032 12.308306 -20.733387 4294967295
-25.42259 11.683545 -20.617838 4294967295
-25.41712 13.245785 -20.799053 4294967295
-25.416178 11.371182 -20.532818 4294967295
-25.406712 15.900795 -21.099766 4294967295
-25.40654 14.807919 -20.947033 4294967295
-25.396437 12.77787 -20.599716 4294967295
-25.396137 11.996632 -20.48938 4294967295
-25.394554 15.589318 -20.977551 4294967295
-25.390192 15.121127 -20.884254 4294967295
-25.385099 12.153174 -20.439362 4294967295
-25.383955 12.465749 -20.475298 4294967295
-25.382265 13.715777 -20.637756 4294967295
-25.372503 13.559943 -20.5527 4294967295
-25.366873 9.9608564 -21.043688 4294967295
-25.350176 14.498441 -20.537819 4294967295
-25.342867 10.741712 -20.996214 4294967295
-25.335075 15.436743 -20.569866 4294967295
-25.331554 14.186804 -20.373564 4294967295
-25.328705 14.968347 -20.463482 4294967295
-25.327019 13.874408 -20.300749 4294967295
-25.277271 10.89867 -20.592415 4294967295
-25.273581 12.929521 -20.850048 4294967295
-25.257467 15.272525 -21.07033 4294967295
-25.254919 14.960409 -21.01053 4294967295
-25.253098 16.209455 -21.171862 4294967295
-25.231941 14.336926 -20.775017 4294967295
-25.226217 13.087371 -20.56465 4294967295
-25.217857 15.431013 -20.835321 4294967295
-25.205595 15.744138 -20.799175 4294967295
-25.191858 12.619637 -20.276884 4294967295
-25.19076 13.8701 -20.443121 4294967295
-25.184887 15.120503 -20.578373 4294967295
-25.174252 10.738333 -20.927469 4294967295
-25.1521 10.582363 -20.762383 4294967295
-25.118835 11.207683 -20.633574 4294967295
-25.101419 15.893583 -21.169914 4294967295
-25.087805 12.614583 -20.627493 4294967295
-25.083189 11.677118 -20.46773 4294967295
-25.078058 14.020985 -20.759211 4294967295
-25.074408 13.083759 -20.605719 4294967295
-25.067835 12.771461 -20.519882 4294967295
-25.067114 15.114929 -20.839855 4294967295
-25.06605 15.427357 -20.876249 4294967295
-25.064747 12.30271 -20.43494 4294967295
-25.045382 14.33497 -20.591053 4294967295
-25.043957 14.960007 -20.668413 4294967295
-25.03739 15.741507 -20.734131 4294967295
-25.033836 13.710402 -20.429758 4294967295
-25.030779 15.273223 -20.626442 4294967295
-25.030691 11.990926 -20.171165 4294967295
-25.024757 10.110054 -20.896181 4294967295
-25.008577 13.55512 -20.244638 4294967295
-24.995382 10.266407 -20.727879 4294967295
-24.964731 9.7977295 -20.464794 4294967295
-24.958641 10.735456 -20.555239 4294967295
-24.949404 11.360651 -20.582056 4294967295
-24.925856 15.42301 -20.992136 4294967295
-24.912954 11.986523 -20.433001 4294967295
-24.903811 14.487067 -20.72003 4294967295
-24.896847 13.86242 -20.588531 4294967295
-24.863548 13.082223 -20.265215 4294967295
-24.853661 12.926209 -20.179674 4294967295
-24.837749 10.575343 -20.77405 4294967295
-24.832689 10.262917 -20.698158 4294967295
-24.807892 11.356897 -20.689409 4294967295
-24.776503 12.45136 -20.638168 4294967295
-24.776297 14.794577 -20.960962 4294967295
-24.769878 15.575761 -21.027573 4294967295
-24.766596 13.076684 -20.660707 4294967295
-24.765411 12.764212 -20.609838 4294967295
-24.764853 13.545476 -20.714298 4294967295
-24.757826 11.826705 -20.431192 4294967295
-24.75705 11.201442 -20.339685 4294967295
-24.749544 15.733188 -20.918076 4294967295
-24.748846 15.108452 -20.827164 4294967295
-24.746872 14.639911 -20.749605 4294967295
-24.746851 11.514285 -20.317118 4294967295
-24.737568 14.327895 -20.646391 4294967295
-24.73736 11.670813 -20.277504 4294967295
-24.737297 15.421538 -20.79591 4294967295
-24.735748 9.7905741 -21.027588 4294967295
-24.732801 12.139943 -20.312971 4294967295
-24.717278 12.296696 -20.234432 4294967295
-24.716064 13.860042 -20.442858 4294967295
-24.715824 13.234792 -20.354813 4294967295
-24.714468 15.266642 -20.6271 4294967295
-24.711651 14.485431 -20.500866 4294967295
-24.710157 13.391333 -20.33989 4294967295
-24.707712 9.9468069 -20.868496 4294967295
-24.702 14.173291 -20.39538 4294967295
-24.699364 14.954942 -20.486486 4294967295
-24.695288 12.610062 -20.135817 4294967295
-24.655149 10.884587 -20.659357 4294967295
-24.649151 11.82217 -20.750292 4294967295
-24.615679 10.728745 -20.383415 4294967295
-24.580282 12.605347 -20.41468 4294967295
-24.574333 11.198343 -20.18186 4294967295
-24.54953 11.980752 -20.130142 4294967295
-24.545477 9.7870626 -20.82015 4294967295
-24.5263 14.170757 -20.283134 4294967295
-24.490705 10.568611 -20.575674 4294967295
-24.461576 11.506777 -20.517826 4294967295
-24.452227 12.444749 -20.587215 4294967295
-24.442595 11.819783 -20.438917 4294967295
-24.440506 15.413817 -20.921867 4294967295
-24.435682 11.194563 -20.308081 4294967295
-24.431484 10.881895 -20.237879 4294967295
-24.429234 15.258266 -20.827854 4294967295
-24.426245 14.945977 -20.765488 4294967295
-24.421799 11.351151 -20.240377 4294967295
-24.420055 13.070957 -20.466705 4294967295
-24.413958 14.321574 -20.600189 4294967295
-24.410645 12.758617 -20.363005 4294967295
-24.410223 14.009173 -20.533024 4294967295
-24.398708 12.133516 -20.199863 4294967295
-24.396814 13.697124 -20.403639 4294967295
-24.395737 11.66441 -20.115946 4294967295
-24.395681 15.103919 -20.590637 4294967295
-24.394871 12.602749 -20.239986 4294967295
-24.386847 13.384837 -20.296368 4294967295
-24.386524 11.977419 -20.099901 4294967295
-24.377096 10.09602 -20.797235 4294967295
-24.374624 14.636128 -20.390549 4294967295
-24.372274 12.916229 -20.137878 4294967295
-24.353579 9.9398346 -20.624601 4294967295
-24.300896 13.691191 -20.803921 4294967295
-24.290796 12.128819 -20.523413 4294967295
-24.270409 14.005005 -20.651382 4294967295
-24.218758 13.538207 -20.255152 4294967295
-24.215322 10.248757 -20.795387 4294967295
-24.20252 10.717606 -20.77795 4294967295
-24.182447 10.405237 -20.606123 4294967295
-24.152382 11.656018 -20.585812 4294967295
-24.147615 11.968716 -20.598362 4294967295
-24.141726 12.906582 -20.689936 4294967295
-24.136801 11.343674 -20.442802 4294967295
-24.135923 11.031005 -20.394051 4294967295
-24.129694 10.561994 -20.289412 4294967295
-24.128588 14.469666 -20.821226 4294967295
-24.125267 12.438207 -20.519783 4294967295
-24.122637 14.001193 -20.71846 4294967295
-24.11351 10.874926 -20.228775 4294967295
-24.11294 15.251681 -20.828705 4294967295
-24.112478 14.782975 -20.761118 4294967295
-24.110664 12.282277 -20.404617 4294967295
-24.10524 13.533065 -20.542328 4294967295
-24.099611 11.187904 -20.182802 4294967295
-24.096149 14.31497 -20.591852 4294967295
-24.089407 13.377354 -20.419312 4294967295
-24.087242 11.81373 -20.189787 4294967295
-24.081621 14.628287 -20.541883 4294967295
-24.076851 12.752346 -20.252581 4294967295
-24.06971 13.847189 -20.357773 4294967295
-24.066977 12.596256 -20.16773 4294967295
-24.058889 10.401477 -20.827871 4294967295
-24.053671 9.9327278 -20.729864 4294967295
-24.03241 10.557951 -20.679888 4294967295
-24.012972 11.339623 -20.663157 4294967295
-23.987749 10.714695 -20.415525 4294967295
-23.941906 12.748205 -20.402245 4294967295
-23.914234 11.497727 -20.052729 4294967295
-23.905859 13.687694 -20.300888 4294967295
-23.903547 14.938653 -20.458467 4294967295
-23.872822 9.929244 -20.584885 4294967295
-23.851898 10.55464 -20.537252 4294967295
-23.8316 11.649192 -20.558228 4294967295
-23.818508 10.398548 -20.302311 4294967295
-23.81608 10.867708 -20.351398 4294967295
-23.810503 11.336894 -20.38036 4294967295
-23.806488 14.307027 -20.763695 4294967295
-23.802185 12.744217 -20.520981 4294967295
-23.798634 11.962586 -20.390644 4294967295
-23.792294 12.275467 -20.393204 4294967295
-23.782812 11.024529 -20.160332 4294967295
-23.780022 14.777184 -20.659245 4294967295
-23.779079 15.246092 -20.717777 4294967295
-23.774521 13.683223 -20.473438 4294967295
-23.770899 12.432425 -20.278051 4294967295
-23.770775 11.806823 -20.191103 4294967295
-23.768305 12.119699 -20.218401 4294967295
-23.76544 11.494084 -20.113932 4294967295
-23.760466 14.621877 -20.512846 4294967295
-23.759508 13.371098 -20.334492 4294967295
-23.754749 13.840402 -20.368698 4294967295
-23.751633 12.902205 -20.219584 4294967295
-23.751535 14.153271 -20.39123 4294967295
-23.743355 9.9256439 -20.768394 4294967295
-23.741564 14.935542 -20.435196 4294967295
-23.733885 15.092315 -20.407703 4294967295
-23.612234 11.177649 -20.103842 4294967295
-23.590094 13.368134 -20.26396 4294967295
-23.573868 14.307205 -20.289614 4294967295
-23.57156 12.117209 -19.973549 4294967295
-23.566568 10.391062 -20.71438 4294967295
-23.565241 13.681938 -20.148521 4294967295
-23.543255 9.9222002 -20.501356 4294967295
-23.527622 10.54769 -20.487751 4294967295
-23.497082 12.737044 -20.594198 4294967295
-23.493128 11.017188 -20.33252 4294967295
-23.48402 10.860901 -20.253006 4294967295
-23.476326 14.769886 -20.741457 4294967295
-23.474951 12.268625 -20.388786 4294967295
-23.451576 11.643537 -20.153898 4294967295
-23.447842 11.174257 -20.065563 4294967295
-23.445707 11.800097 -20.13802 4294967295
-23.439123 13.364474 -20.311174 4294967295
-23.43185 9.9185619 -20.799482 4294967295
-23.431168 13.67758 -20.303535 4294967295
-23.430902 14.928602 -20.473839 4294967295
-23.429789 14.459568 -20.402258 4294967295
-23.428869 14.146853 -20.353409 4294967295
-23.427658 13.052064 -20.195168 4294967295
-23.423012 13.83432 -20.273119 4294967295
-23.408791 13.209165 -20.096546 4294967295
-23.405241 12.583424 -19.987886 4294967295
-23.404827 13.522209 -20.114336 4294967295
-23.398779 14.617499 -20.226393 4294967295
-23.371271 10.075068 -20.435616 4294967295
-23.368635 11.482257 -20.612207 4294967295
-23.354572 11.795204 -20.565735 4294967295
-23.35021 10.387951 -20.344635 4294967295
-23.328411 10.544531 -20.227476 4294967295
-23.323605 13.984786 -20.66958 4294967295
-23.298344 12.265673 -20.272686 4294967295
-23.251322 12.110412 -19.952223 4294967295
-23.249699 15.082909 -20.350294 4294967295
-23.182695 10.853727 -20.350775 4294967295
-23.174448 11.479442 -20.384298 4294967295
-23.17366 12.730437 -20.55106 4294967295
-23.173172 10.697419 -20.268827 4294967295
-23.172592 12.105017 -20.458397 4294967295
-23.166504 11.166762 -20.290909 4294967295
-23.161541 14.137922 -20.667324 4294967295
-23.153734 13.825598 -20.57486 4294967295
-23.148975 13.200347 -20.45879 4294967295
-23.145788 11.949253 -20.266779 4294967295
-23.140446 14.607917 -20.597868 4294967295
-23.137793 14.295354 -20.538107 4294967295
-23.136774 13.044386 -20.359884 4294967295
-23.128355 14.764877 -20.542625 4294967295
-23.118864 12.888567 -20.224743 4294967295
-23.113859 13.670866 -20.300358 4294967295
-23.112516 13.358078 -20.248888 4294967295
-23.099861 9.91152 -20.700859 4294967295
-23.05924 10.380738 -20.507671 4294967295
-23.026167 10.6938 -20.340912 4294967295
-23.022404 10.224559 -20.25267 4294967295
-22.984175 11.00717 -20.11764 4294967295
-22.962931 13.667195 -20.347876 4294967295
-22.962866 12.41575 -20.175774 4294967295
