# .PCD v0.7 - Point Cloud Data file format
VERSION 0.7
FIELDS x y z rgb
SIZE 4 4 4 4
TYPE F F F U
COUNT 1 1 1 1
WIDTH 1120
HEIGHT 1
VIEWPOINT 0 0 0 1 0 0 0
POINTS 1120
DATA ascii
9.6502085 -4.1372228 -16.794043 4294967295
9.6691675 -3.8216958 -16.742044 4294967295
9.6704473 -7.4577403 -17.065878 4294967295
9.6744061 -7.1409063 -17.085554 4294967295
9.7059155 -6.0341029 -17.070108 4294967295
9.7115984 -8.5743551 -16.734146 4294967295
9.7268906 -6.6715007 -16.892717 4294967295
9.7295008 -8.1005497 -16.706514 4294967295
9.7398186 -6.8318677 -16.811659 4294967295
9.7446804 -7.6262894 -16.691906 4294967295
9.7550774 -8.7392654 -16.507059 4294967295
9.7596254 -3.501183 -17.122377 4294967295
9.7604904 -2.0733254 -17.291901 4294967295
9.7630892 -6.3585215 -16.758413 4294967295
9.7712097 -6.5182939 -16.700315 4294967295
9.784749 -7.949266 -16.461836 4294967295
9.7919064 -7.314919 -16.504892 4294967295
9.8112106 -4.9352589 -16.702351 4294967295
9.8383341 -8.5739241 -16.902248 4294967295
9.8577719 -7.9417014 -16.88665 4294967295
9.8822966 -5.4054394 -17.078283 4294967295
9.9129696 -8.7431946 -16.526726 4294967295
9.9137497 -6.5202818 -16.793194 4294967295
9.9175425 -8.1085882 -16.582106 4294967295
9.9207439 -6.0448723 -16.817713 4294967295
9.9318085 -3.9825997 -17.015757 4294967295
9.9356289 -5.0941167 -16.862486 4294967295
9.9358463 -5.7291598 -16.784266 4294967295
9.939642 -4.9358234 -16.86264 4294967295
9.9404135 -6.6823893 -16.646685 4294967295
9.9435415 -3.3489625 -17.03698 4294967295
9.9564886 -8.2727575 -16.376932 4294967295
9.9583254 -5.2554665 -16.734934 4294967295
9.9606781 -2.2396779 -17.090313 4294967295
9.9624023 -4.7796049 -16.773386 4294967295
9.9656773 -2.7162709 -17.00861 4294967295
9.9667568 -7.1621943 -16.463079 4294967295
9.9747343 -4.622191 -16.73387 4294967295
9.9768038 -4.3048611 -16.762598 4294967295
9.9792747 -3.0350435 -16.905197 4294967295
9.9887476 -2.5597236 -16.917921 4294967295
9.9954681 -8.577755 -16.9251 4294967295
10.002533 -3.6724343 -16.71711 4294967295
10.011116 -3.1969364 -16.734087 4294967295
10.027918 -7.9472833 -16.847557 4294967295
10.032481 -7.4716668 -16.883665 4294967295
10.037866 -6.0438471 -17.031549 4294967295
10.058979 -5.4114995 -17.008085 4294967295
10.066422 -3.6666572 -17.184713 4294967295
10.083056 -8.4311886 -16.526869 4294967295
10.102701 -5.5753293 -16.780506 4294967295
10.103108 -7.6397791 -16.527765 4294967295
10.109697 -7.3229904 -16.534956 4294967295
10.184469 -2.0907605 -16.815458 4294967295
10.185784 -7.3162479 -16.944195 4294967295
10.204552 -6.3662481 -16.970516 4294967295
10.239187 -5.7354598 -16.882803 4294967295
10.250765 -4.6255646 -16.962654 4294967295
10.250978 -2.8797386 -17.173649 4294967295
10.252681 -3.1972954 -17.127003 4294967295
10.258657 -4.9439306 -16.886551 4294967295
10.261083 -3.9917321 -16.990675 4294967295
10.268547 -2.5640156 -17.128637 4294967295
10.272032 -2.0882409 -17.169878 4294967295
10.27885 -3.5173509 -16.963993 4294967295
10.281676 -3.835134 -16.911993 4294967295
10.282395 -7.6465249 -16.445763 4294967295
10.290103 -4.7886615 -16.756226 4294967295
10.294029 -5.583117 -16.641129 4294967295
10.305555 -4.4727669 -16.721279 4294967295
10.319562 -8.5867901 -16.924126 4294967295
10.33526 -7.4777927 -16.984341 4294967295
10.345946 -8.1141872 -16.85647 4294967295
10.356577 -3.3663762 -16.613585 4294967295
10.371496 -8.4352474 -16.696445 4294967295
10.383615 -6.2139926 -16.908611 4294967295
10.384855 -5.4204326 -16.999056 4294967295
10.394253 -6.8503761 -16.780975 4294967295
10.396884 -8.2799387 -16.594999 4294967295
10.402621 -7.3278265 -16.683372 4294967295
10.405352 -6.0578594 -16.824572 4294967295
10.408252 -5.7406631 -16.849329 4294967295
10.41135 -7.6465988 -16.603323 4294967295
10.42025 -8.9185829 -16.406782 4294967295
10.427101 -8.7606831 -16.393482 4294967295
10.428538 -5.266696 -16.810736 4294967295
10.459381 -4.1586041 -16.799091 4294967295
10.473589 -3.207356 -16.847229 4294967295
10.474484 -3.8425994 -16.765881 4294967295
10.483402 -2.8907499 -16.839163 4294967295
10.518227 -7.8025246 -16.846146 4294967295
10.55022 -5.742671 -16.944632 4294967295
10.55244 -8.9188595 -16.548819 4294967295
10.558083 -9.0785084 -16.502747 4294967295
10.575193 -8.4455109 -16.49856 4294967295
10.57792 -6.3811078 -16.736094 4294967295
10.589163 -5.5884628 -16.779047 4294967295
10.597838 -2.4142339 -17.123079 4294967295
10.598267 -5.9071431 -16.697302 4294967295
10.599371 -3.0492947 -17.038782 4294967295
10.60304 -3.8434188 -16.925081 4294967295
10.605118 -7.6552558 -16.452814 4294967295
10.610345 -4.0029488 -16.871157 4294967295
10.617341 -3.5273423 -16.895748 4294967295
10.635032 -2.2589107 -16.965914 4294967295
10.644326 -3.6888731 -16.748444 4294967295
10.65241 -8.4382792 -16.901171 4294967295
10.66737 -6.8527956 -17.022709 4294967295
10.67156 -7.9646015 -16.868093 4294967295
10.672668 -6.5359917 -17.036077 4294967295
10.675912 -7.1713705 -16.943705 4294967295
10.680162 -8.6009092 -16.750277 4294967295
10.691591 -8.1260929 -16.753832 4294967295
10.694946 -6.0624905 -16.988197 4294967295
10.700852 -5.5869594 -17.017942 4294967295
10.708595 -7.4931655 -16.750206 4294967295
10.710326 -7.3345914 -16.761251 4294967295
10.713034 -7.811367 -16.690643 4294967295
10.72125 -4.7955627 -17.017498 4294967295
10.727386 -6.2251749 -16.815144 4294967295
10.729688 -5.2727766 -16.919748 4294967295
10.731864 -4.6379809 -16.986435 4294967295
10.736686 -8.926527 -16.443638 4294967295
10.759406 -4.95857 -16.817385 4294967295
10.76545 -4.4828596 -16.846504 4294967295
10.785119 -6.3910408 -16.522148 4294967295
10.793977 -3.5330799 -16.826838 4294967295
10.801985 -5.1221728 -16.596292 4294967295
10.816428 -2.7412734 -16.816734 4294967295
10.82137 -2.5829346 -16.812576 4294967295
10.838231 -2.1080556 -16.790468 4294967295
10.875531 -5.7515621 -16.938837 4294967295
10.910454 -6.8674383 -16.638733 4294967295
10.910506 -8.6149302 -16.426695 4294967295
10.929713 -8.776516 -16.316444 4294967295
10.930417 -6.5522366 -16.582691 4294967295
10.935067 -3.8528008 -16.887917 4294967295
10.936293 -4.0117188 -16.862869 4294967295
10.945989 -7.1896887 -16.431925 4294967295
10.947067 -4.3304653 -16.773371 4294967295
10.948513 -5.4424429 -16.631771 4294967295
10.948677 -5.9190216 -16.573236 4294967295
10.948781 -3.6954129 -16.842249 4294967295
10.953012 -6.3961501 -16.494946 4294967295
10.95346 -7.6673651 -16.338764 4294967295
10.955476 -7.9854689 -16.290693 4294967295
10.958334 -2.7435923 -16.912519 4294967295
10.962377 -3.379174 -16.816401 4294967295
10.963923 -6.7152758 -16.40476 4294967295
10.97511 -5.1277575 -16.544355 4294967295
10.981077 -2.2693245 -16.862637 4294967295
10.993855 -4.8120942 -16.494123 4294967295
11.000169 -2.5887201 -16.733795 4294967295
11.019463 -7.1827517 -16.851503 4294967295
11.026154 -6.3896689 -16.916029 4294967295
11.032852 -2.1151803 -16.636904 4294967295
11.049506 -2.9111257 -16.461813 4294967295
11.051123 -9.0930634 -16.470816 4294967295
11.056526 -8.2994585 -16.541471 4294967295
11.074454 -7.666398 -16.533628 4294967295
11.085238 -6.2380486 -16.655817 4294967295
11.08594 -4.6498914 -16.844898 4294967295
11.086901 -3.3796985 -16.994247 4294967295
11.087438 -6.8737373 -16.568436 4294967295
11.101403 -3.0635738 -16.964167 4294967295
11.119236 -8.1490955 -16.264015 4294967295
11.133342 -3.2254925 -16.793964 4294967295
11.140079 -4.1792107 -16.64666 4294967295
11.151482 -8.294776 -16.858938 4294967295
11.178885 -7.6632566 -16.806355 4294967295
11.193286 -2.9136021 -16.549114 4294967295
11.195867 -8.4596863 -16.629955 4294967295
11.209507 -5.4438868 -16.930882 4294967295
11.213252 -2.4388063 -16.512495 4294967295
11.225289 -5.2868996 -16.875566 4294967295
11.23322 -7.8292928 -16.530382 4294967295
11.248281 -4.4954309 -16.863131 4294967295
11.276091 -5.1338205 -16.654871 4294967295
11.277298 -5.6105499 -16.591459 4294967295
11.277518 -4.6574249 -16.705837 4294967295
11.279723 -6.5641503 -16.464573 4294967295
11.279815 -4.181149 -16.752693 4294967295
11.284441 -7.5182371 -16.326834 4294967295
11.285834 -4.3406281 -16.705036 4294967295
11.287085 -3.3877456 -16.814529 4294967295
11.300118 -3.8655765 -16.695292 4294967295
11.3017 -2.4362295 -16.86092 4294967295
11.301776 -3.2303667 -16.7644 4294967295
11.307223 -6.7264776 -16.315416 4294967295
11.315409 -2.2786632 -16.815445 4294967295
11.319134 -8.1412287 -16.851795 4294967295
11.323662 -2.1205785 -16.795721 4294967295
11.33085 -2.9154856 -16.665619 4294967295
11.346002 -4.0292096 -16.459406 4294967295
11.349714 -8.4630489 -16.669014 4294967295
11.360474 -7.8291283 -16.695129 4294967295
11.380124 -6.5609474 -16.756184 4294967295
11.380604 -7.0375237 -16.696251 4294967295
11.399122 -7.3576169 -16.570414 4294967295
11.403795 -6.2461529 -16.682951 4294967295
11.407366 -4.3406115 -16.896784 4294967295
11.407847 -8.6299715 -16.375391 4294967295
11.418812 -3.3889902 -16.958122 4294967295
11.420135 -7.9959717 -16.394327 4294967295
11.451873 -5.9341526 -16.494583 4294967295
11.456631 -6.0936255 -16.452902 4294967295
11.471322 -5.6186161 -16.441292 4294967295
11.488276 -7.670238 -16.876169 4294967295
11.499621 -9.1012592 -16.649771 4294967295
11.506641 -3.8744256 -16.486275 4294967295
11.514061 -8.7855778 -16.620125 4294967295
11.558142 -2.4491303 -16.416552 4294967295
11.574335 -5.7749748 -16.70116 4294967295
11.575621 -2.1328347 -16.372625 4294967295
11.606997 -5.3021326 -16.604931 4294967295
11.609138 -3.7137291 -16.787027 4294967295
11.622165 -5.4627585 -16.514246 4294967295
11.627757 -7.3706527 -16.257179 4294967295
11.630636 -7.21206 -16.262835 4294967295
11.635076 -6.8947015 -16.280373 4294967295
11.647334 -8.1507444 -16.832909 4294967295
11.648685 -3.2410924 -16.658426 4294967295
11.656259 -2.765192 -16.68042 4294967295
11.657907 -3.559783 -16.576553 4294967295
11.680505 -3.4031286 -16.489344 4294967295
11.680803 -3.87994 -16.43026 4294967295
11.685098 -2.6090069 -16.563839 4294967295
11.688404 -7.5208459 -16.716373 4294967295
11.696374 -8.475132 -16.563597 4294967295
11.700276 -6.4104271 -16.794933 4294967295
11.709367 -2.4523365 -16.468786 4294967295
11.715807 -8.6367159 -16.452883 4294967295
11.716611 -6.7301397 -16.679636 4294967295
11.71702 -2.1351714 -16.471201 4294967295
11.719989 -8.955143 -16.394764 4294967295
11.720132 -7.8427672 -16.528585 4294967295
11.72098 -8.0017815 -16.505384 4294967295
11.723748 -6.2544231 -16.703669 4294967295
11.737645 -5.9383521 -16.676685 4294967295
11.772321 -4.512424 -16.686405 4294967295
11.777149 -4.830709 -16.625265 4294967295
11.778816 -4.1953688 -16.694265 4294967295
11.826671 -8.7929802 -16.675169 4294967295
11.85489 -5.7786069 -16.90723 4294967295
11.861323 -7.0501056 -16.723412 4294967295
11.87642 -8.6410074 -16.460402 4294967295
11.878056 -2.6160958 -16.419607 4294967295
11.934695 -6.1057763 -16.493708 4294967295
11.946763 -3.8825099 -16.705854 4294967295
11.94797 -4.5181856 -16.623369 4294967295
11.948423 -4.9949441 -16.563627 4294967295
11.953758 -5.6312337 -16.461723 4294967295
11.957725 -5.1548991 -16.500708 4294967295
11.975061 -3.5675976 -16.611303 4294967295
11.97586 -6.2696629 -16.280996 4294967295
11.980383 -8.0020638 -16.81082 4294967295
11.985631 -2.9330263 -16.638468 4294967295
12.002453 -8.1638803 -16.687975 4294967295
12.004276 -3.4115887 -16.493254 4294967295
12.005 -6.7345223 -16.848715 4294967295
12.009652 -8.8004045 -16.577389 4294967295
12.015575 -7.3712654 -16.722298 4294967295
12.024815 -2.7778211 -16.473608 4294967295
12.027264 -2.142307 -16.53894 4294967295
12.02927 -7.0552721 -16.696373 4294967295
12.033365 -6.4203067 -16.753908 4294967295
12.048114 -2.3031266 -16.421791 4294967295
12.049641 -1.9853561 -16.453043 4294967295
12.051812 -8.9652367 -16.360149 4294967295
12.054317 -7.694088 -16.501976 4294967295
12.072935 -4.2007966 -16.836823 4294967295
12.078316 -8.4920368 -16.293262 4294967295
12.08031 -7.538548 -16.399103 4294967295
12.081738 -4.6783223 -16.737936 4294967295
12.081869 -6.9029851 -16.46858 4294967295
12.08198 -5.631669 -16.621637 4294967295
12.09338 -5.9508219 -16.529726 4294967295
12.118546 -3.0933478 -16.757133 4294967295
12.124697 -5.7955613 -16.401907 4294967295
12.138383 -4.525527 -16.491272 4294967295
12.162055 -4.8460064 -16.341759 4294967295
12.178575 -2.3044589 -16.571468 4294967295
12.205772 -8.1739082 -16.495035 4294967295
12.206085 -3.2607801 -16.327175 4294967295
12.269138 -6.5926142 -16.38974 4294967295
12.274138 -7.0701494 -16.308706 4294967295
12.274942 -8.3422337 -16.15136 4294967295
12.292357 -6.1185141 -16.33844 4294967295
12.296824 -3.2580514 -16.662952 4294967295
12.301987 -3.5763886 -16.600382 4294967295
12.303296 -4.0533056 -16.536674 4294967295
12.303968 -2.1567402 -16.002411 4294967295
12.310551 -5.0077949 -16.387506 4294967295
12.324485 -2.466109 -16.629271 4294967295
12.343081 -8.9696245 -16.516026 4294967295
12.343527 -8.175106 -16.609833 4294967295
12.3501 -4.5351458 -16.259697 4294967295
12.351579 -8.4940281 -16.533747 4294967295
12.358687 -8.6539354 -16.48126 4294967295
12.361282 -2.151567 -16.49523 4294967295
12.361735 -2.9464302 -16.397137 4294967295
12.36185 -8.0186453 -16.543163 4294967295
12.363404 -8.3367109 -16.497519 4294967295
12.369244 -5.9538641 -16.757828 4294967295
12.371401 -6.4307785 -16.690199 4294967295
12.371779 -3.1063762 -16.330868 4294967295
12.372251 -7.3843212 -16.571154 4294967295
12.375113 -5.1601834 -16.826212 4294967295
12.378946 -6.9084191 -16.597322 4294967295
12.380926 -7.7033038 -16.492151 4294967295
12.391276 -7.5457106 -16.462845 4294967295
12.394622 -5.4801483 -16.696508 4294967295
12.408309 -6.5941978 -16.49815 4294967295
12.410181 -4.5285168 -16.738712 4294967295
12.420416 -6.7546396 -16.422258 4294967295
12.421266 -7.2316461 -16.360723 4294967295
12.429382 -4.6894865 -16.629631 4294967295
12.456735 -4.8513989 -16.482384 4294967295
12.467684 -3.8988783 -16.546219 4294967295
12.51177 -3.4264288 -16.397398 4294967295
12.5134 -6.2738595 -16.804129 4294967295
12.518156 -2.4732075 -16.482626 4294967295
12.597221 -5.8070283 -16.469549 4294967295
12.597437 -3.1167312 -16.034788 4294967295
12.600557 -6.6022854 -16.358055 4294967295
12.607517 -5.3313322 -16.478916 4294967295
12.6242 -5.6511822 -16.362537 4294967295
12.628265 -6.9237213 -16.190071 4294967295
12.652109 -4.0644073 -16.423805 4294967295
12.652831 -5.1774392 -16.286167 4294967295
12.674211 -8.5027866 -16.542591 4294967295
12.674291 -8.8206778 -16.503889 4294967295
12.674468 -7.7081919 -16.637197 4294967295
12.679406 -8.6624403 -16.49914 4294967295
12.681652 -3.4314423 -16.362389 4294967295
12.683074 -5.0217762 -16.163908 4294967295
12.693434 -8.1875029 -16.491066 4294967295
12.702636 -5.8047867 -16.735498 4294967295
12.716468 -6.7599635 -16.555901 4294967295
12.718755 -3.2760639 -16.208109 4294967295
12.720893 -6.2836919 -16.592716 4294967295
12.722948 -7.3965893 -16.448961 4294967295
12.747929 -6.6048741 -16.428064 4294967295
12.749474 -5.6512861 -16.535849 4294967295
12.750731 -4.379951 -16.68329 4294967295
12.755669 -7.241786 -16.315218 4294967295
12.758445 -2.1664493 -16.156876 4294967295
12.761418 -4.8578925 -16.575878 4294967295
12.762428 -2.8030739 -16.061501 4294967295
12.768754 -3.1218431 -15.993547 4294967295
12.773417 -2.4859364 -16.048512 4294967295
12.791152 -4.0662994 -16.532835 4294967295
12.800391 -3.9082875 -16.508856 4294967295
12.811608 -4.7043753 -16.360619 4294967295
12.820558 -8.8229771 -16.578678 4294967295
12.831513 -7.2352509 -16.719059 4294967295
12.847741 -4.5492406 -16.211025 4294967295
12.859309 -7.3977194 -16.570168 4294967295
12.866303 -2.6428103 -16.354443 4294967295
12.873652 -2.4844751 -16.33931 4294967295
12.879878 -6.4466376 -16.589102 4294967295
12.888007 -7.8783426 -16.378736 4294967295
12.900722 -2.0098314 -16.270454 4294967295
12.918036 -8.5184259 -16.1619 4294967295
12.926981 -8.3605976 -16.139309 4294967295
12.936842 -6.2945271 -16.342434 4294967295
12.940232 -5.8179278 -16.384098 4294967295
12.97662 -2.3347561 -15.877761 4294967295
12.976806 -3.9140162 -16.443419 4294967295
12.98633 -3.4380076 -16.456478 4294967295
12.991081 -4.0744805 -16.357668 4294967295
13.00738 -3.2810705 -16.377464 4294967295
13.014253 -7.7191219 -16.566233 4294967295
13.016724 -8.1963158 -16.497265 4294967295
13.020182 -8.5147219 -16.442846 4294967295
13.024949 -6.1311188 -16.707825 4294967295
13.029401 -4.2374935 -16.159754 4294967295
13.037128 -6.9272819 -16.555326 4294967295
13.047322 -8.9954662 -16.258829 4294967295
13.048985 -7.2467031 -16.461758 4294967295
13.049972 -5.3393946 -16.686935 4294967295
13.056883 -5.9759502 -16.57814 4294967295
13.06264 -7.4074306 -16.378946 4294967295
13.062674 -2.9683111 -16.157934 4294967295
13.070644 -2.8099952 -16.139931 4294967295
13.071382 -6.4545803 -16.453112 4294967295
13.074003 -7.8859358 -16.268509 4294967295
13.076807 -2.0152364 -16.20705 4294967295
13.088342 -8.8421383 -16.086702 4294967295
13.102226 -2.1765571 -16.069355 4294967295
13.108818 -4.8690491 -16.470167 4294967295
13.113103 -5.8235321 -16.335272 4294967295
13.117159 -6.7781982 -16.201424 4294967295
13.130505 -6.30268 -16.196699 4294967295
13.135719 -4.3949513 -16.402281 4294967295
13.137435 -5.1902165 -16.298508 4294967295
13.16908 -5.6709561 -16.093557 4294967295
13.246767 -3.292819 -16.019072 4294967295
13.286074 -5.3520579 -16.343616 4294967295
13.31523 -4.0830173 -16.361111 4294967295
13.340508 -3.767524 -16.281792 4294967295
13.342724 -4.4039712 -16.194874 4294967295
13.345127 -7.2519884 -16.594727 4294967295
13.356421 -9.002347 -16.331728 4294967295
13.359904 -7.4128366 -16.506872 4294967295
13.361435 -5.9823737 -16.671934 4294967295
13.373962 -7.7326326 -16.403219 4294967295
13.374965 -8.5278406 -16.302876 4294967295
13.377258 -2.9758339 -16.206568 4294967295
13.405612 -7.1006207 -16.332579 4294967295
13.407657 -3.9334111 -15.950187 4294967295
13.408565 -3.4561331 -16.003447 4294967295
13.408587 -8.8505564 -16.108191 4294967295
13.409832 -8.0554037 -16.198112 4294967295
13.410064 -6.1470737 -16.426706 4294967295
13.420811 -6.6254177 -16.319324 4294967295
13.424502 -5.194725 -16.474398 4294967295
13.435021 -6.9452524 -16.214958 4294967295
13.441579 -5.3556442 -16.375879 4294967295
13.444341 -6.4692297 -16.229053 4294967295
13.449577 -7.583385 -16.07069 4294967295
13.452532 -3.3012884 -15.818045 4294967295
13.457481 -6.7889633 -16.12966 4294967295
13.476377 -3.144413 -15.726274 4294967295
13.482391 -4.7239871 -16.262726 4294967295
13.482748 -2.8266394 -15.734968 4294967295
13.486541 -5.8379416 -16.109423 4294967295
13.529179 -3.6153696 -16.179285 4294967295
13.542417 -4.253098 -16.041168 4294967295
13.544128 -5.0488958 -15.937455 4294967295
13.547918 -4.8901763 -15.938989 4294967295
13.576388 -8.5376596 -16.121593 4294967295
13.589375 -2.8256547 -15.995303 4294967295
13.594341 -5.8359933 -16.363476 4294967295
13.610494 -3.9418118 -15.763077 4294967295
13.633437 -5.0451951 -16.277609 4294967295
13.648696 -8.3709497 -16.559088 4294967295
13.654321 -4.570271 -16.238056 4294967295
13.66343 -2.991797 -15.632045 4294967295
13.678275 -8.2159243 -16.440954 4294967295
13.679524 -6.944159 -16.588091 4294967295
13.683324 -5.5280418 -15.988564 4294967295
13.690933 -4.0968542 -16.125507 4294967295
13.691804 -7.7406812 -16.435537 4294967295
13.706663 -4.8941073 -15.956771 4294967295
13.71334 -8.5387096 -16.240002 4294967295
13.713416 -8.8568411 -16.201397 4294967295
13.714123 -7.4255161 -16.370228 4294967295
13.723986 -6.3135972 -16.458321 4294967295
13.725734 -5.5187936 -16.545805 4294967295
13.728291 -3.1459196 -16.066952 4294967295
13.733037 -6.4737005 -16.397215 4294967295
13.737293 -9.0192356 -16.071465 4294967295
13.737333 -8.7010555 -16.109535 4294967295
13.738184 -3.9425628 -15.925315 4294967295
13.739102 -7.1105962 -16.292585 4294967295
13.740252 -8.0651197 -16.172501 4294967295
13.753254 -5.839972 -16.379929 4294967295
13.766335 -3.7862446 -15.813787 4294967295
13.798604 -5.3679814 -16.226982 4294967295
13.804514 -4.8914204 -16.25696 4294967295
13.817647 -4.0974808 -16.291698 4294967295
13.818165 -5.0519905 -16.174528 4294967295
13.873525 -6.9525151 -16.441648 4294967295
13.876246 -5.9987912 -16.543703 4294967295
13.904582 -3.4697866 -15.965179 4294967295
13.934181 -4.2686601 -15.732249 4294967295
13.952312 -7.2805114 -16.038351 4294967295
13.97218 -5.6917868 -16.137531 4294967295
13.977144 -4.5786982 -16.248386 4294967295
13.978648 -8.3806601 -16.535053 4294967295
13.978737 -3.3178236 -15.640553 4294967295
13.982549 -5.5338607 -16.108625 4294967295
13.984207 -8.0634098 -16.54752 4294967295
13.987508 -7.9048486 -16.551342 4294967295
14.004048 -8.22505 -16.436579 4294967295
14.004567 -8.5431728 -16.395971 4294967295
14.017988 -6.6367273 -16.563076 4294967295
14.035938 -7.2750139 -16.403597 4294967295
14.035975 -3.7892568 -16.071554 4294967295
14.036489 -3.630182 -16.088306 4294967295
14.037374 -7.4342337 -16.37785 4294967295
14.039627 -8.7070007 -16.21456 4294967295
14.041376 -4.4263682 -15.970037 4294967295
14.057121 -6.3234015 -16.4202 4294967295
14.06791 -4.1107998 -15.885418 4294967295
14.068524 -7.7563634 -16.195457 4294967295
14.074334 -6.8026361 -16.283226 4294967295
14.077582 -8.871315 -16.019735 4294967295
14.078181 -3.1568148 -15.952642 4294967295
14.094959 -6.9642591 -16.168665 4294967295
14.111458 -4.2744985 -15.664618 4294967295
14.112004 -6.4890394 -16.147129 4294967295
14.112072 -5.375422 -16.280598 4294967295
14.113892 -4.7393513 -16.348618 4294967295
14.116019 -6.1713133 -16.166777 4294967295
14.217962 -8.5545902 -16.160381 4294967295
14.23518 -4.4339681 -15.825809 4294967295
14.256792 -7.9233069 -16.057274 4294967295
14.278962 -3.8016112 -15.699812 4294967295
14.279444 -5.857615 -16.200947 4294967295
14.312749 -3.9642694 -15.524413 4294967295
14.324845 -6.4995046 -15.914686 4294967295
14.326579 -7.915678 -16.485653 4294967295
14.326935 -8.710906 -16.388575 4294967295
14.344952 -6.9638691 -16.515339 4294967295
14.34546 -5.0693989 -15.99143 4294967295
14.347773 -7.759398 -16.406876 4294967295
14.348411 -5.3880515 -15.939574 4294967295
14.352469 -6.6467438 -16.518801 4294967295
14.359128 -7.4427567 -16.392626 4294967295
14.36059 -7.2838912 -16.404964 4294967295
14.373816 -8.5582066 -16.191162 4294967295
14.377428 -4.7545199 -15.881953 4294967295
14.380617 -8.2409239 -16.197941 4294967295
14.382681 -6.0142055 -16.45569 4294967295
14.388078 -3.9597194 -15.928326 4294967295
14.401213 -4.1202459 -15.848531 4294967295
14.409498 -8.8813229 -15.988175 4294967295
14.409922 -8.4039545 -16.043518 4294967295
14.413987 -8.0862265 -16.062943 4294967295
14.420649 -6.4959073 -16.223154 4294967295
14.425101 -4.4411545 -15.699932 4294967295
14.432847 -4.2827253 -15.683269 4294967295
14.44499 -3.4877698 -15.722776 4294967295
14.449419 -5.5446391 -16.204931 4294967295
14.451581 -6.1813583 -16.118563 4294967295
14.454164 -4.9087543 -16.259417 4294967295
14.460052 -5.7049627 -16.136757 4294967295
14.493103 -4.4355621 -16.13702 4294967295
14.535738 -5.395185 -15.825642 4294967295
14.580997 -7.1365128 -16.157 4294967295
14.600186 -7.4571981 -16.030329 4294967295
14.619403 -8.4147539 -15.827128 4294967295
14.627004 -6.8239069 -15.983038 4294967295
14.651684 -5.7126617 -16.002914 4294967295
14.6586 -8.879941 -16.338598 4294967295
14.664656 -5.5549622 -15.96221 4294967295
14.665521 -7.4493275 -16.478365 4294967295
14.669056 -8.4041395 -16.347643 4294967295
14.681085 -4.4425445 -16.020153 4294967295
14.688452 -8.2476435 -16.277367 4294967295
14.69832 -6.4990668 -16.441732 4294967295
14.700089 -8.7265224 -16.166519 4294967295
14.701994 -5.2407436 -15.828283 4294967295
14.71088 -6.9778085 -16.326664 4294967295
14.720667 -4.7651234 -15.799519 4294967295
14.723598 -4.1285686 -15.86241 4294967295
14.724606 -7.9341822 -16.148975 4294967295
14.738885 -7.6177669 -16.121365 4294967295
14.750198 -3.6535892 -15.797132 4294967295
14.761516 -7.1431999 -16.074377 4294967295
14.765972 -8.5763063 -15.882072 4294967295
14.782282 -4.2938533 -15.572851 4294967295
14.783289 -8.1010303 -15.859564 4294967295
14.806987 -5.0795879 -16.113079 4294967295
14.807701 -4.9205194 -16.128874 4294967295
14.833847 -7.7726564 -16.413452 4294967295
14.836758 -3.980808 -15.360016 4294967295
14.867985 -5.5639305 -15.774964 4294967295
14.886295 -4.451323 -15.824324 4294967295
14.894292 -7.1439428 -16.211647 4294967295
14.924497 -6.9885464 -16.091772 4294967295
14.96161 -6.3563704 -15.997366 4294967295
14.989812 -5.4045157 -15.982139 4294967295
14.999813 -8.7321224 -16.28331 4294967295
15.017263 -5.0891466 -15.89406 4294967295
15.034578 -6.6683373 -16.37133 4294967295
15.039599 -8.5783854 -16.119509 4294967295
15.0458 -8.1017838 -16.148207 4294967295
15.050706 -6.1929784 -16.354418 4294967295
15.060087 -6.989665 -16.216009 4294967295
15.062551 -4.2978225 -15.781253 4294967295
15.069272 -5.2540989 -15.635812 4294967295
15.071183 -4.4579697 -15.722472 4294967295
15.080387 -7.7879734 -16.027395 4294967295
15.081497 -8.9024305 -15.888803 4294967295
15.086844 -6.8338027 -16.112135 4294967295
15.094065 -6.038918 -16.174297 4294967295
15.095837 -4.9384236 -15.551839 4294967295
15.104354 -7.631866 -15.936333 4294967295
15.105094 -5.5627503 -16.18083 4294967295
15.109192 -5.7223616 -16.142942 4294967295
15.121282 -7.1564007 -15.91577 4294967295
15.122151 -6.360538 -16.007132 4294967295
15.136333 -7.3174944 -15.82754 4294967295
15.137473 -3.9869092 -15.474974 4294967295
15.176304 -7.4656668 -16.371775 4294967295
15.192373 -7.3085899 -16.317076 4294967295
15.262868 -5.2618661 -15.494292 4294967295
15.273031 -8.5924473 -15.794375 4294967295
15.305358 -4.31041 -15.413687 4294967295
15.333913 -5.4153495 -15.89633 4294967295
15.335598 -6.370965 -15.774185 4294967295
15.342086 -8.7435045 -16.204725 4294967295
15.344583 -5.5757751 -15.828312 4294967295
15.347021 -7.9485126 -16.27733 4294967295
15.347945 -5.2576737 -15.851022 4294967295
15.378831 -6.679502 -16.283882 4294967295
15.378893 -7.6343422 -16.16931 4294967295
15.390625 -4.3067346 -15.769665 4294967295
15.390744 -8.4317303 -16.019722 4294967295
15.391863 -4.9439449 -15.687694 4294967295
15.409421 -7.7974253 -16.010307 4294967295
15.421322 -5.8887959 -16.184385 4294967295
15.426824 -5.1070356 -15.508239 4294967295
15.427725 -6.5262151 -16.078836 4294967295
15.428388 -7.1630473 -15.999583 4294967295
15.429285 -4.6293421 -15.554185 4294967295
15.441422 -8.2792482 -15.806426 4294967295
15.442163 -6.3687444 -16.031713 4294967295
15.442597 -8.5978956 -15.76292 4294967295
15.46151 -6.2118192 -15.962107 4294967295
15.521691 -6.0595846 -15.705359 4294967295
15.522381 -5.741118 -15.740332 4294967295
15.543971 -8.1166334 -16.101032 4294967295
15.560372 -8.7555847 -15.94974 4294967295
15.579947 -7.0069361 -16.069616 4294967295
15.622429 -4.636878 -15.415388 4294967295
15.625208 -4.9558992 -15.364507 4294967295
15.675154 -5.7443752 -15.786193 4294967295
15.679027 -6.222641 -15.7113 4294967295
15.691133 -5.2683558 -15.770226 4294967295
15.691459 -5.4276652 -15.74968 4294967295
15.740482 -8.2847853 -15.92719 4294967295
15.750463 -8.4453402 -15.862494 4294967295
15.75778 -5.5943899 -15.427073 4294967295
15.765042 -4.9577761 -15.470098 4294967295
15.769256 -6.8554282 -15.966969 4294967295
15.771811 -6.2188764 -16.031439 4294967295
15.772329 -8.7667913 -15.724388 4294967295
15.773401 -7.8113604 -15.833755 4294967295
15.789738 -7.0171638 -15.854265 4294967295
15.793745 -8.6103964 -15.645476 4294967295
15.803725 -6.5411024 -15.847441 4294967295
15.813234 -8.1350803 -15.613482 4294967295
15.821893 -6.3839955 -15.783421 4294967295
15.834929 -7.1820107 -15.628566 4294967295
15.866339 -8.9212227 -16.019499 4294967295
15.88893 -4.957942 -15.648396 4294967295
15.892722 -7.6510692 -16.051201 4294967295
15.893053 -7.9695263 -16.011631 4294967295
15.893706 -9.084198 -15.875422 4294967295
15.925544 -5.2805939 -15.442925 4294967295
15.967717 -6.8642092 -15.803829 4294967295
15.977664 -5.7505484 -15.891666 4294967295
16.002657 -5.9126625 -15.7585 4294967295
16.002893 -5.2755785 -15.833576 4294967295
16.007854 -4.8112817 -15.123872 4294967295
16.032936 -5.4381824 -15.677365 4294967295
16.037153 -8.7676497 -16.001495 4294967295
16.043421 -7.3356385 -16.144087 4294967295
16.045612 -8.2911301 -16.019955 4294967295
16.045723 -7.8135166 -16.076521 4294967295
16.059845 -8.452239 -15.935988 4294967295
16.063929 -4.8042746 -15.612043 4294967295
16.079859 -6.8625121 -16.03492 4294967295
16.082024 -6.225925 -16.101131 4294967295
16.082306 -7.6589651 -15.928635 4294967295
16.083838 -4.4876957 -15.559245 4294967295
16.105373 -6.3878818 -15.975608 4294967295
16.114197 -5.7519712 -16.011463 4294967295
16.117523 -5.1287589 -15.329261 4294967295
16.123152 -4.9699669 -15.322617 4294967295
16.129618 -7.5056834 -15.731805 4294967295
16.130203 -4.3331199 -15.366638 4294967295
16.249386 -8.7788725 -15.775827 4294967295
16.26963 -8.4630041 -15.721604 4294967295
16.272577 -8.1448011 -15.746219 4294967295
16.280418 -7.3493652 -15.8056 4294967295
16.332319 -6.0812311 -15.721323 4294967295
16.34849 -8.6155977 -16.08481 4294967295
16.351368 -8.1383562 -16.128719 4294967295
16.371109 -7.344852 -16.133892 4294967295
16.396933 -7.6665468 -15.978335 4294967295
16.399258 -4.8139915 -15.56864 4294967295
16.407017 -5.4522986 -15.457172 4294967295
16.407284 -6.7124014 -16.045279 4294967295
16.409952 -8.9423962 -15.766976 4294967295
16.410172 -5.1338902 -15.480867 4294967295
16.421137 -7.9881682 -15.830144 4294967295
16.446365 -7.0356479 -15.829398 4294967295
16.447124 -8.310153 -15.67382 4294967295
16.449242 -4.659884 -15.36003 4294967295
16.449459 -6.2396379 -15.910382 4294967295
16.454952 -7.5145984 -15.733274 4294967295
16.456774 -6.3997669 -15.858091 4294967295
16.474789 -5.9240012 -15.833161 4294967295
16.48032 -8.473876 -15.50368 4294967295
16.482655 -6.5621223 -15.721297 4294967295
16.494741 -4.9835868 -15.114709 4294967295
16.533531 -8.9416046 -15.945384 4294967295
16.544209 -5.1351285 -15.612409 4294967295
16.571018 -7.8317289 -15.907952 4294967295
16.628405 -7.361084 -15.704088 4294967295
16.630302 -6.8833661 -15.75249 4294967295
16.630829 -9.1142054 -15.483926 4294967295
16.672428 -5.6137066 -15.713109 4294967295
16.679232 -4.9902492 -15.01717 4294967295
16.692873 -8.6271772 -15.998993 4294967295
16.702738 -5.7764568 -15.55635 4294967295
16.716438 -6.0967774 -15.456047 4294967295
16.720091 -9.1086693 -15.818392 4294967295
16.730745 -7.0395207 -16.016943 4294967295
16.741873 -5.3026543 -15.435558 4294967295
16.742987 -8.1559706 -15.82839 4294967295
16.746435 -5.4625607 -15.395807 4294967295
16.766539 -7.3624806 -15.816433 4294967295
16.773628 -6.7261591 -15.860237 4294967295
16.774553 -8.4787464 -15.647032 4294967295
16.779276 -8.7980671 -15.58757 4294967295
16.783947 -6.8867006 -15.794392 4294967295
16.795008 -8.9595594 -15.497112 4294967295
16.801764 -4.8308144 -15.220489 4294967295
16.815752 -6.4125266 -15.706997 4294967295
16.831421 -6.2550163 -15.654873 4294967295
16.843693 -4.6757507 -15.049007 4294967295
16.925779 -5.9470778 -15.264553 4294967295
16.948385 -6.0948024 -15.882277 4294967295
16.973789 -8.3286934 -15.501133 4294967295
16.988104 -7.2148695 -15.5692 4294967295
17.011116 -5.6239228 -15.654838 4294967295
17.03089 -4.6826243 -14.939661 4294967295
17.042364 -5.7868023 -15.494172 4294967295
17.047487 -5.1497984 -15.546953 4294967295
17.050022 -6.2659025 -15.402437 4294967295
17.059196 -7.3673201 -15.966293 4294967295
17.065744 -8.0053034 -15.860711 4294967295
17.085709 -8.9638891 -15.65635 4294967295
17.086571 -8.326642 -15.728382 4294967295
17.13368 -6.7391434 -15.704845 4294967295
17.13422 -7.2172675 -15.645437 4294967295
17.135069 -7.5361013 -15.603607 4294967295
17.161705 -7.8582439 -15.444957 4294967295
17.165043 -6.4241323 -15.600779 4294967295
17.180445 -6.1071601 -15.569012 4294967295
17.181704 -5.9479213 -15.582297 4294967295
17.194555 -6.9058347 -15.410127 4294967295
17.212208 -5.6325641 -15.482149 4294967295
17.255001 -5.1589751 -15.345364 4294967295
17.265156 -6.7398329 -15.847172 4294967295
17.268425 -8.014925 -15.680552 4294967295
17.295752 -5.4823666 -15.12284 4294967295
17.322824 -5.6311274 -15.71916 4294967295
17.360928 -5.0108409 -14.884748 4294967295
17.369076 -6.1145196 -15.452999 4294967295
17.385244 -5.7975035 -15.41784 4294967295
17.393078 -4.8546748 -14.758202 4294967295
17.402609 -5.1616821 -15.415262 4294967295
17.405449 -8.812809 -15.702802 4294967295
17.419809 -7.3805866 -15.808621 4294967295
17.42329 -5.4828386 -15.283739 4294967295
17.426912 -7.8595037 -15.719615 4294967295
17.453188 -8.659812 -15.505971 4294967295
17.462551 -8.3422394 -15.501603 4294967295
17.466908 -6.589541 -15.690653 4294967295
17.470209 -8.1838284 -15.485971 4294967295
17.491661 -6.7518606 -15.559822 4294967295
17.493139 -7.0708447 -15.515185 4294967295
17.493811 -7.2303371 -15.493172 4294967295
17.516661 -5.9577584 -15.541754 4294967295
17.517889 -6.9144187 -15.422325 4294967295
17.518482 -6.4362092 -15.476586 4294967295
17.532602 -8.8125534 -15.864305 4294967295
17.532946 -8.6532831 -15.881714 4294967295
17.553267 -7.5407214 -15.922684 4294967295
17.56115 -7.7010264 -15.868139 4294967295
17.6569 -5.6408181 -15.682513 4294967295
17.668335 -6.2796912 -15.555041 4294967295
17.709702 -8.6596575 -15.819214 4294967295
17.712385 -6.12533 -15.375215 4294967295
17.726513 -4.8641381 -14.726689 4294967295
17.729471 -8.1842213 -15.786921 4294967295
17.753023 -7.7091622 -15.737585 4294967295
17.753275 -6.7530885 -15.850184 4294967295
17.755457 -8.8251276 -15.593906 4294967295
17.759747 -7.3912759 -15.745188 4294967295
17.764364 -5.1742654 -15.254534 4294967295
17.769695 -7.0737662 -15.738248 4294967295
17.783611 -5.3358521 -15.148712 4294967295
17.806831 -6.281281 -15.665629 4294967295
17.811852 -5.8036985 -15.699875 4294967295
17.844564 -5.0233173 -14.911668 4294967295
17.862104 -4.8655882 -14.851517 4294967295
17.884909 -5.6524277 -15.389563 4294967295
17.898361 -7.3927436 -15.854882 4294967295
17.898579 -7.0740943 -15.891794 4294967295
17.945175 -6.9203582 -15.700912 4294967295
17.959406 -8.0379639 -15.504161 4294967295
17.966137 -6.6040688 -15.644428 4294967295
17.973785 -8.6776161 -15.363563 4294967295
18.01742 -6.4506526 -15.432485 4294967295
18.049963 -8.5112696 -15.773406 4294967295
18.070267 -5.978291 -15.25144 4294967295
18.074005 -5.5002122 -15.291501 4294967295
18.075565 -8.8334293 -15.620334 4294967295
18.085308 -7.8783278 -15.690159 4294967295
18.09137 -6.7634268 -15.795485 4294967295
18.101925 -8.1992598 -15.577517 4294967295
18.115242 -7.2444658 -15.631282 4294967295
18.117971 -6.288413 -15.732677 4294967295
18.121489 -7.4046454 -15.584243 4294967295
18.125509 -6.448679 -15.679832 4294967295
18.132641 -8.3626795 -15.42039 4294967295
18.138062 -5.0285568 -15.060054 4294967295
18.149515 -7.7270126 -15.420275 4294967295
18.212158 -5.1829257 -15.441788 4294967295
18.236843 -4.8793912 -14.634401 4294967295
18.248888 -6.1439853 -15.162888 4294967295
18.285038 -8.5252666 -15.4494 4294967295
18.299194 -5.9761176 -15.68883 4294967295
18.314432 -7.0938997 -15.487802 4294967295
18.342058 -4.7180486 -14.914648 4294967295
18.346064 -6.1408749 -15.459369 4294967295
18.394369 -5.8273592 -15.280296 4294967295
18.396944 -5.0301313 -15.363472 4294967295
18.398081 -8.5232344 -15.673956 4294967295
18.408302 -7.5681529 -15.741645 4294967295
18.413094 -8.2063694 -15.644434 4294967295
18.418163 -7.0911889 -15.754168 4294967295
18.420666 -7.7290983 -15.667231 4294967295
18.420937 -6.7727442 -15.779584 4294967295
18.445713 -5.6735349 -15.068646 4294967295
18.446423 -6.2975402 -15.722011 4294967295
18.449308 -5.3548026 -15.090406 4294967295
18.454706 -4.8767037 -15.123038 4294967295
18.463707 -6.4589558 -15.625533 4294967295
18.468664 -8.3730116 -15.376085 4294967295
18.494991 -8.0574226 -15.295794 4294967295
18.500198 -6.6226711 -15.442871 4294967295
18.506222 -6.144959 -15.472654 4294967295
18.512566 -5.2020288 -14.825288 4294967295
18.539984 -5.3513308 -15.415878 4294967295
18.590851 -8.850563 -15.502774 4294967295
18.615648 -9.0133543 -15.372666 4294967295
18.70476 -5.0498395 -14.71466 4294967295
18.716986 -7.7343559 -15.800614 4294967295
18.718544 -5.5168958 -15.32796 4294967295
18.72094 -5.8362002 -15.279356 4294967295
18.726994 -4.892508 -14.633887 4294967295
18.729128 -8.3735266 -15.6706 4294967295
18.736675 -6.7804179 -15.825927 4294967295
18.740765 -7.577919 -15.713059 4294967295
18.743093 -8.8536663 -15.551318 4294967295
18.75964 -8.0585852 -15.571809 4294967295
18.774302 -9.0173101 -15.392645 4294967295
18.778648 -8.5394335 -15.429943 4294967295
18.78723 -8.2215843 -15.429358 4294967295
18.795828 -6.3090715 -15.617884 4294967295
18.795925 -4.7273951 -15.075955 4294967295
18.7994 -7.1067729 -15.5073 4294967295
18.816374 -5.992507 -15.563755 4294967295
18.817509 -5.3680935 -14.903484 4294967295
18.820303 -5.0491509 -14.928853 4294967295
18.827831 -6.1532726 -15.493553 4294967295
18.830122 -6.4724998 -15.445455 4294967295
18.849375 -5.2118845 -14.779658 4294967295
18.884287 -5.202527 -15.354416 4294967295
18.953848 -7.7480884 -15.47049 4294967295
19.049814 -7.4253697 -15.808364 4294967295
19.0564 -8.8610497 -15.608868 4294967295
19.063866 -5.0491166 -15.300185 4294967295
19.065298 -8.7027769 -15.588015 4294967295
19.07382 -5.5288367 -15.198927 4294967295
19.084223 -8.2268629 -15.56017 4294967295
19.105795 -6.6349506 -15.652829 4294967295
19.120945 -7.2746177 -15.509552 4294967295
19.123034 -6.3180408 -15.613647 4294967295
19.123388 -5.2150197 -15.015203 4294967295
19.126707 -4.7365508 -15.057152 4294967295
19.127134 -7.7538538 -15.425198 4294967295
19.128147 -8.0729923 -15.382854 4294967295
19.137981 -6.9576955 -15.471276 4294967295
19.146513 -7.1182184 -15.414267 4294967295
19.161736 -6.4819889 -15.42191 4294967295
19.187925 -5.8469067 -15.380593 4294967295
19.241009 -7.7521949 -15.645148 4294967295
19.258507 -8.7112837 -15.453698 4294967295
19.269865 -6.798964 -15.629764 4294967295
19.302387 -5.5403576 -14.907336 4294967295
19.321882 -5.8480611 -15.511124 4294967295
19.324823 -8.4008856 -15.195573 4294967295
19.372608 -4.7494502 -14.688464 4294967295
19.373552 -6.0133662 -15.261764 4294967295
19.393661 -7.9148345 -15.672951 4294967295
19.39432 -6.1752844 -15.150229 4294967295
19.407913 -8.2355719 -15.571668 4294967295
19.410887 -5.5387788 -15.151972 4294967295
19.413263 -5.0602822 -15.198099 4294967295
19.431795 -9.0361977 -15.370769 4294967295
19.432064 -8.557682 -15.426247 4294967295
19.436268 -5.2223182 -15.076604 4294967295
19.437857 -6.9634638 -15.589328 4294967295
19.438148 -4.9033041 -15.106044 4294967295
19.44105 -6.1664896 -15.669534 4294967295
19.445181 -7.6023111 -15.481132 4294967295
19.457201 -8.0823622 -15.370888 4294967295
19.477558 -7.1277175 -15.39353 4294967295
19.478252 -6.8087544 -15.428223 4294967295
19.490284 -6.4911165 -15.412398 4294967295
19.51742 -5.5369954 -15.404869 4294967295
19.530655 -7.2936916 -15.138033 4294967295
19.555164 -6.0198464 -15.180031 4294967295
19.558283 -6.6585889 -15.090533 4294967295
19.559582 -8.8765326 -15.547286 4294967295
19.602266 -5.8654981 -14.9891 4294967295
19.612547 -7.1287961 -15.519197 4294967295
19.659615 -5.6986184 -15.479691 4294967295
19.665346 -4.9143381 -14.821568 4294967295
19.671196 -4.5955768 -14.833341 4294967295
19.685709 -7.7759576 -15.117994 4294967295
19.726765 -6.0251985 -15.143107 4294967295
19.729065 -8.7224236 -15.538049 4294967295
19.736984 -6.5052075 -15.040951 4294967295
19.74181 -6.8102593 -15.70784 4294967295
19.742723 -5.8673701 -15.090992 4294967295
19.751438 -8.0873089 -15.514056 4294967295
19.755953 -8.8854847 -15.399602 4294967295
19.759436 -7.1313081 -15.591743 4294967295
19.771597 -7.7708173 -15.462174 4294967295
19.777086 -5.0729561 -15.032592 4294967295
19.783197 -8.5699797 -15.316205 4294967295
19.783432 -6.3366504 -15.579437 4294967295
19.789022 -5.5531812 -14.92278 4294967295
19.796747 -8.252615 -15.293717 4294967295
19.806074 -7.6155548 -15.327767 4294967295
19.820719 -6.6600027 -15.375938 4294967295
19.825748 -8.4159222 -15.145874 4294967295
19.841129 -4.9199996 -14.766569 4294967295
19.850441 -6.0251756 -15.319347 4294967295
19.874474 -5.3895311 -15.28807 4294967295
19.881668 -5.7094822 -15.218328 4294967295
19.886045 -7.7692475 -15.678783 4294967295
19.893965 -7.610754 -15.662477 4294967295
19.897072 -4.7535853 -15.263186 4294967295
19.921988 -4.5965405 -15.171351 4294967295
19.93998 -6.6593242 -15.571343 4294967295
19.952482 -7.139358 -15.459222 4294967295
19.972511 -4.921032 -14.909063 4294967295
20.04476 -8.5706148 -15.604329 4294967295
20.062134 -5.7157702 -15.142254 4294967295
20.070032 -7.4573364 -15.624218 4294967295
20.079521 -6.9799953 -15.638699 4294967295
20.081432 -8.0967932 -15.498211 4294967295
20.101387 -8.4184208 -15.371964 4294967295
20.102539 -8.737689 -15.329131 4294967295
20.118704 -6.6655774 -15.502645 4294967295
20.135689 -7.1462216 -15.37072 4294967295
20.148821 -6.5095224 -15.387937 4294967295
20.150776 -6.1906309 -15.416996 4294967295
20.1611 -5.0877371 -14.778493 4294967295
20.168032 -7.9481378 -15.132917 4294967295
20.174557 -5.7145934 -15.36814 4294967295
20.193033 -5.5570312 -15.305084 4294967295
20.200396 -4.6126103 -14.660761 4294967295
20.225695 -4.6029096 -15.273491 4294967295
20.235023 -7.7810559 -15.578666 4294967295
20.254606 -7.9430261 -15.473041 4294967295
20.263083 -5.4049692 -15.013362 4294967295
20.277975 -7.467279 -15.426064 4294967295
20.281328 -4.4489098 -15.04573 4294967295
20.293924 -6.9905291 -15.411981 4294967295
20.303354 -4.7704988 -14.910332 4294967295
20.309484 -5.0905328 -14.845389 4294967295
20.319067 -8.7492151 -15.093107 4294967295
20.330709 -8.1121941 -15.116976 4294967295
20.342396 -8.4329643 -15.027462 4294967295
20.402679 -5.087533 -15.15661 4294967295
20.409321 -6.0461502 -15.013989 4294967295
20.423496 -8.9056263 -15.335055 4294967295
20.435715 -6.3543115 -15.582533 4294967295
20.442419 -8.5889378 -15.28899 4294967295
20.442741 -7.4719477 -15.419518 4294967295
20.451818 -7.7922068 -15.341642 4294967295
20.454048 -7.3137531 -15.388329 4294967295
20.455523 -6.9947944 -15.419503 4294967295
20.464474 -8.1129751 -15.247931 4294967295
20.467989 -4.7749863 -14.90513 4294967295
20.471609 -6.5179706 -15.404875 4294967295
20.479616 -5.8806062 -15.444845 4294967295
20.480902 -4.6166015 -14.866831 4294967295
20.486298 -8.7542734 -15.075913 4294967295
20.495464 -5.4036326 -15.431286 4294967295
20.503857 -8.2776012 -15.054774 4294967295
20.527845 -4.4616122 -14.677838 4294967295
20.530569 -6.0458641 -15.200571 4294967295
20.546204 -8.7452927 -15.533343 4294967295
20.559061 -4.9315453 -15.206534 4294967295
20.560923 -5.7299447 -15.104005 4294967295
20.568905 -5.0922093 -15.144131 4294967295
20.573215 -7.7915125 -15.526954 4294967295
20.601526 -6.8376627 -15.514843 4294967295
20.609692 -5.5755787 -14.907125 4294967295
20.685822 -7.3264947 -15.085734 4294967295
20.688477 -5.0919924 -15.337883 4294967295
20.70013 -6.6895671 -15.097898 4294967295
20.709356 -6.5309749 -15.075973 4294967295
20.738853 -6.2149854 -14.983328 4294967295
20.758146 -8.1178503 -15.393701 4294967295
20.763033 -5.8982911 -14.914186 4294967295
20.769766 -6.8427005 -15.493067 4294967295
20.77351 -5.2606087 -14.943326 4294967295
20.778307 -7.6416044 -15.361185 4294967295
20.783457 -4.4631476 -14.993667 4294967295
20.793257 -8.9204273 -15.144461 4294967295
20.796444 -4.783874 -14.898572 4294967295
20.805197 -8.602704 -15.129415 4294967295
20.809139 -7.8050175 -15.206218 4294967295
20.833017 -7.3290257 -15.15731 4294967295
20.839554 -9.0862236 -14.921153 4294967295
20.84347 -7.9689417 -15.035788 4294967295
20.84639 -6.3727531 -15.211331 4294967295
20.852852 -5.8945789 -15.239329 4294967295
20.853132 -4.31037 -14.704723 4294967295
20.865175 -6.6942115 -15.090717 4294967295
20.875227 -7.4938073 -14.952108 4294967295
20.894709 -8.9168329 -15.417625 4294967295
20.899771 -6.5385242 -14.956848 4294967295
20.924227 -5.4233437 -14.980846 4294967295
20.952461 -6.2110996 -15.482975 4294967295
20.954603 -7.1688724 -15.36056 4294967295
20.99584 -5.4179177 -15.385874 4294967295
21.026413 -4.1558967 -14.680744 4294967295
21.086784 -5.906776 -14.928429 4294967295
21.09193 -7.6489987 -15.418819 4294967295
21.094419 -8.6069355 -15.294928 4294967295
21.095016 -6.8514566 -15.499323 4294967295
21.098175 -7.8093638 -15.372484 4294967295
21.112083 -4.7914453 -14.948804 4294967295
21.114355 -7.3325238 -15.35768 4294967295
21.13986 -8.453145 -15.113544 4294967295
21.142595 -8.1341696 -15.139148 4294967295
21.15259 -4.4760761 -14.807957 4294967295
21.159927 -4.1572924 -14.813319 4294967295
21.1737 -8.7768955 -14.926788 4294967295
21.183876 -7.1812048 -15.07028 4294967295
21.190798 -6.543303 -15.115113 4294967295
21.193197 -6.2242336 -15.142209 4294967295
21.221468 -6.7065315 -14.961203 4294967295
21.239201 -8.2898788 -15.414371 4294967295
21.245655 -5.1121397 -15.043027 4294967295
21.270226 -5.5939083 -14.878338 4294967295
21.283144 -4.6368546 -14.934478 4294967295
21.309586 -4.9590569 -14.780389 4294967295
21.321001 -6.3842998 -15.280245 4294967295
21.349354 -6.2278481 -15.174345 4294967295
21.35932 -5.2709675 -15.243439 4294967295
21.407578 -8.7738876 -15.335919 4294967295
21.420113 -7.1793728 -15.468883 4294967295
21.429707 -7.659349 -15.370298 4294967295
21.43297 -4.4801102 -15.01366 4294967295
21.437372 -5.7584567 -14.843657 4294967295
21.440594 -9.0975094 -15.153156 4294967295
21.441418 -8.6186371 -15.205969 4294967295
21.447531 -4.1621075 -14.987288 4294967295
21.456169 -8.9398918 -15.103503 4294967295
21.471334 -7.8241086 -15.16853 4294967295
21.471336 -6.8661714 -15.281399 4294967295
21.475344 -4.9636607 -14.770821 4294967295
21.492796 -6.3896894 -15.243533 4294967295
21.497349 -5.4323087 -15.336399 4294967295
21.500109 -8.3067808 -14.985617 4294967295
21.500856 -5.9116254 -15.264548 4294967295
21.515417 -7.9892712 -14.955965 4294967295
21.516653 -6.0730362 -15.176335 4294967295
21.534416 -4.957243 -15.23 4294967295
21.544168 -5.5969944 -15.111889 4294967295
21.596483 -8.7817602 -15.223883 4294967295
21.598112 -8.3030148 -15.27314 4294967295
21.615242 -4.8058367 -14.893769 4294967295
21.628458 -5.1267319 -14.798067 4294967295
21.633709 -4.4881825 -14.850303 4294967295
21.658125 -7.3524103 -15.122509 4294967295
21.687826 -7.5156999 -14.973317 4294967295
21.71513 -5.2827926 -15.116834 4294967295
21.738842 -6.0839839 -14.918715 4294967295
21.757887 -4.4886036 -15.023289 4294967295
21.760012 -5.1277752 -14.938707 4294967295
21.770992 -7.8297687 -15.288089 4294967295
21.777319 -8.4692173 -15.185159 4294967295
21.802925 -4.8126683 -14.788051 4294967295
21.803972 -8.632329 -15.049472 4294967295
21.809481 -4.0144114 -14.853382 4294967295
21.82074 -7.6761942 -15.088749 4294967295
21.823393 -7.1974158 -15.133516 4294967295
21.833778 -7.997232 -14.993969 4294967295
21.83609 -4.1767859 -14.717829 4294967295
21.836149 -6.400434 -15.17159 4294967295
21.8531 -8.1593857 -14.890433 4294967295
21.858095 -6.562634 -15.05658 4294967295
21.871405 -6.7238903 -14.979422 4294967295
21.888863 -6.0869122 -14.978116 4294967295
21.898117 -5.7684455 -14.975161 4294967295
21.902645 -5.6091919 -14.97412 4294967295
21.936888 -8.1539125 -15.239817 4294967295
21.943657 -5.4538169 -14.813164 4294967295
21.948387 -4.6554155 -14.886486 4294967295
21.971794 -7.3597927 -15.180878 4294967295
22.011488 -8.8023119 -14.837842 4294967295
22.035467 -3.7050626 -14.617785 4294967295
22.058584 -8.9514084 -15.328722 4294967295
22.064272 -3.8676538 -14.472751 4294967295
22.093658 -6.2557096 -14.778795 4294967295
22.098326 -4.498641 -14.965196 4294967295
22.108263 -4.6594038 -14.902891 4294967295
22.124895 -6.7243285 -15.301527 4294967295
22.127851 -5.9263558 -15.382501 4294967295
22.14341 -4.343328 -14.786654 4294967295
22.144445 -8.4834223 -15.009363 4294967295
22.149513 -6.4077792 -15.231419 4294967295
22.15177 -7.5259705 -15.090042 4294967295
22.156511 -8.8044653 -14.918983 4294967295
22.162905 -8.0065279 -14.984962 4294967295
22.166656 -8.3264971 -14.930964 4294967295
22.189899 -7.211062 -14.960819 4294967295
22.199017 -5.6147027 -15.108841 4294967295
22.199236 -4.1889648 -14.56111 4294967295
22.200777 -6.5733199 -14.988399 4294967295
22.205324 -7.8520064 -14.818165 4294967295
22.207277 -3.5502894 -14.601166 4294967295
