# .PCD v0.7 - Point Cloud Data file format
VERSION 0.7
FIELDS x y z rgb
SIZE 4 4 4 4
TYPE F F F U
COUNT 1 1 1 1
WIDTH 1142
HEIGHT 1
VIEWPOINT 0 0 0 1 0 0 0
POINTS 1142
DATA ascii
52.466465 18.418234 -13.353133 4294967295
52.475559 18.095369 -13.284554 4294967295
52.475761 22.458986 -13.76498 4294967295
52.487419 18.742605 -13.312932 4294967295
52.496101 16.964493 -13.085372 4294967295
52.497589 20.198009 -13.436551 4294967295
52.514221 22.784998 -13.661484 4294967295
52.519058 21.815695 -13.53708 4294967295
52.529552 22.301302 -13.552579 4294967295
52.550709 21.656239 -13.404747 4294967295
52.566147 20.188797 -13.793641 4294967295
52.589916 20.998055 -13.796743 4294967295
52.594666 17.928045 -13.441112 4294967295
52.59708 16.796652 -13.307646 4294967295
52.605045 23.276834 -13.386431 4294967295
52.622612 17.606041 -13.304389 4294967295
52.624466 22.939108 -13.885546 4294967295
52.642506 19.22357 -13.410655 4294967295
52.659176 19.709444 -13.403833 4294967295
52.668034 23.265579 -13.763719 4294967295
52.673012 19.548571 -13.335986 4294967295
52.680187 22.458521 -13.630749 4294967295
52.682175 20.519075 -13.409777 4294967295
52.686501 20.034351 -13.340675 4294967295
52.689793 22.62084 -13.613853 4294967295
52.697262 21.974876 -13.515602 4294967295
52.708218 20.682362 -13.33345 4294967295
52.725716 21.653543 -13.377121 4294967295
52.736992 17.115368 -13.442255 4294967295
52.750156 19.701771 -13.679658 4294967295
52.751556 17.439266 -13.425258 4294967295
52.75856 17.277929 -13.382128 4294967295
52.761887 16.793102 -13.316663 4294967295
52.767216 20.510715 -13.707073 4294967295
52.770832 23.111891 -13.374436 4294967295
52.772991 17.925169 -13.401245 4294967295
52.782734 20.188469 -13.615411 4294967295
52.786148 18.087444 -13.371513 4294967295
52.787388 22.127825 -13.812272 4294967295
52.79105 22.289656 -13.816847 4294967295
52.79755 18.896278 -13.41939 4294967295
52.800491 21.320808 -13.675925 4294967295
52.811291 19.381969 -13.423204 4294967295
52.811493 19.220327 -13.404658 4294967295
52.831261 21.646101 -13.600431 4294967295
52.837029 19.868401 -13.383668 4294967295
52.842545 18.575253 -13.221201 4294967295
52.848606 22.94026 -13.680265 4294967295
52.878502 23.427416 -13.625756 4294967295
52.892582 17.757927 -13.555718 4294967295
52.950909 19.215479 -13.505448 4294967295
52.953571 21.639811 -13.762887 4294967295
52.95908 19.539204 -13.511568 4294967295
52.967342 22.771854 -13.837795 4294967295
52.98151 20.671982 -13.555273 4294967295
53.016125 20.997473 -13.46599 4294967295
53.020542 20.027719 -13.343202 4294967295
53.023727 18.249142 -13.135736 4294967295
53.030476 18.087736 -13.093567 4294967295
53.034077 22.938475 -13.614903 4294967295
53.035267 18.89662 -13.16536 4294967295
53.035686 21.483749 -13.448842 4294967295
53.037853 19.058477 -13.173842 4294967295
53.065155 21.162338 -13.306902 4294967295
53.067947 17.593264 -13.508788 4294967295
53.076504 19.694683 -13.709328 4294967295
53.077877 22.618437 -13.421304 4294967295
53.079056 21.810072 -13.328001 4294967295
53.079369 21.97179 -13.344694 4294967295
53.083172 23.265539 -13.473448 4294967295
53.094742 22.457983 -13.342673 4294967295
53.109516 17.1101 -13.305439 4294967295
53.118477 16.78709 -13.237505 4294967295
53.122112 17.75738 -13.331247 4294967295
53.136135 19.374773 -13.458738 4294967295
53.150837 18.567184 -13.316686 4294967295
53.160431 16.950514 -13.103979 4294967295
53.199142 19.539963 -13.249363 4294967295
53.211491 20.34923 -13.293895 4294967295
53.227383 19.056313 -13.094105 4294967295
53.227737 21.32048 -13.34217 4294967295
53.236618 19.865551 -13.149879 4294967295
53.24968 17.752153 -13.474634 4294967295
53.266907 19.2078 -13.572747 4294967295
53.274124 20.501209 -13.689097 4294967295
53.278008 17.591772 -13.354755 4294967295
53.278923 21.632742 -13.796351 4294967295
53.313198 20.180309 -13.512783 4294967295
53.326931 21.797646 -13.641289 4294967295
53.335918 18.564711 -13.252937 4294967295
53.340805 21.960247 -13.609136 4294967295
53.34177 20.02033 -13.392086 4294967295
53.342934 22.445316 -13.654848 4294967295
53.352165 17.109833 -13.034122 4294967295
53.354027 20.344439 -13.383542 4294967295
53.354767 20.66786 -13.416483 4294967295
53.355583 18.889158 -13.217702 4294967295
53.382946 23.256538 -13.599781 4294967295
53.393055 22.933987 -13.527794 4294967295
53.402039 22.6113 -13.459864 4294967295
53.404732 19.053495 -13.05846 4294967295
53.427132 23.098259 -13.422925 4294967295
53.429718 22.128187 -13.306813 4294967295
53.435917 20.497597 -13.709067 4294967295
53.443024 19.689877 -13.594555 4294967295
53.458508 17.10383 -13.254102 4294967295
53.458542 20.660622 -13.645461 4294967295
53.470474 22.778086 -13.231296 4294967295
53.480354 20.177008 -13.513602 4294967295
53.482479 21.793619 -13.683857 4294967295
53.493034 21.147755 -13.574734 4294967295
53.51329 17.591402 -13.110294 4294967295
53.524971 19.20937 -13.246281 4294967295
53.553268 20.989969 -13.340252 4294967295
53.557838 21.313692 -13.359401 4294967295
53.595863 18.877523 -13.557856 4294967295
53.622471 16.938534 -13.24867 4294967295
53.627247 18.070709 -13.356058 4294967295
53.632668 17.747551 -13.300971 4294967295
53.649719 21.467112 -13.648827 4294967295
53.662766 21.791294 -13.637506 4294967295
53.663258 19.851261 -13.422288 4294967295
53.668785 19.204758 -13.331252 4294967295
53.673885 17.102407 -13.081553 4294967295
53.681702 19.528898 -13.3204 4294967295
53.687634 20.176092 -13.370253 4294967295
53.69289 20.98493 -13.440307 4294967295
53.699902 20.338541 -13.343946 4294967295
53.706593 22.441046 -13.551163 4294967295
53.726162 20.825336 -13.302936 4294967295
53.729454 21.957594 -13.415642 4294967295
53.731934 23.413023 -13.566821 4294967295
53.75404 22.929634 -13.434045 4294967295
53.755497 19.694803 -13.072899 4294967295
53.762939 17.095686 -13.36329 4294967295
53.764565 18.065891 -13.464163 4294967295
53.768269 17.581005 -13.397497 4294967295
53.774918 22.28426 -13.287854 4294967295
53.782688 18.551823 -13.452415 4294967295
53.786575 22.770342 -13.299353 4294967295
53.788296 20.330484 -13.627884 4294967295
53.79303 20.815722 -13.664227 4294967295
53.79591 21.638681 -13.141238 4294967295
53.796886 19.522661 -13.508125 4294967295
53.818413 21.948919 -13.697531 4294967295
53.818687 18.87706 -13.358676 4294967295
53.819679 16.93631 -13.141614 4294967295
53.821564 -1.5136303 -12.309372 4294967295
53.82254 2.855289 -12.786381 4294967295
53.828651 -3.7805541 -12.034596 4294967295
53.840897 -3.1338291 -12.061752 4294967295
53.874142 1.0730658 -12.405071 4294967295
53.890465 0.74850851 -12.310764 4294967295
53.91571 2.5278809 -12.415817 4294967295
53.937141 0.2652041 -12.691068 4294967295
53.948223 -1.1916659 -12.491122 4294967295
53.961517 1.2346402 -12.710201 4294967295
53.98616 -2.327137 -12.230185 4294967295
53.986675 -2.8128357 -12.174928 4294967295
53.990578 -1.8418 -12.267695 4294967295
53.991692 -2.975096 -12.139092 4294967295
53.992622 -3.6227982 -12.064533 4294967295
53.999069 -0.38555041 -12.397349 4294967295
54.002502 0.099802203 -12.438398 4294967295
54.008766 -1.0335886 -12.291307 4294967295
54.02034 1.8790891 -12.570048 4294967295
54.02322 2.0407839 -12.577491 4294967295
54.02623 -2.6537566 -12.050522 4294967295
54.028149 -1.5204829 -12.16824 4294967295
54.037899 1.554608 -12.471369 4294967295
54.040874 -2.9708664 -12.563561 4294967295
54.041279 0.7451539 -12.370252 4294967295
54.047104 -0.064555399 -12.260327 4294967295
54.047829 2.6870515 -12.560268 4294967295
54.053238 -0.7125122 -12.167072 4294967295
54.061592 -2.4869375 -12.5425 4294967295
54.078003 -3.782783 -12.341255 4294967295
54.079002 2.2001884 -12.394904 4294967295
54.082241 -1.3556795 -12.592839 4294967295
54.083714 0.58105308 -12.199983 4294967295
54.097401 -3.460557 -12.307148 4294967295
54.099312 2.5230818 -12.357544 4294967295
54.100506 -0.70958948 -12.598396 4294967295
54.135979 -2.1684072 -12.310913 4294967295
54.14764 2.3621101 -12.767103 4294967295
54.162163 0.2578316 -12.483751 4294967295
54.181522 1.066038 -12.503211 4294967295
54.181526 0.74234408 -12.467606 4294967295
54.230118 -1.6823447 -12.6269 4294967295
54.257324 -2.0077822 -12.493725 4294967295
54.26009 1.2240405 -12.238984 4294967295
54.277359 -0.55261838 -12.581885 4294967295
54.297909 2.3587 -12.828218 4294967295
54.322182 -0.71712518 -12.403326 4294967295
54.3297 -1.2032043 -12.322994 4294967295
54.330002 -3.4699018 -12.072837 4294967295
54.337532 -0.23242579 -12.401614 4294967295
54.338806 -2.4990032 -12.147999 4294967295
54.339237 0.41492739 -12.466641 4294967295
54.340759 -1.8514916 -12.212152 4294967295
54.351257 0.89987022 -12.4769 4294967295
54.355034 -3.1478965 -12.018595 4294967295
54.363533 1.0611142 -12.450663 4294967295
54.37178 2.8410876 -12.616716 4294967295
54.373177 -0.3963654 -12.255983 4294967295
54.374287 -1.5298518 -12.127446 4294967295
54.383999 1.5457302 -12.430634 4294967295
54.389114 0.57416129 -12.305552 4294967295
54.391529 2.0310006 -12.456995 4294967295
54.392292 -1.0451912 -12.116235 4294967295
54.394489 0.25006539 -12.250697 4294967295
54.401279 1.8686891 -12.404237 4294967295
54.405163 -1.8489913 -12.581304 4294967295
54.406647 -2.8200665 -12.469314 4294967295
54.414368 0.73475462 -12.232775 4294967295
54.417999 -3.7920451 -12.321937 4294967295
54.421341 -2.4974232 -12.452196 4294967295
54.422604 -3.306792 -12.358776 4294967295
54.431164 -1.2033767 -12.559216 4294967295
54.471664 -0.72033358 -12.46739 4294967295
54.473564 2.6751268 -12.234036 4294967295
54.490093 -2.6641502 -12.187952 4294967295
54.507374 1.8672981 -12.623899 4294967295
54.525745 -2.3427949 -12.095718 4294967295
54.526192 1.5427412 -12.520933 4294967295
54.529507 1.2188579 -12.473506 4294967295
54.553516 -2.1827512 -12.013954 4294967295
54.586811 -3.149092 -12.387747 4294967295
54.590397 -0.074457496 -12.712575 4294967295
54.600246 -2.1788735 -12.446275 4294967295
54.617649 -0.56149179 -12.561697 4294967295
54.642815 1.7027684 -12.720418 4294967295
54.643871 -0.40117499 -12.485599 4294967295
54.647564 -1.3726338 -12.365715 4294967295
54.649067 -1.6965076 -12.324783 4294967295
54.649158 2.5115361 -12.786554 4294967295
54.651115 -2.5061567 -12.228551 4294967295
54.659821 1.378318 -12.624015 4294967295
54.664585 -0.72614259 -12.375884 4294967295
54.667908 1.2160844 -12.577299 4294967295
54.669674 -3.6410406 -12.0376 4294967295
54.685673 -2.9944217 -12.051434 4294967295
54.694004 2.1859825 -12.590548 4294967295
54.718735 0.88980728 -12.359821 4294967295
54.730011 2.8319361 -12.532794 4294967295
54.7314 -2.8281109 -12.504723 4294967295
54.751804 -2.0202961 -12.520558 4294967295
54.754433 -1.211266 -12.599995 4294967295
54.755058 -0.8876453 -12.633289 4294967295
54.774086 2.3444414 -12.321747 4294967295
54.786221 -0.24214511 -12.59288 4294967295
54.82024 -2.1868069 -12.257944 4294967295
54.83567 0.72629368 -12.522645 4294967295
54.838829 2.3446529 -12.689042 4294967295
54.849838 -0.0838769 -12.383119 4294967295
54.853947 -3.484772 -11.995103 4294967295
54.874676 0.5623796 -12.365395 4294967295
54.898174 0.23728511 -12.245811 4294967295
54.940201 -1.8641771 -12.463095 4294967295
54.942268 1.3686312 -12.212576 4294967295
54.948605 2.1780686 -12.278809 4294967295
54.954472 -2.8364885 -12.305488 4294967295
54.96516 -1.2182819 -12.444955 4294967295
54.967484 -3.3231874 -12.205655 4294967295
54.978828 -3.0001652 -12.200642 4294967295
54.978973 2.0180287 -12.750861 4294967295
54.985481 -1.7052654 -12.319028 4294967295
54.986881 -3.4865792 -12.118543 4294967295
54.995281 -0.2487797 -12.44391 4294967295
55.024895 -2.193692 -12.124832 4294967295
55.030361 -3.1658902 -11.99864 4294967295
55.034138 -2.356287 -12.07403 4294967295
55.034859 -0.73682398 -12.249181 4294967295
55.035774 2.6630001 -12.61904 4294967295
55.03825 1.2059741 -12.450311 4294967295
55.06879 0.232878 -12.23458 4294967295
55.06958 1.852119 -12.40946 4294967295
55.070004 -1.386819 -12.052483 4294967295
55.072506 0.88044178 -12.292389 4294967295
55.073975 0.55648887 -12.251595 4294967295
55.073994 1.5280827 -12.358162 4294967295
55.078945 -0.4155173 -12.127199 4294967295
55.082951 2.3372715 -12.415016 4294967295
55.09761 -3.6486197 -12.30335 4294967295
55.098797 -1.867929 -12.494481 4294967295
55.099953 -2.6774058 -12.401557 4294967295
55.101315 0.069136202 -12.100588 4294967295
55.112888 2.8218114 -12.361408 4294967295
55.118168 -1.2216854 -12.496359 4294967295
55.119164 -1.5455056 -12.457284 4294967295
55.128513 -0.5748229 -12.530464 4294967295
55.134163 2.1731427 -12.214338 4294967295
55.151917 -2.0333664 -12.287044 4294967295
55.152794 -1.3857586 -12.354959 4294967295
55.171421 -2.5205131 -12.164091 4294967295
55.187885 1.202652 -12.5139 4294967295
55.195786 1.5260494 -12.521224 4294967295
55.207062 2.4968476 -12.587551 4294967295
55.215302 -1.0657963 -12.167316 4294967295
55.24791 -0.90581602 -12.068672 4294967295
55.295055 -2.1979887 -12.355997 4294967295
55.295322 -3.3314719 -12.230722 4294967295
55.296307 -3.6554246 -12.191693 4294967295
55.303848 2.0069282 -12.188904 4294967295
55.306477 -1.8749286 -12.35076 4294967295
55.308666 -2.6847017 -12.254148 4294967295
55.317036 -0.25655001 -12.490676 4294967295
55.317284 -1.0660611 -12.401006 4294967295
55.330708 -2.362359 -12.211042 4294967295
55.330711 -0.58114243 -12.406387 4294967295
55.337738 -3.4966052 -12.061605 4294967295
55.338497 -0.74351913 -12.360864 4294967295
55.349525 -0.096482202 -12.392569 4294967295
55.35479 0.71278918 -12.462577 4294967295
55.365303 2.6549742 -12.638165 4294967295
55.374817 0.2259738 -12.337895 4294967295
55.375523 1.0355631 -12.424169 4294967295
55.384823 0.87317443 -12.373253 4294967295
55.388855 1.8445046 -12.465436 4294967295
55.393539 2.1681194 -12.484243 4294967295
55.395405 2.4918542 -12.513109 4294967295
55.397575 1.3583363 -12.381065 4294967295
55.412506 2.3292253 -12.434387 4294967295
55.412819 -2.037092 -12.550795 4294967295
55.42749 -1.876194 -12.516251 4294967295
55.430801 -1.3907789 -12.557706 4294967295
55.432777 -0.91115952 -12.006824 4294967295
55.434189 -0.42522469 -12.055093 4294967295
55.436996 0.54657668 -12.151684 4294967295
55.441551 1.6801693 -12.259801 4294967295
55.457169 -0.90677398 -12.516986 4294967295
55.468952 -3.0124457 -12.244195 4294967295
55.477726 -1.5556703 -12.372718 4294967295
55.493065 2.0018177 -12.111678 4294967295
55.602009 2.8099957 -12.409354 4294967295
55.621574 -1.7203808 -12.43906 4294967295
55.632629 -2.6926756 -12.293196 4294967295
55.642502 -3.3411934 -12.187037 4294967295
55.649818 -0.9125911 -12.427245 4294967295
55.657238 1.835802 -12.106096 4294967295
55.660828 1.5116025 -12.057787 4294967295
55.661293 0.382029 -12.528376 4294967295
55.663578 0.70570612 -12.555733 4294967295
55.663704 -2.3709428 -12.218045 4294967295
55.666428 -3.0190115 -12.137324 4294967295
55.673187 1.0290149 -12.557029 4294967295
55.683403 -2.0483477 -12.183414 4294967295
55.691448 0.54234987 -12.438787 4294967295
55.703453 -2.5356781 -12.058746 4294967295
55.710609 -2.860199 -11.997745 4294967295
55.71064 -0.106452 -12.29948 4294967295
55.725952 1.3502846 -12.404741 4294967295
55.730003 1.1881464 -12.372584 4294967295
55.732765 -3.1858609 -11.883321 4294967295
55.73632 0.054088 -12.225827 4294967295
55.760597 -1.2433478 -11.997342 4294967295
55.760941 2.482331 -12.404505 4294967295
55.761116 -0.59530163 -12.066536 4294967295
55.781963 1.8335674 -12.258689 4294967295
55.784267 2.8052979 -12.357017 4294967295
55.784458 0.2134553 -12.072243 4294967295
55.797382 -0.1061846 -12.586771 4294967295
55.801014 -0.43018079 -12.538387 4294967295
55.814419 -1.078632 -12.419742 4294967295
55.824764 -3.5086815 -12.116727 4294967295
55.830292 0.2158068 -12.505236 4294967295
55.846439 -3.6723194 -12.021856 4294967295
55.847889 -1.5665746 -12.247444 4294967295
55.857353 2.3192461 -12.639648 4294967295
55.90237 2.8031337 -12.53287 4294967295
55.908184 -0.59837568 -12.139486 4294967295
55.932201 -1.7340347 -11.929781 4294967295
55.948532 1.9914347 -12.280038 4294967295
55.949276 -0.75712591 -12.571179 4294967295
55.952847 1.3432661 -12.193699 4294967295
55.960823 -2.2151184 -12.370514 4294967295
55.967724 2.6385672 -12.282817 4294967295
55.970734 -1.2441697 -12.441717 4294967295
55.97715 -2.5401387 -12.277002 4294967295
55.977982 -0.92076159 -12.451449 4294967295
55.985508 2.1518216 -12.166351 4294967295
55.986023 1.6657397 -12.11126 4294967295
55.991924 -3.3510771 -12.135756 4294967295
55.99382 1.1792699 -12.030272 4294967295
55.99855 -2.8655953 -12.165446 4294967295
55.999626 -3.1896532 -12.126135 4294967295
56.003151 2.4751143 -12.139144 4294967295
56.0093 -0.4368068 -12.393384 4294967295
56.013073 -1.4087765 -12.273527 4294967295
56.018051 -1.8950269 -12.20261 4294967295
56.02084 1.6676598 -12.582993 4294967295
56.022762 0.8579644 -12.487471 4294967295
56.041603 -3.0307012 -11.994662 4294967295
56.046997 -3.5172086 -11.922237 4294967295
56.052956 1.0183971 -12.397963 4294967295
56.064419 -3.6805797 -11.842558 4294967295
56.071838 1.8272762 -12.4196 4294967295
56.072498 -0.1164593 -12.204326 4294967295
56.075562 0.2073601 -12.228935 4294967295
56.076138 0.69329113 -12.28013 4294967295
56.102482 -0.28016159 -12.080063 4294967295
56.104591 -0.60434592 -12.037068 4294967295
56.130005 0.52849078 -12.07102 4294967295
56.14341 -0.43914679 -12.51202 4294967295
56.163246 -0.1164189 -12.477066 4294967295
56.170757 0.045099799 -12.468149 4294967295
56.184536 1.5017481 -12.578846 4294967295
56.202286 2.4724658 -12.622257 4294967295
56.202335 1.177039 -12.48022 4294967295
56.215069 -1.9013102 -12.09798 4294967295
56.22155 1.985859 -12.500707 4294967295
56.226398 -2.87429 -11.951278 4294967295
56.227924 0.36592671 -12.300711 4294967295
56.229771 -1.4162008 -12.099009 4294967295
56.276482 2.3074186 -12.341279 4294967295
56.278122 2.1453607 -12.31772 4294967295
56.284969 0.52492648 -12.116006 4294967295
56.285854 -0.92770499 -12.547738 4294967295
56.289799 -3.6810818 -12.232348 4294967295
56.293877 0.2003758 -12.048896 4294967295
56.294956 2.6306372 -12.311208 4294967295
56.310738 -0.4434056 -12.512679 4294967295
56.319553 -3.3593392 -12.162236 4294967295
56.321148 -3.0354643 -12.192045 4294967295
56.347904 -1.9033588 -12.221273 4294967295
56.350559 0.040178198 -12.424646 4294967295
56.353611 -2.0657358 -12.183298 4294967295
56.356201 0.84962922 -12.493297 4294967295
56.360714 -0.2843166 -12.353174 4294967295
56.361153 -1.2562351 -12.245227 4294967295
56.368351 1.8206843 -12.556602 4294967295
56.377636 -1.4192711 -12.169021 4294967295
56.379818 -0.7713843 -12.232233 4294967295
56.380444 0.36249441 -12.354144 4294967295
56.384914 -2.3918977 -12.036779 4294967295
56.387753 -3.5264597 -11.902514 4294967295
56.393669 1.0097169 -12.378183 4294967295
56.39933 -0.61053067 -12.180763 4294967295
56.40836 1.4949384 -12.379309 4294967295
56.413528 -2.2318006 -11.953009 4294967295
56.423733 -1.584239 -11.987782 4294967295
56.428333 -1.7465963 -11.953719 4294967295
56.430698 -3.2054837 -11.785629 4294967295
56.431377 0.68382591 -12.20902 4294967295
56.447529 -2.5582952 -11.796898 4294967295
56.468754 -0.28520039 -12.564102 4294967295
56.474339 0.2002575 -12.597492 4294967295
56.485027 1.6534002 -12.125246 4294967295
56.500839 -3.6888089 -12.078126 4294967295
56.525387 2.2998476 -12.053148 4294967295
56.532639 2.6236832 -12.062939 4294967295
56.552677 -2.8824244 -11.983051 4294967295
56.603329 -3.0481436 -11.785777 4294967295
56.60741 1.9753153 -12.321127 4294967295
56.608864 -3.3727717 -11.730668 4294967295
56.611099 -2.5623827 -11.811463 4294967295
56.612808 2.6230853 -12.372932 4294967295
56.619129 -1.5903438 -11.889447 4294967295
56.620373 1.1646245 -12.186568 4294967295
56.623566 -2.2390289 -11.802762 4294967295
56.634277 -0.61875612 -11.942205 4294967295
56.645489 1.4875093 -12.13307 4294967295
56.646347 -1.099785 -12.439907 4294967295
56.649433 2.4595778 -12.225511 4294967295
56.656857 -3.6923549 -12.119126 4294967295
56.659412 -3.20649 -12.163255 4294967295
56.663918 -3.5308638 -12.111841 4294967295
56.671066 0.19444109 -12.494175 4294967295
56.673275 -2.3974102 -12.202797 4294967295
56.679058 -3.0458963 -12.111413 4294967295
56.679134 0.032042298 -12.447904 4294967295
56.680744 2.2962239 -12.096895 4294967295
53.867943 7.8699551 -12.5732 4294967295
53.880131 9.6500721 -12.725217 4294967295
53.907093 4.9556389 -12.713769 4294967295
53.91909 5.6025267 -12.741832 4294967295
53.957935 3.0118124 -12.31741 4294967295
53.96307 6.0869751 -12.637186 4294967295
53.988602 8.6756153 -12.830191 4294967295
54.000767 4.306674 -12.907171 4294967295
54.004299 4.6300712 -12.930063 4294967295
54.012634 7.0571084 -12.565895 4294967295
54.016556 7.8662868 -12.640805 4294967295
54.019062 3.4972029 -12.752537 4294967295
54.020012 7.7044048 -12.610596 4294967295
54.023685 9.6463003 -12.810961 4294967295
54.023731 9.3226786 -12.775203 4294967295
54.026047 8.8372078 -12.713502 4294967295
54.053738 3.0104804 -12.574628 4294967295
54.053783 9.4844398 -12.685074 4294967295
54.069279 5.9225292 -12.839053 4294967295
54.071724 3.9808061 -12.616786 4294967295
54.074875 5.1134233 -12.730015 4294967295
54.08424 8.3487539 -13.05212 4294967295
54.087387 7.0546398 -12.89856 4294967295
54.088173 7.8634624 -12.98465 4294967295
54.103203 7.3779659 -12.877369 4294967295
54.126472 8.8337421 -12.953928 4294967295
54.127537 6.568562 -12.701082 4294967295
54.134109 3.6549621 -12.357162 4294967295
54.134792 5.4355388 -12.550473 4294967295
54.13625 5.5973558 -12.563046 4294967295
54.145096 4.1402659 -12.371109 4294967295
54.145782 6.2445412 -12.6 4294967295
54.174995 4.7869492 -12.334945 4294967295
54.179222 6.0819864 -12.462167 4294967295
54.184208 3.6549945 -12.778148 4294967295
54.218689 7.214488 -12.445093 4294967295
54.224506 4.3008671 -12.704704 4294967295
54.245209 4.623878 -12.666018 4294967295
54.255795 6.727138 -12.859239 4294967295
54.283745 3.327739 -12.385431 4294967295
54.313648 4.7837501 -12.438302 4294967295
54.316101 5.4312043 -12.500673 4294967295
54.319771 8.1825285 -12.789912 4294967295
54.338284 7.5349898 -12.652399 4294967295
54.338421 7.2112818 -12.616322 4294967295
54.339012 6.0781889 -12.489664 4294967295
54.343571 8.9914684 -12.793517 4294967295
54.343914 6.2399693 -12.48988 4294967295
54.353634 6.8873105 -12.526197 4294967295
54.36034 5.7539287 -12.377586 4294967295
54.362167 8.343997 -12.655707 4294967295
54.368187 8.505805 -12.651914 4294967295
54.368244 6.0771508 -12.984948 4294967295
54.371937 9.6387091 -12.76299 4294967295
54.382889 4.4589181 -12.754714 4294967295
54.390804 9.15312 -12.641995 4294967295
54.399105 5.7529116 -12.838824 4294967295
54.39954 6.7236228 -12.943923 4294967295
54.402042 4.7819839 -12.721622 4294967295
54.404877 3.4872077 -12.569207 4294967295
54.416935 3.163044 -12.490412 4294967295
54.418224 4.1341534 -12.592505 4294967295
54.418861 6.2378874 -12.821377 4294967295
54.431828 6.8848643 -12.84604 4294967295
54.439148 3.6478577 -12.464155 4294967295
54.446896 3.0000145 -12.365226 4294967295
54.454124 3.3235412 -12.374883 4294967295
54.454723 3.9710925 -12.443891 4294967295
54.462254 7.6934719 -12.825938 4294967295
54.475086 8.016963 -12.815533 4294967295
54.481339 5.1035023 -12.473027 4294967295
54.485088 9.1495695 -12.904154 4294967295
54.493027 9.4731541 -12.911279 4294967295
54.496567 7.8549066 -12.720809 4294967295
54.504795 5.4266863 -12.424554 4294967295
54.559601 7.2065868 -12.423885 4294967295
54.607609 8.4988127 -12.993772 4294967295
54.636429 6.556632 -12.677351 4294967295
54.642952 5.2615395 -12.511767 4294967295
54.643715 6.880208 -12.686836 4294967295
54.644772 7.2038884 -12.718607 4294967295
54.645142 7.8512387 -12.78839 4294967295
54.64867 3.9661551 -12.349018 4294967295
54.653122 4.2898459 -12.368656 4294967295
54.65572 8.9839287 -12.874957 4294967295
54.657043 9.1457386 -12.888 4294967295
54.658169 6.2324824 -12.56398 4294967295
54.663639 5.0991006 -12.41992 4294967295
54.664764 4.7752452 -12.380323 4294967295
54.667294 9.6311588 -12.90465 4294967295
54.678192 7.5271435 -12.634564 4294967295
54.694927 3.6424747 -12.747184 4294967295
54.697445 8.3362875 -12.654564 4294967295
54.716808 5.0981431 -12.828837 4294967295
54.724369 8.6598482 -12.593795 4294967295
54.724533 7.0407963 -12.415373 4294967295
54.732819 8.0121851 -12.492428 4294967295
54.737068 4.1265659 -12.649741 4294967295
54.74361 7.6863446 -13.017256 4294967295
54.756042 5.9062853 -12.777362 4294967295
54.757732 8.8215513 -12.492208 4294967295
54.759022 6.8771486 -12.873326 4294967295
54.759277 6.2298717 -12.801344 4294967295
54.760532 8.4950743 -13.045585 4294967295
54.767052 9.4691658 -12.529996 4294967295
54.7701 4.9348602 -12.620461 4294967295
54.770512 3.3160424 -12.441216 4294967295
54.777512 4.4490309 -12.540625 4294967295
54.779209 6.7149835 -12.78338 4294967295
54.785198 5.581923 -12.637554 4294967295
54.824062 6.5523238 -12.605217 4294967295
54.873886 3.3143103 -12.670324 4294967295
54.883125 9.303586 -12.696241 4294967295
54.897572 3.1515687 -12.567884 4294967295
54.904934 5.4172525 -12.790328 4294967295
54.91045 7.3588886 -12.983766 4294967295
54.942245 4.6069598 -12.568158 4294967295
54.94738 2.9877703 -12.372074 4294967295
54.974384 5.2536321 -12.524406 4294967295
54.976879 5.5773606 -12.551028 4294967295
54.98288 7.6816034 -12.760599 4294967295
54.992458 8.3289099 -12.797451 4294967295
54.996952 7.8432999 -12.728102 4294967295
55.019596 7.0335889 -12.558378 4294967295
55.02935 2.9869671 -12.677508 4294967295
55.030464 8.9761009 -12.7328 4294967295
55.063396 9.4616327 -12.668513 4294967295
55.067493 8.1663704 -12.511706 4294967295
55.070999 8.49018 -12.534733 4294967295
55.072353 4.6040297 -12.701577 4294967295
55.078503 5.5749512 -12.786192 4294967295
55.080868 7.6785498 -13.008605 4294967295
55.083263 3.7943397 -12.573801 4294967295
55.093781 6.707479 -12.855983 4294967295
55.094505 3.3082633 -12.480365 4294967295
55.097946 3.1462288 -12.450314 4294967295
55.108223 6.2216821 -12.75116 4294967295
55.113277 3.4694915 -12.431097 4294967295
55.113873 3.6313858 -12.446742 4294967295
55.118679 7.1925864 -12.820409 4294967295
55.121296 4.1168733 -12.473541 4294967295
55.12199 5.8976641 -12.666496 4294967295
55.124481 7.030652 -12.781946 4294967295
55.131714 8.4871178 -12.915973 4294967295
55.143223 9.6198072 -12.999217 4294967295
55.14394 8.9725256 -12.925633 4294967295
55.152225 5.0874491 -12.469733 4294967295
55.155266 3.9538364 -12.334479 4294967295
55.15546 4.2777138 -12.369328 4294967295
55.158543 9.1342974 -12.891295 4294967295
55.168053 6.5442815 -12.573149 4294967295
55.17054 7.3537116 -12.65311 4294967295
55.185654 5.7343259 -12.421492 4294967295
55.22089 9.4578495 -12.704409 4294967295
55.252037 8.1623507 -12.451146 4294967295
55.280365 4.2749996 -12.521419 4294967295
55.298344 7.1884995 -12.776983 4294967295
55.29948 7.026619 -12.755173 4294967295
55.309948 5.2456174 -12.522478 4294967295
55.318272 6.7025518 -12.652655 4294967295
55.321728 5.0833883 -12.462705 4294967295
55.327782 3.4637215 -12.26344 4294967295
55.329124 5.8928199 -12.525143 4294967295
55.330566 9.2923117 -12.892949 4294967295
55.330883 3.6255791 -12.270142 4294967295
55.342426 7.8354292 -12.690852 4294967295
55.35397 8.6447496 -12.73851 4294967295
55.367771 8.968441 -12.724834 4294967295
55.372036 7.5112653 -12.549784 4294967295
55.383385 5.5676813 -12.296117 4294967295
55.387047 9.4540501 -12.70941 4294967295
55.390072 8.3206816 -12.574303 4294967295
55.392906 6.2153563 -12.333242 4294967295
55.405025 9.6159248 -12.663103 4294967295
55.405136 5.2434793 -12.78026 4294967295
55.405304 3.3009689 -12.566618 4294967295
55.419743 5.7286916 -12.781471 4294967295
55.423779 3.1383746 -12.483002 4294967295
55.436127 3.6236777 -12.492277 4294967295
55.445881 7.0230331 -12.830367 4294967295
55.458092 4.5944748 -12.52055 4294967295
55.459301 8.6413126 -12.960072 4294967295
55.47876 4.2699881 -12.411376 4294967295
55.479584 8.1556149 -12.834592 4294967295
55.485802 2.9740622 -12.244175 4294967295
55.511593 6.2123899 -12.507518 4294967295
55.515244 4.1068692 -12.263595 4294967295
55.516239 9.1265793 -12.810576 4294967295
55.51741 5.402544 -12.397993 4294967295
55.52586 5.8882046 -12.421172 4294967295
55.559559 7.1832104 -12.443216 4294967295
55.575539 3.9443738 -12.627884 4294967295
55.596745 7.6686139 -12.364073 4294967295
55.599529 7.990365 -12.986147 4294967295
55.604053 7.5048065 -12.916828 4294967295
55.625385 5.5619349 -12.627934 4294967295
55.63319 7.6662979 -12.830894 4294967295
55.6343 5.2378907 -12.560707 4294967295
55.639366 6.694932 -12.70243 4294967295
55.639496 4.104207 -12.417929 4294967295
55.642632 6.2091732 -12.637555 4294967295
55.654453 9.2847242 -12.932698 4294967295
55.657223 7.342227 -12.709881 4294967295
55.667847 3.4553723 -12.245942 4294967295
55.668324 7.8277731 -12.723638 4294967295
55.678516 8.3133564 -12.740625 4294967295
55.683979 9.1227608 -12.809925 4294967295
55.695267 5.8841925 -12.414719 4294967295
55.696117 3.6163709 -12.163045 4294967295
55.70763 6.855691 -12.477255 4294967295
55.720673 5.7216458 -12.306531 4294967295
55.721275 9.4464455 -12.712765 4294967295
55.723118 3.1315181 -12.610059 4294967295
55.728405 8.9606714 -12.634147 4294967295
55.732906 3.9406471 -12.663964 4294967295
55.736908 3.7786183 -12.631988 4294967295
55.747368 9.7702541 -12.655449 4294967295
55.753132 8.7986059 -12.528431 4294967295
55.76181 6.3680639 -12.827329 4294967295
55.762939 3.2919524 -12.486144 4294967295
55.766113 4.7491121 -12.63459 4294967295
55.772575 4.2631826 -12.558366 4294967295
55.778019 8.6364918 -12.422135 4294967295
55.790806 2.967006 -12.3515 4294967295
55.808456 5.0717845 -12.519493 4294967295
55.81702 8.309742 -12.843952 4294967295
55.839916 4.5850358 -12.354346 4294967295
55.890865 4.9075742 -12.208658 4294967295
55.895615 7.1753755 -12.440345 4294967295
55.949802 8.6326208 -12.407507 4294967295
55.960155 5.0681977 -12.575917 4294967295
55.963909 6.6872506 -12.739999 4294967295
55.964264 5.7157922 -12.632293 4294967295
55.970352 7.1728344 -12.77033 4294967295
55.970497 3.6103349 -12.379459 4294967295
55.974056 4.581986 -12.473299 4294967295
55.978413 8.1440592 -12.848133 4294967295
55.980808 7.8202648 -12.804149 4294967295
55.982708 3.2859402 -12.300562 4294967295
55.98632 5.8772225 -12.571683 4294967295
55.992512 3.1235816 -12.247975 4294967295
55.994713 4.2574291 -12.364397 4294967295
56.02747 6.200254 -12.460996 4294967295
56.028481 5.5523353 -12.386408 4294967295
56.033161 8.6293268 -12.706941 4294967295
56.03511 9.1150637 -12.753239 4294967295
56.03923 4.7420793 -12.259461 4294967295
56.039902 9.762681 -12.807193 4294967295
56.049953 6.361784 -12.398872 4294967295
56.052555 4.9037185 -12.229871 4294967295
56.054028 5.2277083 -12.260146 4294967295
56.05658 7.9813809 -12.552816 4294967295
56.060375 9.6007557 -12.716763 4294967295
56.069622 9.2768745 -12.648459 4294967295
56.073059 3.9323528 -12.645863 4294967295
56.07449 8.3051348 -12.524698 4294967295
56.093098 3.4458873 -12.521515 4294967295
56.106358 3.7693088 -12.509913 4294967295
56.106789 7.6568604 -12.339011 4294967295
56.119282 7.3310814 -12.854225 4294967295
56.123211 8.9527378 -12.422697 4294967295
56.131947 8.4640675 -12.933409 4294967295
56.1441 5.3876472 -12.553317 4294967295
56.16304 6.844697 -12.645746 4294967295
56.22076 2.9574814 -12.609911 4294967295
56.255508 7.4911976 -12.388613 4294967295
56.268166 8.13906 -12.414678 4294967295
56.288162 3.4408157 -12.424006 4294967295
56.291607 5.8699374 -12.677814 4294967295
56.292389 4.8983107 -12.568643 4294967295
56.29985 3.6023786 -12.40029 4294967295
56.300743 8.2983303 -12.911352 4294967295
56.300854 7.9745612 -12.87551 4294967295
56.309227 3.9260209 -12.402504 4294967295
56.314995 5.7074738 -12.577145 4294967295
56.318409 6.1932349 -12.618247 4294967295
56.324852 7.0027981 -12.684062 4294967295
56.327106 4.411407 -12.392301 4294967295
56.340672 5.2209511 -12.432886 4294967295
56.341862 7.4883528 -12.67697 4294967295
56.345333 6.6785722 -12.575991 4294967295
56.349621 7.81213 -12.684924 4294967295
56.355762 8.1359367 -12.698622 4294967295
56.367058 9.2693586 -12.782701 4294967295
56.37426 8.9454765 -12.721726 4294967295
56.374794 6.030098 -12.400587 4294967295
56.379196 8.4596233 -12.651028 4294967295
56.407562 2.9526298 -12.54171 4294967295
56.412441 7.3254371 -12.409045 4294967295
56.412762 4.0860019 -12.647384 4294967295
56.422203 7.6493192 -12.409921 4294967295
56.436222 3.5993876 -12.511067 4294967295
56.442951 9.5931101 -12.54924 4294967295
56.443275 9.4311256 -12.530359 4294967295
56.465538 5.2180476 -12.584481 4294967295
56.471661 7.8087554 -12.846421 4294967295
56.483368 9.755085 -12.423767 4294967295
56.514454 8.617939 -12.783514 4294967295
56.517143 3.1104524 -12.171081 4294967295
56.527657 5.5404572 -12.39988 4294967295
56.557438 6.3498425 -12.383064 4294967295
56.558395 8.7796116 -12.645653 4294967295
56.56562 6.9977298 -12.425017 4294967295
56.622772 9.751298 -12.524126 4294967295
56.632889 6.0237994 -12.674103 4294967295
56.637966 5.2139196 -12.567512 4294967295
56.638073 5.5378361 -12.602583 4294967295
56.641037 4.2419834 -12.450285 4294967295
56.647621 3.1077461 -12.302866 4294967295
56.658787 7.6427279 -12.759679 4294967295
56.661552 4.5653462 -12.41312 4294967295
56.668213 3.5930622 -12.283147 4294967295
56.670105 6.3469548 -12.577842 4294967295
56.676361 4.8889279 -12.396151 4294967295
53.821934 11.591077 -13.147899 4294967295
53.836845 12.399884 -13.183271 4294967295
53.855728 10.782598 -12.937505 4294967295
53.861317 16.290815 -12.920814 4294967295
53.867851 15.472976 -13.409821 4294967295
53.942932 14.181283 -12.9979 4294967295
53.949574 14.828572 -13.045219 4294967295
53.990707 12.072583 -13.196184 4294967295
53.993084 11.58742 -13.134303 4294967295
53.995014 10.940456 -13.056226 4294967295
53.997974 10.455194 -12.992232 4294967295
53.999584 16.286251 -13.025781 4294967295
54.002472 16.609932 -13.050997 4294967295
54.015522 13.366773 -13.249384 4294967295
54.018112 10.131696 -12.884355 4294967295
54.019035 11.264158 -13.00557 4294967295
54.01918 15.316079 -12.848653 4294967295
54.020184 12.396465 -13.125949 4294967295
54.024952 11.911274 -13.055471 4294967295
54.025539 13.528705 -13.231214 4294967295
54.040546 14.014226 -13.230709 4294967295
54.043255 12.235043 -13.025359 4294967295
54.052086 13.205768 -13.100379 4294967295
54.053646 15.793473 -13.379301 4294967295
54.055981 13.044083 -13.068617 4294967295
54.056072 14.661544 -13.24614 4294967295
54.05759 11.426287 -12.88495 4294967295
54.059422 15.47025 -13.32303 4294967295
54.07378 10.779151 -12.755656 4294967295
54.075882 12.559092 -12.943825 4294967295
54.088848 14.338934 -13.092975 4294967295
54.093491 14.500823 -13.094099 4294967295
54.108509 16.604076 -13.271413 4294967295
54.110126 9.9660482 -13.137054 4294967295
54.121502 13.854381 -12.922436 4294967295
54.125614 15.634176 -13.103361 4294967295
54.125999 13.692673 -12.888515 4294967295
54.153656 14.987896 -12.931613 4294967295
54.180714 12.716188 -13.186152 4294967295
54.225822 14.172826 -13.184442 4294967295
54.229599 9.8043289 -12.690668 4294967295
54.256645 10.451792 -12.66483 4294967295
54.269539 16.276886 -13.258877 4294967295
54.273827 11.746737 -12.745548 4294967295
54.31427 15.469576 -13.009667 4294967295
54.331661 14.98467 -12.893982 4294967295
54.342762 13.197663 -13.258665 4294967295
54.346256 10.933108 -12.99728 4294967295
54.352623 9.9623518 -12.867778 4294967295
54.355152 10.285973 -12.894279 4294967295
54.357193 11.25676 -12.993645 4294967295
54.358204 11.580337 -13.025588 4294967295
54.364174 14.491975 -13.324148 4294967295
54.365345 15.309383 -12.808839 4294967295
54.377293 14.81579 -13.312707 4294967295
54.379246 9.8005428 -12.754581 4294967295
54.38858 11.904258 -12.952313 4294967295
54.390751 15.301382 -13.317833 4294967295
54.398712 10.447942 -12.75596 4294967295
54.413876 13.684424 -13.057282 4294967295
54.418324 10.77173 -12.72126 4294967295
54.420952 12.875574 -12.943031 4294967295
54.424686 12.713825 -12.911868 4294967295
54.431736 13.36121 -12.95775 4294967295
54.435188 14.1703 -13.034286 4294967295
54.439217 12.3904 -12.824255 4294967295
54.449112 15.950326 -13.179965 4294967295
54.454128 16.112274 -13.179793 4294967295
54.462578 10.767299 -13.162485 4294967295
54.475624 13.038398 -12.764979 4294967295
54.49411 15.790096 -13.001098 4294967295
54.507759 16.437843 -13.023353 4294967295
54.508907 14.010281 -12.752496 4294967295
54.513962 16.276258 -12.98336 4294967295
54.526051 14.658196 -12.762246 4294967295
54.57991 14.327934 -13.133526 4294967295
54.585533 14.004506 -13.077865 4294967295
54.591991 15.622453 -13.232466 4294967295
54.637657 12.549069 -12.73135 4294967295
54.645313 16.271442 -13.112829 4294967295
54.649246 13.520475 -12.796566 4294967295
54.652664 13.844267 -12.819898 4294967295
54.655231 14.491733 -12.881833 4294967295
54.65976 15.301053 -12.954522 4294967295
54.669556 16.434156 -13.0439 4294967295
54.675652 15.948908 -12.968774 4294967295
54.676228 14.168561 -12.771151 4294967295
54.680099 10.11661 -12.912161 4294967295
54.685398 11.087478 -12.99983 4294967295
54.696945 16.111506 -12.910396 4294967295
54.700512 14.654832 -12.737615 4294967295
54.706875 14.646809 -13.313896 4294967295
54.714272 12.543983 -13.0565 4294967295
54.717365 9.7929745 -12.743298 4294967295
54.718697 10.602221 -12.827421 4294967295
54.729534 12.867833 -13.037477 4294967295
54.730755 11.41149 -12.873172 4294967295
54.732304 12.058818 -12.938715 4294967295
54.744884 12.382641 -12.929284 4294967295
54.747971 14.809725 -13.184781 4294967295
54.751957 13.191864 -12.992851 4294967295
54.761543 15.133684 -13.171801 4294967295
54.763802 15.942628 -13.252552 4294967295
54.776943 10.440597 -12.601319 4294967295
54.81002 12.221717 -12.678605 4294967295
54.822048 14.326296 -12.866712 4294967295
54.822479 11.245307 -13.126166 4294967295
54.826679 13.031429 -12.707934 4294967295
54.828243 13.517109 -12.755679 4294967295
54.831219 10.11281 -12.970594 4294967295
54.834766 15.621448 -12.963433 4294967295
54.843697 14.974328 -12.860425 4294967295
54.845203 12.054435 -13.133793 4294967295
54.848137 12.863337 -13.212126 4294967295
54.852745 13.348707 -13.248941 4294967295
54.904037 11.56968 -12.870312 4294967295
54.917259 14.320857 -13.125102 4294967295
54.937508 15.453998 -13.177147 4294967295
54.954792 11.89397 -12.724537 4294967295
54.96928 15.778654 -13.099238 4294967295
54.972935 15.131488 -13.015134 4294967295
54.976677 16.587959 -13.161644 4294967295
54.983639 13.836983 -12.83476 4294967295
54.98703 10.109019 -13.012231 4294967295
54.993469 10.756247 -13.060281 4294967295
54.993584 14.808411 -12.905864 4294967295
55.001148 10.918092 -13.050624 4294967295
55.003292 16.103495 -13.013336 4294967295
55.007076 13.999411 -12.768841 4294967295
55.009811 12.212503 -13.161768 4294967295
55.01709 11.565427 -13.064762 4294967295
55.025871 14.647446 -12.772816 4294967295
55.026207 10.270931 -12.890129 4294967295
55.0317 12.374604 -13.10141 4294967295
55.035034 11.40379 -12.982952 4294967295
55.046181 16.428782 -12.895772 4294967295
55.05468 13.34579 -13.12595 4294967295
55.058941 12.698644 -13.039718 4294967295
55.0667 12.051455 -12.940974 4294967295
55.078609 9.947299 -12.667509 4294967295
55.085133 14.317295 -13.123859 4294967295
55.09153 14.964673 -13.172064 4294967295
55.094082 10.433018 -12.665575 4294967295
55.102314 11.728168 -12.778351 4294967295
55.107746 15.288766 -13.149723 4294967295
55.109791 11.242587 -12.698356 4294967295
55.110455 14.641596 -13.069036 4294967295
55.110577 12.861361 -12.873221 4294967295
55.112221 14.156162 -13.009449 4294967295
55.120617 15.936404 -13.17485 4294967295
55.169605 13.186213 -12.698119 4294967295
55.222965 15.130459 -12.720984 4294967295
55.232224 14.47499 -13.214476 4294967295
55.254692 10.914914 -12.743713 4294967295
55.270859 13.505005 -12.970247 4294967295
55.273197 13.181351 -12.926394 4294967295
55.299877 11.400975 -12.635886 4294967295
55.310108 12.534477 -12.723752 4294967295
55.323215 15.12488 -12.961218 4294967295
55.323574 10.263303 -13.024378 4294967295
55.330521 14.315727 -12.846388 4294967295
55.33139 13.668184 -12.77224 4294967295
55.337902 14.639691 -12.855598 4294967295
55.350494 16.096951 -12.970556 4294967295
55.357349 11.396255 -13.028295 4294967295
55.362446 12.205406 -13.098886 4294967295
55.363609 14.154663 -12.71068 4294967295
55.368061 9.7778311 -12.812584 4294967295
55.373024 15.935872 -12.872528 4294967295
55.37492 11.072727 -12.930189 4294967295
55.388172 14.30933 -13.237982 4294967295
55.392456 11.558432 -12.920982 4294967295
55.408398 10.58732 -12.757644 4294967295
55.416809 12.853574 -12.97626 4294967295
55.424942 11.88252 -12.840759 4294967295
55.425777 9.9397507 -12.624673 4294967295
55.432518 10.911246 -12.70723 4294967295
55.437382 13.501372 -12.974004 4294967295
55.443981 16.090809 -13.234487 4294967295
55.459232 15.444058 -13.109206 4294967295
55.462517 13.178144 -12.848971 4294967295
55.482025 9.935874 -13.021132 4294967295
55.503006 11.721499 -12.544909 4294967295
55.504814 16.416697 -13.05345 4294967295
55.524582 15.608047 -12.894311 4294967295
55.542786 10.745285 -12.893575 4294967295
55.57431 13.820774 -13.118584 4294967295
55.594879 13.983088 -13.063154 4294967295
55.616726 14.79287 -13.074162 4294967295
55.623451 10.097949 -12.535403 4294967295
55.627392 15.926061 -13.160437 4294967295
55.628197 14.145751 -12.962369 4294967295
55.632339 10.259922 -12.52152 4294967295
55.638523 10.907757 -12.570545 4294967295
55.643631 16.573973 -13.173666 4294967295
55.651253 13.174922 -12.773835 4294967295
55.654858 14.955829 -12.95628 4294967295
55.654968 12.851159 -12.725111 4294967295
55.659554 14.470313 -12.886319 4294967295
55.661995 15.765403 -13.019626 4294967295
55.669086 15.280015 -12.94116 4294967295
55.680439 15.442259 -12.918535 4294967295
55.680893 10.741384 -12.998358 4294967295
55.696312 10.094008 -12.87254 4294967295
55.696701 11.550717 -13.030851 4294967295
55.709 12.52189 -13.093566 4294967295
55.727245 11.389153 -12.904494 4294967295
55.727722 14.625915 -13.257607 4294967295
55.735317 13.6552 -13.1242 4294967295
55.736324 16.415623 -12.826292 4294967295
55.75565 15.597589 -13.264785 4294967295
55.768276 11.227614 -12.740847 4294967295
55.77887 12.361076 -12.827432 4294967295
55.779675 13.979909 -13.002013 4294967295
55.78709 12.8469 -12.851439 4294967295
55.808258 13.332996 -12.829435 4294967295
55.835594 13.495474 -12.750019 4294967295
55.841137 16.086046 -13.014261 4294967295
55.866867 14.467798 -12.745379 4294967295
55.911812 13.489943 -13.074824 4294967295
55.917686 12.033224 -12.894325 4294967295
55.928146 14.946932 -13.176441 4294967295
55.946022 10.73817 -12.651698 4294967295
55.959846 10.252368 -12.549341 4294967295
55.96204 15.109784 -13.073847 4294967295
55.97039 14.138759 -12.937778 4294967295
55.970699 12.195832 -12.723768 4294967295
55.974991 11.872012 -12.673021 4294967295
55.982903 10.576392 -12.502929 4294967295
55.987568 15.596192 -13.036435 4294967295
55.989109 12.519975 -12.693872 4294967295
55.995258 14.786995 -12.920446 4294967295
56.000996 16.406023 -13.077465 4294967295
56.014919 16.082773 -12.992569 4294967295
56.015392 15.920899 -12.973149 4294967295
56.015972 13.168229 -12.66945 4294967295
56.022289 14.625834 -12.806735 4294967295
56.02367 10.733942 -12.971225 4294967295
56.027283 13.978216 -12.718024 4294967295
56.056946 15.436533 -12.772418 4294967295
56.060463 9.9245977 -12.751931 4294967295
56.073174 12.029388 -12.937415 4294967295
56.073265 11.705615 -12.901608 4294967295
56.073822 12.191279 -12.952847 4294967295
56.080673 14.295609 -13.159056 4294967295
56.081734 13.648238 -13.08437 4294967295
56.089176 11.05814 -12.774191 4294967295
56.102169 14.781726 -13.136001 4294967295
56.102413 12.677373 -12.904593 4294967295
56.103523 11.3821 -12.758759 4294967295
56.105671 13.324997 -12.963981 4294967295
56.106236 15.914739 -13.245669 4294967295
56.120728 13.972867 -12.981506 4294967295
56.123924 15.429796 -13.129755 4294967295
56.168224 11.544667 -12.546866 4294967295
56.180031 12.840609 -12.646938 4294967295
56.194118 14.460446 -12.774381 4294967295
56.206749 11.215931 -12.969514 4294967295
56.222313 15.109035 -12.745337 4294967295
56.253311 11.054386 -12.786678 4294967295
56.260628 12.997352 -12.973531 4294967295
56.277794 16.235054 -13.267208 4294967295
56.279968 16.5588 -13.29495 4294967295
56.287243 13.159746 -12.896914 4294967295
56.293858 13.969406 -12.962132 4294967295
56.295311 12.674134 -12.815121 4294967295
56.297585 13.483774 -12.895726 4294967295
56.299541 11.378642 -12.658235 4294967295
56.303474 12.35039 -12.750717 4294967295
56.304649 14.941047 -13.030268 4294967295
56.306015 12.51237 -12.759435 4294967295
56.313789 14.293703 -12.926951 4294967295
56.316608 10.56888 -12.509006 4294967295
56.319366 12.836473 -12.747585 4294967295
56.320335 15.912849 -13.081054 4294967295
56.334766 14.456164 -12.870347 4294967295
56.342197 15.427888 -12.950405 4294967295
56.343105 15.266004 -12.929459 4294967295
56.374935 14.133292 -12.692527 4294967295
56.381886 9.9170227 -12.801085 4294967295
56.390873 13.640459 -13.176921 4294967295
56.39608 11.050479 -12.874896 4294967295
56.40905 12.831487 -13.023939 4294967295
56.423279 15.259769 -13.239381 4294967295
56.429733 14.612545 -13.145645 4294967295
56.443665 11.536659 -12.759517 4294967295
56.44532 11.860556 -12.789116 4294967295
56.448967 12.346401 -12.829396 4294967295
56.46796 15.746786 -13.134368 4294967295
56.480038 10.079104 -12.471044 4294967295
56.495354 10.241149 -12.43452 4294967295
56.496067 16.3953 -13.105775 4294967295
56.512768 13.157217 -12.692098 4294967295
56.545765 16.23522 -12.912151 4294967295
56.570511 14.284555 -13.205321 4294967295
56.603542 11.694817 -12.804945 4294967295
56.605007 16.06595 -13.278171 4294967295
56.606236 11.047052 -12.7245 4294967295
56.606777 14.609241 -13.112476 4294967295
56.607098 12.828364 -12.916422 4294967295
56.621323 11.209127 -12.688836 4294967295
56.630421 13.314566 -12.887075 4294967295
56.632832 14.448044 -13.002597 4294967295
56.633709 12.50493 -12.786818 4294967295
56.634304 13.476573 -12.891062 4294967295
56.638924 15.419614 -13.087363 4294967295
56.646152 11.533296 -12.636426 4294967295
56.653748 13.962802 -12.875448 4294967295
56.663158 15.258469 -12.983945 4294967295
56.666309 13.153316 -12.74238 4294967295
53.828526 16.774908 -13.092036 4294967295
53.829941 18.23073 -13.247094 4294967295
53.857826 17.908548 -13.111327 4294967295
53.860809 22.598576 -13.616459 4294967295
53.864594 21.305361 -13.460606 4294967295
53.89521 20.983913 -13.315106 4294967295
53.896351 18.395739 -13.026315 4294967295
53.932102 19.206591 -12.986881 4294967295
53.964111 22.929676 -13.281214 4294967295
53.986622 21.784115 -13.676928 4294967295
53.990574 20.652681 -13.538324 4294967295
53.995121 20.167883 -13.468675 4294967295
53.996296 18.550772 -13.286635 4294967295
54.002384 18.874554 -13.300358 4294967295
54.00668 23.40206 -13.78272 4294967295
54.006889 17.095453 -13.088517 4294967295
54.008755 17.742619 -13.152984 4294967295
54.012619 18.066324 -13.174684 4294967295
54.016319 21.462778 -13.534864 4294967295
54.016479 19.845707 -13.356473 4294967295
54.027393 16.772711 -12.979326 4294967295
54.031109 17.420057 -13.037159 4294967295
54.048073 22.596853 -13.545415 4294967295
54.051941 19.200684 -13.158098 4294967295
54.067806 20.333963 -13.225683 4294967295
54.072212 17.907328 -12.943008 4294967295
54.072708 17.087769 -13.453151 4294967295
54.083263 22.114233 -13.365862 4294967295
54.085743 22.761341 -13.428103 4294967295
54.087082 18.393503 -12.943025 4294967295
54.096962 18.220688 -13.490604 4294967295
54.113426 20.983908 -13.133175 4294967295
54.121914 16.766344 -13.241116 4294967295
54.132629 17.252016 -13.256038 4294967295
54.134495 22.441408 -13.217691 4294967295
54.14032 22.927166 -13.250162 4294967295
54.143589 23.250957 -13.274009 4294967295
54.157158 22.104441 -13.701356 4294967295
54.166317 19.517942 -13.384167 4294967295
54.17651 17.577448 -13.134241 4294967295
54.205574 23.078012 -13.63451 4294967295
54.206509 20.005447 -13.293437 4294967295
54.211964 20.652763 -13.344996 4294967295
54.231606 22.433132 -13.47016 4294967295
54.231758 21.301006 -13.345178 4294967295
54.240871 21.786854 -13.365857 4294967295
