# .PCD v0.7 - Point Cloud Data file format
VERSION 0.7
FIELDS x y z rgb
SIZE 4 4 4 4
TYPE F F F U
COUNT 1 1 1 1
WIDTH 1147
HEIGHT 1
VIEWPOINT 0 0 0 1 0 0 0
POINTS 1147
DATA ascii
46.31369 21.770954 -13.613879 4294967295
46.317219 20.964586 -13.510633 4294967295
46.320919 22.255413 -13.640759 4294967295
46.322319 21.126265 -13.509502 4294967295
46.335934 22.417854 -13.602435 4294967295
46.345993 23.870422 -13.72669 4294967295
46.349304 21.450809 -13.444263 4294967295
46.365231 22.097368 -13.456534 4294967295
46.397343 19.181501 -13.637369 4294967295
46.398582 20.633118 -13.794655 4294967295
46.404011 23.713961 -13.491106 4294967295
46.411026 19.988783 -13.67604 4294967295
46.477737 21.444923 -13.587903 4294967295
46.519825 19.498219 -13.838884 4294967295
46.543255 24.192553 -13.648302 4294967295
46.549427 22.902315 -13.48122 4294967295
46.555832 20.306719 -13.793942 4294967295
46.568901 20.79138 -13.798959 4294967295
46.59264 23.050739 -13.961825 4294967295
46.623363 22.569332 -13.792859 4294967295
46.628094 24.021164 -13.936999 4294967295
46.631012 21.279449 -13.620329 4294967295
46.635098 21.441055 -13.623022 4294967295
46.638313 23.69949 -13.862788 4294967295
46.650208 20.635374 -13.476473 4294967295
46.650703 20.958111 -13.510611 4294967295
46.655006 21.119751 -13.512486 4294967295
46.667561 22.895359 -13.663383 4294967295
46.67207 19.829859 -13.304618 4294967295
46.67411 21.605131 -13.494928 4294967295
46.682228 22.089783 -13.518515 4294967295
46.682579 20.153294 -13.301253 4294967295
46.684986 21.928627 -13.490199 4294967295
46.686241 23.380823 -13.647415 4294967295
46.7019 19.49581 -13.781146 4294967295
46.706783 22.737068 -13.498564 4294967295
46.718876 24.190228 -13.61521 4294967295
46.734959 23.223402 -13.447064 4294967295
46.762283 20.62858 -13.681086 4294967295
46.762608 20.305971 -13.643898 4294967295
46.797119 19.33996 -13.406837 4294967295
46.807255 20.147411 -13.458864 4294967295
46.807598 21.922235 -13.655436 4294967295
46.821274 22.084562 -13.622271 4294967295
46.8283 23.214382 -13.721868 4294967295
46.911453 19.172325 -13.584891 4294967295
46.935513 23.367748 -13.962342 4294967295
46.96936 19.821102 -13.440353 4294967295
46.979046 20.951288 -13.530034 4294967295
46.979595 24.016512 -13.869543 4294967295
46.985123 21.274418 -13.543284 4294967295
46.989334 21.597424 -13.563519 4294967295
46.998394 24.179415 -13.817294 4294967295
47.002544 22.405148 -13.604053 4294967295
47.029388 19.004976 -13.749191 4294967295
47.032856 22.246046 -13.472821 4294967295
47.037449 21.923607 -13.419692 4294967295
47.057487 22.893471 -13.452728 4294967295
47.067997 20.136364 -13.730809 4294967295
47.089443 19.815018 -13.614768 4294967295
47.105968 19.493288 -13.517107 4294967295
47.1278 22.882792 -13.813037 4294967295
47.143539 23.367968 -13.808199 4294967295
47.154911 21.59413 -13.568065 4294967295
47.158531 20.626127 -13.446681 4294967295
47.186413 23.210083 -13.63022 4294967295
47.259483 19.166492 -13.530646 4294967295
47.285297 22.07235 -13.757797 4294967295
47.29863 20.137024 -13.492431 4294967295
47.313305 20.622095 -13.491608 4294967295
47.320576 22.397636 -13.662169 4294967295
47.334606 21.269054 -13.484052 4294967295
47.34333 23.36751 -13.685132 4294967295
47.34898 24.1747 -13.753905 4294967295
47.359573 19.33354 -13.175187 4294967295
47.36253 19.979519 -13.236074 4294967295
47.367054 22.562517 -13.506835 4294967295
47.374886 22.240309 -13.441684 4294967295
47.391335 24.016945 -13.578038 4294967295
47.401577 19.323137 -13.64063 4294967295
47.404678 23.856678 -13.510324 4294967295
47.404823 23.049654 -13.419918 4294967295
47.407299 20.2915 -13.72708 4294967295
47.440945 19.0026 -13.457961 4294967295
47.445709 23.698671 -13.339393 4294967295
47.458794 19.487782 -13.445339 4294967295
47.472462 21.10248 -13.574087 4294967295
47.505249 21.750275 -13.523791 4294967295
47.511089 23.2031 -13.663714 4294967295
47.518887 23.042349 -13.616709 4294967295
47.524597 21.59024 -13.433739 4294967295
47.540703 22.721272 -13.499509 4294967295
47.574612 18.997452 -13.58139 4294967295
47.586895 24.177691 -13.48917 4294967295
47.604229 20.451475 -13.632758 4294967295
47.606804 19.967529 -13.569293 4294967295
47.621189 22.711483 -13.821024 4294967295
47.642323 19.162588 -13.34722 4294967295
47.644508 23.197304 -13.788106 4294967295
47.649624 21.906849 -13.625424 4294967295
47.654167 20.93885 -13.500749 4294967295
47.656532 24.166296 -13.851084 4294967295
47.657787 23.843737 -13.810521 4294967295
47.662426 21.262203 -13.505932 4294967295
47.674698 23.522436 -13.711689 4294967295
47.689102 22.393906 -13.532375 4294967295
47.696228 20.295853 -13.272292 4294967295
47.698715 22.878834 -13.550484 4294967295
47.699059 20.618935 -13.297705 4294967295
47.703968 21.587906 -13.387224 4294967295
47.704674 22.233654 -13.456463 4294967295
47.733002 21.751396 -13.297127 4294967295
47.75745 23.367743 -13.385821 4294967295
47.768948 20.932165 -13.694426 4294967295
47.776955 19.803057 -13.538956 4294967295
47.822605 22.22686 -13.638521 4294967295
47.829163 19.644718 -13.326807 4294967295
47.850571 19.323036 -13.211234 4294967295
47.85989 22.87524 -13.571726 4294967295
47.86755 23.037241 -13.561201 4294967295
47.89484 19.971565 -13.118445 4294967295
47.928722 23.849312 -13.423601 4294967295
47.95726 21.414482 -13.66843 4294967295
47.978317 24.176422 -13.275182 4294967295
47.98259 20.932016 -13.520489 4294967295
47.983776 22.223261 -13.659684 4294967295
47.985046 21.254995 -13.547256 4294967295
47.991726 20.609777 -13.450632 4294967295
47.991989 21.739683 -13.575327 4294967295
47.999172 22.869949 -13.674292 4294967295
48.023811 19.643036 -13.223673 4294967295
48.0308 22.710989 -13.538874 4294967295
48.04567 23.196398 -13.537508 4294967295
48.051025 21.905319 -13.373978 4294967295
48.051434 20.129147 -13.174914 4294967295
48.052124 19.806194 -13.136415 4294967295
48.079487 23.52198 -13.447822 4294967295
48.083958 24.00667 -13.485082 4294967295
48.086246 21.584867 -13.207232 4294967295
48.11264 20.442184 -13.603366 4294967295
48.120941 19.95849 -13.518714 4294967295
48.125462 23.041241 -13.223223 4294967295
48.153336 19.63755 -13.362565 4294967295
48.159863 23.0277 -13.715219 4294967295
48.181511 21.415215 -13.455436 4294967295
48.188259 20.12402 -13.286786 4294967295
48.223919 22.225473 -13.387814 4294967295
48.225178 24.001408 -13.580571 4294967295
48.229225 22.387327 -13.386074 4294967295
48.233868 21.095839 -13.225224 4294967295
48.322617 23.848089 -13.201166 4294967295
48.336105 21.411146 -13.501177 4294967295
48.339561 20.927061 -13.434531 4294967295
48.342163 24.172777 -13.164569 4294967295
48.345882 21.734695 -13.500804 4294967295
48.355057 20.60515 -13.341173 4294967295
48.360649 23.027212 -13.589599 4294967295
48.362881 21.090063 -13.366005 4294967295
48.368153 22.220619 -13.472086 4294967295
48.383144 23.513281 -13.560041 4294967295
48.38377 22.383226 -13.432137 4294967295
48.394657 22.706963 -13.42767 4294967295
48.431019 24.001577 -13.436452 4294967295
48.444351 23.356756 -13.315265 4294967295
48.45314 23.195959 -13.264732 4294967295
48.476723 21.406118 -13.598648 4294967295
48.487247 22.052515 -13.631396 4294967295
48.510166 22.377033 -13.582396 4294967295
48.573586 24.157875 -13.544859 4294967295
48.615578 22.223347 -13.174088 4294967295
48.647633 23.033455 -13.145123 4294967295
48.65242 24.003042 -13.23507 4294967295
48.691837 22.374952 -13.527935 4294967295
48.71627 24.152723 -13.634782 4294967295
48.763531 23.187811 -13.352382 4294967295
48.773155 23.673075 -13.370594 4294967295
48.868866 23.502686 -13.616263 4294967295
19.538527 24.763346 -16.718924 4294967295
19.583139 25.086815 -16.558393 4294967295
19.654924 24.436811 -16.890276 4294967295
19.677551 25.076313 -16.865261 4294967295
19.709934 24.920528 -16.702648 4294967295
19.716368 26.036388 -16.806131 4294967295
19.762936 25.404358 -16.523972 4294967295
19.782475 26.68149 -16.588207 4294967295
19.803621 26.205885 -16.437746 4294967295
19.863558 25.394409 -16.803076 4294967295
19.914936 26.674858 -16.726145 4294967295
19.921463 25.082104 -16.508614 4294967295
20.01091 24.911774 -16.818104 4294967295
20.025888 26.506374 -16.940229 4294967295
20.036093 25.870396 -16.819662 4294967295
20.037973 27.304218 -16.980932 4294967295
20.056419 27.147223 -16.88043 4294967295
20.066509 25.236479 -16.609568 4294967295
20.075487 25.55619 -16.607517 4294967295
20.084528 26.354 -16.661743 4294967295
20.094368 25.080149 -16.467327 4294967295
20.098164 25.718117 -16.525946 4294967295
20.102024 26.674788 -16.621977 4294967295
20.123306 27.952282 -16.67857 4294967295
20.128622 27.634247 -16.617336 4294967295
20.129829 26.996901 -16.536575 4294967295
20.141956 27.476555 -16.539455 4294967295
20.145542 24.427843 -16.889364 4294967295
20.209974 26.824528 -16.88693 4294967295
20.267773 26.194023 -16.555946 4294967295
20.294592 24.741899 -16.990885 4294967295
20.296053 27.153728 -16.543962 4294967295
20.317043 25.381445 -16.966995 4294967295
20.324894 25.063725 -16.894646 4294967295
20.352272 24.588682 -16.717167 4294967295
20.364075 26.023958 -16.834532 4294967295
20.364603 25.705372 -16.794525 4294967295
20.369394 26.183893 -16.829863 4294967295
20.370228 27.139845 -16.939156 4294967295
20.378433 27.778044 -16.978224 4294967295
20.38772 27.619926 -16.918379 4294967295
20.399681 28.099373 -16.922043 4294967295
20.400221 29.055201 -17.032606 4294967295
20.403973 26.665976 -16.733612 4294967295
20.409655 26.985353 -16.746185 4294967295
20.414122 27.941925 -16.839441 4294967295
20.431215 25.872295 -16.519075 4294967295
20.431616 28.422194 -16.818678 4294967295
20.44068 26.829756 -16.590303 4294967295
20.449974 27.309044 -16.605768 4294967295
20.450453 29.38073 -16.848478 4294967295
20.459776 24.420523 -16.945799 4294967295
20.465786 28.9048 -16.724287 4294967295
20.489403 24.901552 -16.871498 4294967295
20.532001 25.862204 -16.796452 4294967295
20.536606 27.455925 -16.964369 4294967295
20.547834 28.413128 -17.027746 4294967295
20.577587 25.389215 -16.538795 4294967295
20.665739 25.537249 -16.890392 4294967295
20.669462 26.812107 -17.02449 4294967295
20.688858 25.858505 -16.826122 4294967295
20.689625 24.424397 -16.653347 4294967295
20.698299 24.744055 -16.652752 4294967295
20.699459 26.497068 -16.854666 4294967295
20.705872 28.091002 -17.014542 4294967295
20.706295 27.772453 -16.975056 4294967295
20.706831 26.179253 -16.784534 4294967295
20.710577 28.888069 -17.087852 4294967295
20.723772 27.456018 -16.860413 4294967295
20.750605 29.849361 -17.024382 4294967295
20.759682 29.691336 -16.96559 4294967295
20.761513 28.416916 -16.807026 4294967295
20.764402 27.14233 -16.64374 4294967295
20.764616 29.05471 -16.868614 4294967295
20.767303 30.648279 -17.044874 4294967295
20.769152 28.736633 -16.811001 4294967295
20.77 30.170752 -16.976572 4294967295
20.771215 29.374292 -16.877171 4294967295
20.773983 30.808571 -17.034267 4294967295
20.785425 30.013639 -16.889828 4294967295
20.807852 30.335562 -16.828686 4294967295
20.820274 25.373978 -16.911362 4294967295
20.881659 26.815073 -16.810411 4294967295
20.890556 27.931572 -16.902905 4294967295
20.892679 28.728466 -16.987585 4294967295
20.964884 27.622261 -16.538164 4294967295
20.968636 30.969816 -16.916672 4294967295
20.977011 30.492998 -16.823421 4294967295
20.98971 26.168285 -16.979603 4294967295
21.003298 24.735735 -16.750616 4294967295
21.009562 26.489244 -16.929907 4294967295
21.015463 26.330605 -16.88516 4294967295
21.026649 25.375734 -16.723143 4294967295
21.033512 26.970114 -16.881001 4294967295
21.041325 25.855507 -16.715023 4294967295
21.049026 24.581142 -16.530668 4294967295
21.051273 27.769024 -16.896921 4294967295
21.051952 25.059704 -16.574234 4294967295
21.067957 25.699116 -16.579098 4294967295
21.072016 30.480251 -17.125273 4294967295
21.076103 29.046993 -16.938173 4294967295
21.076933 30.799561 -17.141245 4294967295
21.08087 28.888298 -16.898422 4294967295
21.082317 28.251072 -16.816858 4294967295
21.084051 29.366755 -16.940836 4294967295
21.103172 30.006794 -16.931995 4294967295
21.106915 29.529274 -16.859154 4294967295
21.108082 27.616827 -16.628387 4294967295
21.110897 30.167244 -16.916851 4294967295
21.139898 29.215069 -16.676601 4294967295
21.147141 24.57131 -16.818722 4294967295
21.161852 30.971533 -16.786964 4294967295
21.16659 27.122843 -17.033985 4294967295
21.173895 25.689697 -16.832766 4294967295
21.177248 30.655025 -16.681717 4294967295
21.203449 29.517172 -17.153948 4294967295
21.22382 29.997925 -17.120882 4294967295
21.230621 28.086895 -16.865564 4294967295
21.232588 25.8557 -16.593752 4294967295
21.245802 28.72632 -16.87409 4294967295
21.246019 24.741089 -16.403101 4294967295
21.255835 27.293163 -16.660872 4294967295
21.285276 27.456234 -16.550388 4294967295
21.304781 31.125099 -16.897078 4294967295
21.340973 29.695742 -16.569092 4294967295
21.342714 30.811981 -16.693031 4294967295
21.345924 26.165798 -16.852306 4294967295
21.350027 27.441065 -16.984592 4294967295
21.357189 25.05138 -16.671335 4294967295
21.360043 30.655111 -16.598192 4294967295
21.369825 27.124809 -16.860184 4294967295
21.378258 27.603937 -16.879555 4294967295
21.384712 29.994795 -17.132973 4294967295
21.389734 26.489664 -16.697687 4294967295
21.390232 25.533234 -16.582731 4294967295
21.392569 28.561916 -16.929506 4294967295
21.393183 30.951817 -17.208481 4294967295
21.393709 28.08399 -16.868147 4294967295
21.395802 24.577175 -16.445496 4294967295
21.398001 26.968853 -16.7178 4294967295
21.401237 25.853325 -16.572044 4294967295
21.403753 25.375288 -16.504604 4294967295
21.407223 27.92635 -16.790091 4294967295
21.41 24.897594 -16.420795 4294967295
21.414438 29.361635 -16.927519 4294967295
21.419001 29.043535 -16.869947 4294967295
21.428469 29.841663 -16.922359 4294967295
21.431608 30.160822 -16.946156 4294967295
21.433821 29.683052 -16.880108 4294967295
21.447914 26.655973 -16.46126 4294967295
21.454739 30.482891 -16.882324 4294967295
21.457047 30.323851 -16.853426 4294967295
21.474298 25.043406 -16.875456 4294967295
21.485682 24.407112 -16.750427 4294967295
21.50672 27.11867 -16.97751 4294967295
21.51664 25.844931 -16.783804 4294967295
21.548016 28.39867 -16.946814 4294967295
21.563911 29.197559 -16.971064 4294967295
21.567528 29.6761 -17.011549 4294967295
21.605608 27.449623 -16.581823 4294967295
21.606174 26.811884 -16.504179 4294967295
21.631908 28.090746 -16.541754 4294967295
21.637646 28.569855 -16.57299 4294967295
21.644382 31.121542 -16.844004 4294967295
21.684813 25.683102 -16.745365 4294967295
21.686182 24.726761 -16.62669 4294967295
21.689054 26.321169 -16.801907 4294967295
21.690569 25.205502 -16.663828 4294967295
21.691772 26.799646 -16.846334 4294967295
21.697771 27.915976 -16.951483 4294967295
21.698128 24.887453 -16.593176 4294967295
21.704754 28.394945 -16.97724 4294967295
21.708815 27.598631 -16.86562 4294967295
21.720997 25.846584 -16.605749 4294967295
21.721027 26.484308 -16.680742 4294967295
21.728163 26.006838 -16.593166 4294967295
21.729536 24.571835 -16.418079 4294967295
21.740669 29.355932 -16.93272 4294967295
21.74365 30.471851 -17.051048 4294967295
21.747448 30.95043 -17.090733 4294967295
21.750252 27.284958 -16.646736 4294967295
21.75062 30.313511 -17.001802 4294967295
21.755257 27.763872 -16.681168 4294967295
21.758553 25.531855 -16.403776 4294967295
21.768011 29.519089 -16.83189 4294967295
21.770836 27.446941 -16.575432 4294967295
21.776236 28.563723 -16.683266 4294967295
21.784651 29.043131 -16.70278 4294967295
21.787416 28.246304 -16.596788 4294967295
21.791954 29.841242 -16.7647 4294967295
21.80768 28.886789 -16.583248 4294967295
21.80883 30.162477 -16.728432 4294967295
21.811392 30.800522 -16.792318 4294967295
21.818439 30.642139 -16.742727 4294967295
21.828886 29.686983 -16.584375 4294967295
21.83287 24.562567 -16.682383 4294967295
21.840506 27.113705 -16.949297 4294967295
21.850233 27.433628 -16.944305 4294967295
21.867886 29.188812 -17.073521 4294967295
21.87686 28.711962 -16.978029 4294967295
21.885538 25.365379 -16.545937 4294967295
21.908728 26.324751 -16.557207 4294967295
21.948893 27.924257 -16.569386 4294967295
21.949543 28.243263 -16.604088 4294967295
22.002102 30.004484 -16.580917 4294967295
22.009878 25.19869 -16.699371 4294967295
22.010424 24.720448 -16.640696 4294967295
22.013453 30.484522 -16.587639 4294967295
22.020399 25.678125 -16.709719 4294967295
22.025539 27.11342 -16.856127 4294967295
22.027117 26.475992 -16.774197 4294967295
22.031757 26.795362 -16.791456 4294967295
22.03248 24.40382 -16.5068 4294967295
22.035772 25.839279 -16.661341 4294967295
22.036619 24.882658 -16.545036 4294967295
22.045383 27.434658 -16.807007 4294967295
22.046013 25.521521 -16.579079 4294967295
22.051746 28.710642 -16.929295 4294967295
22.053616 26.319647 -16.639721 4294967295
22.054556 29.985975 -17.067047 4294967295
22.057896 29.667725 -17.014978 4294967295
22.065088 28.074785 -16.796017 4294967295
22.067825 29.19096 -16.915375 4294967295
22.080137 28.395569 -16.767849 4294967295
22.086849 26.00452 -16.457043 4294967295
22.091553 26.961967 -16.549124 4294967295
22.102507 30.949129 -16.970324 4294967295
22.10479 30.311895 -16.885342 4294967295
22.112553 30.47242 -16.870222 4294967295
22.115067 29.835115 -16.784225 4294967295
22.126633 27.923187 -16.508583 4294967295
22.148848 24.555387 -16.73241 4294967295
22.155867 30.797594 -16.71874 4294967295
22.179579 29.525171 -16.465158 4294967295
22.212814 25.199953 -16.528355 4294967295
22.246843 30.465429 -16.998857 4294967295
22.249464 30.147034 -16.949936 4294967295
22.254093 26.32098 -16.479628 4294967295
22.25527 28.872541 -16.774635 4294967295
22.273796 26.482775 -16.412449 4294967295
22.300001 29.675869 -16.673395 4294967295
22.316101 28.721165 -16.490654 4294967295
22.346777 26.628681 -16.827122 4294967295
22.351372 25.991505 -16.732105 4294967295
22.359241 25.673494 -16.660316 4294967295
22.366558 30.801771 -16.514584 4294967295
22.367493 27.587681 -16.84935 4294967295
22.380407 24.559399 -16.436779 4294967295
22.38093 26.951603 -16.715826 4294967295
22.381056 28.705276 -16.92148 4294967295
22.381233 31.122963 -16.488148 4294967295
22.388313 27.271389 -16.721159 4294967295
22.407171 26.157326 -16.50773 4294967295
22.4111 28.868683 -16.809383 4294967295
22.411535 30.144054 -16.957426 4294967295
22.423582 25.840168 -16.398714 4294967295
22.425838 29.827253 -16.857668 4294967295
22.433773 29.509495 -16.785625 4294967295
22.434811 25.362806 -16.293499 4294967295
22.443392 27.118614 -16.462475 4294967295
22.454493 30.469049 -16.807884 4294967295
22.457279 28.396379 -16.552019 4294967295
22.464256 28.078274 -16.484127 4294967295
22.464954 28.556877 -16.537352 4294967295
22.478004 24.709005 -16.743845 4294967295
22.482746 30.792061 -16.722368 4294967295
22.497669 30.315802 -16.601162 4294967295
22.500042 29.359114 -16.478317 4294967295
22.506144 29.998011 -16.526758 4294967295
22.507248 26.306543 -16.803978 4294967295
22.564018 25.037033 -16.406904 4294967295
22.567303 25.675463 -16.467615 4294967295
22.58811 26.634907 -16.489561 4294967295
22.593552 30.781578 -16.953148 4294967295
22.603962 29.188688 -16.720516 4294967295
22.630045 27.597105 -16.41959 4294967295
22.685774 24.391603 -16.514999 4294967295
22.68751 29.83819 -16.432112 4294967295
22.687962 30.635897 -16.523878 4294967295
22.688955 25.029917 -16.576134 4294967295
22.691273 30.317326 -16.471985 4294967295
22.715363 28.700558 -16.892262 4294967295
22.719599 25.511726 -16.499125 4294967295
22.719923 27.585056 -16.741322 4294967295
22.723862 25.193155 -16.4431 4294967295
22.726046 29.658508 -16.958206 4294967295
22.726513 27.745338 -16.731415 4294967295
22.727184 26.948063 -16.634817 4294967295
22.729174 26.150827 -16.532471 4294967295
22.731218 27.267511 -16.654758 4294967295
22.741367 26.630756 -16.53569 4294967295
22.749313 27.110216 -16.557371 4294967295
22.756855 25.834909 -16.374641 4294967295
22.759081 29.184725 -16.758497 4294967295
22.762993 30.939114 -16.947515 4294967295
22.772453 28.867575 -16.662928 4294967295
22.788372 29.507664 -16.668711 4294967295
22.788464 28.391184 -16.537148 4294967295
22.792095 26.796278 -16.333933 4294967295
22.792274 28.551193 -16.53933 4294967295
22.792479 27.913134 -16.463482 4294967295
22.797348 27.435123 -16.386084 4294967295
22.806849 30.467159 -16.70085 4294967295
22.809135 29.989021 -16.634714 4294967295
22.850138 26.621389 -16.774933 4294967295
22.852716 26.143307 -16.70755 4294967295
22.897455 28.221788 -16.756784 4294967295
22.899755 27.743664 -16.69062 4294967295
22.93079 30.139788 -16.836805 4294967295
22.941097 31.097956 -16.904409 4294967295
22.941278 24.876743 -16.173044 4294967295
22.965349 29.347183 -16.593214 4294967295
23.018614 25.821653 -16.661146 4294967295
23.023169 25.34367 -16.585215 4294967295
23.03867 26.1429 -16.611603 4294967295
23.043352 24.867262 -16.441465 4294967295
23.056519 28.218346 -16.777592 4294967295
23.060062 27.899851 -16.724791 4294967295
23.066315 26.305576 -16.510427 4294967295
23.06646 24.390978 -16.285006 4294967295
23.07584 29.815498 -16.880999 4294967295
23.081451 27.743042 -16.613325 4294967295
23.081881 27.105034 -16.536562 4294967295
23.083176 29.178667 -16.774336 4294967295
23.085728 27.424545 -16.557329 4294967295
23.090246 29.498571 -16.78112 4294967295
23.090656 26.946556 -16.479776 4294967295
23.092966 25.989521 -16.35737 4294967295
23.095072 25.51104 -16.292034 4294967295
23.095491 30.296625 -16.851967 4294967295
23.10656 25.033503 -16.185989 4294967295
23.108971 25.672152 -16.250484 4294967295
23.11232 30.777433 -16.835184 4294967295
23.120056 29.024128 -16.595743 4294967295
23.125896 26.472017 -16.270752 4294967295
23.152323 29.985685 -16.56822 4294967295
23.160086 30.465366 -16.590748 4294967295
23.185658 26.93545 -16.778334 4294967295
23.191589 31.108099 -16.529114 4294967295
23.238604 29.015272 -16.792284 4294967295
23.284363 28.542793 -16.537987 4294967295
23.30208 26.151293 -16.180372 4294967295
23.304773 28.385891 -16.430883 4294967295
23.311808 30.939421 -16.699896 4294967295
23.316654 29.504364 -16.510483 4294967295
23.317883 24.377209 -16.615889 4294967295
23.323454 27.909534 -16.293812 4294967295
23.345116 29.189095 -16.349804 4294967295
23.372427 25.659145 -16.52952 4294967295
23.372988 30.310081 -16.360199 4294967295
23.388159 31.110226 -16.388134 4294967295
23.391195 25.820766 -16.467009 4294967295
23.406216 29.012976 -16.776234 4294967295
23.407318 26.30125 -16.453386 4294967295
23.408716 27.89679 -16.63447 4294967295
23.409796 24.865335 -16.274183 4294967295
23.416113 26.621384 -16.452763 4294967295
23.418758 27.259905 -16.516176 4294967295
23.435144 25.346844 -16.22064 4294967295
23.436115 26.942873 -16.40365 4294967295
23.437603 27.421755 -16.453358 4294967295
23.437784 28.219534 -16.546144 4294967295
23.444946 29.177671 -16.627422 4294967295
23.453152 29.497835 -16.629356 4294967295
23.456093 25.987614 -16.204874 4294967295
23.459333 26.147598 -16.209576 4294967295
23.460951 26.467014 -16.240023 4294967295
23.461971 28.701313 -16.49766 4294967295
23.465616 30.297186 -16.668989 4294967295
23.475765 29.979563 -16.587683 4294967295
23.488419 27.587589 -16.252235 4294967295
23.492067 29.662725 -16.479765 4294967295
23.496296 24.375673 -16.55299 4294967295
23.499346 30.62109 -16.560562 4294967295
23.512262 29.346327 -16.355003 4294967295
23.55662 27.732422 -16.68504 4294967295
23.567211 28.212292 -16.695377 4294967295
23.577297 24.703106 -16.240181 4294967295
23.579418 25.18215 -16.287161 4294967295
23.59487 25.024179 -16.201641 4294967295
23.602957 27.897749 -16.503508 4294967295
23.622786 26.942682 -16.305563 4294967295
23.62665 30.613075 -16.71909 4294967295
23.62875 30.932405 -16.747414 4294967295
23.637846 27.104094 -16.25919 4294967295
23.654951 29.02149 -16.409813 4294967295
23.669352 25.17128 -16.606947 4294967295
23.707348 24.53702 -16.36804 4294967295
23.710711 25.016115 -16.409637 4294967295
23.713524 30.785223 -16.362595 4294967295
23.713566 25.335569 -16.434715 4294967295
23.721615 27.570181 -16.661757 4294967295
23.727915 28.847078 -16.784109 4294967295
23.729683 24.37969 -16.252869 4294967295
23.736368 27.252907 -16.560678 4294967295
23.741909 27.891766 -16.611555 4294967295
23.747232 28.211514 -16.625971 4294967295
23.753878 26.61672 -16.410286 4294967295
23.758125 30.924639 -16.896704 4294967295
23.758221 27.415123 -16.485054 4294967295
23.763334 28.054012 -16.537781 4294967295
23.77754 25.821375 -16.214592 4294967295
23.781075 25.66213 -16.180614 4294967295
23.786501 26.141644 -16.213318 4294967295
23.79278 26.461626 -16.223625 4294967295
23.799177 29.973427 -16.607464 4294967295
23.799751 30.292599 -16.64237 4294967295
23.799917 29.654423 -16.566875 4294967295
23.803961 29.335846 -16.512041 4294967295
23.814808 30.613844 -16.614799 4294967295
23.819973 30.135902 -16.536434 4294967295
23.821911 28.699881 -16.359772 4294967295
23.832758 27.743517 -16.20072 4294967295
23.840389 29.81959 -16.410954 4294967295
23.840414 28.542675 -16.261215 4294967295
23.842138 29.021778 -16.309889 4294967295
23.856398 26.2876 -16.638021 4294967295
23.867041 30.461761 -16.37077 4294967295
23.871712 27.087046 -16.665428 4294967295
23.887358 25.493252 -16.41102 4294967295
23.893093 26.132215 -16.461075 4294967295
23.898905 30.440147 -16.940559 4294967295
23.918592 25.975492 -16.332397 4294967295
23.934462 28.371216 -16.544411 4294967295
23.953289 25.340755 -16.107935 4294967295
23.96027 26.778387 -16.246164 4294967295
24.019367 29.020733 -16.253185 4294967295
24.033236 24.530802 -16.376909 4294967295
24.036999 27.084322 -16.6597 4294967295
24.038382 25.808039 -16.504257 4294967295
24.048771 26.607058 -16.55294 4294967295
24.051401 24.851885 -16.336018 4294967295
24.051596 25.330721 -16.391264 4294967295
24.054049 26.288525 -16.492836 4294967295
24.054333 25.650211 -16.416853 4294967295
24.065483 27.725975 -16.611753 4294967295
24.066969 27.247475 -16.549299 4294967295
24.070276 28.205227 -16.647161 4294967295
24.075449 27.886772 -16.587513 4294967295
24.076014 27.567713 -16.547716 4294967295
24.081644 28.525784 -16.635572 4294967295
24.092152 29.324905 -16.683731 4294967295
24.092354 29.00584 -16.645496 4294967295
24.096344 24.696903 -16.123669 4294967295
24.105394 30.28396 -16.738791 4294967295
24.105955 25.49622 -16.175755 4294967295
24.117279 29.487865 -16.594229 4294967295
24.125553 25.977358 -16.147415 4294967295
24.135508 28.851969 -16.441013 4294967295
24.141893 26.937208 -16.189207 4294967295
24.144377 29.172354 -16.440195 4294967295
24.14469 28.693565 -16.382784 4294967295
24.152056 29.811798 -16.481878 4294967295
24.155598 31.088955 -16.616091 4294967295
24.156271 30.610332 -16.557152 4294967295
24.159824 30.930002 -16.579218 4294967295
24.187904 30.136017 -16.364933 4294967295
24.199656 26.762184 -16.628006 4294967295
24.254807 29.641033 -16.726913 4294967295
24.270683 30.760014 -16.789337 4294967295
24.277332 25.01502 -16.088209 4294967295
24.284286 28.208752 -16.432049 4294967295
24.310701 26.136467 -16.07547 4294967295
24.324493 27.575216 -16.184351 4294967295
24.361479 25.642025 -16.506615 4294967295
24.368282 29.975901 -16.276316 4294967295
24.369656 26.60042 -16.583511 4294967295
24.383575 29.818354 -16.191875 4294967295
24.387566 25.804491 -16.413162 4294967295
24.413406 29.158882 -16.69422 4294967295
24.414042 27.722807 -16.523474 4294967295
24.415319 25.009296 -16.200455 4294967295
24.422848 26.287319 -16.317549 4294967295
24.429323 28.203503 -16.513828 4294967295
24.43091 27.08642 -16.376286 4294967295
24.431475 29.001719 -16.597939 4294967295
24.436493 29.959812 -16.688379 4294967295
24.437904 27.885374 -16.439613 4294967295
24.438974 25.331148 -16.136127 4294967295
24.442554 28.524397 -16.494328 4294967295
24.45401 29.483494 -16.557138 4294967295
24.459444 31.079996 -16.720457 4294967295
24.465693 27.250229 -16.245497 4294967295
24.477234 26.932264 -16.158533 4294967295
24.486361 30.605169 -16.548872 4294967295
24.493063 30.127296 -16.464081 4294967295
24.512224 30.928123 -16.475143 4294967295
24.524099 24.840904 -16.41926 4294967295
24.527107 25.639248 -16.499691 4294967295
24.530865 29.334248 -16.208338 4294967295
24.542833 27.077322 -16.600166 4294967295
24.545143 28.697357 -16.072269 4294967295
24.572927 28.357656 -16.6203 4294967295
24.595652 26.923975 -16.354771 4294967295
24.598749 25.966413 -16.229431 4294967295
24.605412 24.689634 -16.051392 4294967295
24.624098 29.321928 -16.512699 4294967295
24.710688 25.95767 -16.453169 4294967295
24.715464 26.915863 -16.544655 4294967295
24.719255 26.277868 -16.453749 4294967295
24.719997 27.075998 -16.543875 4294967295
24.720564 24.521952 -16.242813 4294967295
24.727598 25.640272 -16.343319 4294967295
24.732414 27.875488 -16.583927 4294967295
24.743677 26.440283 -16.367685 4294967295
24.758547 28.995987 -16.602491 4294967295
24.76333 25.324795 -16.152727 4294967295
24.763372 28.198586 -16.488522 4294967295
24.765194 25.804056 -16.200743 4294967295
24.765463 28.837299 -16.554195 4294967295
24.78161 29.637474 -16.578266 4294967295
24.783073 26.764156 -16.23609 4294967295
24.783953 29.956993 -16.605534 4294967295
24.787897 29.797937 -16.569981 4294967295
24.79286 29.160149 -16.474081 4294967295
24.794598 30.277678 -16.597223 4294967295
24.79845 30.916603 -16.655325 4294967295
24.802916 28.522907 -16.356335 4294967295
24.824335 31.079977 -16.563074 4294967295
24.830553 30.761641 -16.499123 4294967295
24.847111 28.049475 -16.110884 4294967295
24.868847 25.315567 -16.403847 4294967295
24.922718 25.48101 -16.191717 4294967295
24.933531 24.843336 -16.070724 4294967295
24.939837 27.558723 -16.36097 4294967295
24.978186 27.084293 -16.140753 4294967295
24.99221 27.724827 -16.15535 4294967295
25.039764 24.515026 -16.281326 4294967295
25.066008 26.274124 -16.374201 4294967295
25.067581 25.475971 -16.274202 4294967295
25.070297 25.316582 -16.243929 4294967295
25.076948 25.95602 -16.290087 4294967295
25.087753 24.6796 -16.094585 4294967295
25.090635 28.671675 -16.548561 4294967295
25.091995 27.714046 -16.430864 4294967295
25.093607 27.87389 -16.442621 4294967295
25.098091 25.638964 -16.162306 4294967295
25.099451 26.756964 -16.287069 4294967295
25.108532 27.237068 -16.30418 4294967295
25.111334 29.153269 -16.51597 4294967295
25.114 29.632507 -16.560497 4294967295
25.114628 26.439331 -16.184824 4294967295
25.130287 25.802206 -16.043186 4294967295
25.130386 30.592503 -16.602283 4294967295
25.130501 30.911743 -16.639072 4294967295
25.133211 27.080318 -16.179945 4294967295
25.142467 26.921696 -16.121695 4294967295
25.146212 31.073641 -16.590549 4294967295
25.154966 28.041214 -16.198818 4294967295
25.160454 28.361319 -16.212652 4294967295
25.168673 30.118977 -16.382664 4294967295
25.171633 29.800035 -16.332705 4294967295
25.193062 28.844677 -16.129162 4294967295
25.204622 29.005926 -16.098377 4294967295
25.219873 29.966387 -16.145094 4294967295
25.221109 24.833145 -16.244953 4294967295
25.224813 25.312586 -16.285061 4294967295
25.240454 26.591703 -16.36738 4294967295
25.268473 28.351343 -16.452715 4294967295
25.275053 28.990782 -16.499155 4294967295
25.275835 26.276363 -16.178873 4294967295
25.322559 28.517931 -16.240286 4294967295
25.325758 27.560009 -16.114737 4294967295
25.357355 29.321068 -16.184885 4294967295
25.358133 24.348337 -16.304838 4294967295
25.359707 29.481108 -16.193485 4294967295
25.370144 24.668911 -16.290831 4294967295
25.374235 30.121988 -16.206017 4294967295
25.383242 24.510548 -16.216253 4294967295
25.38735 25.788486 -16.347836 4294967295
25.388412 31.082317 -16.257334 4294967295
25.39925 24.831593 -16.185181 4294967295
25.408091 25.151939 -16.184713 4294967295
25.413708 26.58984 -16.328503 4294967295
25.442955 27.551422 -16.315496 4294967295
25.447601 28.51009 -16.407478 4294967295
25.44882 25.475731 -16.048098 4294967295
25.449331 26.114756 -16.120504 4294967295
25.452126 28.35099 -16.369537 4294967295
25.457617 30.61302 -15.905872 4294967295
25.472937 27.71479 -16.206171 4294967295
25.483612 26.757641 -16.048744 4294967295
25.483891 27.396664 -16.122131 4294967295
25.50025 27.877888 -16.108248 4294967295
25.525713 29.159094 -16.148724 4294967295
25.534491 28.840748 -16.07399 4294967295
25.549093 28.682875 -15.993033 4294967295
25.572725 30.124002 -16.060005 4294967295
25.575039 29.48521 -15.975553 4294967295
25.577398 29.805098 -16.002783 4294967295
25.590864 27.067518 -16.329046 4294967295
25.598234 29.328522 -15.857944 4294967295
25.612558 29.010763 -15.759521 4294967295
25.616516 30.609518 -15.929132 4294967295
25.619335 25.792961 -16.05855 4294967295
25.632351 29.972458 -15.786991 4294967295
25.638422 28.191252 -16.256718 4294967295
25.640772 26.434393 -16.041698 4294967295
25.64887 24.677576 -15.802064 4294967295
25.698822 26.760645 -15.831458 4294967295
25.701113 24.663179 -16.27947 4294967295
25.714796 27.881252 -15.893866 4294967295
25.721809 30.438648 -16.162186 4294967295
25.722528 26.102724 -16.355873 4294967295
25.725864 30.758722 -16.182177 4294967295
25.730934 25.305119 -16.226925 4294967295
25.737801 31.079945 -16.168583 4294967295
25.74683 29.004011 -15.887818 4294967295
25.747393 29.163898 -15.904064 4294967295
25.748287 28.684563 -15.844317 4294967295
25.749802 24.508373 -16.053379 4294967295
25.755516 25.786943 -16.178095 4294967295
25.755827 29.964064 -15.961319 4294967295
25.765409 26.42697 -16.210468 4294967295
25.7682 25.468828 -16.086798 4294967295
25.776791 26.907465 -16.217878 4294967295
25.784735 30.127876 -15.856782 4294967295
25.792015 29.649364 -15.769822 4294967295
25.8006 27.22975 -16.15374 4294967295
25.83007 26.274517 -15.916417 4294967295
25.834877 27.553392 -16.045023 4294967295
25.86767 27.077917 -15.849461 4294967295
25.867785 30.7528 -16.277487 4294967295
25.868834 31.072407 -16.310261 4294967295
25.895407 28.839334 -15.936357 4294967295
25.898222 25.781643 -16.269678 4294967295
25.902813 27.881321 -15.793004 4294967295
25.916349 28.362543 -15.791278 4294967295
25.92631 24.985918 -16.057028 4294967295
25.943583 26.106121 -16.113909 4294967295
25.958101 24.34997 -15.847197 4294967295
25.99309 30.930592 -15.762826 4294967295
26.000732 26.432117 -15.908003 4294967295
26.002447 25.95285 -15.844813 4294967295
26.014359 26.91313 -15.905923 4294967295
26.03607 28.354057 -15.98123 4294967295
26.052574 29.474796 -16.041426 4294967295
26.065575 29.156918 -15.948894 4294967295
26.066036 25.299879 -16.198542 4294967295
26.073231 28.198915 -15.804549 4294967295
26.073301 27.879221 -15.766982 4294967295
26.080486 30.117802 -15.997247 4294967295
26.080576 28.679386 -15.829204 4294967295
26.083681 24.502892 -16.030437 4294967295
26.093775 31.078499 -16.052494 4294967295
26.095875 27.722122 -15.652334 4294967295
26.098423 29.800625 -15.883725 4294967295
26.107033 26.582373 -16.173227 4294967295
26.116785 24.825838 -15.926949 4294967295
26.117512 26.104259 -16.072838 4294967295
26.121983 24.986183 -15.923478 4294967295
26.12768 28.845343 -15.647518 4294967295
26.131908 29.32556 -15.685441 4294967295
26.141209 27.385189 -16.121084 4294967295
26.142458 25.467783 -15.892315 4294967295
26.142509 30.446135 -15.770803 4294967295
26.144909 27.066074 -16.06813 4294967295
26.148554 25.78808 -15.903658 4294967295
26.15398 27.226933 -16.048203 4294967295
26.172903 26.270252 -15.85605 4294967295
26.216446 26.754766 -15.726884 4294967295
26.283644 29.480957 -15.758058 4294967295
26.296881 25.943192 -15.990222 4294967295
26.317785 25.306147 -15.826993 4294967295
26.320921 30.125574 -15.674245 4294967295
26.353918 29.46557 -16.157608 4294967295
26.369192 27.389936 -15.850819 4294967295
26.391775 24.654591 -16.135847 4294967295
26.398615 28.672367 -15.87489 4294967295
26.400709 27.553589 -15.73567 4294967295
26.401848 29.312153 -15.935637 4294967295
26.411032 25.615211 -16.1658 4294967295
26.411381 27.874649 -15.727619 4294967295
26.418322 25.296438 -16.097673 4294967295
26.42078 30.59338 -16.004221 4294967295
26.427204 28.995787 -15.790819 4294967295
26.42828 29.155796 -15.804873 4294967295
26.432241 29.795773 -15.862535 4294967295
26.433432 28.357059 -15.689908 4294967295
26.439299 25.778049 -16.064528 4294967295
26.442869 29.63735 -15.798828 4294967295
26.449953 30.757359 -15.899086 4294967295
26.460648 30.279278 -15.797875 4294967295
26.463923 25.461079 -15.92288 4294967295
26.466234 28.521128 -15.569331 4294967295
26.487473 26.422638 -15.93467 4294967295
26.489794 25.144115 -15.775922 4294967295
26.490759 30.923067 -15.744622 4294967295
26.496424 24.984934 -15.72918 4294967295
26.507278 26.744572 -15.887912 4294967295
26.527384 28.025679 -15.951548 4294967295
26.531996 25.948021 -15.690023 4294967295
26.549339 27.388941 -15.784029 4294967295
26.564594 29.788649 -15.998513 4294967295
26.569315 26.112047 -15.550382 4294967295
26.579514 24.813755 -16.055042 4294967295
26.63843 24.659904 -15.786807 4294967295
26.672955 26.262236 -15.826625 4294967295
26.680593 30.124306 -15.54417 4294967295
26.692303 26.424282 -15.763283 4294967295
26.735331 24.809891 -16.091013 4294967295
26.738007 27.708761 -15.718592 4294967295
26.74054 27.868969 -15.726469 4294967295
26.743389 27.229685 -15.63996 4294967295
26.747225 28.189589 -15.735381 4294967295
26.74785 27.07029 -15.602455 4294967295
26.760921 25.451769 -16.057091 4294967295
26.764965 25.771818 -16.077171 4294967295
26.766211 25.292513 -16.016115 4294967295
26.776628 29.152758 -15.722535 4294967295
26.777929 28.513273 -15.642591 4294967295
26.778368 29.47279 -15.752388 4294967295
26.783136 27.554298 -15.508862 4294967295
26.784012 27.394449 -15.486538 4294967295
26.784592 30.273094 -15.819062 4294967295
26.798393 24.336704 -15.76831 4294967295
26.823608 24.658995 -15.698801 4294967295
26.825565 29.319139 -15.533969 4294967295
26.835201 25.619551 -15.761361 4294967295
26.857821 29.803356 -15.453273 4294967295
26.877228 28.981733 -15.97415 4294967295
26.877979 26.103922 -15.636164 4294967295
26.892292 29.782959 -16.00341 4294967295
26.893139 26.58539 -15.62784 4294967295
26.893866 25.94574 -15.550337 4294967295
26.899872 29.624132 -15.952768 4294967295
26.908741 30.264751 -15.989638 4294967295
26.914368 24.488739 -15.991637 4294967295
26.94486 27.39113 -15.502072 4294967295
26.947065 30.749722 -15.883394 4294967295
26.95327 31.070364 -15.894352 4294967295
26.954283 28.831825 -15.629683 4294967295
26.957268 29.951674 -15.74727 4294967295
26.965168 28.353373 -15.527828 4294967295
26.973331 25.294029 -15.835331 4294967295
27.012074 25.777826 -15.727356 4294967295
27.03754 30.122631 -15.42647 4294967295
27.06842 27.223442 -15.656603 4294967295
27.075005 26.264538 -15.517174 4294967295
27.078033 29.623198 -15.89489 4294967295
27.083939 30.423361 -15.962889 4294967295
27.095049 25.286572 -16.015619 4294967295
27.095688 27.546568 -15.57858 4294967295
27.098604 28.666485 -15.696446 4294967295
27.103771 30.586014 -15.897721 4294967295
27.104622 30.106468 -15.83836 4294967295
27.111061 29.787542 -15.773983 4294967295
27.115685 24.809147 -15.872731 4294967295
27.115734 29.148483 -15.679869 4294967295
27.116566 26.589174 -15.378734 4294967295
27.117287 28.348976 -15.580321 4294967295
27.125626 25.12991 -15.867928 4294967295
27.131039 27.870783 -15.466416 4294967295
27.14134 28.991879 -15.553106 4294967295
27.143053 25.451492 -15.831514 4294967295
27.169546 30.915169 -15.657144 4294967295
27.17226 26.414001 -15.819729 4294967295
27.175615 26.094584 -15.768386 4294967295
27.178612 26.734501 -15.830095 4294967295
27.190613 29.47831 -15.400782 4294967295
27.191202 29.31838 -15.379684 4294967295
27.213589 25.938828 -15.589478 4294967295
27.21723 27.698441 -15.778614 4294967295
27.222996 28.018957 -15.791448 4294967295
27.227045 28.339266 -15.811532 4294967295
27.232504 29.619078 -15.937172 4294967295
27.241751 25.621943 -15.433381 4294967295
27.281729 24.646431 -15.847268 4294967295
27.286865 27.386904 -15.447515 4294967295
27.30076 28.668467 -15.537639 4294967295
27.377861 25.296003 -15.516122 4294967295
27.399441 28.817152 -15.833998 4294967295
27.406479 24.319736 -15.977324 4294967295
27.408009 27.538809 -15.64922 4294967295
27.409353 25.459305 -15.401885 4294967295
27.419344 27.220242 -15.564255 4294967295
27.424093 29.77984 -15.841561 4294967295
27.424261 26.740887 -15.487753 4294967295
27.425976 30.419703 -15.907934 4294967295
27.426405 28.180847 -15.646007 4294967295
27.433846 26.101973 -15.372971 4294967295
27.43578 31.060654 -15.940918 4294967295
27.442356 29.142563 -15.690272 4294967295
27.448431 30.742659 -15.850463 4294967295
27.456919 29.624327 -15.684644 4294967295
27.460745 30.904322 -15.81716 4294967295
27.475931 28.986969 -15.530177 4294967295
27.479023 28.667387 -15.479965 4294967295
27.492498 29.469103 -15.516108 4294967295
27.494385 25.128069 -15.699801 4294967295
27.505394 24.489408 -15.579087 4294967295
27.512203 26.409384 -15.773359 4294967295
27.516958 29.312334 -15.394428 4294967295
27.528313 25.611465 -15.612598 4294967295
27.535248 26.092075 -15.639129 4294967295
27.535488 27.371578 -15.786736 4294967295
27.549894 24.973827 -15.447342 4294967295
27.550447 25.933779 -15.556521 4294967295
27.551033 28.652777 -15.869857 4294967295
27.56222 27.054848 -15.636998 4294967295
27.56937 26.575773 -15.551137 4294967295
27.570143 28.015482 -15.715095 4294967295
27.596027 24.798832 -15.927193 4294967295
27.599476 28.818895 -15.684471 4294967295
27.603983 24.479856 -15.856568 4294967295
27.618113 27.701389 -15.475936 4294967295
27.632734 28.183184 -15.470111 4294967295
27.700218 30.432226 -15.446157 4294967295
27.720127 25.291418 -15.46062 4294967295
27.724766 31.075794 -15.417169 4294967295
27.740482 24.973494 -15.337785 4294967295
27.762453 27.376097 -15.524033 4294967295
27.771448 28.657061 -15.634787 4294967295
27.780331 27.538225 -15.467409 4294967295
27.781517 28.178375 -15.536723 4294967295
27.781954 29.618217 -15.702029 4294967295
27.785185 30.418409 -15.781281 4294967295
27.785736 28.018898 -15.500401 4294967295
27.79048 26.73929 -15.331809 4294967295
27.794933 24.639389 -15.763741 4294967295
27.796055 25.619509 -15.178256 4294967295
27.80406 26.100592 -15.200335 4294967295
27.810593 28.822046 -15.488728 4294967295
27.811619 26.58164 -15.224283 4294967295
27.814871 29.30262 -15.526464 4294967295
27.817181 30.102894 -15.609612 4294967295
27.819401 26.902662 -15.228711 4294967295
27.823208 28.983685 -15.454252 4294967295
27.828283 29.944416 -15.544358 4294967295
27.834677 26.082933 -15.763748 4294967295
27.83898 31.065851 -15.629382 4294967295
27.840557 25.123867 -15.627632 4294967295
27.841179 24.803993 -15.587884 4294967295
27.844189 30.746611 -15.570345 4294967295
27.869015 25.606773 -15.563712 4294967295
27.881929 24.488073 -15.379411 4294967295
27.906042 24.311279 -15.950858 4294967295
27.912045 26.25144 -15.457126 4294967295
27.923027 28.332645 -15.652371 4294967295
27.923338 25.772598 -15.353941 4294967295
27.946003 25.294834 -15.202929 4294967295
27.961401 25.936771 -15.212524 4294967295
27.994232 29.461781 -15.48321 4294967295
27.998171 30.422384 -15.578061 4294967295
28.001135 28.662498 -15.361355 4294967295
28.014458 28.183983 -15.249656 4294967295
28.033844 25.123842 -15.506942 4294967295
28.071545 26.407951 -15.497164 4294967295
28.077974 29.448296 -15.822789 4294967295
28.079367 29.128584 -15.779838 4294967295
28.080954 24.808586 -15.271967 4294967295
28.084679 26.249392 -15.423451 4294967295
28.090059 26.890097 -15.475128 4294967295
28.092199 28.010395 -15.596082 4294967295
28.099075 27.851234 -15.548663 4294967295
28.103201 25.291073 -15.234266 4294967295
28.111961 25.772217 -15.253199 4294967295
28.116716 26.573057 -15.32609 4294967295
28.120064 28.813877 -15.571944 4294967295
28.121193 28.494003 -15.530087 4294967295
28.137234 27.535769 -15.351375 4294967295
28.137476 30.096153 -15.647358 4294967295
28.14525 25.935898 -15.131999 4294967295
28.156839 28.178375 -15.343353 4294967295
28.159145 30.739134 -15.630676 4294967295
28.161167 27.218454 -15.21377 4294967295
28.177828 29.621542 -15.422377 4294967295
28.178589 25.438776 -15.627304 4294967295
28.186886 27.701796 -15.161539 4294967295
28.189995 29.303038 -15.334188 4294967295
28.193693 29.783716 -15.374373 4294967295
28.197437 31.064592 -15.507162 4294967295
28.210238 30.586271 -15.397787 4294967295
28.213287 24.642282 -15.388962 4294967295
28.228149 25.123913 -15.382306 4294967295
28.244757 27.526079 -15.591033 4294967295
28.25139 27.366861 -15.544666 4294967295
28.280502 28.970526 -15.60816 4294967295
28.285648 24.96973 -15.122542 4294967295
28.288185 25.610401 -15.186185 4294967295
28.310387 31.054493 -15.724071 4294967295
28.315189 26.093624 -15.128627 4294967295
28.346899 27.858459 -15.199909 4294967295
28.354446 28.499784 -15.242524 4294967295
28.395479 25.441296 -15.408148 4294967295
28.424299 28.325047 -15.621344 4294967295
28.428274 28.485548 -15.623248 4294967295
28.44709 30.727863 -15.804069 4294967295
28.447176 27.367647 -15.414238 4294967295
28.447927 28.968071 -15.596594 4294967295
28.448004 25.606913 -15.206645 4294967295
28.454355 28.648849 -15.532578 4294967295
28.457943 25.768074 -15.18356 4294967295
28.459984 25.287954 -15.119325 4294967295
28.461016 30.089851 -15.671613 4294967295
28.465103 26.409256 -15.227809 4294967295
28.465876 28.010111 -15.410138 4294967295
28.469 27.530294 -15.341386 4294967295
28.471861 24.96892 -15.032427 4294967295
28.474827 26.250233 -15.16851 4294967295
28.486656 27.052103 -15.21177 4294967295
28.493935 29.934296 -15.515254 4294967295
28.495319 30.254555 -15.546559 4294967295
28.496683 29.294466 -15.429555 4294967295
28.504995 30.57596 -15.543147 4294967295
28.506905 27.214569 -15.145515 4294967295
28.516842 28.176447 -15.215261 4294967295
28.521816 29.617914 -15.361433 4294967295
28.547039 26.557119 -15.592769 4294967295
28.548388 25.437086 -15.457309 4294967295
28.562384 31.064228 -15.358584 4294967295
28.56461 26.399063 -15.500704 4294967295
28.574707 27.840427 -15.62534 4294967295
28.579309 26.240648 -15.420648 4294967295
28.584658 26.881443 -15.472456 4294967295
28.587349 25.121 -15.257151 4294967295
28.616524 30.405832 -15.747048 4294967295
28.619324 24.643896 -15.067645 4294967295
28.654203 27.209637 -15.21858 4294967295
28.668581 28.332092 -15.288288 4294967295
28.691345 24.471615 -15.436791 4294967295
28.692158 24.311642 -15.414858 4294967295
28.752916 27.199043 -15.494596 4294967295
28.755798 24.79818 -15.204396 4294967295
28.758335 26.399361 -15.379245 4294967295
28.76721 30.081186 -15.768471 4294967295
28.770721 27.681299 -15.475802 4294967295
28.771418 27.04113 -15.398735 4294967295
28.790068 26.082668 -15.209517 4294967295
28.797583 28.324816 -15.437715 4294967295
28.805275 25.924194 -15.127397 4294967295
28.805672 30.566486 -15.663412 4294967295
28.806393 29.12624 -15.493593 4294967295
28.806799 25.123627 -15.028266 4294967295
28.807394 28.966309 -15.470872 4294967295
28.827135 26.887432 -15.147323 4294967295
28.836 30.730751 -15.555271 4294967295
28.840897 24.467108 -15.499893 4294967295
28.843109 30.891802 -15.544112 4294967295
28.844671 27.369879 -15.129685 4294967295
28.847288 29.451721 -15.359831 4294967295
28.847654 28.491142 -15.247044 4294967295
28.853632 30.253002 -15.426023 4294967295
28.861217 25.269363 -15.507696 4294967295
28.861979 29.773863 -15.33554 4294967295
28.891802 25.432604 -15.398506 4294967295
28.908226 28.155252 -15.644972 4294967295
28.91106 26.395098 -15.429304 4294967295
28.933718 27.838278 -15.501513 4294967295
28.93512 30.398859 -15.792075 4294967295
28.95273 29.281099 -15.58893 4294967295
28.965698 28.642538 -15.460687 4294967295
28.997578 24.963102 -14.901144 4294967295
29.033998 29.131557 -15.231259 4294967295
29.038624 24.787487 -15.398993 4294967295
29.101078 26.39497 -15.323787 4294967295
29.113873 27.036821 -15.344551 4294967295
29.114227 29.27788 -15.602424 4294967295
29.116417 24.474958 -15.037366 4294967295
29.11721 30.878551 -15.775161 4294967295
29.118862 29.598576 -15.620149 4294967295
29.127081 26.718105 -15.252401 4294967295
29.128845 25.757488 -15.133833 4294967295
29.130947 29.119991 -15.514207 4294967295
29.133205 26.878925 -15.245397 4294967295
29.142361 24.958067 -14.984756 4294967295
29.144461 28.641474 -15.4023 4294967295
29.150297 28.00178 -15.303847 4294967295
29.157185 28.803179 -15.367778 4294967295
29.1593 27.682615 -15.229247 4294967295
