# .PCD v0.7 - Point Cloud Data file format
VERSION 0.7
FIELDS x y z rgb
SIZE 4 4 4 4
TYPE F F F U
COUNT 1 1 1 1
WIDTH 1120
HEIGHT 1
VIEWPOINT 0 0 0 1 0 0 0
POINTS 1120
DATA ascii
-56.581791 71.537018 -30.51749 4294967295
-56.579052 72.75415 -30.696609 4294967295
-56.578114 74.879333 -31.046331 4294967295
-56.576324 73.819168 -30.8501 4294967295
-56.566536 71.399803 -30.347151 4294967295
-56.562393 72.31498 -30.461704 4294967295
-56.559784 75.20134 -30.923822 4294967295
-56.559544 72.621437 -30.485971 4294967295
-56.55518 73.081215 -30.521482 4294967295
-56.55283 73.387169 -30.550489 4294967295
-56.550446 75.059105 -30.809692 4294967295
-56.546051 76.429016 -30.998497 4294967295
-56.543346 74.611015 -30.665581 4294967295
-56.538681 75.526321 -30.775066 4294967295
-56.536682 74.010498 -30.499918 4294967295
-56.535038 74.163971 -30.509937 4294967295
-56.531769 76.140366 -30.812006 4294967295
-56.531338 76.595978 -30.884735 4294967295
-56.516479 76.914886 -30.795177 4294967295
-56.507904 77.682495 -30.841957 4294967295
-56.490467 77.245605 -30.600018 4294967295
-56.450108 73.336121 -31.034729 4294967295
-56.440849 71.524002 -30.64006 4294967295
-56.435493 71.073616 -30.512529 4294967295
-56.426125 73.056252 -30.756704 4294967295
-56.410145 74.286232 -30.810247 4294967295
-56.403725 73.533714 -30.621618 4294967295
-56.379482 76.290047 -30.852898 4294967295
-56.375031 75.384064 -30.657356 4294967295
-56.268566 72.60392 -30.645245 4294967295
-56.267952 71.389725 -30.434879 4294967295
-56.266129 73.517097 -30.775599 4294967295
-56.265713 73.669281 -30.797245 4294967295
-56.263847 70.937943 -30.31938 4294967295
-56.262646 72.45784 -30.563826 4294967295
-56.262627 73.368759 -30.717012 4294967295
-56.261314 75.494499 -31.062267 4294967295
-56.257904 75.042831 -30.953491 4294967295
-56.251961 74.290047 -30.769722 4294967295
-56.251896 73.075676 -30.564613 4294967295
-56.251587 72.772293 -30.510592 4294967295
-56.249138 72.015312 -30.359581 4294967295
-56.24807 72.168228 -30.37509 4294967295
-56.243649 74.146553 -30.665743 4294967295
-56.23822 74.759163 -30.716753 4294967295
-56.237572 76.125595 -30.940542 4294967295
-56.234756 74.003586 -30.556278 4294967295
-56.227688 77.046074 -31.000528 4294967295
-56.223778 75.380905 -30.682722 4294967295
-56.222458 76.596352 -30.874626 4294967295
-56.222363 74.926933 -30.592728 4294967295
-56.219395 76.296021 -30.794689 4294967295
-56.216778 75.843399 -30.693359 4294967295
-56.208771 75.699776 -30.592295 4294967295
-56.204834 77.221619 -30.810625 4294967295
-56.204819 77.525108 -30.861557 4294967295
-56.203785 75.249367 -30.468628 4294967295
-56.156548 71.196831 -30.80999 4294967295
-56.133633 71.522285 -30.645199 4294967295
-56.119896 71.990959 -30.592449 4294967295
-56.08514 75.820229 -30.903372 4294967295
-56.078159 76.586052 -30.965202 4294967295
-56.0709 74.316628 -30.514198 4294967295
-56.061062 74.630165 -30.47267 4294967295
-56.054371 74.940598 -30.460741 4294967295
-56.051445 75.550941 -30.535322 4294967295
-56.040886 77.079895 -30.691156 4294967295
-56.021629 77.251717 -30.535595 4294967295
-55.989304 70.90522 -30.633135 4294967295
-55.954712 71.697403 -30.435629 4294967295
-55.947392 70.79277 -30.213749 4294967295
-55.930744 73.998741 -30.593075 4294967295
-55.928951 73.848663 -30.550749 4294967295
-55.92247 76.284019 -30.897667 4294967295
-55.920334 75.375534 -30.724762 4294967295
-55.914425 74.166763 -30.465336 4294967295
-55.914345 75.988785 -30.770475 4294967295
-55.914215 76.747757 -30.896606 4294967295
-55.912003 77.508713 -31.003176 4294967295
-55.903877 75.543999 -30.59577 4294967295
-55.903431 77.214165 -30.871845 4294967295
-55.901161 76.912994 -30.799587 4294967295
-55.899529 76.45932 -30.707869 4294967295
-55.831074 70.908653 -30.592628 4294967295
-55.823734 71.978615 -30.702106 4294967295
-55.823639 71.675011 -30.650282 4294967295
-55.818974 73.804832 -30.963011 4294967295
-55.81599 72.137871 -30.655014 4294967295
-55.813854 71.076759 -30.45664 4294967295
-55.812862 73.659073 -30.880302 4294967295
-55.811016 71.535141 -30.506475 4294967295
-55.802334 74.276588 -30.883484 4294967295
-55.801624 72.910973 -30.647713 4294967295
-55.799171 74.886803 -30.955664 4294967295
-55.796627 72.612099 -30.549938 4294967295
-55.791229 75.350052 -30.957609 4294967295
-55.785168 71.255775 -30.213219 4294967295
-55.785168 74.597229 -30.773607 4294967295
-55.785164 71.407738 -30.238674 4294967295
-55.771229 73.244301 -30.413836 4294967295
-55.717934 77.55014 -30.62764 4294967295
-55.713634 76.947235 -30.485601 4294967295
-55.674801 72.732361 -30.875961 4294967295
-55.66679 71.373428 -30.57213 4294967295
-55.649433 71.085968 -30.358902 4294967295
-55.647999 73.213814 -30.701677 4294967295
-55.618408 73.698303 -30.501381 4294967295
-55.608994 74.922577 -30.616867 4294967295
-55.596298 75.087135 -30.523664 4294967295
-55.593338 75.241974 -30.521431 4294967295
-55.589836 76.763931 -30.742922 4294967295
-55.588459 77.220741 -30.806309 4294967295
-55.569992 77.69529 -30.710102 4294967295
-55.55592 77.406235 -30.527866 4294967295
-55.516235 71.67337 -30.654737 4294967295
-55.513103 72.283806 -30.727135 4294967295
-55.511307 71.222359 -30.532507 4294967295
-55.506298 72.59404 -30.714439 4294967295
-55.505764 70.923714 -30.42996 4294967295
-55.501396 71.991234 -30.567095 4294967295
-55.494911 73.364288 -30.735233 4294967295
-55.491936 73.063469 -30.656685 4294967295
-55.478745 71.860855 -30.33037 4294967295
-55.438351 77.064583 -30.817299 4294967295
-55.425983 76.46994 -30.600569 4294967295
-55.412601 76.331696 -30.450478 4294967295
-55.374748 71.357269 -30.720062 4294967295
-55.338581 71.695183 -30.43417 4294967295
-55.333694 72.459457 -30.51561 4294967295
-55.330151 72.918579 -30.558765 4294967295
-55.324551 70.64447 -30.125828 4294967295
-55.32201 70.950874 -30.152966 4294967295
-55.248821 77.252563 -30.51268 4294967295
-55.218578 71.206848 -30.674129 4294967295
-55.209015 71.519623 -30.635996 4294967295
-55.205063 72.130913 -30.700663 4294967295
-55.196362 71.379593 -30.49316 4294967295
-55.18523 70.93412 -30.313707 4294967295
-55.175625 70.791061 -30.199139 4294967295
-55.173141 72.313194 -30.429651 4294967295
-55.136875 76.6017 -30.802427 4294967295
-55.128651 76.913742 -30.776798 4294967295
-55.128223 76.458649 -30.696901 4294967295
-55.123974 77.374008 -30.809361 4294967295
-55.115906 77.534142 -30.759869 4294967295
-55.105537 76.785461 -30.537167 4294967295
-55.035873 71.840889 -30.509203 4294967295
-55.032005 71.540627 -30.422731 4294967295
-54.933537 76.955231 -30.396992 4294967295
-54.907848 71.208199 -30.648552 4294967295
-54.89473 71.068474 -30.502003 4294967295
-54.875027 71.69474 -30.421038 4294967295
-54.860775 71.404091 -30.238726 4294967295
-54.859909 72.012932 -30.331884 4294967295
-54.847656 71.872459 -30.193371 4294967295
-54.801777 77.387733 -30.679588 4294967295
-54.783653 77.102448 -30.461823 4294967295
-54.777905 77.260246 -30.434036 4294967295
-54.770927 77.571259 -30.420183 4294967295
-54.74353 71.672997 -30.62923 4294967295
-54.708523 70.793587 -30.154819 4294967295
-54.699821 71.409851 -30.175669 4294967295
-54.576302 71.076782 -30.406967 4294967295
-54.571552 71.537178 -30.438951 4294967295
-54.551239 70.795845 -30.125877 4294967295
-54.542957 71.411774 -30.15065 4294967295
-54.469776 77.715141 -30.51189 4294967295
-54.418869 71.383263 -30.426735 4294967295
-54.140816 77.735443 -30.323996 4294967295
-54.104023 70.77993 -30.265799 4294967295
-54.090446 71.248611 -30.217178 4294967295
-54.084686 71.101822 -30.139397 4294967295
-53.903831 71.125626 -29.896433 4294967295
-53.817413 77.749847 -30.188957 4294967295
-53.790909 70.78299 -30.222473 4294967295
-53.778244 70.94664 -30.13236 4294967295
-53.594101 70.973236 -29.860924 4294967295
-53.592686 70.670105 -29.797934 4294967295
-53.433662 70.825935 -29.780436 4294967295
-53.316387 70.791794 -30.115368 4294967295
-49.658188 70.715569 -29.179562 4294967295
-49.511761 70.860329 -29.275993 4294967295
-49.311096 70.898857 -28.884315 4294967295
-49.150265 70.750488 -28.809837 4294967295
-49.000423 70.898209 -28.877829 4294967295
-48.893044 77.713257 -29.032768 4294967295
-48.836308 70.905319 -28.800243 4294967295
-48.731606 77.566231 -28.954573 4294967295
-48.711155 77.73819 -28.805454 4294967295
-48.709858 70.72776 -29.018019 4294967295
-48.558533 71.334854 -29.145615 4294967295
-48.538731 70.893494 -28.90559 4294967295
-48.430969 77.709259 -29.059628 4294967295
-48.400436 71.489601 -29.143353 4294967295
-48.393444 71.037376 -29.011854 4294967295
-48.383327 71.198685 -28.950686 4294967295
-48.382298 77.449333 -28.600462 4294967295
-48.369484 70.904846 -28.785526 4294967295
-48.217091 71.207542 -28.856279 4294967295
-48.207043 71.521637 -28.820015 4294967295
-48.115143 77.561096 -28.988461 4294967295
-48.110378 77.412796 -28.924311 4294967295
-48.08387 70.882957 -28.991493 4294967295
-48.074043 77.140945 -28.570625 4294967295
-48.047234 71.830643 -28.828499 4294967295
-48.041317 71.530052 -28.730553 4294967295
-48.033417 71.231064 -28.615931 4294967295
-47.987923 77.687447 -29.246819 4294967295
-47.935524 77.430717 -28.759176 4294967295
-47.924065 71.34462 -29.023809 4294967295
-47.852669 71.863617 -28.497725 4294967295
-47.82082 77.392853 -29.098257 4294967295
-47.814426 77.551498 -29.068829 4294967295
-47.789066 77.116676 -28.784365 4294967295
-47.774834 77.741051 -28.76156 4294967295
-47.7514 71.664444 -28.924618 4294967295
-47.740776 71.062119 -28.739449 4294967295
-47.737602 71.5233 -28.785143 4294967295
-47.732758 71.985886 -28.816854 4294967295
-47.732235 71.374985 -28.716179 4294967295
-47.729454 72.294334 -28.837387 4294967295
-47.658947 76.94046 -28.969988 4294967295
-47.641922 76.803284 -28.803734 4294967295
-47.538914 72.171066 -28.517864 4294967295
-47.523525 76.769249 -29.110697 4294967295
-47.471874 76.205017 -28.584042 4294967295
-47.468174 77.584 -28.769518 4294967295
-47.465199 76.669685 -28.600502 4294967295
-47.462074 70.728859 -28.954426 4294967295
-47.446815 71.200035 -28.89938 4294967295
-47.443886 71.508125 -28.923038 4294967295
-47.422531 71.831802 -28.793232 4294967295
-47.419319 71.375923 -28.694389 4294967295
-47.416561 70.919571 -28.599339 4294967295
-47.401978 72.307808 -28.69416 4294967295
-47.392399 72.468849 -28.638445 4294967295
-47.363327 72.952469 -28.468487 4294967295
-47.361092 76.928261 -29.074215 4294967295
-47.356308 77.696365 -29.1544 4294967295
-47.351513 76.478653 -28.922562 4294967295
-47.339134 77.4067 -28.963585 4294967295
-47.328709 75.735062 -28.612799 4294967295
-47.303825 70.883636 -28.952259 4294967295
-47.294918 77.294502 -28.571896 4294967295
-47.269337 71.676674 -28.785599 4294967295
-47.265327 72.444298 -28.872269 4294967295
-47.244053 71.086258 -28.479418 4294967295
-47.232021 73.084229 -28.691528 4294967295
-47.230118 71.556732 -28.435656 4294967295
-47.212673 72.336212 -28.410742 4294967295
-47.193584 76.786324 -28.948021 4294967295
-47.190792 73.425606 -28.397015 4294967295
-47.18745 76.027771 -28.777216 4294967295
-47.179813 76.951675 -28.85771 4294967295
-47.17778 75.272072 -28.576998 4294967295
-47.149731 75.755852 -28.416103 4294967295
-47.145851 76.37104 -28.47987 4294967295
-47.118122 71.061241 -28.722525 4294967295
-47.117214 71.52063 -28.786915 4294967295
-47.108215 71.222382 -28.664335 4294967295
-47.094582 71.998306 -28.67116 4294967295
-47.092922 72.611252 -28.753307 4294967295
-47.07925 71.858315 -28.520054 4294967295
-47.068283 72.173447 -28.477064 4294967295
-47.061398 74.778587 -28.827545 4294967295
-47.061092 72.791306 -28.51339 4294967295
-47.057281 73.253357 -28.55372 4294967295
-47.05386 75.702278 -28.908829 4294967295
-47.05246 76.161964 -28.969103 4294967295
-47.049377 77.692513 -29.182981 4294967295
-47.045979 76.320618 -28.93935 4294967295
-47.045902 75.250847 -28.771025 4294967295
-47.041447 73.114021 -28.398479 4294967295
-47.035751 73.883682 -28.471172 4294967295
-47.033363 75.109085 -28.643179 4294967295
-47.031536 75.569351 -28.699932 4294967295
-47.031498 76.944977 -28.915228 4294967295
-47.026608 76.796608 -28.850765 4294967295
-47.023872 73.435081 -28.30077 4294967295
-47.021526 76.495522 -28.760782 4294967295
-47.013958 73.749626 -28.266558 4294967295
-47.009968 77.575958 -28.832718 4294967295
-47.008759 77.271385 -28.774794 4294967295
-46.99876 75.904442 -28.476324 4294967295
-46.949429 72.142105 -28.77846 4294967295
-46.929775 71.241066 -28.472082 4294967295
-46.922672 73.540825 -28.772596 4294967295
-46.90765 75.082497 -28.887749 4294967295
-46.904587 76.154953 -29.029924 4294967295
-46.878899 75.872299 -28.769693 4294967295
-46.871944 74.349396 -28.472775 4294967295
-46.852676 75.742813 -28.528969 4294967295
-46.850769 74.520866 -28.32159 4294967295
-46.806095 71.367104 -28.75695 4294967295
-46.800526 71.524643 -28.734873 4294967295
-46.797436 71.985916 -28.781137 4294967295
-46.780632 72.305862 -28.690231 4294967295
-46.779469 71.236305 -28.51309 4294967295
-46.777962 71.084595 -28.476715 4294967295
-46.7701 71.702988 -28.507536 4294967295
-46.7668 72.929237 -28.671734 4294967295
-46.763775 72.167152 -28.527119 4294967295
-46.760925 71.863632 -28.455692 4294967295
-46.755939 73.85598 -28.725615 4294967295
-46.74469 73.712799 -28.608818 4294967295
-46.736034 72.649513 -28.369867 4294967295
-46.731483 75.100479 -28.715124 4294967295
-46.730835 74.79525 -28.661921 4294967295
-46.730076 74.184235 -28.559988 4294967295
-46.729103 73.420319 -28.432308 4294967295
-46.720577 75.568802 -28.696863 4294967295
-46.719864 76.945236 -28.906122 4294967295
-46.717312 75.4188 -28.646025 4294967295
-46.716389 77.712517 -28.996944 4294967295
-46.713131 76.798477 -28.826693 4294967295
-46.712677 77.410271 -28.918566 4294967295
-46.707779 74.050636 -28.352024 4294967295
-46.707134 76.039474 -28.657694 4294967295
-46.70504 74.664925 -28.425146 4294967295
-46.703514 77.112915 -28.795189 4294967295
-46.701485 76.350342 -28.658918 4294967295
-46.693783 77.274635 -28.73885 4294967295
-46.689507 75.749344 -28.464441 4294967295
-46.687321 76.210121 -28.518181 4294967295
-46.674789 75.915413 -28.366947 4294967295
-46.656105 70.903419 -28.728355 4294967295
-46.611153 72.623146 -28.620815 4294967295
-46.590664 73.099396 -28.523746 4294967295
-46.588783 75.547531 -28.89052 4294967295
-46.525017 76.52182 -28.508911 4294967295
-46.473736 72.454559 -28.743921 4294967295
-46.465893 71.084534 -28.464491 4294967295
-46.463593 72.768967 -28.708281 4294967295
-46.441109 75.23465 -28.905336 4294967295
-46.43618 73.70993 -28.626171 4294967295
-46.430027 73.868172 -28.599468 4294967295
-46.429401 72.032883 -28.307722 4294967295
-46.426373 77.23468 -29.094288 4294967295
-46.425484 73.107231 -28.442726 4294967295
-46.42218 75.404205 -28.773663 4294967295
-46.421932 73.569206 -28.485189 4294967295
-46.415413 75.104347 -28.670328 4294967295
-46.413937 74.035004 -28.491102 4294967295
-46.407341 73.428711 -28.341356 4294967295
-46.402336 74.198013 -28.419624 4294967295
-46.395168 74.816177 -28.456211 4294967295
-46.394527 76.040352 -28.641912 4294967295
-46.394115 75.581909 -28.566944 4294967295
-46.390282 77.11451 -28.774065 4294967295
-46.387672 74.975716 -28.418495 4294967295
-46.387222 76.352722 -28.629618 4294967295
-46.385387 77.424721 -28.781563 4294967295
-46.380508 76.511665 -28.598331 4294967295
-46.377613 77.584679 -28.741583 4294967295
-46.372601 76.212837 -28.485655 4294967295
-46.366154 75.759628 -28.361074 4294967295
-46.361904 76.834267 -28.493259 4294967295
-46.331203 71.219864 -28.657679 4294967295
-46.327393 71.070053 -28.60253 4294967295
-46.31913 71.688721 -28.630152 4294967295
-46.30724 73.380981 -28.794924 4294967295
-46.305691 72.923538 -28.710699 4294967295
-46.283867 72.483078 -28.460062 4294967295
-46.281151 76.308319 -29.033808 4294967295
-46.278397 72.181656 -28.367449 4294967295
-46.278206 74.323441 -28.699823 4294967295
-46.277744 74.629684 -28.743736 4294967295
-46.26207 74.184448 -28.543652 4294967295
-46.257004 77.552742 -29.026463 4294967295
-46.231358 75.435005 -28.482567 4294967295
-46.209858 76.065964 -28.40169 4294967295
-46.2038 76.989273 -28.495113 4294967295
-46.161686 71.995804 -28.660254 4294967295
-46.150501 71.546158 -28.497162 4294967295
-46.130722 71.256432 -28.287464 4294967295
-46.128567 73.706268 -28.651165 4294967295
-46.126095 74.32016 -28.726208 4294967295
-46.122604 75.087784 -28.816727 4294967295
-46.11977 73.101868 -28.48386 4294967295
-46.118256 72.491104 -28.376102 4294967295
-46.118065 73.25631 -28.493725 4294967295
-46.117043 74.786797 -28.723583 4294967295
-46.116055 76.316643 -28.953596 4294967295
-46.111198 73.568146 -28.485176 4294967295
-46.109737 73.875374 -28.520855 4294967295
-46.10915 77.698456 -29.111256 4294967295
-46.106033 77.242775 -29.014397 4294967295
-46.101147 75.871208 -28.760201 4294967295
-46.093006 75.572525 -28.645992 4294967295
-46.091042 75.421303 -28.606094 4294967295
-46.088196 74.19989 -28.392206 4294967295
-46.084297 76.803696 -28.765211 4294967295
-46.081799 76.958847 -28.768589 4294967295
-46.08176 75.276474 -28.506327 4294967295
-46.080357 77.418854 -28.828197 4294967295
-46.071396 76.509369 -28.612072 4294967295
-46.024605 70.909386 -28.642622 4294967295
-46.018093 71.679558 -28.708437 4294967295
-46.003109 72.303848 -28.681181 4294967295
-45.999012 72.001328 -28.600098 4294967295
-45.997643 72.614342 -28.684134 4294967295
-45.990707 71.855232 -28.508427 4294967295
-45.971859 72.176941 -28.402018 4294967295
-45.967567 74.016502 -28.652611 4294967295
-45.931953 74.965141 -28.504536 4294967295
-45.926224 74.664101 -28.41016 4294967295
-45.905872 76.212006 -28.481966 4294967295
-45.892864 75.76445 -28.304356 4294967295
-45.886269 77.60643 -28.536057 4294967295
-45.856693 71.225014 -28.587427 4294967295
-45.847622 70.926407 -28.465843 4294967295
-45.839741 72.921852 -28.710756 4294967295
-45.820824 75.384911 -28.936781 4294967295
-45.806499 76.161972 -28.938856 4294967295
-45.79776 74.640305 -28.630014 4294967295
-45.793842 77.396286 -29.025734 4294967295
-45.793201 76.479561 -28.878023 4294967295
-45.7868 75.261703 -28.635786 4294967295
-45.784309 74.039879 -28.425283 4294967295
-45.779655 73.584724 -28.315994 4294967295
-45.779182 76.033195 -28.692541 4294967295
-45.776188 77.717979 -28.929468 4294967295
-45.775299 73.435356 -28.25671 4294967295
-45.774212 76.649376 -28.747086 4294967295
-45.773144 74.202484 -28.358067 4294967295
-45.76915 77.112701 -28.777121 4294967295
-45.766487 77.573853 -28.826702 4294967295
-45.766129 75.738747 -28.53866 4294967295
-45.7654 76.351303 -28.627796 4294967295
-45.755951 74.523384 -28.265497 4294967295
-45.735645 75.612473 -28.266499 4294967295
-45.734779 77.296524 -28.520948 4294967295
-45.71077 71.675598 -28.735371 4294967295
-45.697311 72.145645 -28.697115 4294967295
-45.689156 72.611359 -28.702005 4294967295
-45.686413 71.236588 -28.465839 4294967295
-45.678455 73.844048 -28.804918 4294967295
-45.675144 71.55191 -28.421648 4294967295
-45.670937 72.014503 -28.4587 4294967295
-45.670612 70.790276 -28.265907 4294967295
-45.666996 73.700851 -28.68796 4294967295
-45.664108 74.162209 -28.735687 4294967295
-45.658585 73.249008 -28.548252 4294967295
-45.644958 76.167023 -28.888556 4294967295
-45.644577 75.096809 -28.719313 4294967295
-45.644272 75.708862 -28.811768 4294967295
-45.620907 77.258827 -28.859146 4294967295
-45.503445 75.542763 -28.906225 4294967295
-45.499161 72.639687 -28.420742 4294967295
-45.477406 77.094902 -28.93202 4294967295
-45.468521 73.124573 -28.243174 4294967295
-45.459225 76.346336 -28.665993 4294967295
-45.453609 76.657257 -28.667883 4294967295
-45.453247 76.963524 -28.712351 4294967295
-45.447212 75.132729 -28.378769 4294967295
-45.440792 77.280586 -28.658758 4294967295
-45.413361 71.051582 -28.748135 4294967295
-45.410252 77.767014 -28.482178 4294967295
-45.387882 71.68438 -28.636419 4294967295
-45.383156 72.453285 -28.716629 4294967295
-45.367992 73.077904 -28.688568 4294967295
-45.361465 72.165222 -28.493446 4294967295
-45.354916 73.394897 -28.630035 4294967295
-45.343639 72.792236 -28.443832 4294967295
-45.343479 71.873917 -28.30022 4294967295
-45.342327 73.25248 -28.504316 4294967295
-45.334763 74.942039 -28.703756 4294967295
-45.332264 75.556091 -28.778267 4294967295
-45.331562 74.179771 -28.559349 4294967295
-45.331181 74.027077 -28.532549 4294967295
-45.324314 74.645035 -28.571716 4294967295
-45.314632 77.254036 -28.89603 4294967295
-45.312286 75.420494 -28.592815 4294967295
-45.310085 76.034401 -28.669762 4294967295
-45.291344 74.520271 -28.280968 4294967295
-45.288857 75.899994 -28.474163 4294967295
-45.28775 76.207031 -28.512598 4294967295
-45.286114 77.585464 -28.712574 4294967295
-45.262985 77.453209 -28.501669 4294967295
-45.221386 71.080635 -28.451792 4294967295
-45.191818 71.563972 -28.283672 4294967295
-45.180138 73.104523 -28.426123 4294967295
-45.171593 73.5709 -28.428116 4294967295
-45.135471 75.285492 -28.396626 4294967295
-45.110374 75.766541 -28.264854 4294967295
-45.10326 76.997437 -28.396805 4294967295
-45.098381 77.307899 -28.404728 4294967295
-45.096634 76.850243 -28.319586 4294967295
-45.093937 77.617989 -28.416178 4294967295
-45.087151 71.215866 -28.64661 4294967295
-45.067841 71.537659 -28.53804 4294967295
-45.065197 71.080597 -28.445702 4294967295
-45.057343 73.07666 -28.689905 4294967295
-45.05648 71.853065 -28.493675 4294967295
-45.052937 71.396721 -28.394062 4294967295
-45.049698 73.389084 -28.675535 4294967295
-45.049076 72.624451 -28.552225 4294967295
-45.037914 74.164093 -28.698698 4294967295
-45.035671 72.788643 -28.467699 4294967295
-45.033413 72.331268 -28.378469 4294967295
-45.03101 70.955109 -28.146009 4294967295
-45.021736 74.636917 -28.639147 4294967295
-45.017254 74.028595 -28.508352 4294967295
-45.015903 71.733154 -28.142445 4294967295
-45.006069 76.639435 -28.820145 4294967295
-45.005123 74.345016 -28.457813 4294967295
-45.004791 75.569618 -28.64435 4294967295
-45.002296 75.265732 -28.576946 4294967295
-45.00111 77.408615 -28.898298 4294967295
-45.000729 73.736412 -28.327709 4294967295
-44.999569 72.971794 -28.200024 4294967295
-44.999008 76.339691 -28.715918 4294967295
-44.990559 75.428925 -28.505907 4294967295
-44.989666 75.888817 -28.569679 4294967295
-44.981499 74.977531 -28.361891 4294967295
-44.974705 77.126152 -28.63817 4294967295
-44.972866 76.515678 -28.528782 4294967295
-44.953152 77.604416 -28.535378 4294967295
-44.90918 71.539658 -28.512056 4294967295
-44.874531 73.252007 -28.493008 4294967295
-44.857162 71.888313 -28.140316 4294967295
-44.852451 74.495171 -28.504314 4294967295
-44.824215 73.600388 -28.135134 4294967295
-44.820572 77.277565 -28.672974 4294967295
-44.8204 74.063057 -28.175348 4294967295
-44.807728 75.911377 -28.357008 4294967295
-44.798908 76.378357 -28.356932 4294967295
-44.797169 75.308052 -28.177471 4294967295
-44.773911 77.472099 -28.321215 4294967295
-44.754566 71.691422 -28.542469 4294967295
-44.73967 71.397324 -28.375465 4294967295
-44.738094 72.011024 -28.457294 4294967295
-44.736008 70.940895 -28.275137 4294967295
-44.725872 72.480347 -28.42988 4294967295
-44.725529 71.56192 -28.285408 4294967295
-44.721401 71.105804 -28.18132 4294967295
-44.718136 71.261604 -28.178713 4294967295
-44.717228 72.334351 -28.33679 4294967295
-44.712353 72.797722 -28.368477 4294967295
-44.702892 73.41803 -28.386919 4294967295
-44.701519 74.184639 -28.493933 4294967295
-44.699814 72.195503 -28.173178 4294967295
-44.69722 75.106674 -28.601036 4294967295
-44.692558 72.660957 -28.185757 4294967295
-44.690773 76.642479 -28.785191 4294967295
-44.688042 76.032822 -28.668903 4294967295
-44.6852 73.89222 -28.315582 4294967295
-44.68185 75.579063 -28.548378 4294967295
-44.679218 74.815941 -28.40921 4294967295
-44.672501 73.749756 -28.189922 4294967295
-44.666134 76.358009 -28.540165 4294967295
-44.663635 76.972389 -28.614468 4294967295
-44.660812 77.280952 -28.639 4294967295
-44.660717 75.903511 -28.425848 4294967295
-44.659836 76.210442 -28.465977 4294967295
-44.651035 75.758804 -28.324474 4294967295
-44.646942 77.59935 -28.57482 4294967295
-44.643188 74.999878 -28.143383 4294967295
-44.636375 77.149529 -28.419197 4294967295
-44.624554 77.772362 -28.418707 4294967295
-44.583427 72.469017 -28.534714 4294967295
-44.574627 72.935524 -28.53488 4294967295
-44.560143 74.478287 -28.654552 4294967295
-44.549831 72.037163 -28.194422 4294967295
-44.54723 73.723808 -28.433109 4294967295
-44.544956 74.644241 -28.556387 4294967295
-44.544373 75.256973 -28.646009 4294967295
-44.526817 72.821945 -28.127823 4294967295
-44.513741 74.823914 -28.329716 4294967295
-44.505558 74.371437 -28.193317 4294967295
-44.460693 76.707436 -28.187599 4294967295
-44.439087 71.23452 -28.435495 4294967295
-44.423832 71.093643 -28.28974 4294967295
-44.411407 72.941338 -28.473171 4294967295
-44.410824 71.563599 -28.256342 4294967295
-44.408657 72.177979 -28.333284 4294967295
-44.406963 73.557411 -28.531843 4294967295
-44.406174 70.801414 -28.101173 4294967295
-44.403286 72.641792 -28.361017 4294967295
-44.395924 71.728836 -28.16061 4294967295
-44.391167 73.417473 -28.381863 4294967295
-44.385174 74.188072 -28.451744 4294967295
-44.382595 72.352448 -28.14822 4294967295
-44.382072 74.496895 -28.474037 4294967295
-44.377087 75.725792 -28.622593 4294967295
-44.370472 76.037621 -28.616802 4294967295
-44.37014 73.128632 -28.16643 4294967295
-44.368599 76.957504 -28.74309 4294967295
-44.365318 76.19516 -28.599117 4294967295
-44.362766 74.053802 -28.248861 4294967295
-44.350689 74.982925 -28.293631 4294967295
-44.350441 76.361168 -28.503689 4294967295
-44.344757 73.915741 -28.081173 4294967295
-44.344326 76.672676 -28.501886 4294967295
-44.34071 75.604034 -28.308054 4294967295
-44.338066 74.68734 -28.145504 4294967295
-44.337517 75.913055 -28.329643 4294967295
-44.325649 77.454544 -28.470301 4294967295
-44.30632 77.624763 -28.339302 4294967295
-44.280315 72.002098 -28.527191 4294967295
-44.240559 71.115196 -28.068171 4294967295
-44.20055 73.752449 -28.149055 4294967295
-44.199959 73.293335 -28.073652 4294967295
-44.16695 75.312782 -28.116251 4294967295
-44.16497 75.77404 -28.171093 4294967295
-44.157604 76.239944 -28.182924 4294967295
-44.155403 76.088661 -28.141811 4294967295
-44.108364 72.321098 -28.443228 4294967295
-44.10807 72.933823 -28.534973 4294967295
-44.100964 71.254936 -28.219528 4294967295
-44.098476 72.482307 -28.387924 4294967295
-44.090328 74.479553 -28.628698 4294967295
-44.087811 70.959023 -28.067537 4294967295
-44.083141 73.566933 -28.430334 4294967295
-44.081089 74.181129 -28.508055 4294967295
-44.076675 72.806496 -28.261181 4294967295
-44.073772 74.95282 -28.567297 4294967295
-44.070492 71.126099 -27.952934 4294967295
-44.067242 71.894951 -28.044735 4294967295
-44.063065 73.430443 -28.246794 4294967295
-44.061245 76.34127 -28.679031 4294967295
-44.060448 72.666611 -28.108271 4294967295
-44.059151 74.658974 -28.403755 4294967295
-44.058788 73.893524 -28.283264 4294967295
-44.053562 76.654068 -28.664835 4294967295
-44.044605 75.437012 -28.405441 4294967295
-44.042183 73.754181 -28.127394 4294967295
-44.034164 74.833275 -28.228161 4294967295
-44.033543 76.977699 -28.552391 4294967295
-44.033051 74.374649 -28.148735 4294967295
-44.030884 77.74543 -28.64871 4294967295
-44.02879 75.756851 -28.326471 4294967295
-44.024193 76.067108 -28.336885 4294967295
-44.014572 76.841171 -28.37781 4294967295
-44.010506 77.150993 -28.392424 4294967295
-44.009438 75.620285 -28.148781 4294967295
-44.008106 76.234169 -28.232244 4294967295
-43.980061 77.484062 -28.196989 4294967295
-43.977425 77.639565 -28.199509 4294967295
-43.969593 71.081764 -28.38884 4294967295
-43.956032 71.705284 -28.374922 4294967295
-43.955116 72.012337 -28.41465 4294967295
-43.941578 70.644432 -28.095306 4294967295
-43.922932 72.191605 -28.182039 4294967295
-43.896797 72.825806 -28.06814 4294967295
-43.872818 74.684395 -28.159487 4294967295
-43.858925 74.849342 -28.072517 4294967295
-43.833599 76.862831 -28.176655 4294967295
-43.826653 76.562454 -28.074451 4294967295
-43.767483 73.263222 -28.347942 4294967295
-43.765053 73.724724 -28.399088 4294967295
-43.764057 72.346848 -28.17985 4294967295
-43.764004 72.040436 -28.132448 4294967295
-43.761898 71.735657 -28.068758 4294967295
-43.756989 74.190918 -28.4055 4294967295
-43.754341 72.661194 -28.149689 4294967295
-43.74905 73.891197 -28.295517 4294967295
-43.748028 72.81958 -28.123034 4294967295
-43.739658 73.132912 -28.103571 4294967295
-43.737511 75.891953 -28.509047 4294967295
-43.735962 76.505737 -28.59058 4294967295
-43.729763 76.204865 -28.494503 4294967295
-43.728714 74.061333 -28.157591 4294967295
-43.72739 75.747482 -28.405294 4294967295
-43.72377 77.434937 -28.634605 4294967295
-43.721127 74.986946 -28.238235 4294967295
-43.719284 75.448074 -28.294025 4294967295
-43.715652 74.838364 -28.171299 4294967295
-43.710556 77.140289 -28.482893 4294967295
-43.70911 75.303535 -28.189812 4294967295
-43.706795 74.539368 -28.054045 4294967295
-43.705948 77.297447 -28.46979 4294967295
-43.699657 76.690331 -28.326054 4294967295
-43.696091 77.765495 -28.461977 4294967295
-43.681622 75.633392 -28.018663 4294967295
-43.670979 76.868431 -28.122019 4294967295
-43.646278 71.396523 -28.339321 4294967295
-43.637726 71.709755 -28.318441 4294967295
-43.635925 71.864403 -28.327621 4294967295
-43.635227 71.098907 -28.20479 4294967295
-43.627625 72.943382 -28.426037 4294967295
-43.62714 72.33107 -28.328371 4294967295
-43.626366 72.638069 -28.369162 4294967295
-43.621208 70.956787 -28.070189 4294967295
-43.592148 73.27887 -28.19186 4294967295
-43.586552 74.662308 -28.358606 4294967295
-43.577854 76.660591 -28.594437 4294967295
-43.562157 77.133575 -28.540472 4294967295
-43.550014 77.756691 -28.538097 4294967295
-43.541138 75.926376 -28.186546 4294967295
-43.459606 74.331474 -28.538837 4294967295
-43.442577 75.723999 -28.614996 4294967295
-43.432899 74.506943 -28.351151 4294967295
-43.43148 75.580307 -28.503881 4294967295
-43.431431 72.362877 -28.01144 4294967295
-43.426189 74.97213 -28.368397 4294967295
-43.422657 76.659805 -28.598038 4294967295
-43.416698 75.286514 -28.340229 4294967295
-43.416534 72.988113 -27.987396 4294967295
-43.415581 74.214973 -28.167397 4294967295
-43.407463 76.979218 -28.52483 4294967295
-43.407028 76.520149 -28.451153 4294967295
-43.401409 74.686523 -28.125671 4294967295
-43.401138 76.372055 -28.381203 4294967295
-43.391708 77.452362 -28.4706 4294967295
-43.389332 76.075806 -28.241074 4294967295
-43.376492 77.772003 -28.397238 4294967295
-43.355999 70.919052 -28.434587 4294967295
-43.350281 71.383133 -28.459688 4294967295
-43.345085 71.846809 -28.48888 4294967295
-43.330158 72.165154 -28.417864 4294967295
-43.325352 70.789986 -28.169172 4294967295
-43.321106 72.478836 -28.393255 4294967295
-43.304962 71.725693 -28.148739 4294967295
-43.276325 73.741119 -28.227104 4294967295
-43.272678 72.671303 -28.034424 4294967295
-43.265972 73.596397 -28.122017 4294967295
-43.263065 76.509651 -28.543703 4294967295
-43.260509 73.14106 -28.008638 4294967295
-43.25993 73.907898 -28.121172 4294967295
-43.24789 74.990662 -28.190056 4294967295
-43.218746 75.475014 -28.030399 4294967295
-43.199986 77.023689 -28.116535 4294967295
-43.179562 71.547699 -28.364038 4294967295
-43.1506 70.804314 -28.018843 4294967295
-43.14629 72.033974 -28.172094 4294967295
-43.141865 72.803787 -28.254211 4294967295
-43.132984 74.036819 -28.371351 4294967295
-43.129169 74.346382 -28.388052 4294967295
-43.095654 76.978813 -28.521589 4294967295
-43.090172 75.758011 -28.291468 4294967295
-43.085575 77.293869 -28.489002 4294967295
-43.082832 73.618362 -27.906252 4294967295
-43.079494 76.07354 -28.254183 4294967295
-43.075142 75.004448 -28.05624 4294967295
-43.072063 76.692787 -28.289204 4294967295
-43.050552 77.171043 -28.190067 4294967295
-43.03001 71.082565 -28.341942 4294967295
-43.015129 71.707275 -28.318388 4294967295
-43.005886 72.327591 -28.339195 4294967295
-43.001362 70.798553 -28.069885 4294967295
-42.997028 72.028206 -28.222803 4294967295
-42.992401 72.951385 -28.326653 4294967295
-42.987926 73.874321 -28.431635 4294967295
-42.979492 72.65535 -28.178429 4294967295
-42.978897 73.728539 -28.33732 4294967295
-42.97303 74.499451 -28.407997 4294967295
-42.968925 73.276978 -28.188837 4294967295
-42.968761 72.817299 -28.117443 4294967295
-42.968227 71.591278 -27.926222 4294967295
-42.954849 74.36132 -28.241787 4294967295
-42.931957 74.227013 -28.038536 4294967295
-42.929085 75.455597 -28.202883 4294967295
-42.928638 76.222153 -28.316145 4294967295
-42.923161 74.694206 -28.039509 4294967295
-42.919968 75.616554 -28.154613 4294967295
-42.909679 75.165367 -28.0037 4294967295
-42.894264 76.098183 -28.022785 4294967295
-42.891289 76.407303 -28.046148 4294967295
-42.878017 77.491684 -28.105438 4294967295
-42.815632 73.427689 -28.231436 4294967295
-42.812359 72.357346 -28.042311 4294967295
-42.803947 72.057426 -27.929611 4294967295
-42.801086 71.292908 -27.790339 4294967295
-42.792034 74.06012 -28.139723 4294967295
-42.7901 75.134544 -28.287924 4294967295
-42.758484 75.467613 -28.086712 4294967295
-42.756855 74.702438 -27.95722 4294967295
-42.750198 74.861313 -27.928379 4294967295
-42.744537 76.24585 -28.094088 4294967295
-42.738613 77.170563 -28.18767 4294967295
-42.735802 76.559883 -28.072271 4294967295
-42.731144 77.483543 -28.175783 4294967295
-42.71257 70.77951 -28.247549 4294967295
-42.71175 77.653648 -28.047155 4294967295
-42.705891 71.24456 -28.265213 4294967295
-42.672405 73.876648 -28.399456 4294967295
-42.671738 72.651184 -28.207661 4294967295
-42.670803 70.965485 -27.943707 4294967295
-42.666687 72.501953 -28.144808 4294967295
-42.664024 71.430847 -27.960623 4294967295
-42.663475 72.197922 -28.072985 4294967295
-42.662174 74.344749 -28.389307 4294967295
-42.660728 70.666626 -27.818075 4294967295
-42.654709 73.431358 -28.19096 4294967295
-42.650105 71.748558 -27.898275 4294967295
-42.647713 72.977142 -28.066229 4294967295
-42.638126 73.751472 -28.107794 4294967295
-42.635483 74.060226 -28.133768 4294967295
-42.635456 71.913551 -27.80691 4294967295
-42.62949 75.291374 -28.273397 4294967295
-42.625034 72.382004 -27.795321 4294967295
-42.624016 76.215431 -28.370405 4294967295
-42.622898 72.843842 -27.848595 4294967295
-42.619541 74.226654 -28.032299 4294967295
-42.617989 77.139862 -28.463079 4294967295
-42.611481 76.072823 -28.249035 4294967295
-42.605492 75.618065 -28.132236 4294967295
-42.556927 71.545128 -28.364582 4294967295
-42.523853 72.797546 -28.29249 4294967295
-42.506058 71.89196 -28.013601 4294967295
-42.505318 74.498398 -28.403921 4294967295
-42.500858 73.735802 -28.252636 4294967295
-42.476608 76.361122 -28.459127 4294967295
-42.455112 75.766319 -28.198153 4294967295
-42.454983 76.839233 -28.360134 4294967295
-42.439342 77.618874 -28.354437 4294967295
-42.438454 77.313156 -28.300959 4294967295
-42.437931 76.087402 -28.110565 4294967295
-42.41663 77.02536 -28.084034 4294967295
-42.414349 76.56736 -27.996334 4294967295
-42.394897 70.783035 -28.198887 4294967295
-42.393505 71.397293 -28.281166 4294967295
-42.375683 71.104652 -28.095547 4294967295
-42.371861 72.793953 -28.321846 4294967295
-42.367886 71.724068 -28.127882 4294967295
-42.363274 73.107407 -28.301432 4294967295
-42.361721 73.568451 -28.359135 4294967295
-42.357182 71.272469 -27.974516 4294967295
-42.34779 72.199982 -28.040991 4294967295
-42.344975 71.895515 -27.972462 4294967295
-42.340786 74.045334 -28.265724 4294967295
-42.33931 74.659615 -28.347307 4294967295
-42.337528 74.354553 -28.286882 4294967295
-42.334583 73.283882 -28.100996 4294967295
-42.332829 72.978645 -28.040735 4294967295
-42.326881 74.823158 -28.273701 4294967295
-42.32222 72.527084 -27.88814 4294967295
-42.319832 76.361557 -28.451368 4294967295
-42.315731 73.759186 -28.023836 4294967295
-42.31142 74.22271 -28.060081 4294967295
-42.309879 72.690346 -27.815191 4294967295
-42.309746 75.450531 -28.233213 4294967295
-42.306988 74.533012 -28.072073 4294967295
-42.305477 76.986687 -28.432564 4294967295
-42.305023 73.921265 -27.963631 4294967295
-42.303181 75.302734 -28.158754 4294967295
-42.293682 76.53701 -28.270878 4294967295
-42.291199 75.772675 -28.135193 4294967295
-42.280357 77.314728 -28.283375 4294967295
-42.272232 76.248604 -28.057207 4294967295
-42.241402 77.654892 -28.02644 4294967295
-42.174061 71.906815 -27.85504 4294967295
-42.164478 72.374603 -27.850262 4294967295
-42.155354 72.842079 -27.849047 4294967295
-42.145329 75.763847 -28.212946 4294967295
-42.142441 77.605431 -28.46933 4294967295
-42.140179 73.621284 -27.8473 4294967295
-42.132324 75.008072 -27.995533 4294967295
-42.102146 76.106804 -27.923615 4294967295
-42.069622 71.252373 -28.161745 4294967295
-42.065804 70.795311 -28.062344 4294967295
-42.049976 71.881134 -28.102068 4294967295
-42.040493 71.735245 -28.005146 4294967295
-42.040413 72.502075 -28.120726 4294967295
-42.032352 73.735107 -28.24399 4294967295
-42.031536 72.815834 -28.09824 4294967295
-42.028908 72.357872 -28.008101 4294967295
-42.017326 75.127045 -28.336327 4294967295
-42.015976 71.601112 -27.79137 4294967295
-42.010059 73.139771 -27.977892 4294967295
-42.003166 72.071472 -27.761623 4294967295
-41.99733 74.530312 -28.088165 4294967295
-41.997284 75.603577 -28.25041 4294967295
-41.992146 76.374313 -28.326632 4294967295
-41.988529 75.304245 -28.135984 4294967295
-41.986122 74.999573 -28.070862 4294967295
-41.985958 76.07296 -28.232164 4294967295
-41.98394 74.387947 -27.96097 4294967295
-41.977917 76.692924 -28.26264 4294967295
-41.97253 75.930923 -28.104702 4294967295
-41.971905 76.851326 -28.239183 4294967295
-41.966625 76.242546 -28.105324 4294967295
-41.960361 77.474365 -28.242485 4294967295
-41.949493 75.796867 -27.902668 4294967295
-41.946884 77.639252 -28.161123 4294967295
-41.943146 77.335808 -28.085705 4294967295
-41.930367 71.238838 -28.29006 4294967295
-41.930367 77.040031 -27.940084 4294967295
-41.925129 71.549545 -28.295856 4294967295
-41.878845 70.972153 -27.844021 4294967295
-41.857185 73.750244 -28.094091 4294967295
-41.854675 73.905632 -28.097845 4294967295
-41.850697 72.374992 -27.834814 4294967295
-41.845924 75.29277 -28.238894 4294967295
-41.839966 72.843781 -27.821304 4294967295
-41.824982 73.316071 -27.774811 4294967295
-41.823727 76.384499 -28.229328 4294967295
-41.813015 77.773239 -28.355108 4294967295
-41.749256 72.024635 -28.209995 4294967295
-41.743164 70.955856 -28.000473 4294967295
-41.732414 71.270981 -27.963673 4294967295
-41.722206 71.739143 -27.954262 4294967295
-41.720795 71.893646 -27.966558 4294967295
-41.713154 71.439384 -27.837805 4294967295
-41.70187 72.675598 -27.936102 4294967295
-41.700279 75.283844 -28.318008 4294967295
-41.699516 72.217224 -27.848297 4294967295
-41.697872 73.752487 -28.067545 4294967295
-41.688274 71.612259 -27.668438 4294967295
-41.684425 75.143631 -28.172228 4294967295
-41.682461 74.378479 -28.041111 4294967295
-41.68124 75.759583 -28.240337 4294967295
-41.677109 76.222969 -28.277924 4294967295
-41.67683 74.076302 -27.951189 4294967295
-41.674274 74.538544 -28.000996 4294967295
-41.671337 72.853325 -27.723057 4294967295
-41.671207 75.461258 -28.116396 4294967295
-41.665516 73.932076 -27.84046 4294967295
-41.660835 73.475548 -27.73464 4294967295
-41.656574 77.006859 -28.235039 4294967295
-41.645428 76.862991 -28.125704 4294967295
-41.644218 74.870003 -27.814922 4294967295
-41.644051 76.404091 -28.045544 4294967295
-41.637684 75.949287 -27.926758 4294967295
-41.63731 75.642799 -27.87748 4294967295
-41.635181 77.638397 -28.162415 4294967295
-41.634464 77.332336 -28.110508 4294967295
-41.626881 76.725319 -27.959179 4294967295
-41.589165 72.640732 -28.269783 4294967295
-41.56348 73.427917 -28.187292 4294967295
-41.549442 74.359322 -28.217901 4294967295
-41.543827 74.517235 -28.197721 4294967295
-41.533649 72.838211 -27.864265 4294967295
-41.504021 74.242897 -27.844116 4294967295
-41.486717 75.17762 -27.849613 4294967295
-41.441525 71.866974 -28.217289 4294967295
-41.407055 71.126762 -27.835783 4294967295
-41.393898 72.97818 -28.012268 4294967295
-41.393288 71.751251 -27.822285 4294967295
-41.391048 73.440636 -28.05975 4294967295
-41.384148 72.679085 -27.890799 4294967295
-41.382442 74.214478 -28.109175 4294967295
-41.381355 73.9086 -28.05451 4294967295
-41.380566 75.136147 -28.233574 4294967295
-41.374607 73.607231 -27.956211 4294967295
-41.373661 72.38047 -27.763674 4294967295
-41.37019 75.298042 -28.176767 4294967295
-41.36887 76.065826 -28.282282 4294967295
-41.364487 76.529457 -28.317924 4294967295
-41.363117 72.849205 -27.751896 4294967295
-41.362045 76.378181 -28.27599 4294967295
-41.361065 75.612289 -28.152773 4294967295
-41.352539 74.852402 -27.971392 4294967295
-41.352474 77.612755 -28.387323 4294967295
-41.343006 77.160873 -28.245041 4294967295
-41.340481 76.242889 -28.086798 4294967295
-41.339195 73.789154 -27.706514 4294967295
-41.338757 76.857788 -28.166063 4294967295
-41.337837 74.557564 -27.811834 4294967295
-41.334499 75.941109 -27.994471 4294967295
-41.334003 75.021019 -27.851757 4294967295
-41.300041 77.350708 -27.937418 4294967295
-41.283421 70.9478 -28.061207 4294967295
-41.28278 71.408478 -28.125692 4294967295
-41.253582 71.891403 -27.970455 4294967295
-41.252884 73.579239 -28.219492 4294967295
-41.252712 72.198914 -28.010035 4294967295
-41.246712 70.822556 -27.755575 4294967295
-41.219982 72.68499 -27.827662 4294967295
-41.205559 74.69117 -28.017445 4294967295
-41.190247 75.930923 -28.084709 4294967295
-41.164871 76.719086 -28.005285 4294967295
-41.163208 75.339584 -27.784376 4294967295
-41.123489 72.177406 -28.215084 4294967295
-41.102585 71.580078 -27.962126 4294967295
-41.061691 72.839691 -27.833082 4294967295
-41.058132 74.530319 -28.059959 4294967295
-41.051453 72.694298 -27.731373 4294967295
-41.049091 73.61702 -27.851931 4294967295
-41.047733 73.925018 -27.887718 4294967295
-41.046665 76.226929 -28.226038 4294967295
-41.044014 73.467613 -27.789833 4294967295
-41.042992 75.156288 -28.03618 4294967295
-41.039467 76.999702 -28.286264 4294967295
-41.038063 74.393166 -27.882841 4294967295
-41.037716 75.467438 -28.041904 4294967295
-41.036201 75.77549 -28.076481 4294967295
-41.029366 76.087944 -28.070251 4294967295
-41.029243 74.246841 -27.792063 4294967295
-41.026981 74.709068 -27.844017 4294967295
-41.020424 76.555588 -28.070936 4294967295
-41.019245 77.17012 -28.154263 4294967295
-41.016689 77.632378 -28.203934 4294967295
-41.004524 77.335945 -28.064466 4294967295
-41.002438 75.649948 -27.794353 4294967295
-41.002129 74.88279 -27.676439 4294967295
-40.98798 76.736191 -27.845213 4294967295
-40.968777 71.408913 -28.108688 4294967295
-40.946861 72.960022 -28.171629 4294967295
-40.942879 72.656372 -28.094923 4294967295
-40.94072 71.123627 -27.847471 4294967295
-40.936298 72.201256 -27.975256 4294967295
-40.929188 71.746422 -27.85148 4294967295
-40.928799 73.281143 -28.079399 4294967295
-40.926464 73.589821 -28.107679 4294967295
-40.925903 71.902443 -27.849401 4294967295
-40.925076 72.056557 -27.866156 4294967295
-40.914593 74.826515 -28.201361 4294967295
-40.859375 76.405968 -28.009338 4294967295
-40.841747 76.113739 -27.828236 4294967295
-40.819206 77.053383 -27.794153 4294967295
-40.731808 73.620117 -27.811852 4294967295
-40.726582 73.470787 -27.748812 4294967295
-40.723507 74.854561 -27.932919 4294967295
-40.72176 75.623184 -28.034861 4294967295
-40.718842 75.932434 -28.058662 4294967295
-40.716984 75.166779 -27.929176 4294967295
-40.714146 74.401726 -27.792164 4294967295
-40.712818 74.556282 -27.80509 4294967295
-40.708565 76.708038 -28.0954 4294967295
-40.702217 74.104309 -27.654842 4294967295
-40.702133 75.025414 -27.792616 4294967295
-40.701576 77.17411 -28.111151 4294967295
-40.688709 76.110794 -27.851479 4294967295
-40.68644 77.493698 -28.041616 4294967295
-40.676136 76.274689 -27.778481 4294967295
-40.663609 77.666443 -27.890303 4294967295
-40.654518 77.36718 -27.774748 4294967295
-40.633537 70.811668 -27.837925 4294967295
-40.631519 71.120193 -27.86865 4294967295
-40.629822 71.735413 -27.947895 4294967295
-40.622776 71.894333 -27.917162 4294967295
-40.620838 71.281868 -27.810141 4294967295
-40.613564 73.742928 -28.123371 4294967295
-40.600834 74.059944 -28.072334 4294967295
-40.599503 72.833359 -27.877819 4294967295
-40.594158 72.223541 -27.744804 4294967295
-40.585533 72.076721 -27.655899 4294967295
-40.584934 74.226143 -27.974047 4294967295
-40.582222 71.618629 -27.561445 4294967295
-40.575584 72.54509 -27.649158 4294967295
-40.567272 74.547295 -27.885391 4294967295
-40.554909 75.017738 -27.860197 4294967295
-40.540409 76.410851 -27.956955 4294967295
-40.519234 76.735397 -27.841574 4294967295
-40.461826 70.669388 -27.695206 4294967295
-40.422035 76.072403 -28.197975 4294967295
-40.392529 75.63633 -27.904324 4294967295
-40.39027 76.252052 -27.979206 4294967295
-40.388481 74.71862 -27.735392 4294967295
-40.378109 76.569054 -27.932669 4294967295
-40.377308 75.341766 -27.742437 4294967295
-40.37381 74.884018 -27.646702 4294967295
-40.363636 75.813515 -27.70742 4294967295
-40.362595 77.195877 -27.906652 4294967295
-40.359623 77.044884 -27.861042 4294967295
-40.346996 77.515938 -27.833988 4294967295
-40.342014 76.906082 -27.704016 4294967295
-40.338108 70.951233 -27.987158 4294967295
-40.316036 71.428535 -27.888332 4294967295
-40.314991 72.196777 -27.99543 4294967295
-40.311478 70.81794 -27.761606 4294967295
-40.30888 71.126976 -27.787889 4294967295
-40.307793 71.89537 -27.894663 4294967295
-40.300983 72.514626 -27.934916 4294967295
-40.282497 73.45005 -27.932415 4294967295
-40.280083 74.065865 -28.006069 4294967295
-40.279346 72.838524 -27.81645 4294967295
-40.274925 71.613594 -27.598705 4294967295
-40.270748 72.384628 -27.682041 4294967295
-40.269302 74.84182 -28.039108 4294967295
-40.268448 72.0793 -27.618504 4294967295
-40.260921 72.699394 -27.653341 4294967295
-40.260834 75.462502 -28.066723 4294967295
-40.260571 73.160316 -27.719709 4294967295
-40.259869 74.235497 -27.875448 4294967295
-40.258156 73.622818 -27.770386 4294967295
-40.240627 77.627159 -28.235023 4294967295
-40.238976 73.945129 -27.670643 4294967295
-40.224167 75.952911 -27.857161 4294967295
-40.205002 76.736237 -27.82654 4294967295
-40.188084 76.443207 -27.652048 4294967295
-40.121761 74.681015 -28.080757 4294967295
-40.116257 73.611038 -27.878183 4294967295
-40.101704 76.538612 -28.204258 4294967295
-40.078754 74.408516 -27.708628 4294967295
-40.051632 76.733536 -27.847639 4294967295
-40.044952 77.66008 -27.934839 4294967295
-40.044743 76.125114 -27.703501 4294967295
-40.041538 75.820633 -27.633232 4294967295
-40.040264 77.510529 -27.876341 4294967295
-40.025352 77.369499 -27.740345 4294967295
-40.024792 71.104385 -28.000256 4294967295
-40.022251 71.259811 -28.003986 4294967295
-40.000057 72.044289 -27.950674 4294967295
-39.99823 70.817451 -27.753056 4294967295
-39.996464 71.740028 -27.877506 4294967295
-39.992477 72.203644 -27.916208 4294967295
-39.983597 72.824562 -27.940815 4294967295
-39.983513 72.67112 -27.91721 4294967295
-39.977779 71.600784 -27.713018 4294967295
-39.972504 72.372612 -27.787899 4294967295
-39.963764 73.761162 -27.928406 4294967295
-39.958679 72.53688 -27.706163 4294967295
-39.948456 73.926804 -27.835466 4294967295
-39.948196 74.541069 -27.925341 4294967295
-39.947269 75.616196 -28.07897 4294967295
-39.933163 76.548508 -28.109888 4294967295
-39.930744 76.397041 -28.068653 4294967295
-39.923279 75.021652 -27.80558 4294967295
-39.917496 76.10096 -27.922514 4294967295
-39.910316 77.027817 -28.005873 4294967295
-39.902718 74.270302 -27.535093 4294967295
-39.857891 77.685646 -27.701054 4294967295
-39.820961 73.903618 -28.051804 4294967295
-39.81472 71.144676 -27.591579 4294967295
-39.806763 71.918724 -27.646198 4294967295
-39.800728 73.151955 -27.784204 4294967295
-39.795639 74.998222 -28.020988 4294967295
-39.795624 71.312775 -27.470163 4294967295
-39.789173 71.624954 -27.467306 4294967295
-39.7882 72.854591 -27.643606 4294967295
-39.775249 74.554024 -27.798151 4294967295
-39.761116 73.490173 -27.530708 4294967295
-39.738499 74.429779 -27.497534 4294967295
-39.710003 77.524757 -27.741123 4294967295
-39.672504 71.287064 -27.719673 4294967295
-39.671692 72.209068 -27.851116 4294967295
-39.667835 72.826202 -27.913691 4294967295
