# .PCD v0.7 - Point Cloud Data file format
VERSION 0.7
FIELDS x y z rgb
SIZE 4 4 4 4
TYPE F F F U
COUNT 1 1 1 1
WIDTH 1142
HEIGHT 1
VIEWPOINT 0 0 0 1 0 0 0
POINTS 1142
DATA ascii
5.984405 41.318165 -18.912548 4294967295
5.9869757 43.577831 -18.377649 4294967295
5.9908695 42.426804 -19.016998 4294967295
5.9967237 41.479401 -18.871616 4294967295
6.0180855 43.427795 -18.205549 4294967295
6.0397067 43.750244 -18.138433 4294967295
6.0969458 42.612392 -18.516602 4294967295
6.1260176 41.46907 -19.031729 4294967295
6.1442714 42.264351 -19.039558 4294967295
6.1791716 43.742096 -18.249931 4294967295
6.1865268 42.907875 -18.910492 4294967295
6.1898761 42.750576 -18.874662 4294967295
6.1943355 41.327915 -18.677832 4294967295
6.1972256 43.905277 -18.180944 4294967295
6.2001376 42.120449 -18.746666 4294967295
6.2312374 43.077766 -18.711119 4294967295
6.2333889 42.445408 -18.622803 4294967295
6.2537932 43.558403 -18.659075 4294967295
6.2717457 41.620975 -19.130585 4294967295
6.2735419 43.405396 -18.542986 4294967295
6.307672 41.155479 -18.896643 4294967295
6.3142538 41.789799 -18.94219 4294967295
6.3149633 42.422604 -19.016439 4294967295
6.3347268 42.269508 -18.900396 4294967295
6.370667 44.222969 -18.165001 4294967295
6.3860149 41.491364 -18.552469 4294967295
6.3881993 41.333641 -18.522345 4294967295
6.4374399 43.245514 -18.514954 4294967295
6.4445858 42.614212 -18.402248 4294967295
6.4612937 44.20155 -18.515022 4294967295
6.4690638 43.887066 -18.438169 4294967295
6.4773746 40.997005 -18.839689 4294967295
6.4891114 42.423599 -18.957193 4294967295
6.5095568 42.903416 -18.915644 4294967295
6.5127997 41.955059 -18.783268 4294967295
6.5297575 42.11758 -18.719898 4294967295
6.5434108 41.329758 -18.556076 4294967295
6.5517716 43.230862 -18.748419 4294967295
6.5532641 42.756554 -18.68285 4294967295
6.6254191 43.88345 -18.46666 4294967295
6.6477895 43.572777 -18.318602 4294967295
6.6485004 41.788067 -18.892483 4294967295
6.6533031 41.631073 -18.849646 4294967295
6.6677036 44.369808 -18.318596 4294967295
6.6796851 41.954132 -18.759829 4294967295
6.6905136 42.431568 -18.765284 4294967295
6.7594409 42.924149 -18.487482 4294967295
6.7600293 44.032291 -18.620567 4294967295
6.7648134 41.14183 -19.037695 4294967295
6.7881083 40.989368 -18.904819 4294967295
6.7926288 43.091114 -18.345104 4294967295
6.8203044 44.523495 -18.385048 4294967295
6.8247566 42.422321 -18.90098 4294967295
6.877151 42.752251 -18.684656 4294967295
6.8784828 43.227348 -18.736401 4294967295
6.8799009 43.544205 -18.768312 4294967295
6.8830271 41.962395 -18.558975 4294967295
6.8932781 42.598137 -18.586714 4294967295
6.934649 43.083752 -18.443512 4294967295
6.9363265 44.350616 -18.590662 4294967295
6.9380016 41.142395 -18.983397 4294967295
6.9440589 44.03611 -18.514194 4294967295
6.9452372 43.403172 -18.430796 4294967295
6.9622564 41.939365 -18.962387 4294967295
6.9890137 43.053566 -18.96801 4294967295
7.0051365 42.266644 -18.79262 4294967295
7.0092659 44.211987 -18.216179 4294967295
7.0237784 44.691074 -18.203802 4294967295
7.0252271 44.849854 -18.216175 4294967295
7.0741897 42.125881 -18.437355 4294967295
7.0744433 43.867264 -18.64959 4294967295
7.1161251 44.669964 -18.543951 4294967295
7.1317525 41.306221 -18.848795 4294967295
7.1462913 41.468048 -18.797552 4294967295
7.1743574 45.319332 -18.338501 4294967295
7.2098331 43.066757 -18.682817 4294967295
7.2117696 43.542068 -18.731588 4294967295
7.217936 44.176743 -18.779203 4294967295
7.218224 43.860306 -18.739027 4294967295
7.2458043 43.234428 -18.527514 4294967295
7.2491636 41.134865 -19.046312 4294967295
7.2806754 42.408222 -19.04842 4294967295
7.2851129 44.986423 -18.54999 4294967295
7.3015471 44.515923 -18.412008 4294967295
7.314435 41.94212 -18.826502 4294967295
7.3199673 41.468742 -18.74151 4294967295
7.3240418 41.311481 -18.702353 4294967295
7.340929 42.265316 -18.736731 4294967295
7.3431406 42.582405 -18.764769 4294967295
7.3431506 45.47752 -18.326422 4294967295
7.3510723 44.846165 -18.210354 4294967295
7.3685598 45.167786 -18.164265 4294967295
7.3999801 42.755287 -18.508425 4294967295
7.4229803 43.71125 -18.513197 4294967295
7.4292631 43.871246 -18.502115 4294967295
7.4560027 41.934818 -18.926207 4294967295
7.477263 45.150986 -18.424459 4294967295
7.5179935 45.795807 -18.304543 4294967295
7.5242829 42.743431 -18.69224 4294967295
7.5463815 43.540627 -18.682058 4294967295
7.5577874 43.860229 -18.66556 4294967295
7.5615335 45.966469 -18.112854 4294967295
7.5629463 44.653061 -18.737438 4294967295
7.5809908 44.183033 -18.591923 4294967295
7.5846405 43.392353 -18.477348 4294967295
7.6167188 41.457611 -18.874977 4294967295
7.6167893 44.509342 -18.457294 4294967295
7.6175518 45.301258 -18.550493 4294967295
7.6229591 44.35265 -18.408031 4294967295
7.6232901 45.461182 -18.542082 4294967295
7.6277895 41.302082 -18.802029 4294967295
7.6351824 42.569923 -18.921156 4294967295
7.639915 40.988499 -18.704603 4294967295
7.6438332 41.780846 -18.782478 4294967295
7.6507869 42.732162 -18.865011 4294967295
7.6550736 44.836491 -18.310648 4294967295
7.6615386 42.418385 -18.774258 4294967295
7.6722155 43.212475 -18.819416 4294967295
7.6936574 42.109917 -18.580093 4294967295
7.7114758 46.119427 -18.192614 4294967295
7.721447 44.808311 -18.774874 4294967295
7.7413125 43.863823 -18.56259 4294967295
7.7485824 43.707409 -18.508049 4294967295
7.7726903 41.295677 -18.885496 4294967295
7.7954855 45.936989 -18.552351 4294967295
7.7982273 45.145985 -18.442249 4294967295
7.8274074 45.787586 -18.378616 4294967295
7.8350916 46.264896 -18.39957 4294967295
7.8402729 41.153915 -18.539438 4294967295
7.8486428 40.997608 -18.479609 4294967295
7.8725729 46.592377 -18.257084 4294967295
7.8823628 42.114433 -18.452188 4294967295
7.8882909 43.066059 -18.539728 4294967295
7.8901577 47.072708 -18.230186 4294967295
7.900043 43.544147 -18.541029 4294967295
7.9172401 45.765335 -18.728949 4294967295
7.9191303 47.714916 -18.16762 4294967295
7.9199281 44.341152 -18.541758 4294967295
7.9235935 44.025425 -18.485327 4294967295
7.9286051 44.976875 -18.57728 4294967295
7.9314837 45.294338 -18.602089 4294967295
7.9346089 46.08683 -18.683771 4294967295
7.9491653 41.138733 -18.797043 4294967295
7.9520607 45.616726 -18.541418 4294967295
7.9626679 42.249981 -18.867289 4294967295
7.9670815 41.934547 -18.807291 4294967295
7.9757938 41.461834 -18.707184 4294967295
7.9791231 44.673882 -18.294519 4294967295
7.9791284 45.14909 -18.352592 4294967295
7.9896126 42.889935 -18.814617 4294967295
7.9904695 43.364975 -18.868515 4294967295
8.0092173 42.420044 -18.661945 4294967295
8.0108795 47.375481 -18.470314 4294967295
8.019453 43.530838 -18.747992 4294967295
8.0198679 46.269302 -18.291378 4294967295
8.0204287 41.631176 -18.511055 4294967295
8.0240479 46.587318 -18.309927 4294967295
8.0288191 41.791615 -18.489908 4294967295
8.0366259 44.48518 -18.781199 4294967295
8.0436401 44.170456 -18.708662 4294967295
8.0538588 44.014858 -18.640007 4294967295
8.0608425 42.749882 -18.451477 4294967295
8.0614357 47.231804 -18.206846 4294967295
8.0661936 47.866936 -18.261335 4294967295
8.0664663 47.550152 -18.221292 4294967295
8.0961008 46.24297 -18.707071 4294967295
8.13731 47.521442 -18.663076 4294967295
8.1485701 47.208035 -18.570086 4294967295
8.1743212 45.948269 -18.29108 4294967295
8.208869 46.433334 -18.18252 4294967295
8.2289524 44.491245 -18.636356 4294967295
8.2364635 43.701473 -18.503441 4294967295
8.2387495 47.709599 -18.193287 4294967295
8.2475672 43.387619 -18.411232 4294967295
8.2515707 47.871834 -18.150824 4294967295
8.2636671 44.342205 -18.449724 4294967295
8.2751064 42.400974 -18.944286 4294967295
8.2754049 46.879181 -18.702614 4294967295
8.2838802 45.614758 -18.50708 4294967295
8.2853241 41.295536 -18.759783 4294967295
8.2865391 41.454136 -18.773264 4294967295
8.2870836 46.249126 -18.569012 4294967295
8.2882366 44.824013 -18.389372 4294967295
8.2918959 42.246937 -18.84412 4294967295
8.3015823 42.56596 -18.83614 4294967295
8.3044615 47.995979 -18.698006 4294967295
8.3123989 45.305847 -18.330992 4294967295
8.3136597 47.048553 -18.537699 4294967295
8.3156834 45.940407 -18.392553 4294967295
8.3186226 41.937016 -18.676769 4294967295
8.3201447 43.52047 -18.862743 4294967295
8.3287964 43.997597 -18.879074 4294967295
8.3317471 43.3652 -18.787567 4294967295
8.3357697 47.688496 -18.508568 4294967295
8.3414373 43.051079 -18.702255 4294967295
8.3430128 41.784733 -18.539986 4294967295
8.3491526 41.15274 -18.433056 4294967295
8.3569765 46.427322 -18.251677 4294967295
8.3570795 46.585793 -18.270529 4294967295
8.3793945 44.32769 -18.674198 4294967295
8.3864975 44.804607 -18.698004 4294967295
8.3930721 45.756348 -18.782328 4294967295
8.3955889 47.864513 -18.239834 4294967295
8.399457 47.39027 -18.163162 4294967295
8.4193916 44.496777 -18.501032 4294967295
8.4270554 46.082516 -18.657473 4294967295
8.454133 47.673698 -18.72047 4294967295
8.4561472 42.878464 -18.911713 4294967295
8.4679031 43.672886 -18.951771 4294967295
8.5382729 43.05788 -18.53616 4294967295
8.547966 47.542763 -18.249815 4294967295
8.5481234 47.225891 -18.210382 4294967295
8.5615673 45.122749 -18.6754 4294967295
8.5704069 43.541374 -18.439651 4294967295
8.5733805 44.334118 -18.522003 4294967295
8.578927 45.602577 -18.649933 4294967295
8.5835094 46.395592 -18.724508 4294967295
8.5867424 41.760422 -18.928566 4294967295
8.5874386 46.555046 -18.724947 4294967295
8.587863 44.813171 -18.51037 4294967295
8.5952358 42.07909 -18.926394 4294967295
8.6020241 47.825901 -18.809389 4294967295
8.6071253 44.659973 -18.398455 4294967295
8.6202412 47.672913 -18.702566 4294967295
8.623971 45.77346 -18.452791 4294967295
8.6241436 42.877834 -18.884108 4294967295
8.6255074 41.136665 -18.665098 4294967295
8.6261663 41.453506 -18.700567 4294967295
8.6287708 42.404099 -18.803949 4294967295
8.6340494 46.251495 -18.462339 4294967295
8.6459122 46.888481 -18.482637 4294967295
8.6476021 43.200474 -18.810078 4294967295
8.6600676 43.52034 -18.788843 4294967295
8.6623812 43.995895 -18.835665 4294967295
8.6697578 47.37059 -18.426048 4294967295
8.6809864 41.942116 -18.495213 4294967295
8.7044067 47.539112 -18.278927 4294967295
8.7132978 44.801163 -18.687778 4294967295
8.7236843 44.487236 -18.599287 4294967295
8.7237053 44.17049 -18.560556 4294967295
8.7283249 41.120087 -18.950445 4294967295
8.7615881 41.761383 -18.868073 4294967295
8.7779846 47.194603 -18.666983 4294967295
8.7794313 42.082428 -18.821087 4294967295
8.7819386 45.611843 -18.454876 4294967295
8.7932053 46.565437 -18.516701 4294967295
8.8033028 43.829906 -18.918907 4294967295
8.8734417 46.905205 -18.170313 4294967295
8.8930044 41.43507 -18.977304 4294967295
8.8974915 45.121807 -18.621714 4294967295
8.8989143 44.488651 -18.537666 4294967295
8.9007206 44.80592 -18.567621 4294967295
8.9024477 44.014378 -18.46279 4294967295
8.9138861 41.756771 -18.915838 4294967295
8.9192209 46.236443 -18.652678 4294967295
8.9217367 44.970009 -18.486168 4294967295
8.9283657 47.664284 -18.782545 4294967295
8.9294157 45.288921 -18.487976 4294967295
8.934535 45.607151 -18.502048 4294967295
8.936368 45.924469 -18.531879 4294967295
8.9374866 46.71674 -18.623039 4294967295
8.9405994 47.826214 -18.743221 4294967295
8.9457951 47.352638 -18.660427 4294967295
8.946537 47.036095 -18.618271 4294967295
8.9513197 42.241016 -18.794376 4294967295
8.9558249 42.717133 -18.830677 4294967295
8.960207 41.134743 -18.616693 4294967295
8.9731855 41.613026 -18.612417 4294967295
8.9776993 43.039375 -18.764486 4294967295
8.981225 43.515297 -18.805483 4294967295
8.9821663 43.99052 -18.858854 4294967295
8.987071 43.358475 -18.758186 4294967295
8.9936247 41.93483 -18.553095 4294967295
9.0233297 42.892677 -18.526611 4294967295
9.0250826 47.217129 -18.261166 4294967295
9.0266495 44.477352 -18.703703 4294967295
9.0492964 46.067074 -18.788198 4294967295
9.0493193 45.592026 -18.730219 4294967295
9.0575562 40.958569 -18.908419 4294967295
9.0603504 41.434143 -18.952906 4294967295
9.0702295 44.172169 -18.456406 4294967295
9.128665 46.564568 -18.466143 4294967295
9.1401482 47.676807 -18.546259 4294967295
9.1504707 44.465031 -18.888124 4294967295
9.1679907 44.311363 -18.785048 4294967295
9.1923952 42.100136 -18.398199 4294967295
9.2008324 43.211269 -18.492918 4294967295
9.2172499 43.690788 -18.472269 4294967295
9.239027 45.755974 -18.61891 4294967295
9.2437763 47.657784 -18.827595 4294967295
9.2491217 46.392361 -18.647789 4294967295
9.2511816 46.551331 -18.657225 4294967295
9.2536707 45.443192 -18.510311 4294967295
9.2620659 47.346359 -18.701611 4294967295
9.2635612 46.871632 -18.63661 4294967295
9.2724075 41.919174 -18.772778 4294967295
9.275198 47.825321 -18.696686 4294967295
9.2805233 43.50457 -18.926769 4294967295
9.2818642 42.079872 -18.746866 4294967295
9.2861977 41.44746 -18.649023 4294967295
9.2868967 41.130859 -18.607107 4294967295
9.292881 47.196846 -18.535023 4294967295
9.3049269 43.352551 -18.790897 4294967295
9.3073473 41.294205 -18.528648 4294967295
9.3216295 41.614513 -18.49896 4294967295
9.3290682 42.883621 -18.617708 4294967295
9.331831 42.409115 -18.546652 4294967295
9.3338318 41.775932 -18.45993 4294967295
9.3393135 43.20303 -18.607321 4294967295
9.3449421 44.471569 -18.734678 4294967295
9.3475351 47.054077 -18.254471 4294967295
9.3529339 43.681751 -18.600098 4294967295
9.362772 42.258423 -18.379499 4294967295
9.368638 42.576797 -18.390051 4294967295
9.3918924 47.651741 -18.89592 4294967295
9.3958445 45.277241 -18.587942 4294967295
9.4217978 44.333599 -18.348265 4294967295
9.4430294 44.814693 -18.304714 4294967295
9.4525213 45.926579 -18.394402 4294967295
9.4709158 46.407112 -18.364418 4294967295
9.4753208 46.725292 -18.381956 4294967295
9.4767761 44.144711 -18.841984 4294967295
9.5500231 44.480907 -18.531069 4294967295
9.5518026 43.372257 -18.387623 4294967295
9.5596771 43.849678 -18.407896 4294967295
9.5651674 45.910789 -18.632278 4294967295
9.5837383 45.440624 -18.485884 4294967295
9.5901337 47.026672 -18.648096 4294967295
9.5922403 46.076733 -18.52243 4294967295
9.5945845 46.394257 -18.549795 4294967295
9.6071606 42.075737 -18.744104 4294967295
9.6075182 40.967094 -18.607527 4294967295
9.6125603 41.443516 -18.641296 4294967295
9.6125898 47.825211 -18.637356 4294967295
9.618784 47.351734 -18.550016 4294967295
9.6190262 47.510235 -18.568134 4294967295
9.6210432 43.50452 -18.851288 4294967295
9.625701 41.921932 -18.636454 4294967295
9.6259613 46.719997 -18.438707 4294967295
9.6337385 41.290234 -18.521053 4294967295
9.6411123 43.034565 -18.697855 4294967295
9.6426153 47.675518 -18.474934 4294967295
9.6485453 44.620228 -18.855036 4294967295
9.6488638 46.884972 -18.348766 4294967295
9.6551008 43.354935 -18.66971 4294967295
9.6566048 42.246418 -18.527668 4294967295
9.6574707 47.204399 -18.346279 4294967295
9.6627493 42.406384 -18.517651 4294967295
9.6783447 42.72718 -18.481852 4294967295
9.6811457 43.203209 -18.526314 4294967295
9.6839466 43.837643 -18.590036 4294967295
9.6866302 44.788799 -18.692831 4294967295
9.6989651 44.316856 -18.576267 4294967295
9.6998606 44.000233 -18.533466 4294967295
9.7071419 46.536682 -18.806961 4294967295
9.719532 45.906582 -18.67091 4294967295
9.7209072 45.590137 -18.625837 4294967295
9.7406559 44.961761 -18.454689 4294967295
9.755703 42.703602 -18.887009 4294967295
9.7647572 45.285225 -18.378403 4294967295
9.7655802 41.122272 -18.647423 4294967295
9.785675 42.394382 -18.705809 4294967295
9.8069181 44.775486 -18.893473 4294967295
9.8111734 47.833847 -18.46559 4294967295
9.8118496 46.407677 -18.288965 4294967295
9.8787851 44.16095 -18.474443 4294967295
9.8810911 44.636921 -18.521248 4294967295
9.9190025 41.751499 -18.767134 4294967295
9.9228697 41.118858 -18.671743 4294967295
9.9321823 46.393898 -18.489992 4294967295
9.9376669 47.821476 -18.63718 4294967295
9.9514675 42.393101 -18.689745 4294967295
9.9623804 41.445232 -18.522333 4294967295
9.9644213 46.561428 -18.355883 4294967295
9.969264 42.080677 -18.566618 4294967295
9.9756851 46.881607 -18.34082 4294967295
9.9847946 43.668842 -18.685278 4294967295
9.9879017 41.292938 -18.381699 4294967295
9.9893045 41.92717 -18.452063 4294967295
9.989604 44.7789 -18.797129 4294967295
9.9923267 44.462841 -18.745699 4294967295
9.9926109 47.99596 -18.395128 4294967295
9.9937172 47.362274 -18.312834 4294967295
10.005112 43.198784 -18.530941 4294967295
10.005846 43.832733 -18.60445 4294967295
10.014585 43.042744 -18.466648 4294967295
10.024793 45.263584 -18.687616 4294967295
10.026549 46.531265 -18.833195 4294967295
10.030972 46.057323 -18.754467 4294967295
10.031524 46.374271 -18.790325 4294967295
10.031578 43.997894 -18.501383 4294967295
10.035634 44.157417 -18.501354 4294967295
10.035649 43.523548 -18.424265 4294967295
10.039987 44.633934 -18.538416 4294967295
10.057573 45.589382 -18.57033 4294967295
10.060838 45.114902 -18.497068 4294967295
10.075168 45.752663 -18.50597 4294967295
10.075873 47.17886 -18.675821 4294967295
10.101025 41.754139 -18.673935 4294967295
10.11226 47.66465 -18.560699 4294967295
10.129623 45.926163 -18.266453 4294967295
10.16297 42.720139 -18.495207 4294967295
10.197328 47.006844 -18.851511 4294967295
10.254507 45.1213 -18.349306 4294967295
10.256972 47.182255 -18.587742 4294967295
10.259406 44.80558 -18.287558 4294967295
10.268579 41.594799 -18.630438 4294967295
10.268885 41.753307 -18.648222 4294967295
10.274839 46.394917 -18.406763 4294967295
10.278381 47.980721 -18.582346 4294967295
10.290874 42.23402 -18.601616 4294967295
10.291401 46.716572 -18.366659 4294967295
10.303624 42.554089 -18.579611 4294967295
10.307584 43.664154 -18.695461 4294967295
10.309712 41.129318 -18.377569 4294967295
10.319389 42.874958 -18.543308 4294967295
10.325469 42.401073 -18.456758 4294967295
10.328412 46.045788 -18.885088 4294967295
10.336036 47.363377 -18.231853 4294967295
10.339029 44.78141 -18.680965 4294967295
10.353614 44.309937 -18.554121 4294967295
10.358771 43.518898 -18.433487 4294967295
10.369773 44.155708 -18.458269 4294967295
10.386428 46.378738 -18.648556 4294967295
10.387011 44.00172 -18.357294 4294967295
10.389843 47.013454 -18.709276 4294967295
10.390738 45.904568 -18.570448 4294967295
10.405231 47.493156 -18.694027 4294967295
10.407422 44.482632 -18.318233 4294967295
10.41308 45.43523 -18.406837 4294967295
10.429303 41.116875 -18.580988 4294967295
10.439319 46.869007 -18.455578 4294967295
10.453346 47.823975 -18.504488 4294967295
10.454715 41.598377 -18.518272 4294967295
10.46444 45.766315 -18.201853 4294967295
10.471158 43.028599 -18.613424 4294967295
10.478357 41.921097 -18.444719 4294967295
10.488769 45.092827 -18.779896 4294967295
10.50623 43.988365 -18.56266 4294967295
10.554743 46.536858 -18.640518 4294967295
10.560266 43.368282 -18.229809 4294967295
10.596726 44.487656 -18.191792 4294967295
10.596886 47.975044 -18.614021 4294967295
10.60368 45.916462 -18.331961 4294967295
10.60651 46.709866 -18.414698 4294967295
10.60815 46.393284 -18.368483 4294967295
10.61491 42.704872 -18.663746 4294967295
10.619584 41.75526 -18.526318 4294967295
10.631781 46.875511 -18.314312 4294967295
10.63771 47.511341 -18.363157 4294967295
10.640871 41.443432 -18.387135 4294967295
10.64465 43.98003 -18.676773 4294967295
10.6448 41.285858 -18.349312 4294967295
10.646638 42.871304 -18.532858 4294967295
10.646906 44.614376 -18.742954 4294967295
10.653323 42.080498 -18.405111 4294967295
10.661083 45.568748 -18.791159 4294967295
10.681696 44.940536 -18.616842 4294967295
10.682747 44.148438 -18.515795 4294967295
10.68404 46.684044 -18.817059 4294967295
10.69704 43.51812 -18.371304 4294967295
10.698029 45.420341 -18.597248 4294967295
10.699635 43.201725 -18.320578 4294967295
10.707851 44.472027 -18.435495 4294967295
10.715619 44.791103 -18.437195 4294967295
10.729494 41.26503 -18.717365 4294967295
10.731369 43.368366 -18.189676 4294967295
10.7347 47.173691 -18.635195 4294967295
10.738718 47.65023 -18.673824 4294967295
10.760528 45.278736 -18.282482 4294967295
10.766623 42.066261 -18.637922 4294967295
10.77844 47.820175 -18.505287 4294967295
10.796363 42.390541 -18.535803 4294967295
10.828742 46.201874 -18.843746 4294967295
10.832339 43.350544 -18.481077 4294967295
10.842225 41.133453 -18.165291 4294967295
10.861749 46.052547 -18.668684 4294967295
10.871685 43.994743 -18.372042 4294967295
10.908428 41.425243 -18.658884 4294967295
10.914845 40.951374 -18.570978 4294967295
10.918905 45.592686 -18.341137 4294967295
10.922533 47.337452 -18.535297 4294967295
10.927506 47.972866 -18.588633 4294967295
10.92926 42.697975 -18.714155 4294967295
10.936929 41.115105 -18.485928 4294967295
10.954894 47.663754 -18.420931 4294967295
10.95782 41.754143 -18.464138 4294967295
10.963455 41.596992 -18.418329 4294967295
10.971763 42.233082 -18.455944 4294967295
10.973262 44.610672 -18.736876 4294967295
10.975173 43.18494 -18.555079 4294967295
10.977366 43.027 -18.52552 4294967295
10.985478 42.394989 -18.410414 4294967295
10.991157 46.19989 -18.844376 4294967295
11.001027 45.885731 -18.759443 4294967295
11.004837 43.509506 -18.453499 4294967295
11.007051 45.570461 -18.692644 4294967295
11.01194 46.997841 -18.842299 4294967295
11.01711 47.47459 -18.875481 4294967295
11.019831 43.354805 -18.363541 4294967295
11.023281 44.30687 -18.462492 4294967295
11.027491 43.990917 -18.404219 4294967295
11.038044 46.529808 -18.661627 4294967295
11.051947 44.472931 -18.346451 4294967295
11.073538 45.429977 -18.359829 4294967295
11.084753 41.901814 -18.65135 4294967295
11.089115 46.702579 -18.439974 4294967295
11.095774 47.33857 -18.485369 4294967295
11.108072 45.280724 -18.177713 4294967295
11.10854 43.809269 -18.769506 4294967295
11.175639 40.972412 -18.107616 4294967295
11.17695 45.411983 -18.639027 4294967295
11.204469 42.88258 -18.2022 4294967295
11.226049 44.949593 -18.350113 4294967295
11.227601 45.267113 -18.381197 4294967295
11.232135 46.378113 -18.494192 4294967295
11.2327 41.420712 -18.662514 4294967295
11.245501 46.857422 -18.488806 4294967295
11.258677 43.011761 -18.732035 4294967295
11.259736 47.812614 -18.536892 4294967295
11.28876 42.068275 -18.475288 4294967295
11.289653 41.751438 -18.432703 4294967295
11.296741 43.179844 -18.572025 4294967295
11.297001 46.554699 -18.207842 4294967295
11.29782 43.97258 -18.662861 4294967295
11.301342 43.498013 -18.588737 4294967295
11.305758 42.389511 -18.433636 4294967295
11.315753 41.282051 -18.252209 4294967295
11.330889 44.615189 -18.583952 4294967295
11.332869 43.823128 -18.478708 4294967295
11.334226 41.603645 -18.203617 4294967295
11.338368 44.141605 -18.491194 4294967295
11.34359 45.886551 -18.677624 4294967295
11.343629 45.25259 -18.600725 4294967295
11.349407 47.631287 -18.861164 4294967295
11.353381 44.462589 -18.458908 4294967295
11.355596 44.780235 -18.48686 4294967295
11.364517 45.09967 -18.483246 4294967295
11.365687 42.880108 -18.209064 4294967295
11.36587 43.355911 -18.265793 4294967295
11.375217 46.212231 -18.567177 4294967295
11.378293 46.688614 -18.610247 4294967295
11.383685 43.677635 -18.220322 4294967295
11.398185 46.852695 -18.535847 4294967295
11.407319 41.104431 -18.567358 4294967295
11.410679 47.807358 -18.592152 4294967295
11.429941 46.544472 -18.348091 4294967295
11.444995 41.43045 -18.428513 4294967295
11.450167 47.343014 -18.348875 4294967295
11.548435 46.054649 -18.498423 4294967295
11.558406 47.167133 -18.585779 4294967295
11.559943 43.83765 -18.175793 4294967295
11.562263 46.375542 -18.47179 4294967295
11.575208 45.744839 -18.334255 4294967295
11.582839 44.953918 -18.202473 4294967295
11.589903 45.431633 -18.226828 4294967295
11.606693 45.91201 -18.205473 4294967295
11.616467 47.659286 -18.370533 4294967295
11.621728 46.550602 -18.211559 4294967295
11.637825 42.069798 -18.363316 4294967295
11.642003 41.436497 -18.26697 4294967295
11.643078 45.083187 -18.702868 4294967295
11.646528 43.81601 -18.533346 4294967295
11.649282 43.65818 -18.501245 4294967295
11.661428 40.965286 -18.11816 4294967295
11.662224 42.392933 -18.287071 4294967295
11.662997 41.124279 -18.12998 4294967295
11.670169 43.346394 -18.364822 4294967295
11.677306 41.762192 -18.139502 4294967295
11.677402 42.872467 -18.273321 4294967295
11.68259 45.410789 -18.555725 4294967295
11.685433 45.570087 -18.561539 4294967295
11.688931 44.302631 -18.391768 4294967295
11.701893 45.257431 -18.445946 4294967295
11.702724 45.733307 -18.499546 4294967295
11.711622 43.198277 -18.150984 4294967295
11.711877 43.039715 -18.130606 4294967295
11.713747 47.480179 -18.658613 4294967295
11.724632 43.994709 -18.185795 4294967295
11.737988 46.21862 -18.391548 4294967295
11.74045 44.474686 -18.169069 4294967295
11.754444 46.064548 -18.295139 4294967295
11.75449 41.897926 -18.559946 4294967295
11.756959 47.809593 -18.494186 4294967295
11.758136 42.532887 -18.619492 4294967295
11.761794 40.948421 -18.410679 4294967295
11.76443 42.2174 -18.55164 4294967295
11.775748 46.863449 -18.291018 4294967295
11.78414 41.112263 -18.325001 4294967295
11.810163 44.131264 -18.567076 4294967295
11.827101 44.611286 -18.545134 4294967295
11.830912 46.03899 -18.699669 4294967295
11.836818 46.357616 -18.710289 4294967295
11.837137 46.516205 -18.72794 4294967295
11.86011 44.77853 -18.409515 4294967295
11.898056 41.415611 -18.591793 4294967295
11.898918 47.167572 -18.514994 4294967295
11.901504 41.257904 -18.55648 4294967295
11.911338 44.316132 -18.111809 4294967295
11.93831 43.644772 -18.671329 4294967295
11.945485 42.536869 -18.503647 4294967295
11.948121 43.013153 -18.548761 4294967295
11.954317 42.380486 -18.44311 4294967295
11.959004 47.977585 -18.329203 4294967295
11.965103 43.968685 -18.584131 4294967295
11.966358 41.114685 -18.233391 4294967295
11.969972 47.346233 -18.201155 4294967295
11.978845 44.130772 -18.538919 4294967295
11.980106 43.813995 -18.494703 4294967295
11.983068 43.497627 -18.442518 4294967295
11.98419 41.91201 -18.245661 4294967295
11.990126 43.182259 -18.371145 4294967295
12.010577 45.090405 -18.50522 4294967295
12.017238 47.62867 -18.780367 4294967295
12.031944 46.364613 -18.558376 4294967295
12.034581 44.938198 -18.373661 4294967295
12.049192 43.355778 -18.113615 4294967295
12.060444 44.469166 -18.195066 4294967295
12.064899 47.800808 -18.576431 4294967295
12.07196 40.940472 -18.481543 4294967295
12.071976 46.85141 -18.428423 4294967295
12.072308 45.899921 -18.311945 4294967295
12.083552 46.220219 -18.297613 4294967295
12.083639 46.53746 -18.335518 4294967295
12.087051 45.26939 -18.166277 4294967295
12.089595 47.173527 -18.384249 4294967295
12.096477 45.589211 -18.160465 4294967295
12.102757 41.423458 -18.394848 4294967295
12.128016 47.501614 -18.242718 4294967295
12.138753 42.859463 -18.398766 4294967295
12.155762 46.827469 -18.797739 4294967295
12.170322 41.756863 -18.116945 4294967295
12.177073 46.674885 -18.678965 4294967295
12.245806 42.684986 -18.639772 4294967295
12.283055 43.169907 -18.523106 4294967295
12.289534 43.647221 -18.550249 4294967295
12.297318 43.966328 -18.552151 4294967295
12.301226 43.015881 -18.419054 4294967295
12.301822 41.112659 -18.186506 4294967295
12.302885 42.223293 -18.31558 4294967295
12.303803 44.443668 -18.579252 4294967295
12.308697 43.810677 -18.479843 4294967295
12.330299 45.401997 -18.57028 4294967295
12.338624 47.623753 -18.799191 4294967295
12.344024 45.722809 -18.544441 4294967295
12.348842 44.296795 -18.349697 4294967295
12.357908 46.043713 -18.517859 4294967295
12.359486 44.616791 -18.338253 4294967295
12.360087 43.506538 -18.201429 4294967295
12.360689 46.678745 -18.581398 4294967295
12.367475 46.36348 -18.511446 4294967295
12.386885 47.003178 -18.497334 4294967295
12.38883 41.726849 -18.616699 4294967295
12.393464 47.956482 -18.581398 4294967295
12.397389 45.261311 -18.237757 4294967295
12.406553 46.532841 -18.348083 4294967295
12.417617 41.57518 -18.463173 4294967295
12.418169 45.584175 -18.17898 4294967295
12.428151 47.807819 -18.40032 4294967295
12.428398 41.894928 -18.451105 4294967295
12.435555 41.103642 -18.322006 4294967295
12.448948 42.534283 -18.431709 4294967295
12.461136 45.074413 -18.680883 4294967295
12.492543 46.0341 -18.64909 4294967295
12.501411 46.987785 -18.722443 4294967295
12.505674 42.389568 -18.147776 4294967295
12.508894 46.197113 -18.59194 4294967295
12.509147 46.355743 -18.609886 4294967295
12.520439 44.931515 -18.385061 4294967295
12.536811 43.82531 -18.174719 4294967295
12.59093 43.002762 -18.585825 4294967295
12.59752 47.173264 -18.293331 4294967295
12.62195 44.279137 -18.594187 4294967295
12.625496 41.266491 -18.214256 4294967295
12.626121 43.48732 -18.479145 4294967295
12.627161 41.108231 -18.187353 4294967295
12.636749 45.075817 -18.6208 4294967295
12.649673 44.444901 -18.4841 4294967295
12.651794 43.335182 -18.340345 4294967295
12.657845 42.702145 -18.235617 4294967295
12.66081 41.909557 -18.126127 4294967295
12.66445 44.924553 -18.472601 4294967295
12.664893 42.069218 -18.126223 4294967295
12.67466 42.86496 -18.176359 4294967295
12.675344 42.547791 -18.134903 4294967295
12.677865 43.97633 -18.295332 4294967295
12.68112 45.563374 -18.471399 4294967295
12.683311 47.783978 -18.728785 4294967295
12.684806 46.35733 -18.549816 4294967295
12.687612 46.199512 -18.517632 4294967295
12.690978 45.248787 -18.387224 4294967295
12.70348 46.996834 -18.539286 4294967295
12.704333 46.521286 -18.477961 4294967295
12.719637 47.952904 -18.578714 4294967295
12.720003 45.891087 -18.32847 4294967295
12.720332 41.56543 -18.568947 4294967295
12.727514 41.408562 -18.516378 4294967295
12.735285 47.164326 -18.410252 4294967295
12.758908 42.843388 -18.542219 4294967295
12.770529 46.698185 -18.188707 4294967295
12.770706 46.856907 -18.207005 4294967295
12.780084 40.945068 -18.214155 4294967295
12.781191 42.37307 -18.381109 4294967295
12.786498 47.496021 -18.209946 4294967295
12.80172 44.122898 -18.495813 4294967295
12.859637 43.661774 -18.168827 4294967295
12.896627 47.955078 -18.512804 4294967295
12.914598 42.839535 -18.57502 4294967295
12.92192 46.217045 -18.184891 4294967295
12.969893 45.232399 -18.604454 4294967295
12.971665 44.598503 -18.519812 4294967295
12.975889 43.647896 -18.385534 4294967295
12.976053 44.12381 -18.442095 4294967295
12.991851 44.762379 -18.445076 4294967295
12.991923 42.06525 -18.119816 4294967295
12.992025 43.969273 -18.348722 4294967295
13.004095 46.034515 -18.540989 4294967295
13.0058 42.544708 -18.112633 4294967295
13.006062 43.17952 -18.187889 4294967295
13.008646 45.401295 -18.44342 4294967295
13.020101 43.02433 -18.103483 4294967295
13.026281 46.357773 -18.476078 4294967295
13.032616 47.786957 -18.618534 4294967295
13.034697 44.456238 -18.207663 4294967295
13.035884 47.153488 -18.526957 4294967295
13.045065 47.473282 -18.522493 4294967295
13.047474 46.839474 -18.434895 4294967295
13.058483 44.938503 -18.154421 4294967295
13.062295 45.574265 -18.213158 4294967295
13.062701 41.089279 -18.432947 4294967295
13.070874 41.725662 -18.471386 4294967295
13.080328 40.934761 -18.331938 4294967295
13.102313 42.526344 -18.420845 4294967295
13.108446 41.417313 -18.25861 4294967295
13.142169 43.329403 -18.331234 4294967295
13.150007 46.027977 -18.619486 4294967295
13.182949 43.815701 -18.199152 4294967295
13.232206 46.684929 -18.314314 4294967295
13.270799 42.366966 -18.375359 4294967295
13.293808 42.848557 -18.325895 4294967295
13.300887 41.739529 -18.159349 4294967295
13.304185 45.230698 -18.564133 4294967295
13.306371 43.962265 -18.401279 4294967295
13.307508 42.693256 -18.243237 4294967295
13.317531 44.599701 -18.425888 4294967295
13.323722 43.490677 -18.26351 4294967295
13.33617 44.763203 -18.358536 4294967295
13.339658 45.716003 -18.456903 4294967295
13.35262 46.671307 -18.511326 4294967295
13.375419 44.29731 -18.119217 4294967295
13.380721 45.092236 -18.190123 4294967295
13.384039 46.362614 -18.327492 4294967295
13.385517 47.15633 -18.41608 4294967295
13.389315 46.205376 -18.283937 4294967295
13.399012 47.953377 -18.448963 4294967295
13.402124 45.891449 -18.186359 4294967295
13.423056 42.996788 -18.500652 4294967295
13.432018 41.412464 -18.26824 4294967295
13.433709 47.011047 -18.173594 4294967295
13.436929 41.096249 -18.207289 4294967295
13.439162 41.255459 -18.216032 4294967295
13.441914 41.890839 -18.279654 4294967295
13.462605 44.275795 -18.470083 4294967295
13.468466 42.373291 -18.213881 4294967295
13.473638 42.05714 -18.15172 4294967295
13.502315 43.175121 -18.152498 4294967295
13.506418 43.652275 -18.190763 4294967295
13.519555 46.987759 -18.530678 4294967295
13.533008 43.976444 -18.105764 4294967295
13.537681 47.944611 -18.561213 4294967295
13.582582 46.370369 -18.162521 4294967295
13.595365 47.484901 -18.236935 4294967295
13.60706 47.6469 -18.201874 4294967295
13.612901 43.31868 -18.413727 4294967295
13.633861 41.57819 -18.106794 4294967295
13.644991 43.485378 -18.284307 4294967295
13.65047 42.69323 -18.16353 4294967295
13.659245 44.123737 -18.294674 4294967295
13.660916 43.013237 -18.153355 4294967295
13.668655 44.919579 -18.346527 4294967295
13.675753 46.190781 -18.466291 4294967295
13.698701 45.24485 -18.245687 4294967295
13.702439 45.563244 -18.266554 4294967295
13.713891 45.090134 -18.156338 4294967295
13.729043 46.522633 -18.257969 4294967295
13.738904 47.160164 -18.288673 4294967295
13.750829 46.36985 -18.138134 4294967295
13.752501 41.565556 -18.311464 4294967295
13.756836 41.249199 -18.253267 4294967295
13.757349 47.641434 -18.260607 4294967295
13.759624 47.007195 -18.173777 4294967295
13.777321 42.364918 -18.292091 4294967295
13.77793 42.523754 -18.30835 4294967295
13.778268 47.488586 -18.1448 4294967295
13.783786 47.331387 -18.100206 4294967295
13.793978 41.892807 -18.157852 4294967295
13.795531 44.590862 -18.474909 4294967295
13.796858 43.321846 -18.316225 4294967295
13.803147 43.00602 -18.249002 4294967295
13.810024 43.801216 -18.312588 4294967295
13.828908 43.171108 -18.149006 4294967295
13.842642 44.126911 -18.199989 4294967295
13.873664 46.039589 -18.285519 4294967295
13.886172 46.995197 -18.342142 4294967295
13.890468 45.567921 -18.150673 4294967295
13.908159 45.890133 -18.107084 4294967295
13.930051 47.800999 -18.234827 4294967295
13.932851 41.250076 -18.192589 4294967295
13.950855 47.965618 -18.157816 4294967295
13.97736 42.530506 -18.139629 4294967295
13.991966 43.169037 -18.148476 4294967295
13.992898 43.962906 -18.239515 4294967295
13.993351 43.010639 -18.123014 4294967295
14.001686 43.488934 -18.141745 4294967295
14.002673 44.758972 -18.289721 4294967295
14.009544 47.299648 -18.562929 4294967295
14.018776 46.984894 -18.482239 4294967295
14.019094 46.032906 -18.366434 4294967295
14.029201 44.289623 -18.110085 4294967295
14.043835 47.150505 -18.385691 4294967295
14.046852 45.087948 -18.123964 4294967295
14.055955 46.519009 -18.25354 4294967295
14.072916 46.206135 -18.137157 4294967295
14.083333 46.843971 -18.165359 4294967295
14.110258 42.36237 -18.259146 4294967295
14.111591 41.251579 -18.119556 4294967295
14.12299 42.84161 -18.257614 4294967295
14.137164 44.114807 -18.344717 4294967295
14.138268 43.638969 -18.282457 4294967295
14.139153 44.750084 -18.411757 4294967295
14.184531 44.603107 -18.183525 4294967295
14.186358 47.618935 -18.537071 4294967295
14.203708 45.560562 -18.209478 4294967295
14.232102 46.520641 -18.192959 4294967295
14.276907 41.567444 -18.146736 4294967295
14.300467 42.366814 -18.133488 4294967295
14.310022 43.797829 -18.26096 4294967295
14.343602 44.917542 -18.239689 4294967295
14.362229 46.192314 -18.306314 4294967295
14.36386 46.034027 -18.279762 4294967295
14.367891 47.146149 -18.39451 4294967295
14.384538 47.626907 -18.375029 4294967295
14.388194 46.993031 -18.282032 4294967295
14.389311 45.723324 -18.124512 4294967295
14.438155 42.199844 -18.230787 4294967295
14.441086 42.99419 -18.312523 4294967295
14.441188 41.248058 -18.102545 4294967295
14.448757 42.361134 -18.201056 4294967295
14.467566 42.683189 -18.15262 4294967295
14.484023 44.433483 -18.286406 4294967295
14.547545 45.878834 -18.165688 4294967295
14.584111 42.034897 -18.289904 4294967295
14.599794 41.721134 -18.179754 4294967295
14.643117 43.160439 -18.152042 4294967295
14.645099 42.84338 -18.104855 4294967295
14.658094 46.021576 -18.425829 4294967295
14.664299 43.642017 -18.111841 4294967295
14.664775 44.277225 -18.185806 4294967295
14.688176 45.394619 -18.211571 4294967295
14.711839 46.988514 -18.293222 4294967295
14.719325 46.355515 -18.18273 4294967295
14.721908 45.879868 -18.113766 4294967295
14.731472 47.787701 -18.298231 4294967295
14.739996 46.51989 -18.10685 4294967295
14.748938 41.239445 -18.186186 4294967295
14.753194 47.317455 -18.141426 4294967295
14.755108 47.953106 -18.208763 4294967295
14.761914 47.478664 -18.120426 4294967295
14.771406 41.720997 -18.140142 4294967295
14.781711 42.5173 -18.188009 4294967295
14.787258 42.359867 -18.143517 4294967295
14.798112 43.156361 -18.188864 4294967295
14.801223 45.062057 -18.402891 4294967295
14.801473 43.47472 -18.211502 4294967295
14.807432 43.793728 -18.222212 4294967295
14.820092 44.749477 -18.278288 4294967295
14.835973 43.959682 -18.110289 4294967295
14.853828 46.34586 -18.31377 4294967295
14.866148 45.396538 -18.143118 4294967295
14.93376 41.559891 -18.124117 4294967295
14.982844 44.588619 -18.260563 4294967295
14.995512 46.020683 -18.373655 4294967295
15.016541 45.708763 -18.239288 4294967295
15.021851 44.757427 -18.100851 4294967295
15.035847 47.936569 -18.417038 4294967295
15.041196 46.509232 -18.221436 4294967295
15.050289 46.670479 -18.198799 4294967295
15.064524 46.833145 -18.152618 4294967295
15.073208 41.552197 -18.23208 4294967295
15.081642 41.395393 -18.174442 4294967295
15.082096 40.91914 -18.115303 4294967295
15.083831 41.078331 -18.126381 4294967295
15.107087 42.195305 -18.153009 4294967295
15.112025 42.672844 -18.187449 4294967295
15.122231 42.834106 -18.159737 4294967295
15.122648 43.945625 -18.29092 4294967295
15.149548 44.269962 -18.205824 4294967295
15.190245 45.550793 -18.171673 4294967295
15.311522 44.267632 -18.210852 4294967295
15.315367 43.6334 -18.117249 4294967295
15.337913 45.862305 -18.280245 4294967295
15.339037 45.068657 -18.180098 4294967295
15.344337 46.340343 -18.307884 4294967295
15.360113 47.456013 -18.368773 4294967295
15.365226 46.66354 -18.250429 4294967295
15.365488 45.551987 -18.116215 4294967295
15.382143 46.826927 -18.192127 4294967295
15.41292 47.947075 -18.184515 4294967295
15.413355 47.62957 -18.144527 4294967295
15.466098 43.469437 -18.154728 4294967295
15.536422 46.187347 -18.15662 4294967295
15.592925 42.029255 -18.149269 4294967295
15.652329 44.743668 -18.201166 4294967295
15.691611 46.183258 -18.192944 4294967295
15.731462 47.78231 -18.201151 4294967295
15.881868 47.300407 -18.202433 4294967295
15.907724 47.942898 -18.160637 4294967295
16.022825 45.704094 -18.113863 4294967295
16.043602 47.933392 -18.284962 4294967295
16.066414 47.304348 -18.105368 4294967295
-12.514329 48.527164 -21.506678 4294967295
-12.410128 48.348991 -21.803154 4294967295
-12.392565 49.138008 -21.805452 4294967295
-12.359405 48.680264 -21.55475 4294967295
-12.25386 49.285156 -21.945574 4294967295
-12.218225 48.671833 -21.660618 4294967295
-12.199113 51.027302 -21.859077 4294967295
-12.19714 48.36615 -21.499487 4294967295
-12.192284 48.837749 -21.533318 4294967295
-12.163742 49.944504 -21.514215 4294967295
-12.154593 50.731007 -21.564585 4294967295
-12.076959 50.385372 -21.990957 4294967295
-12.066751 50.545712 -21.953381 4294967295
-12.058092 49.453102 -21.760824 4294967295
-12.055622 51.489017 -22.012892 4294967295
-12.054502 48.201664 -21.576555 4294967295
-12.049836 50.238953 -21.816248 4294967295
-12.049591 49.925922 -21.773903 4294967295
-12.03977 48.83337 -21.574682 4294967295
-12.036299 48.521366 -21.513962 4294967295
-12.035015 49.774719 -21.670528 4294967295
-12.023495 51.031662 -21.768824 4294967295
-12.018373 49.154339 -21.49394 4294967295
-12.017942 52.912327 -21.982866 4294967295
-12.01363 52.287907 -21.876497 4294967295
-12.0125 51.97525 -21.829134 4294967295
-12.003356 51.822227 -21.756687 4294967295
-12.00075 52.606052 -21.844213 4294967295
-11.974818 53.08601 -21.758224 4294967295
-11.949137 53.879223 -21.714615 4294967295
-11.940325 54.039391 -21.685011 4294967295
-11.909234 48.194748 -21.658972 4294967295
-11.904502 48.509621 -21.673031 4294967295
-11.887912 51.803478 -22.008495 4294967295
-11.885236 49.142941 -21.645472 4294967295
-11.858335 51.501766 -21.799679 4294967295
-11.8566 52.754848 -21.953466 4294967295
-11.843615 49.62796 -21.470493 4294967295
-11.839454 54.483437 -22.081083 4294967295
-11.815838 53.397255 -21.803946 4294967295
-11.806664 51.99147 -21.567738 4294967295
-11.742864 51.170128 -22.010088 4294967295
-11.739544 49.136097 -21.725445 4294967295
-11.737142 50.076454 -21.834532 4294967295
-11.735633 49.294106 -21.723715 4294967295
-11.732973 49.608253 -21.749542 4294967295
-11.728786 48.670132 -21.603058 4294967295
-11.723437 51.960201 -22.002165 4294967295
-11.721895 51.021534 -21.87077 4294967295
-11.720901 53.056774 -22.13084 4294967295
-11.712995 50.711746 -21.779413 4294967295
-11.712696 52.590485 -22.023039 4294967295
-11.712544 53.216599 -22.103918 4294967295
-11.708732 48.52063 -21.46884 4294967295
-11.707892 51.809662 -21.89361 4294967295
-11.702733 54.472485 -22.211763 4294967295
-11.695591 53.692909 -22.069149 4294967295
-11.695093 51.501438 -21.78017 4294967295
-11.690244 52.129612 -21.834463 4294967295
-11.675083 49.786072 -21.441708 4294967295
-11.6746 50.569519 -21.541265 4294967295
-11.673516 53.388699 -21.903194 4294967295
-11.668364 52.294708 -21.730894 4294967295
-11.665917 52.92202 -21.798813 4294967295
-11.660713 55.115814 -22.055439 4294967295
-11.648088 53.55545 -21.779547 4294967295
-11.639898 54.185085 -21.814911 4294967295
-11.636575 52.776997 -21.612076 4294967295
-11.630563 54.658634 -21.823341 4294967295
-11.611719 54.97958 -21.757475 4294967295
-11.564341 48.200073 -21.515442 4294967295
-11.551305 50.397579 -21.727859 4294967295
-11.505383 51.197937 -21.570093 4294967295
-11.497354 49.947582 -21.361044 4294967295
-11.483813 54.495182 -21.87715 4294967295
-11.483689 51.989471 -21.549505 4294967295
-11.467073 52.935841 -21.578117 4294967295
-11.447448 48.183186 -21.758335 4294967295
-11.412385 51.170959 -21.948162 4294967295
-11.39849 52.585201 -22.053371 4294967295
-11.396917 48.827587 -21.554287 4294967295
-11.396395 53.055603 -22.102768 4294967295
-11.394691 50.08147 -21.705168 4294967295
-11.394541 49.611652 -21.643023 4294967295
-11.384407 48.675385 -21.463093 4294967295
-11.379042 50.400501 -21.657547 4294967295
-11.37379 50.715717 -21.668715 4294967295
-11.37324 48.522663 -21.379492 4294967295
-11.369666 53.222736 -21.972151 4294967295
-11.365702 51.032009 -21.663853 4294967295
-11.362937 51.502922 -21.709505 4294967295
-11.362869 52.285969 -21.811241 4294967295
-11.362514 51.659698 -21.727537 4294967295
-11.362207 49.310066 -21.419312 4294967295
-11.357754 50.251747 -21.516762 4294967295
-11.355909 53.384769 -21.914839 4294967295
-11.350082 49.941227 -21.432512 4294967295
-11.346445 54.014824 -21.943026 4294967295
-11.33602 51.983131 -21.618658 4294967295
-11.329666 53.55183 -21.786987 4294967295
-11.32106 54.494858 -21.860863 4294967295
-11.31202 52.932346 -21.605591 4294967295
-11.311548 55.125088 -21.888788 4294967295
-11.287319 48.338116 -21.776836 4294967295
-11.277304 54.199432 -21.572849 4294967295
-11.273851 53.730831 -21.492069 4294967295
-11.256342 54.991299 -21.556564 4294967295
-11.244535 51.798607 -21.98436 4294967295
-11.23855 49.138596 -21.603533 4294967295
-11.23723 49.295719 -21.616499 4294967295
-11.217592 49.616142 -21.546461 4294967295
-11.214405 48.207088 -21.344604 4294967295
-11.207232 53.691875 -22.018692 4294967295
-11.186992 52.603813 -21.761665 4294967295
-11.185917 50.881172 -21.531021 4294967295
-11.164796 54.022095 -21.820105 4294967295
-11.142762 52.46442 -21.491669 4294967295
-11.114156 54.669186 -21.616091 4294967295
-11.064757 49.455185 -21.565809 4294967295
-11.063886 52.900997 -22.009714 4294967295
-11.06263 51.17902 -21.778288 4294967295
-11.060573 49.770035 -21.58304 4294967295
-11.049396 50.557438 -21.622076 4294967295
-11.048144 53.690029 -22.022974 4294967295
-11.046418 53.22102 -21.952084 4294967295
-11.04618 52.281578 -21.828377 4294967295
-11.043031 48.836216 -21.361639 4294967295
-11.037802 50.405075 -21.536314 4294967295
-11.037511 53.067959 -21.88151 4294967295
-11.03399 50.719837 -21.555647 4294967295
-11.031862 52.600365 -21.788496 4294967295
-11.031445 51.974026 -21.704544 4294967295
-11.021261 54.327129 -21.953096 4294967295
-11.017947 51.822559 -21.60808 4294967295
-11.013343 53.390736 -21.786139 4294967295
-11.013009 51.667782 -21.559843 4294967295
-11.005773 54.02021 -21.825073 4294967295
-11.003285 53.864601 -21.79067 4294967295
-10.994652 51.361385 -21.415569 4294967295
-10.990078 54.966228 -21.859022 4294967295
-10.987427 52.147648 -21.476906 4294967295
-10.980408 52.777126 -21.518984 4294967295
-10.978911 54.500954 -21.734955 4294967295
-10.977142 54.658306 -21.745388 4294967295
-10.968434 48.334278 -21.78097 4294967295
-10.95428 48.809143 -21.762451 4294967295
-10.952988 49.436066 -21.836752 4294967295
-10.950631 49.906723 -21.884657 4294967295
-10.916969 51.172005 -21.858282 4294967295
-10.915154 49.606388 -21.644144 4294967295
-10.914683 48.666534 -21.519089 4294967295
-10.897497 50.39613 -21.646727 4294967295
-10.881001 48.208237 -21.268192 4294967295
-10.861701 54.638641 -21.995714 4294967295
-10.85261 50.882858 -21.455265 4294967295
-10.726972 49.928295 -21.525885 4294967295
-10.724873 53.062004 -21.921663 4294967295
-10.720778 48.676777 -21.327913 4294967295
-10.72012 53.690254 -21.976431 4294967295
-10.715695 49.61898 -21.421711 4294967295
-10.714284 51.186459 -21.617659 4294967295
-10.71417 51.029827 -21.596634 4294967295
-10.713258 50.873486 -21.571125 4294967295
-10.709603 49.150978 -21.326277 4294967295
-10.707905 48.994839 -21.296329 4294967295
-10.706333 51.659477 -21.634127 4294967295
-10.695129 52.29044 -21.652693 4294967295
-10.693274 54.014202 -21.866383 4294967295
-10.693257 53.387714 -21.784807 4294967295
-10.689879 49.314804 -21.235786 4294967295
-10.687746 51.509853 -21.509295 4294967295
-10.687562 52.606705 -21.650936 4294967295
-10.678345 51.826836 -21.497236 4294967295
-10.677425 52.140583 -21.532841 4294967295
-10.67015 54.65004 -21.817982 4294967295
-10.668732 50.576611 -21.28009 4294967295
-10.668026 54.494274 -21.785686 4294967295
-10.665326 53.868778 -21.689035 4294967295
-10.659567 54.967628 -21.79929 4294967295
-10.646603 52.779362 -21.441206 4294967295
-10.645952 53.563152 -21.539463 4294967295
-10.634228 52.940929 -21.392067 4294967295
-10.605942 49.129105 -21.642448 4294967295
-10.604465 49.912933 -21.736027 4294967295
-10.591733 50.700844 -21.766407 4294967295
-10.585641 49.763115 -21.609985 4294967295
-10.579651 48.354893 -21.392935 4294967295
-10.567356 48.202442 -21.303516 4294967295
-10.544533 50.091503 -21.419994 4294967295
-10.543043 48.681271 -21.228168 4294967295
-10.536983 50.407734 -21.418381 4294967295
-10.533788 48.998104 -21.216982 4294967295
-10.500237 52.459023 -21.47707 4294967295
-10.482335 53.406322 -21.49888 4294967295
-10.477267 54.035172 -21.551929 4294967295
-10.455925 54.670624 -21.513706 4294967295
-10.454509 54.357761 -21.465029 4294967295
-10.45079 55.142849 -21.546011 4294967295
-10.384112 50.716858 -21.499044 4294967295
-10.382949 52.910877 -21.777527 4294967295
-10.379565 51.658802 -21.595734 4294967295
-10.378399 53.852512 -21.874126 4294967295
-10.377048 48.681602 -21.194613 4294967295
-10.376388 50.87645 -21.476114 4294967295
-10.373077 49.623695 -21.294607 4294967295
-10.361769 52.292393 -21.577461 4294967295
-10.354565 50.257515 -21.272339 4294967295
-10.349854 52.140263 -21.490355 4294967295
-10.345916 54.178818 -21.73291 4294967295
-10.338877 52.614662 -21.489939 4294967295
-10.337685 51.517933 -21.34071 4294967295
-10.334022 53.400135 -21.564533 4294967295
-10.324829 55.127369 -21.736919 4294967295
-10.31329 54.662045 -21.611259 4294967295
-10.305571 48.335297 -21.649679 4294967295
-10.290304 54.984829 -21.523264 4294967295
-10.288368 53.731697 -21.349558 4294967295
-10.280869 50.53751 -21.796288 4294967295
-10.279403 54.519066 -21.401154 4294967295
-10.264512 48.192886 -21.399439 4294967295
-10.260053 51.955109 -21.862885 4294967295
-10.25642 49.292892 -21.496651 4294967295
