# .PCD v0.7 - Point Cloud Data file format
VERSION 0.7
FIELDS x y z rgb
SIZE 4 4 4 4
TYPE F F F U
COUNT 1 1 1 1
WIDTH 1094
HEIGHT 1
VIEWPOINT 0 0 0 1 0 0 0
POINTS 1094
DATA ascii
-26.976645 -5.412786 -22.207596 4294967295
-26.967981 -7.1284404 -21.911592 4294967295
-26.967148 -5.5701303 -22.123323 4294967295
-26.961771 -4.6361384 -22.218229 4294967295
-26.949408 -3.7032349 -22.267126 4294967295
-26.926357 -5.1091294 -21.919846 4294967295
-26.919823 -4.798409 -21.920273 4294967295
-26.918581 -3.2401597 -22.129347 4294967295
-26.912359 -4.9554458 -21.849388 4294967295
-26.897671 -4.490026 -21.817863 4294967295
-26.891445 -3.8673873 -21.863798 4294967295
-26.874212 -3.4021637 -21.815531 4294967295
-26.827707 -5.4156709 -22.26235 4294967295
-26.798 -2.4767549 -21.444311 4294967295
-26.756662 -4.0241394 -21.990635 4294967295
-26.734459 -3.8714848 -21.866405 4294967295
-26.714703 -3.2506869 -21.823425 4294967295
-26.698761 -6.1941695 -22.339859 4294967295
-26.697342 -3.5649445 -21.665884 4294967295
-26.687454 -2.7866228 -21.709517 4294967295
-26.686451 -5.8846617 -22.302397 4294967295
-26.677765 -5.5745068 -22.288742 4294967295
-26.67544 -6.5097494 -22.143372 4294967295
-26.662348 -6.3561559 -22.079103 4294967295
-26.652981 -6.0460453 -22.060986 4294967295
-26.650806 -2.6354949 -21.490423 4294967295
-26.643164 -5.2684331 -22.10498 4294967295
-26.641111 -4.3338161 -22.221634 4294967295
-26.636303 -7.4519348 -21.756218 4294967295
-26.635555 -3.8672183 -22.250231 4294967295
-26.630093 -3.7121983 -22.236076 4294967295
-26.629225 -6.8295202 -21.796537 4294967295
-26.623428 -4.0247874 -22.148968 4294967295
-26.621319 -2.3273008 -21.34013 4294967295
-26.609358 -4.9620285 -21.926477 4294967295
-26.605089 -3.5599148 -22.0937 4294967295
-26.60158 -4.4955792 -21.94051 4294967295
-26.586843 -3.2507529 -22.017378 4294967295
-26.534456 -7.2903271 -22.141903 4294967295
-26.527456 -6.9799066 -22.139355 4294967295
-26.52169 -2.1680739 -21.74185 4294967295
-26.505474 -2.6380024 -21.570354 4294967295
-26.458591 -4.3417397 -22.056486 4294967295
-26.383537 -2.949307 -21.759977 4294967295
-26.370806 -3.2629254 -21.633207 4294967295
-26.367853 -6.984611 -22.124245 4294967295
-26.346066 -5.2740879 -22.219885 4294967295
-26.344357 -2.3306167 -21.590139 4294967295
-26.344187 -2.798583 -21.523933 4294967295
-26.342905 -5.5862532 -22.155897 4294967295
-26.335997 -6.5225644 -21.980749 4294967295
-26.330763 -7.4589043 -21.816517 4294967295
-26.330214 -6.2117844 -21.986227 4294967295
-26.329096 -5.900219 -22.02223 4294967295
-26.323803 -4.4983907 -22.182528 4294967295
-26.322599 -4.8102484 -22.131338 4294967295
-26.318039 -5.4343982 -22.014875 4294967295
-26.315374 -6.6820216 -21.824135 4294967295
-26.307138 -6.8393865 -21.748564 4294967295
-26.301458 -3.7224751 -22.144665 4294967295
-26.299376 -6.0610461 -21.806101 4294967295
-26.299217 -2.6484683 -21.251131 4294967295
-26.287365 -4.1920915 -21.987516 4294967295
-26.25853 -3.8844826 -21.842249 4294967295
-26.204157 -6.0549526 -22.212387 4294967295
-26.1541 -6.2191987 -21.863752 4294967295
-26.144665 -5.7530079 -21.867054 4294967295
-26.14451 -6.3767476 -21.779442 4294967295
-26.110655 -4.1990938 -21.86145 4294967295
-26.057379 -3.1149971 -21.665209 4294967295
-26.054255 -3.427377 -21.6015 4294967295
-26.036537 -6.2167754 -22.123617 4294967295
-26.036144 -5.9051318 -22.164303 4294967295
-26.031582 -7.464725 -21.918268 4294967295
-26.029173 -3.7429121 -21.394407 4294967295
-26.027775 -2.4949756 -21.558609 4294967295
-26.026901 -2.6510868 -21.531246 4294967295
-26.025185 -5.75107 -22.114462 4294967295
-26.014761 -7.1559019 -21.851805 4294967295
-26.011576 -5.2856584 -22.090601 4294967295
-25.99663 -6.6912742 -21.798443 4294967295
-25.993715 -4.3531933 -22.10392 4294967295
-25.990742 -7.3161402 -21.673491 4294967295
-25.980652 -5.1346273 -21.910595 4294967295
-25.976894 -5.4470649 -21.842833 4294967295
-25.973001 -4.5121632 -21.947252 4294967295
-25.969913 -2.8146074 -21.137589 4294967295
-25.95977 -4.9819469 -21.796085 4294967295
-25.957426 -3.734915 -21.95388 4294967295
-25.952129 -4.6712303 -21.789541 4294967295
-25.879507 -3.9019787 -21.424343 4294967295
-25.862743 -6.8474116 -21.930145 4294967295
-25.86253 -6.5356283 -21.971989 4294967295
-25.856152 -3.2810702 -21.358723 4294967295
-25.846443 -2.9702711 -21.33876 4294967295
-25.840143 -6.3835149 -21.847843 4294967295
-25.830814 -5.9172645 -21.851954 4294967295
-25.81381 -5.7640982 -21.762871 4294967295
-25.793835 -4.2077169 -21.849064 4294967295
-25.747452 -3.5904982 -21.633726 4294967295
-25.715204 -6.6940856 -22.015919 4294967295
-25.711746 -6.3828793 -22.036636 4294967295
-25.70937 -5.9156075 -22.085972 4294967295
-25.706411 -5.7602077 -22.088343 4294967295
-25.705673 -7.4753766 -21.845951 4294967295
-25.696869 -7.0091166 -21.853516 4294967295
-25.695906 -5.4501262 -22.063259 4294967295
-25.687342 -2.8185229 -21.350786 4294967295
-25.672714 -4.8301544 -21.99893 4294967295
-25.67211 -4.5184455 -22.038206 4294967295
-25.661467 -3.1341448 -21.139153 4294967295
-25.656994 -5.3003707 -21.831961 4294967295
-25.655163 -2.9788725 -21.119778 4294967295
-25.653809 -4.3652563 -21.940891 4294967295
-25.630114 -4.6806846 -21.743719 4294967295
-25.615938 -4.9948215 -21.608381 4294967295
-25.604395 -4.0605664 -21.663046 4294967295
-25.603836 -3.7486768 -21.702637 4294967295
-25.569057 -3.4415247 -21.51993 4294967295
-25.548391 -7.0118475 -21.91169 4294967295
-25.521935 -6.7045426 -21.783159 4294967295
-25.503941 -5.7717628 -21.795927 4294967295
-25.46981 -4.3733506 -21.768812 4294967295
-25.434725 -3.442461 -21.670815 4294967295
-25.379826 -7.0180979 -21.839603 4294967295
-25.366844 -5.4608417 -21.971201 4294967295
-25.36655 -5.7727518 -21.926159 4294967295
-25.364231 -6.2409744 -21.846426 4294967295
-25.361753 -4.8379564 -22.024511 4294967295
-25.342079 -3.299078 -21.091576 4294967295
-25.329924 -4.6868405 -21.83992 4294967295
-25.314972 -4.0652022 -21.829393 4294967295
-25.311935 -4.3775835 -21.766581 4294967295
-25.289551 -3.7568693 -21.707933 4294967295
-25.273096 -3.6031699 -21.622972 4294967295
-25.272596 -4.5394239 -21.490225 4294967295
-25.249659 -4.2306828 -21.384863 4294967295
-25.229193 -3.2971206 -21.381884 4294967295
-25.223791 -6.5542841 -21.913586 4294967295
-25.218981 -7.4909286 -21.753113 4294967295
-25.186359 -5.1567917 -21.865494 4294967295
-25.178741 -6.7179637 -21.600601 4294967295
-25.17362 -2.9923549 -21.065281 4294967295
-25.167503 -5.7837238 -21.657299 4294967295
-25.157354 -5.9413967 -21.570105 4294967295
-25.143608 -4.8513832 -21.63217 4294967295
-25.086426 -3.7674296 -21.413462 4294967295
-25.072006 -6.4016581 -21.971884 4294967295
-25.036758 -6.7195868 -21.701174 4294967295
-25.036259 -3.4621854 -21.132317 4294967295
-25.031853 -7.5005722 -21.561739 4294967295
-25.025642 -6.0974326 -21.715572 4294967295
-25.022943 -7.346117 -21.525751 4294967295
-25.005095 -5.7887559 -21.625996 4294967295
-25.002066 -5.3211751 -21.671089 4294967295
-24.985746 -4.6996083 -21.651936 4294967295
-24.981047 -4.232255 -21.686245 4294967295
-24.96813 -5.4825659 -21.430439 4294967295
-24.961102 -4.5472522 -21.514397 4294967295
-24.957682 -5.0159659 -21.427647 4294967295
-24.928093 -3.9277656 -21.387569 4294967295
-24.916418 -4.3977661 -21.247528 4294967295
-24.911037 -6.2505698 -21.970922 4294967295
-24.904974 -3.6188118 -21.281483 4294967295
-24.902718 -6.0959954 -21.938818 4294967295
-24.89769 -5.7849083 -21.949451 4294967295
-24.895464 -6.877089 -21.784412 4294967295
-24.876328 -5.0084896 -21.919374 4294967295
-24.796829 -3.7721348 -21.579325 4294967295
-24.739414 -6.4131622 -21.858511 4294967295
-24.707355 -6.2625055 -21.673674 4294967295
-24.705767 -5.7947006 -21.728004 4294967295
-24.695339 -7.5130544 -21.42415 4294967295
-24.694771 -3.6302404 -20.943281 4294967295
-24.692305 -5.1727672 -21.727436 4294967295
-24.68845 -5.953537 -21.59503 4294967295
-24.681082 -6.1107988 -21.526087 4294967295
-24.675055 -6.7361341 -21.401196 4294967295
-24.671396 -3.4772396 -20.814247 4294967295
-24.664764 -4.240766 -21.679344 4294967295
-24.65666 -4.5540323 -21.584164 4294967295
-24.651941 -5.0229321 -21.489231 4294967295
-24.649738 -4.711123 -21.518108 4294967295
-24.594343 -4.0948334 -21.247829 4294967295
-24.580231 -7.5097852 -21.697449 4294967295
-24.574816 -3.3168619 -21.229879 4294967295
-24.563402 -7.0446491 -21.653793 4294967295
-24.550037 -6.7348604 -21.610907 4294967295
-24.526886 -4.866138 -21.720196 4294967295
-24.51013 -5.4929185 -21.526527 4294967295
-24.502779 -5.1819201 -21.522316 4294967295
-24.483198 -4.4044852 -21.504087 4294967295
-24.420681 -3.4766552 -21.231665 4294967295
-24.420113 -3.9452014 -21.163446 4294967295
-24.364738 -5.8073545 -21.562227 4294967295
-24.354418 -6.5895147 -21.388546 4294967295
-24.352942 -5.1849356 -21.572529 4294967295
-24.348576 -6.2782655 -21.394054 4294967295
-24.347677 -5.4979115 -21.495773 4294967295
-24.342716 -4.8743553 -21.549929 4294967295
-24.325069 -4.7209206 -21.45825 4294967295
-24.279833 -4.41535 -21.211147 4294967295
-24.276087 -3.79128 -21.273146 4294967295
-24.267052 -4.1048694 -21.172199 4294967295
-24.262878 -7.2067533 -21.726358 4294967295
-24.249491 -4.2635794 -21.038084 4294967295
-24.247473 -6.2731843 -21.756489 4294967295
-24.24658 -7.0535469 -21.643417 4294967295
-24.230911 -5.18367 -21.800716 4294967295
-24.228676 -6.7444916 -21.571678 4294967295
-24.227432 -6.12044 -21.649607 4294967295
-24.209085 -3.4881475 -20.886581 4294967295
-24.203302 -6.9049277 -21.387665 4294967295
-24.192894 -4.5652547 -21.643187 4294967295
-24.114365 -4.1083174 -21.204866 4294967295
-23.979462 -4.2653713 -21.329716 4294967295
-23.961218 -4.4241767 -21.191635 4294967295
-23.95536 -4.5812201 -21.132725 4294967295
-23.937111 -4.1152682 -21.080515 4294967295
-23.927097 -7.3750596 -21.573606 4294967295
-23.916292 -6.9086728 -21.568939 4294967295
-23.912256 -6.1289535 -21.650396 4294967295
-23.911047 -7.2217765 -21.492552 4294967295
-23.897142 -3.6521792 -20.889517 4294967295
-23.894815 -6.2879009 -21.517612 4294967295
-23.891924 -5.3518333 -21.627829 4294967295
-23.891357 -7.0690761 -21.388279 4294967295
-23.883162 -5.8214836 -21.507566 4294967295
-23.881029 -4.885272 -21.622633 4294967295
-23.875692 -6.6033306 -21.352623 4294967295
-23.852692 -5.0456591 -21.420321 4294967295
-23.841208 -5.2035527 -21.325575 4294967295
-23.821199 -4.7381015 -21.262245 4294967295
-23.773684 -6.4422073 -21.72928 4294967295
-23.686872 -5.0511031 -21.368919 4294967295
-23.641726 -4.4331226 -21.167034 4294967295
-23.638824 -4.1211495 -21.191448 4294967295
-23.619221 -7.2263126 -21.642565 4294967295
-23.617477 -4.7491326 -20.969645 4294967295
-23.615404 -6.6026587 -21.703924 4294967295
-23.610062 -6.91572 -21.627102 4294967295
-23.603178 -6.4486227 -21.64753 4294967295
-23.587414 -5.5146861 -21.675705 4294967295
-23.583805 -7.3886209 -21.395729 4294967295
-23.571922 -5.2049174 -21.619976 4294967295
-23.57093 -6.1417184 -21.485167 4294967295
-23.570337 -3.9745882 -20.776598 4294967295
-23.561028 -5.3626976 -21.529243 4294967295
-23.54982 -3.6648242 -20.688822 4294967295
-23.548349 -6.3015585 -21.320049 4294967295
-23.540071 -4.7413974 -21.481606 4294967295
-23.431969 -6.7673812 -21.518866 4294967295
-23.430347 -3.6637022 -20.93372 4294967295
-23.422813 -5.9883103 -21.567709 4294967295
-23.40452 -5.6789875 -21.494314 4294967295
-23.39509 -6.9297991 -21.263134 4294967295
-23.35482 -5.3744249 -21.221432 4294967295
-23.344231 -4.7512455 -21.239836 4294967295
-23.329929 -4.5971518 -21.170425 4294967295
-23.31778 -4.4427052 -21.114677 4294967295
-23.302879 -4.1323786 -21.062897 4294967295
-23.290094 -7.2373381 -21.555334 4294967295
-23.284332 -6.3016601 -21.6471 4294967295
-23.279198 -5.9903021 -21.657299 4294967295
-23.271353 -7.3967443 -21.415043 4294967295
-23.268589 -6.7726331 -21.483072 4294967295
-23.268345 -5.5237355 -21.65262 4294967295
-23.265762 -6.460835 -21.507925 4294967295
-23.263611 -3.6690683 -20.877825 4294967295
-23.262503 -7.0859666 -21.401686 4294967295
-23.26079 -6.1493893 -21.519157 4294967295
-23.233286 -5.68536 -21.408884 4294967295
-23.23328 -6.9347906 -21.23769 4294967295
-23.21196 -4.9078302 -21.380621 4294967295
-23.094952 -5.2181702 -21.596272 4294967295
-23.08993 -4.1443558 -20.713928 4294967295
-23.079863 -3.6767576 -20.714363 4294967295
-23.072895 -3.834058 -20.648773 4294967295
-23.066612 -6.9406056 -21.181648 4294967295
-23.042736 -6.0072093 -21.15876 4294967295
-23.025265 -5.3850369 -21.13369 4294967295
-23.019281 -5.5422058 -21.074409 4294967295
-22.992573 -4.1399608 -21.097837 4294967295
-22.985044 -4.7660894 -20.964619 4294967295
-22.970966 -7.0904756 -21.553627 4294967295
-22.957779 -4.3011837 -20.856205 4294967295
-22.952229 -3.989362 -20.863876 4294967295
-22.949697 -7.4064708 -21.376402 4294967295
-22.946712 -6.9384661 -21.42161 4294967295
-22.946507 -6.6261759 -21.463037 4294967295
-22.942087 -5.5338936 -21.584608 4294967295
-22.923677 -6.4737926 -21.340048 4294967295
-22.92029 -6.0057945 -21.38273 4294967295
-22.893373 -3.8411992 -20.512774 4294967295
-22.890276 -5.3857489 -21.278454 4294967295
-22.880394 -5.6997213 -21.173248 4294967295
-22.866402 -4.6082802 -21.234404 4294967295
-22.863741 -4.4524512 -21.238955 4294967295
-22.756439 -7.5732327 -21.131189 4294967295
-22.756105 -3.8424971 -20.644291 4294967295
-22.75034 -7.4180522 -21.114044 4294967295
-22.733486 -5.5460334 -21.263914 4294967295
-22.722866 -6.3289084 -21.090109 4294967295
-22.704147 -5.23808 -21.121471 4294967295
-22.695822 -5.0830855 -21.090298 4294967295
-22.66044 -4.4631968 -20.952492 4294967295
-22.639889 -4.3098378 -20.844183 4294967295
-22.637691 -4.6228113 -20.787575 4294967295
-22.629168 -3.8423765 -20.840652 4294967295
-22.625637 -7.2604003 -21.344547 4294967295
-22.610781 -6.4819107 -21.357588 4294967295
-22.602333 -6.6395164 -21.283007 4294967295
-22.602186 -6.0147166 -21.367428 4294967295
-22.592947 -5.5475879 -21.373217 4294967295
-22.591509 -5.3916173 -21.385489 4294967295
-22.589882 -5.0794902 -21.417906 4294967295
-22.582251 -7.1116247 -21.092413 4294967295
-22.572475 -3.6937845 -20.504368 4294967295
-22.5651 -5.7081504 -21.176403 4294967295
-22.56378 -5.8646059 -21.146742 4294967295
-22.523491 -5.2457681 -20.97827 4294967295
-22.492695 -4.6251206 -20.869652 4294967295
-22.489746 -3.8439848 -20.957844 4294967295
-22.4814 -7.5747609 -21.387552 4294967295
-22.480495 -6.169353 -21.573711 4294967295
-22.460474 -6.9535599 -21.341135 4294967295
-22.42934 -6.6463242 -21.187874 4294967295
-22.425802 -7.4282427 -21.058958 4294967295
-22.391294 -4.4648552 -21.247087 4294967295
-22.369074 -4.9368825 -21.043335 4294967295
-22.325527 -4.3179827 -20.854792 4294967295
-22.32383 -3.8492429 -20.908127 4294967295
-22.315033 -6.6433902 -21.461805 4294967295
-22.310907 -6.3317013 -21.478502 4294967295
-22.309202 -4.0075998 -20.794804 4294967295
-22.304167 -7.42627 -21.287016 4294967295
-22.299681 -6.9583659 -21.322748 4294967295
-22.28301 -5.2427926 -21.452387 4294967295
-22.273634 -7.1190324 -21.137791 4294967295
-22.26895 -6.8072944 -21.150984 4294967295
-22.264904 -6.4954429 -21.168194 4294967295
-22.262461 -3.7012696 -20.543562 4294967295
-22.258236 -4.7778902 -21.360722 4294967295
-22.258183 -7.2779627 -21.019381 4294967295
-22.256042 -5.7155981 -21.219088 4294967295
-22.250051 -5.8727942 -21.160147 4294967295
-22.225189 -5.0952821 -21.110561 4294967295
-22.207664 -5.4105268 -20.957863 4294967295
-22.167965 -4.165772 -20.879133 4294967295
-22.165508 -4.6351528 -20.799732 4294967295
-22.131142 -5.8708992 -21.404966 4294967295
-22.097055 -3.8628561 -20.476578 4294967295
-22.095972 -5.0952005 -21.290899 4294967295
-22.073854 -5.5673518 -21.088308 4294967295
-22.060703 -4.6316338 -21.133659 4294967295
-22.003256 -4.1708922 -20.837427 4294967295
-21.97995 -6.9676557 -21.298046 4294967295
-21.976757 -6.343256 -21.363167 4294967295
-21.97278 -4.0187736 -20.667686 4294967295
-21.967216 -5.8761106 -21.36725 4294967295
-21.965668 -7.2825994 -21.166033 4294967295
-21.96467 -6.6577144 -21.244911 4294967295
-21.948917 -7.1291795 -21.082411 4294967295
-21.944834 -5.4108844 -21.290958 4294967295
-21.939907 -5.7241488 -21.217545 4294967295
-21.93717 -4.9433141 -21.30682 4294967295
-21.93692 -5.2558408 -21.262693 4294967295
-21.91563 -5.5716381 -21.08683 4294967295
-21.910786 -6.5102921 -20.928759 4294967295
-21.880846 -5.1079845 -20.932941 4294967295
-21.879236 -4.1703057 -21.050606 4294967295
-21.87484 -4.7962084 -20.937923 4294967295
-21.863297 -3.8598919 -20.993431 4294967295
-21.847706 -7.4362893 -21.394819 4294967295
-21.84271 -3.5500209 -20.907177 4294967295
-21.7707 -5.886445 -21.126019 4294967295
-21.667427 -3.5564787 -20.799749 4294967295
-21.661955 -7.1329031 -21.263447 4294967295
-21.640459 -5.7300973 -21.320526 4294967295
-21.639351 -6.1990457 -21.249859 4294967295
-21.63135 -6.3566098 -21.178659 4294967295
-21.625608 -6.513835 -21.121567 4294967295
-21.617668 -5.264811 -21.242046 4294967295
-21.610199 -6.0474081 -21.089149 4294967295
-21.603645 -5.1106372 -21.1758 4294967295
-21.602278 -4.7982759 -21.209778 4294967295
-21.582628 -4.3322449 -21.150938 4294967295
-21.575697 -5.4274793 -20.958864 4294967295
-21.565294 -5.898159 -20.830147 4294967295
-21.564821 -4.491086 -21.01857 4294967295
-21.546291 -3.8683567 -20.988016 4294967295
-21.527525 -3.7145605 -20.892212 4294967295
-21.514765 -7.447916 -21.288084 4294967295
-21.47193 -5.8922701 -21.233492 4294967295
-21.456882 -7.1452117 -20.969761 4294967295
-21.442472 -5.5842547 -21.092417 4294967295
-21.36635 -4.5010567 -20.766907 4294967295
-21.357309 -4.189537 -20.753101 4294967295
-21.318516 -4.0384955 -20.532711 4294967295
-21.314215 -6.5216703 -21.150385 4294967295
-21.313812 -7.3033314 -21.041733 4294967295
-21.309946 -6.3660569 -21.145048 4294967295
-21.307629 -7.1480484 -21.024477 4294967295
-21.3013 -6.054822 -21.133713 4294967295
-21.289274 -5.4314528 -21.143806 4294967295
-21.261402 -5.1229968 -21.012882 4294967295
-21.232489 -3.876379 -21.002922 4294967295
-21.230375 -4.9712291 -20.841114 4294967295
-21.209564 -4.5050669 -20.775396 4294967295
-21.201275 -4.1934314 -20.766317 4294967295
-21.187689 -6.677104 -21.324875 4294967295
-21.169016 -3.7285907 -20.629438 4294967295
-21.158957 -6.0566154 -21.231213 4294967295
-21.124304 -5.7494106 -21.058393 4294967295
-21.083641 -4.6610417 -20.954376 4294967295
-21.026169 -7.3071489 -21.218229 4294967295
-20.98818 -5.9065857 -21.173361 4294967295
-20.971579 -4.9712358 -21.197611 4294967295
-20.963432 -6.5359063 -20.935057 4294967295
-20.963179 -6.8487053 -20.891073 4294967295
-20.96114 -5.4417672 -21.069269 4294967295
-20.959078 -7.4749899 -20.780792 4294967295
-20.955027 -6.2245097 -20.925333 4294967295
-20.95351 -5.7556391 -20.979553 4294967295
-20.937458 -4.5071869 -21.049656 4294967295
-20.922005 -4.1966553 -20.99625 4294967295
-20.905088 -5.2938399 -20.742901 4294967295
-20.903639 -4.6683989 -20.818762 4294967295
-20.895916 -5.1387815 -20.707237 4294967295
-20.882996 -4.0456634 -20.775633 4294967295
-20.881834 -4.3586683 -20.725998 4294967295
-20.86203 -6.8435917 -21.243898 4294967295
-20.840889 -3.5820346 -20.578255 4294967295
-20.822733 -7.3192091 -20.936943 4294967295
-20.795851 -6.6981401 -20.855209 4294967295
-20.790411 -5.9170523 -20.927502 4294967295
-20.770538 -4.9817657 -20.931612 4294967295
-20.765358 -5.764544 -20.793568 4294967295
-20.678604 -3.8997016 -20.510946 4294967295
-20.646511 -6.5446148 -20.930826 4294967295
-20.643719 -7.3270969 -20.807653 4294967295
-20.63764 -5.7641072 -20.981873 4294967295
-20.634396 -6.2337751 -20.898277 4294967295
-20.631771 -6.0777941 -20.903229 4294967295
-20.611691 -5.4552894 -20.863813 4294967295
-20.609316 -4.6736641 -20.955038 4294967295
-20.607533 -4.9867039 -20.901649 4294967295
-20.585949 -4.8334384 -20.789431 4294967295
-20.580442 -4.5213795 -20.797766 4294967295
-20.575531 -3.7399857 -20.873327 4294967295
-20.563421 -4.3673468 -20.713753 4294967295
-20.562561 -4.0545855 -20.750809 4294967295
-20.539547 -3.5883517 -20.672161 4294967295
-20.533424 -6.3852968 -21.230124 4294967295
-20.520191 -6.8564639 -21.084963 4294967295
-20.504089 -3.9060831 -20.410667 4294967295
-20.472609 -7.0207505 -20.77002 4294967295
-20.46582 -6.0832987 -20.855122 4294967295
-20.454744 -5.6157675 -20.85026 4294967295
-20.445677 -5.3042998 -20.836639 4294967295
-20.398392 -3.4338191 -20.798904 4294967295
-20.340523 -7.3335447 -20.888622 4294967295
-20.327644 -3.5996163 -20.341255 4294967295
-20.308681 -6.4002643 -20.819269 4294967295
-20.306013 -5.1493807 -20.972038 4294967295
-20.30138 -5.7757077 -20.858885 4294967295
-20.288507 -6.7164302 -20.652603 4294967295
-20.273661 -5.310606 -20.75153 4294967295
-20.256275 -4.3744411 -20.771362 4294967295
-20.23489 -3.5951121 -20.745407 4294967295
-20.231062 -4.8474445 -20.552526 4294967295
-20.227909 -5.0044069 -20.511938 4294967295
-20.227448 -4.6914649 -20.55143 4294967295
-20.226152 -4.0656857 -20.628101 4294967295
-20.209661 -4.2244511 -20.50535 4294967295
-20.202061 -6.8654041 -21.073303 4294967295
-20.201338 -6.3964238 -21.132248 4294967295
-20.18622 -6.711617 -20.996943 4294967295
-20.18165 -5.9304295 -21.074488 4294967295
-20.178982 -7.1820316 -20.888987 4294967295
-20.174326 -3.9162192 -20.330004 4294967295
-20.160305 -7.0287185 -20.795179 4294967295
-20.159334 -7.4982367 -20.725771 4294967295
-20.140602 -4.3726912 -21.033293 4294967295
-20.131268 -4.6868057 -20.933598 4294967295
-20.076513 -3.2863848 -20.78709 4294967295
-20.024569 -3.6061494 -20.425337 4294967295
-19.976103 -5.7855997 -20.804497 4294967295
-19.958605 -5.0059719 -20.802647 4294967295
-19.95289 -4.6938982 -20.809803 4294967295
-19.945166 -4.2256432 -20.825745 4294967295
-19.913361 -3.9170563 -20.672689 4294967295
-19.882868 -3.7646434 -20.506578 4294967295
-19.878706 -3.4521449 -20.523304 4294967295
-19.878031 -6.4061308 -21.089197 4294967295
-19.871111 -7.5021205 -20.898989 4294967295
-19.859095 -7.3477211 -20.846375 4294967295
-19.856674 -6.0967159 -21.000391 4294967295
-19.84837 -5.159595 -21.076097 4294967295
-19.846403 -3.1432214 -20.367245 4294967295
-19.838017 -5.0047174 -21.033709 4294967295
-19.820744 -5.7894244 -20.822214 4294967295
-19.818392 -6.2591729 -20.744452 4294967295
-19.768986 -3.7628927 -20.779312 4294967295
-19.755222 -4.0777073 -20.652679 4294967295
-19.70179 -5.6312776 -21.084024 4294967295
-19.659937 -6.5764585 -20.701107 4294967295
-19.657562 -6.8898344 -20.644346 4294967295
-19.65086 -5.4825311 -20.793228 4294967295
-19.649994 -4.7003899 -20.893421 4294967295
-19.645294 -5.9528127 -20.695837 4294967295
-19.633251 -5.0157175 -20.748709 4294967295
-19.617809 -4.3919997 -20.738567 4294967295
-19.615162 -4.0794091 -20.76457 4294967295
-19.600698 -3.6119123 -20.739344 4294967295
-19.58703 -3.4572108 -20.676775 4294967295
-19.580532 -4.5537314 -20.489229 4294967295
-19.558388 -6.7280569 -21.027023 4294967295
-19.556833 -4.2439189 -20.386366 4294967295
-19.550562 -7.1986241 -20.915915 4294967295
-19.549343 -3.305557 -20.467201 4294967295
-19.548954 -3.7752821 -20.401478 4294967295
-19.538157 -2.99387 -20.440962 4294967295
-19.519278 -6.108551 -20.872171 4294967295
-19.517841 -5.3265672 -20.968803 4294967295
-19.517633 -7.3606119 -20.693428 4294967295
-19.514978 -6.2656837 -20.824793 4294967295
-19.513357 -7.0483365 -20.709444 4294967295
-19.509161 -5.7972045 -20.852474 4294967295
-19.498112 -5.9553719 -20.763824 4294967295
-19.497887 -4.8601723 -20.910049 4294967295
-19.481962 -4.5495338 -20.854876 4294967295
-19.463501 -5.1781182 -20.657654 4294967295
-19.395683 -2.8394785 -20.559549 4294967295
-19.386595 -6.8910108 -20.923054 4294967295
-19.379841 -5.797049 -21.029284 4294967295
-19.357023 -6.7393589 -20.763542 4294967295
-19.291641 -3.7757354 -20.764849 4294967295
-19.291428 -5.4974542 -20.531675 4294967295
-19.291321 -3.9322696 -20.741816 4294967295
-19.289089 -5.1847157 -20.559565 4294967295
-19.248035 -7.361403 -20.979984 4294967295
-19.238413 -3.6262336 -20.461109 4294967295
-19.23283 -6.425283 -21.013584 4294967295
-19.228659 -4.2538762 -20.317228 4294967295
-19.218306 -6.8969693 -20.861874 4294967295
-19.215343 -6.740983 -20.864868 4294967295
-19.206554 -5.3342853 -21.000788 4294967295
-19.205856 -3.1606824 -20.325722 4294967295
-19.205244 -5.4909182 -20.971745 4294967295
-19.201454 -2.848037 -20.341038 4294967295
-19.193178 -6.1186047 -20.813971 4294967295
-19.18433 -7.059042 -20.633654 4294967295
-19.178394 -5.0255065 -20.871267 4294967295
-19.178322 -4.7125921 -20.912931 4294967295
-19.174942 -6.2779546 -20.681742 4294967295
-19.1614 -3.0096445 -20.07556 4294967295
-19.160807 -6.5932589 -20.553431 4294967295
-19.146992 -4.4040346 -20.764126 4294967295
-19.138617 -4.8747435 -20.6499 4294967295
-19.086468 -3.3164406 -20.542818 4294967295
-19.075344 -4.1007743 -20.36968 4294967295
-19.045759 -6.1211963 -20.88028 4294967295
-19.04352 -7.3735056 -20.698288 4294967295
-19.026707 -3.4807348 -20.157648 4294967295
-19.003426 -7.2236567 -20.475241 4294967295
-18.982483 -6.6007614 -20.431967 4294967295
-18.978168 -5.975131 -20.489933 4294967295
-18.966341 -5.8203664 -20.439009 4294967295
-18.960831 -4.4120932 -20.594986 4294967295
-18.949305 -4.5702553 -20.503798 4294967295
-18.941263 -5.1977439 -20.370623 4294967295
-18.94083 -4.1017237 -20.515408 4294967295
-18.927652 -3.7903488 -20.47735 4294967295
-18.925768 -3.1643279 -20.550116 4294967295
-18.921738 -3.3214028 -20.504547 4294967295
-18.913565 -4.2620277 -20.328459 4294967295
-18.873892 -7.0666718 -20.671694 4294967295
-18.868465 -6.5979733 -20.701815 4294967295
-18.868059 -3.4849174 -20.156956 4294967295
-18.862068 -5.8163981 -20.768103 4294967295
-18.860752 -3.0158837 -20.175718 4294967295
-18.856813 -7.3826032 -20.525799 4294967295
-18.842405 -5.193284 -20.732763 4294967295
-18.832281 -6.2906122 -20.523972 4294967295
-18.831057 -4.5688481 -20.747953 4294967295
-18.823782 -6.135366 -20.49337 4294967295
-18.823238 -6.4486141 -20.447979 4294967295
-18.818846 -7.2323418 -20.316053 4294967295
-18.813278 -4.7278786 -20.618906 4294967295
-18.807339 -3.7894843 -20.709051 4294967295
-18.794113 -3.9477799 -20.607685 4294967295
-18.775747 -4.8897934 -20.36985 4294967295
-18.748373 -6.752646 -20.913027 4294967295
-18.737499 -2.7024331 -20.432188 4294967295
-18.711859 -2.8621855 -20.255434 4294967295
-18.69486 -2.3943057 -20.215376 4294967295
-18.676292 -6.137959 -20.559719 4294967295
-18.667265 -2.5542691 -20.026745 4294967295
-18.652853 -6.9246678 -20.312325 4294967295
-18.644949 -6.6126847 -20.306431 4294967295
-18.617605 -4.8939772 -20.371902 4294967295
-18.60404 -4.1128016 -20.394789 4294967295
-18.596361 -3.4873953 -20.432356 4294967295
-18.583933 -4.4288106 -20.230762 4294967295
-18.574932 -6.6028914 -20.842407 4294967295
-18.564833 -2.8649089 -20.325308 4294967295
-18.555843 -3.335963 -20.207693 4294967295
-18.555822 -2.7093768 -20.291714 4294967295
-18.54981 -6.4503603 -20.711203 4294967295
-18.543678 -7.3906832 -20.547993 4294967295
-18.536686 -5.5131984 -20.757738 4294967295
-18.535721 -5.3568196 -20.7729 4294967295
-18.533857 -3.1820779 -20.095406 4294967295
-18.531595 -4.7313628 -20.831932 4294967295
-18.527445 -2.399471 -20.161741 4294967295
-18.527332 -7.0802259 -20.490963 4294967295
-18.521984 -7.5509191 -20.395502 4294967295
-18.506844 -4.1087227 -20.766054 4294967295
-18.492558 -4.8934393 -20.574488 4294967295
-18.489737 -6.146605 -20.389269 4294967295
-18.48963 -6.7731271 -20.304544 4294967295
-18.488653 -4.2677312 -20.634893 4294967295
-18.392385 -5.2023554 -20.884987 4294967295
-18.390772 -2.2443581 -20.3155 4294967295
-18.380112 -3.0289397 -20.14583 4294967295
-18.37986 -5.9868321 -20.704269 4294967295
-18.375772 -2.7161152 -20.161613 4294967295
-18.350468 -7.2442055 -20.358456 4294967295
-18.332508 -5.6808624 -20.459848 4294967295
-18.300848 -3.0232391 -20.625437 4294967295
-18.281416 -3.9653211 -20.38195 4294967295
-18.262012 -2.714819 -20.432701 4294967295
-18.259777 -3.3416064 -20.335155 4294967295
-18.252951 -2.8725481 -20.356916 4294967295
-18.245405 -5.9874487 -20.848991 4294967295
-18.240242 -6.6143675 -20.733894 4294967295
-18.230438 -7.0856218 -20.611727 4294967295
-18.226576 -5.2076788 -20.84017 4294967295
-18.212711 -5.0531583 -20.777422 4294967295
-18.205647 -7.2462912 -20.440979 4294967295
-18.197659 -2.0957985 -20.127789 4294967295
-18.192461 -5.6823673 -20.571207 4294967295
-18.191133 -6.9354229 -20.395277 4294967295
-18.186974 -6.4662185 -20.433132 4294967295
-18.185028 -6.7797785 -20.379391 4294967295
-18.180046 -4.58813 -20.643137 4294967295
-18.171268 -5.3723207 -20.48521 4294967295
-18.165623 -4.1203923 -20.619024 4294967295
-18.161304 -2.2567298 -19.887053 4294967295
-18.145132 -4.7496142 -20.411348 4294967295
-18.129896 -4.2818346 -20.382343 4294967295
-18.126524 -3.6557796 -20.445961 4294967295
-18.069416 -2.4097314 -20.269236 4294967295
-18.046896 -2.8825049 -20.070318 4294967295
-18.045084 -7.564239 -20.386429 4294967295
-18.013273 -5.5331173 -20.467278 4294967295
-17.988119 -4.9102612 -20.399529 4294967295
-17.944965 -4.289629 -20.223322 4294967295
-17.943962 -2.56657 -20.448072 4294967295
-17.940386 -4.4469423 -20.174723 4294967295
-17.929646 -3.9783146 -20.172947 4294967295
-17.924738 -7.2490363 -20.658115 4294967295
-17.923298 -7.0926991 -20.670399 4294967295
-17.895576 -2.8857508 -20.114544 4294967295
-17.887234 -2.1032236 -20.169214 4294967295
-17.885019 -6.4724669 -20.523722 4294967295
-17.88303 -2.4171224 -20.101906 4294967295
-17.881077 -7.4128723 -20.374197 4294967295
-17.880264 -2.7308934 -20.043261 4294967295
-17.879156 -5.8469553 -20.572256 4294967295
-17.878796 -6.3168287 -20.507202 4294967295
-17.872211 -6.9443898 -20.383701 4294967295
-17.87038 -6.1615138 -20.477491 4294967295
-17.863777 -1.6357406 -20.090866 4294967295
-17.84866 -5.0684037 -20.493465 4294967295
-17.846241 -5.2253757 -20.457945 4294967295
-17.844931 -4.1292834 -20.596788 4294967295
-17.839014 -6.7930651 -20.204762 4294967295
-17.838581 -6.0097466 -20.306999 4294967295
-17.836239 -7.5770431 -20.083185 4294967295
-17.836216 -5.6967807 -20.334696 4294967295
-17.83499 -4.6004686 -20.474072 4294967295
-17.827909 -3.9749529 -20.51531 4294967295
-17.819885 -3.5061617 -20.529911 4294967295
-17.813229 -1.7981054 -19.765333 4294967295
-17.790901 -3.666537 -20.33452 4294967295
-17.73723 -3.203299 -20.074482 4294967295
-17.725239 -1.7943058 -20.191118 4294967295
-17.710876 -4.5999126 -20.681026 4294967295
-17.703897 -4.9140701 -20.597189 4294967295
-17.677252 -4.1347103 -20.541792 4294967295
-17.644428 -3.3558557 -20.449316 4294967295
-17.613916 -2.8896856 -20.328861 4294967295
-17.612206 -7.5701747 -20.642546 4294967295
-17.605122 -3.2041352 -20.234112 4294967295
-17.595135 -6.7900047 -20.644701 4294967295
-17.593987 -2.1086822 -20.313923 4294967295
-17.591618 -6.4773808 -20.665445 4294967295
-17.585081 -2.7364936 -20.176594 4294967295
-17.579592 -6.9491067 -20.530455 4294967295
-17.573359 -1.6409496 -20.252903 4294967295
-17.572384 -5.5407858 -20.675573 4294967295
-17.564228 -7.2648835 -20.396353 4294967295
-17.557272 -5.2298083 -20.626741 4294967295
-17.556099 -7.1095548 -20.368484 4294967295
-17.554501 -2.269938 -20.055788 4294967295
-17.550373 -4.9175973 -20.627205 4294967295
-17.545113 -1.3305982 -20.125191 4294967295
-17.543468 -5.7016873 -20.481094 4294967295
-17.540342 -6.1720967 -20.399513 4294967295
-17.538433 -4.7626729 -20.576481 4294967295
-17.534788 -4.4499583 -20.596481 4294967295
-17.517412 -1.8038757 -19.89592 4294967295
-17.512518 -4.6096539 -20.441908 4294967295
-17.511845 -6.646595 -20.165627 4294967295
-17.510406 -4.2966571 -20.471119 4294967295
-17.509338 -6.0201621 -20.234362 4294967295
-17.494246 -3.8288789 -20.436964 4294967295
-17.486967 -1.4936255 -19.755016 4294967295
-17.47554 -3.0480087 -20.429451 4294967295
-17.472252 -2.7351124 -20.451601 4294967295
-17.436979 -1.9559255 -20.344755 4294967295
-17.402948 -6.6430545 -20.463646 4294967295
-17.380165 -1.6488249 -20.04594 4294967295
-17.376793 -5.3938708 -20.474274 4294967295
-17.33017 -5.8708425 -20.132086 4294967295
-17.310869 -3.5229304 -20.330433 4294967295
-17.291765 -1.0310371 -19.599697 4294967295
-17.271959 -3.8413961 -20.055485 4294967295
-17.270657 -6.7998405 -20.599918 4294967295
-17.256052 -3.0596616 -20.064886 4294967295
-17.252962 -7.4292789 -20.410383 4294967295
-17.250887 -2.4333065 -20.117714 4294967295
-17.248589 -6.960011 -20.446932 4294967295
-17.244341 -4.9245086 -20.6933 4294967295
-17.23173 -7.1194072 -20.325115 4294967295
-17.215601 -6.3385339 -20.333158 4294967295
-17.211914 -5.5557113 -20.415661 4294967295
-17.208736 -6.0262146 -20.333904 4294967295
-17.205168 -5.2433629 -20.417112 4294967295
-17.202339 -5.0871029 -20.42111 4294967295
-17.201555 -4.7738924 -20.458241 4294967295
-17.198496 -4.4610085 -20.481756 4294967295
-17.183508 -1.0298562 -19.902737 4294967295
-17.180073 -3.5235486 -20.497025 4294967295
-17.177877 -1.6576879 -19.785233 4294967295
-17.172197 -3.8378832 -20.408104 4294967295
-17.172136 -1.3446655 -19.792759 4294967295
-17.167055 -3.2118855 -20.460999 4294967295
-17.153383 -2.5869188 -20.462889 4294967295
-17.142134 -0.8772893 -19.675987 4294967295
-17.133291 -2.4326162 -20.363657 4294967295
-17.130339 -0.72162747 -19.626329 4294967295
-17.121408 -4.0012684 -20.083387 4294967295
-17.107134 -1.9655352 -20.270016 4294967295
-17.100088 -1.3394997 -20.311567 4294967295
-17.091681 -6.1808352 -20.561327 4294967295
-17.081604 -5.8690872 -20.54291 4294967295
-17.076258 -4.7734747 -20.657223 4294967295
-17.064972 -1.8135122 -20.03886 4294967295
-17.050566 -1.6583273 -19.973661 4294967295
-17.046865 -1.1883934 -20.01432 4294967295
-17.004618 -2.9031878 -20.480112 4294967295
-16.948713 -3.3802323 -20.083586 4294967295
-16.932919 -1.9713806 -20.177473 4294967295
-16.926104 -6.8128543 -20.43598 4294967295
-16.920143 -6.1871138 -20.483959 4294967295
-16.919092 -2.1296954 -20.074022 4294967295
-16.918844 -1.1892349 -20.198002 4294967295
-16.918308 -6.0307322 -20.493893 4294967295
-16.917934 -6.9708409 -20.366354 4294967295
-16.914194 -1.6599649 -20.107515 4294967295
-16.908241 -4.935658 -20.580008 4294967295
-16.894955 -0.87821293 -20.097237 4294967295
-16.892458 -5.5645738 -20.402338 4294967295
-16.892309 -4.1546497 -20.589396 4294967295
-16.883787 -0.72257757 -20.051498 4294967295
-16.879513 -5.0963902 -20.387777 4294967295
-16.87291 -3.3739657 -20.578121 4294967295
-16.869776 -7.2921052 -20.037191 4294967295
-16.869558 -4.6277227 -20.391071 4294967295
-16.86858 -4.0011435 -20.468777 4294967295
-16.868286 -1.3513484 -19.875319 4294967295
-16.859665 -4.3156929 -20.373835 4294967295
-16.859282 -3.0623662 -20.538643 4294967295
-16.859137 -3.2190387 -20.516891 4294967295
-16.855211 -3.689539 -20.430834 4294967295
-16.851147 -2.9067037 -20.511028 4294967295
-16.838554 -2.7515562 -20.456835 4294967295
-16.830721 -5.2601013 -20.075857 4294967295
-16.825327 -4.4770699 -20.148163 4294967295
-16.808659 -1.8149225 -20.40395 4294967295
-16.797913 -2.2862461 -20.27722 4294967295
-16.772068 -1.6622359 -20.206755 4294967295
-16.765614 -7.4442515 -20.341255 4294967295
-16.76029 -2.6041443 -20.011156 4294967295
-16.75186 -0.88067001 -20.190798 4294967295
-16.74921 -5.2532601 -20.535727 4294967295
-16.720467 -5.414094 -20.343668 4294967295
-16.713179 -6.9825687 -20.091463 4294967295
-16.710037 -6.669539 -20.114513 4294967295
-16.704535 -6.3568749 -20.123491 4294967295
-16.698395 -5.7307868 -20.170441 4294967295
-16.689747 -1.2006706 -19.778835 4294967295
-16.682936 -5.1060309 -20.161896 4294967295
-16.679602 -0.57433051 -19.802013 4294967295
-16.65839 -4.1688819 -20.141027 4294967295
-16.625444 -2.1352019 -20.216368 4294967295
-16.621563 -3.2329981 -20.047077 4294967295
-16.593512 -1.6684861 -20.088974 4294967295
-16.593342 -0.88469732 -20.192385 4294967295
-16.591549 -2.2958491 -19.99374 4294967295
-16.588741 -7.2948747 -20.253574 4294967295
-16.584715 -5.1016865 -20.521671 4294967295
-16.57966 -5.7291465 -20.408176 4294967295
-16.573008 -4.3199859 -20.556337 4294967295
-16.571781 -1.0436721 -20.043205 4294967295
-16.566235 -1.9851035 -19.884855 4294967295
-16.562647 -5.4182329 -20.348717 4294967295
-16.551823 -6.5170183 -20.138287 4294967295
-16.54755 -5.8906465 -20.196342 4294967295
-16.546658 -6.3610535 -20.128433 4294967295
-16.546253 -6.9882207 -20.042542 4294967295
-16.543333 -6.0480351 -20.150398 4294967295
-16.5413 -4.9511228 -20.284369 4294967295
-16.525124 -0.57793802 -19.82827 4294967295
-16.519466 -2.7600393 -20.446644 4294967295
-16.519068 -4.6407347 -20.193909 4294967295
-16.515472 -3.2306261 -20.360317 4294967295
-16.51049 -4.0148988 -20.226381 4294967295
-16.504019 -3.7022533 -20.229645 4294967295
-16.503704 -4.1725483 -20.165159 4294967295
-16.499332 -4.8002324 -20.055685 4294967295
-16.493183 -3.8604083 -20.14436 4294967295
-16.489731 -3.0770717 -20.22818 4294967295
-16.485514 -2.137176 -20.328312 4294967295
-16.47949 -3.5486288 -20.104692 4294967295
-16.477758 -1.9813272 -20.303089 4294967295
-16.407793 -6.6758013 -20.204655 4294967295
-16.407013 -6.3624263 -20.241718 4294967295
-16.377731 -1.3650657 -19.792213 4294967295
-16.375847 -1.0515572 -19.822786 4294967295
-16.368355 -5.5844283 -20.116419 4294967295
-16.364269 -5.428246 -20.11302 4294967295
-16.302519 -2.7711315 -20.101049 4294967295
-16.295595 -3.2423637 -19.997377 4294967295
-16.29031 -1.2048217 -20.237177 4294967295
-16.256807 -0.89472657 -20.080145 4294967295
-16.253777 -6.9929032 -20.190805 4294967295
-16.253489 -1.6791079 -19.956146 4294967295
-16.251709 -0.73844713 -20.070765 4294967295
-16.250736 -4.7991409 -20.464483 4294967295
-16.248518 -5.5830112 -20.347166 4294967295
-16.245869 -6.2103558 -20.24811 4294967295
-16.2437 -4.1733284 -20.506104 4294967295
-16.23843 -7.3089356 -20.058098 4294967295
-16.237549 -5.8981085 -20.24045 4294967295
-16.2346 -5.1148305 -20.32716 4294967295
-16.222464 -3.5493121 -20.463577 4294967295
-16.221054 -7.1549425 -19.975878 4294967295
-16.22028 -6.5278358 -20.054678 4294967295
-16.208878 -4.0212131 -20.320541 4294967295
-16.208643 -5.275281 -20.152431 4294967295
-16.197216 -5.7473154 -20.022148 4294967295
-16.18576 -4.9649491 -20.058458 4294967295
-16.175358 -2.7715003 -20.28861 4294967295
-16.168634 -1.9885973 -20.352964 4294967295
-16.164888 -3.2430494 -20.164043 4294967295
-16.150869 -2.6176426 -20.164347 4294967295
-16.149904 -1.3637061 -20.325369 4294967295
-16.144304 -1.0508201 -20.333866 4294967295
-16.13858 -1.5216593 -20.237446 4294967295
-16.132729 -0.73851722 -20.306986 4294967295
-16.131514 -2.9335403 -20.007956 4294967295
-16.120543 -7.4633937 -20.279264 4294967295
-16.09593 -5.4296684 -20.404221 4294967295
-16.080044 -3.7081099 -20.539215 4294967295
-16.041157 -0.43390891 -19.806334 4294967295
-16.039118 -6.0651307 -19.984573 4294967295
-16.038277 -2.9297788 -20.396179 4294967295
-16.007244 -4.0310335 -20.066746 4294967295
-16.005377 -4.5017247 -19.993181 4294967295
-15.988518 -4.1903234 -19.935078 4294967295
-15.987061 -1.2114644 -20.322273 4294967295
-15.950549 -2.1561501 -19.981308 4294967295
-15.945519 -6.6865969 -20.286827 4294967295
-15.917872 -0.74815208 -19.975576 4294967295
-15.915024 -5.9074335 -20.210598 4294967295
-15.907557 -5.7517624 -20.187281 4294967295
-15.907315 -4.4977212 -20.352354 4294967295
-15.896113 -2.7752256 -20.515062 4294967295
-15.895391 -7.0080967 -19.948797 4294967295
-15.894241 -5.4401355 -20.1502 4294967295
-15.874168 -5.1294045 -20.073189 4294967295
-15.86867 -4.3461585 -20.144787 4294967295
-15.865273 -4.0330291 -20.166349 4294967295
-15.859182 -3.7202442 -20.171993 4294967295
-15.85805 -1.9960306 -20.394264 4294967295
-15.855521 -2.1530509 -20.358513 4294967295
-15.826927 -1.0589217 -20.335329 4294967295
-15.826845 -2.4698684 -20.147493 4294967295
-15.819144 -2.9412003 -20.039537 4294967295
-15.794827 -1.6894376 -20.062479 4294967295
-15.792185 -7.1603556 -20.2563 4294967295
-15.788537 -6.5338922 -20.317957 4294967295
-15.773952 -1.2211839 -20.001663 4294967295
-15.767082 -6.3804274 -20.212101 4294967295
-15.763453 -6.6945624 -20.149073 4294967295
-15.762081 -5.1270599 -20.348982 4294967295
-15.759592 -7.3224072 -20.043058 4294967295
-15.750466 -3.4046032 -20.509203 4294967295
-15.744752 -4.3457079 -20.350712 4294967295
-15.744437 -3.5620754 -20.452837 4294967295
-15.743573 -0.91060019 -19.863914 4294967295
-15.742269 -6.2274127 -20.08643 4294967295
-15.739609 -5.7573929 -20.133146 4294967295
-15.734789 -6.0717268 -20.063082 4294967295
-15.73387 -0.75470167 -19.827446 4294967295
-15.724138 -3.0944035 -20.395479 4294967295
-15.705698 -3.8805375 -20.182684 4294967295
-15.695639 -4.5090985 -20.0401 4294967295
-15.672345 -1.3760582 -20.318794 4294967295
-15.606282 -5.2876453 -20.345665 4294967295
-15.580585 -6.0753317 -20.090271 4294967295
-15.580271 -6.2321997 -20.067627 4294967295
-15.576909 -6.5463748 -20.006222 4294967295
-15.569764 -4.195313 -20.275999 4294967295
-15.569703 -4.5088778 -20.23406 4294967295
-15.552289 -2.473135 -20.401714 4294967295
-15.550611 -4.9819145 -20.059187 4294967295
-15.545892 -3.5712714 -20.218519 4294967295
-15.54469 -5.4532704 -19.961905 4294967295
-15.541411 -4.6695271 -20.046572 4294967295
-15.538198 -4.042665 -20.110811 4294967295
-15.533433 -2.3185477 -20.311447 4294967295
-15.53302 -5.7686973 -19.851534 4294967295
-15.532971 -2.0050759 -20.350306 4294967295
-15.527809 -2.7895379 -20.215961 4294967295
-15.518939 -3.1042078 -20.122128 4294967295
-15.507236 -3.262465 -20.032398 4294967295
-15.499366 -3.734 -19.923647 4294967295
-15.498841 -2.1656833 -20.128527 4294967295
-15.496575 -0.44126421 -20.343885 4294967295
-15.496418 -1.2251475 -20.239012 4294967295
-15.495224 -1.0684859 -20.252777 4294967295
-15.487816 -1.5396488 -20.14678 4294967295
-15.487333 -7.1670208 -20.330791 4294967295
-15.474201 -0.91382521 -20.149797 4294967295
-15.472951 -1.3844074 -20.080048 4294967295
-15.460017 -2.6406956 -19.837484 4294967295
-15.451328 -7.4864292 -20.07729 4294967295
-15.450521 -0.60253441 -20.051971 4294967295
-15.446136 -6.8599825 -20.129841 4294967295
-15.417173 -0.76268423 -19.834856 4294967295
-15.402416 -4.0438581 -20.246576 4294967295
-15.390007 -7.0257049 -19.778675 4294967295
-15.37961 -4.2036572 -20.09164 4294967295
-15.363736 -5.774507 -19.79038 4294967295
-15.358982 -4.6769738 -19.90793 4294967295
-15.352876 -2.481957 -20.162987 4294967295
-15.351467 -4.991776 -19.822136 4294967295
-15.299512 -6.0784535 -20.305294 4294967295
-15.288041 -5.1394944 -20.362452 4294967295
-15.287501 -1.8619204 -19.861721 4294967295
-15.272017 -1.5498062 -19.812263 4294967295
-15.242585 -6.7144556 -19.88769 4294967295
-15.236124 -5.4604897 -20.0159 4294967295
-15.235304 -3.4219506 -20.28105 4294967295
-15.233035 -2.9518838 -20.330017 4294967295
-15.22865 -5.9321733 -19.909666 4294967295
-15.228287 -4.2068734 -20.136009 4294967295
-15.226279 -2.1688299 -20.39415 4294967295
-15.223419 -4.6780272 -20.045109 4294967295
-15.221337 -4.9920168 -19.991335 4294967295
-15.22099 -2.482971 -20.321573 4294967295
-15.217355 -3.5809987 -20.154869 4294967295
-15.216652 -3.8947368 -20.109203 4294967295
-15.210843 -2.0137858 -20.32428 4294967295
-15.196033 -3.2699909 -20.071188 4294967295
-15.188966 -1.7026032 -20.237371 4294967295
-15.160112 -2.3331332 -19.98489 4294967295
-15.153588 -0.60857922 -20.175068 4294967295
-15.152743 -0.45184541 -20.19088 4294967295
-15.152313 -2.6477821 -19.897545 4294967295
-15.147976 -0.76595539 -20.121359 4294967295
-15.140795 -1.5509378 -19.975348 4294967295
-15.139656 -1.2373323 -20.01021 4294967295
-15.130659 -7.1819692 -20.101042 4294967295
-15.125868 -7.0258956 -20.093679 4294967295
-15.109056 -5.6170092 -20.18181 4294967295
-15.088911 -4.6789436 -20.188148 4294967295
-15.086011 -6.2477908 -19.963579 4294967295
-15.042695 -6.411263 -19.68865 4294967295
-15.036819 -2.960511 -20.110958 4294967295
-15.018888 -1.3942673 -20.213385 4294967295
-14.972594 -2.6543467 -19.775913 4294967295
-14.956121 -5.777246 -20.195753 4294967295
-14.942373 -4.2111096 -20.322605 4294967295
-14.938035 -0.77505833 -19.822536 4294967295
-14.925845 -4.0564709 -20.246548 4294967295
-14.91673 -7.5089636 -19.736742 4294967295
-14.914252 -7.0385799 -19.784481 4294967295
-14.903441 -6.8833542 -19.741884 4294967295
-14.90239 -3.4321845 -20.192163 4294967295
-14.897603 -4.3738532 -20.039675 4294967295
-14.890874 -6.5714307 -19.709753 4294967295
-14.890766 -1.7086811 -20.352242 4294967295
-14.885316 -5.3168511 -19.84322 4294967295
-14.879268 -4.5331812 -19.911545 4294967295
-14.876374 -6.2597437 -19.666311 4294967295
-14.87572 -5.6320686 -19.745501 4294967295
-14.872093 -1.8675095 -20.222202 4294967295
-14.870999 -0.92680103 -20.340235 4294967295
-14.870895 -3.5929644 -19.987005 4294967295
-14.861753 -3.1234682 -19.995722 4294967295
-14.859252 -0.45758229 -20.3337 4294967295
-14.846933 -2.9683697 -19.929703 4294967295
-14.843255 -3.7533529 -19.804403 4294967295
-14.840629 -2.3415644 -19.975786 4294967295
-14.840376 -7.1862979 -20.261486 4294967295
-14.835697 -2.4990146 -19.92617 4294967295
-14.832604 -0.77381182 -20.136284 4294967295
-14.822674 -7.5027966 -20.116451 4294967295
-14.810887 -1.5603899 -19.905449 4294967295
-14.803782 -1.247337 -19.905369 4294967295
-14.803085 -6.2511554 -20.16766 4294967295
-14.787059 -0.62141073 -19.890507 4294967295
-14.782651 -1.4064537 -19.760944 4294967295
-14.779769 -6.8821731 -19.948328 4294967295
-14.778224 -5.9411678 -20.063683 4294967295
-14.776964 -5.7844949 -20.077045 4294967295
-14.773297 -6.7262912 -19.9312 4294967295
-14.764081 -7.3553805 -19.794329 4294967295
-14.755107 -2.8077064 -20.34305 4294967295
-14.745214 -5.4753361 -19.932798 4294967295
-14.739666 -5.319231 -19.921083 4294967295
-14.738452 -2.3392401 -20.307865 4294967295
-14.73732 -4.848886 -19.96957 4294967295
-14.736707 -3.9077454 -20.09038 4294967295
-14.720918 -1.4003487 -20.329737 4294967295
-14.710126 -4.6956949 -19.831272 4294967295
-14.70926 -2.0288734 -20.178692 4294967295
-14.669931 -2.9746792 -19.824396 4294967295
-14.63415 -5.1591144 -20.253901 4294967295
-14.619003 -5.0043955 -20.186159 4294967295
-14.602886 -3.9087248 -20.237055 4294967295
-14.56553 -6.7381802 -19.645878 4294967295
-14.563743 -5.3258972 -19.822002 4294967295
-14.563418 -3.2862883 -20.089508 4294967295
-14.557984 -2.6595049 -20.140661 4294967295
-14.556148 -2.973438 -20.088503 4294967295
-14.554772 -1.7188294 -20.246212 4294967295
-14.55451 -6.8968749 -19.560766 4294967295
-14.548525 -5.6419621 -19.691668 4294967295
-14.546827 -0.77874488 -20.324137 4294967295
-14.542153 -1.2496736 -20.234726 4294967295
-14.537496 -4.0740323 -19.834551 4294967295
-14.525208 -2.3495295 -19.990795 4294967295
-14.512285 -1.8802903 -19.977551 4294967295
-14.508455 -1.5669181 -19.996649 4294967295
-14.50784 -0.93946087 -20.075945 4294967295
-14.503041 -0.62619632 -20.089392 4294967295
-14.498618 -1.0972713 -20.001417 4294967295
-14.485301 -7.0440688 -20.064037 4294967295
-14.45499 -6.4212174 -19.970062 4294967295
-14.45453 -6.578187 -19.946661 4294967295
-14.4522 -5.3234587 -20.098732 4294967295
-14.444289 -7.2074633 -19.804083 4294967295
-14.44329 -4.0698471 -20.21241 4294967295
-14.441263 -6.1094756 -19.931414 4294967295
-14.426526 -5.6409035 -19.907595 4294967295
-14.414896 -4.8579903 -19.943331 4294967295
-14.409071 -3.6036339 -20.075041 4294967295
-14.398805 -4.5463443 -19.890934 4294967295
-14.396742 -4.2327857 -19.920328 4294967295
-14.391999 -5.0180664 -19.789108 4294967295
-14.38486 -4.3912745 -19.830343 4294967295
-14.380109 -5.9615731 -19.595459 4294967295
-14.371491 -0.62757772 -20.249443 4294967295
-14.338717 -2.6706576 -19.789244 4294967295
-14.3147 -7.3640537 -19.954586 4294967295
-14.226401 -2.826262 -20.040661 4294967295
-14.224691 -3.1402605 -19.989315 4294967295
-14.222601 -4.2389822 -19.832245 4294967295
-14.221529 -3.2975526 -19.950209 4294967295
-14.220983 -2.6700027 -20.029823 4294967295
-14.220578 -5.4949641 -19.654833 4294967295
-14.219908 -4.0823913 -19.837271 4294967295
-14.218872 -5.9661913 -19.582773 4294967295
-14.217975 -1.1016175 -20.219257 4294967295
-14.214353 -3.7692223 -19.846336 4294967295
-14.20474 -0.4755286 -20.225033 4294967295
-14.2027 -2.358294 -19.964825 4294967295
