# .PCD v0.7 - Point Cloud Data file format
VERSION 0.7
FIELDS x y z rgb
SIZE 4 4 4 4
TYPE F F F U
COUNT 1 1 1 1
WIDTH 1147
HEIGHT 1
VIEWPOINT 0 0 0 1 0 0 0
POINTS 1147
DATA ascii
53.198929 30.71143 -9.6074753 4294967295
53.199963 30.548893 -9.5857859 4294967295
53.209175 31.037991 -9.6062202 4294967295
53.214069 34.128586 -9.9293509 4294967295
53.215572 34.453987 -9.9597836 4294967295
53.219421 33.316277 -9.8202763 4294967295
53.226349 35.105892 -9.9924612 4294967295
53.238045 32.668217 -9.6809998 4294967295
53.251682 33.15799 -9.6853905 4294967295
53.253048 33.971401 -9.7701521 4294967295
53.286461 34.951992 -9.7566986 4294967295
53.356411 33.959702 -10.006102 4294967295
53.361534 31.52117 -9.7185383 4294967295
53.397224 31.688297 -9.6071968 4294967295
53.399441 31.36322 -9.563282 4294967295
53.454079 33.485214 -9.5986433 4294967295
53.475613 34.301628 -9.610384 4294967295
53.477169 34.464539 -9.6226816 4294967295
53.495079 30.700901 -9.7554054 4294967295
53.498787 32.327564 -9.9212894 4294967295
53.511978 31.028227 -9.7301025 4294967295
53.516441 31.679337 -9.7856894 4294967295
53.522041 34.281822 -10.05226 4294967295
53.523357 34.60717 -10.083335 4294967295
53.524525 32.168262 -9.8102331 4294967295
53.52599 33.469398 -9.9483566 4294967295
53.540695 32.658264 -9.8055096 4294967295
53.547123 30.869829 -9.5849762 4294967295
53.550278 34.773602 -10.003903 4294967295
53.550495 33.147469 -9.8238506 4294967295
53.55405 35.099339 -10.026099 4294967295
53.55925 34.449665 -9.9355946 4294967295
53.567165 31.197645 -9.5483084 4294967295
53.569023 30.547066 -9.4698277 4294967295
53.578091 31.524385 -9.5446548 4294967295
53.583557 33.639877 -9.7580309 4294967295
53.594509 31.851847 -9.521121 4294967295
53.610458 33.318188 -9.6248512 4294967295
53.6185 32.993877 -9.559885 4294967295
53.619865 32.505936 -9.5011234 4294967295
53.625771 32.832138 -9.5156355 4294967295
53.676895 31.350283 -9.7789507 4294967295
53.713791 34.119831 -9.9502945 4294967295
53.718872 30.867411 -9.5733852 4294967295
53.745491 32.172249 -9.6206112 4294967295
53.780388 34.7798 -9.781333 4294967295
53.788258 35.106262 -9.7887497 4294967295
53.804462 32.668022 -9.461237 4294967295
53.816273 33.645969 -9.5261574 4294967295
53.822075 34.948467 -9.6486454 4294967295
53.850918 31.673485 -9.7949142 4294967295
53.893089 34.443943 -9.9472504 4294967295
53.897652 33.794033 -9.8591099 4294967295
53.898693 32.9809 -9.7657461 4294967295
53.903267 31.354643 -9.5699854 4294967295
53.904751 33.632355 -9.8155584 4294967295
53.912689 31.030373 -9.5000887 4294967295
53.913593 32.657513 -9.6760979 4294967295
53.921383 30.8687 -9.4507484 4294967295
53.966438 31.850714 -9.3956127 4294967295
53.973186 33.478973 -9.5505457 4294967295
54.036507 33.949913 -9.9841814 4294967295
54.048267 31.348951 -9.6551056 4294967295
54.08371 32.492298 -9.6526766 4294967295
54.143631 31.035145 -9.2751293 4294967295
54.177059 33.155525 -9.3876057 4294967295
54.196518 35.111336 -9.5325251 4294967295
54.198147 31.018496 -9.6866999 4294967295
54.208206 33.13448 -9.8833084 4294967295
54.212162 32.32169 -9.7794933 4294967295
54.216698 34.1115 -9.9601479 4294967295
54.220646 31.183931 -9.6235046 4294967295
54.221649 31.83485 -9.691556 4294967295
54.222633 34.437603 -9.974577 4294967295
54.240925 32.813473 -9.7295666 4294967295
54.241821 33.952328 -9.8517141 4294967295
54.256149 32.164639 -9.6030293 4294967295
54.264763 34.931545 -9.8765135 4294967295
54.276913 33.306358 -9.6536093 4294967295
54.295338 34.610546 -9.7305279 4294967295
54.296368 33.634422 -9.6193304 4294967295
54.314461 31.520977 -9.3211422 4294967295
54.315624 33.474304 -9.5320206 4294967295
54.336197 32.988781 -9.4041233 4294967295
54.447376 35.093624 -9.8440361 4294967295
54.450184 31.839632 -9.4757195 4294967295
54.450691 32.327946 -9.5276432 4294967295
54.484478 33.146133 -9.4955626 4294967295
54.523815 34.453625 -9.4972649 4294967295
54.578739 32.645416 -9.7095823 4294967295
54.582672 31.66959 -9.5880003 4294967295
54.592632 33.623489 -9.7670326 4294967295
54.592957 32.159084 -9.6047249 4294967295
54.617161 34.765797 -9.8041334 4294967295
54.624283 32.488598 -9.5278463 4294967295
54.625114 34.604221 -9.757638 4294967295
54.633789 34.117279 -9.6727343 4294967295
54.644855 33.956078 -9.6150188 4294967295
54.66769 32.819798 -9.4075146 4294967295
54.672386 31.843597 -9.2831392 4294967295
54.6884 35.10146 -9.5837822 4294967295
54.725677 34.292835 -9.3601856 4294967295
54.729523 32.152252 -9.7200766 4294967295
54.744232 33.781189 -9.8462009 4294967295
54.759773 35.084824 -9.9335165 4294967295
54.824642 34.768696 -9.6646833 4294967295
54.839867 33.631481 -9.4846678 4294967295
54.842106 32.492218 -9.3512678 4294967295
54.892849 34.9412 -9.4375639 4294967295
54.925156 33.454773 -9.7663536 4294967295
54.926186 34.593838 -9.887888 4294967295
54.955238 32.807823 -9.586771 4294967295
54.959957 32.157368 -9.4982262 4294967295
54.960144 33.133984 -9.60495 4294967295
55.025555 35.096199 -9.5849361 4294967295
55.0336 32.49242 -9.2696133 4294967295
55.036678 34.44664 -9.4734135 4294967295
55.038723 34.284126 -9.4481773 4294967295
55.103348 33.290634 -9.7143469 4294967295
55.168385 32.159668 -9.3557949 4294967295
55.187195 32.650558 -9.3420258 4294967295
55.18819 34.929932 -9.589015 4294967295
55.213924 34.607998 -9.460947 4294967295
55.220783 33.957672 -9.3647623 4294967295
55.231262 33.144871 -9.2376776 4294967295
55.241291 34.123337 -9.3091259 4294967295
55.318947 34.596382 -9.6894226 4294967295
55.331898 33.458725 -9.5178013 4294967295
55.339489 32.971325 -9.4369345 4294967295
55.396641 35.095802 -9.464776 4294967295
55.397926 32.490398 -9.173831 4294967295
55.411144 33.306503 -9.2159748 4294967295
55.465038 34.10231 -9.7169018 4294967295
55.49334 34.43177 -9.6513672 4294967295
55.495396 32.966919 -9.4830484 4294967295
55.50473 35.084476 -9.6821299 4294967295
55.513039 34.597317 -9.5987501 4294967295
55.514767 33.620747 -9.4852514 4294967295
55.521111 33.78442 -9.4804382 4294967295
55.532055 32.483196 -9.29813 4294967295
55.539742 34.763885 -9.5210772 4294967295
55.562061 32.649937 -9.2085953 4294967295
55.566422 33.301998 -9.2645741 4294967295
55.577408 33.140583 -9.2073498 4294967295
55.583931 33.955841 -9.273468 4294967295
55.653194 34.102329 -9.6475163 4294967295
55.688366 32.804543 -9.3786898 4294967295
55.696915 34.271172 -9.5090799 4294967295
55.828621 34.42617 -9.6595612 4294967295
55.836056 33.450367 -9.525754 4294967295
55.837818 33.287785 -9.5015678 4294967295
55.84024 34.916176 -9.67167 4294967295
55.876064 34.758446 -9.5258398 4294967295
55.909264 33.948811 -9.3178501 4294967295
55.910221 34.274685 -9.3501968 4294967295
55.918289 34.601547 -9.3571291 4294967295
55.951256 35.094856 -9.2930288 4294967295
55.998764 35.074883 -9.7262669 4294967295
56.062107 32.966686 -9.2678452 4294967295
56.084641 33.458351 -9.2410603 4294967295
56.171116 33.933121 -9.5886345 4294967295
56.182899 34.423206 -9.6002121 4294967295
56.186771 33.609581 -9.4970684 4294967295
56.194996 34.750546 -9.5928116 4294967295
56.221264 34.26569 -9.4455633 4294967295
56.231926 33.778538 -9.3539305 4294967295
56.245583 33.454597 -9.2694921 4294967295
56.246319 35.083519 -9.4455891 4294967295
56.477551 35.089802 -9.2236347 4294967295
56.54488 33.769829 -9.4424753 4294967295
56.559475 34.911919 -9.5155611 4294967295
56.560268 33.60902 -9.3698559 4294967295
56.571548 34.587875 -9.4368773 4294967295
56.598091 34.102859 -9.2888355 4294967295
56.6488 35.087513 -9.2155828 4294967295
56.723434 34.257107 -9.4617815 4294967295
56.794537 33.94101 -9.1732731 4294967295
56.820889 34.922386 -9.1867609 4294967295
56.876591 34.252285 -9.5178328 4294967295
56.948055 35.076771 -9.3532782 4294967295
56.952213 34.751507 -9.3028049 4294967295
57.023003 34.924442 -9.0692501 4294967295
57.16069 34.591434 -9.1449022 4294967295
57.166161 34.266224 -9.0897913 4294967295
57.174706 35.082348 -9.1487398 4294967295
57.262096 34.905224 -9.4204283 4294967295
57.276726 34.418476 -9.3150387 4294967295
57.302704 34.747993 -9.258647 4294967295
57.31543 34.586803 -9.1956854 4294967295
57.317528 34.261135 -9.152544 4294967295
57.330475 35.077847 -9.1958952 4294967295
57.515583 34.914501 -9.1212721 4294967295
57.642944 35.068974 -9.2868156 4294967295
57.90213 34.91605 -8.9504957 4294967295
57.96677 34.898739 -9.3196898 4294967295
58.046276 35.072952 -9.0567617 4294967295
58.130871 35.058392 -9.355155 4294967295
49.593777 36.76894 -10.534843 4294967295
49.599251 36.282906 -10.460544 4294967295
49.80954 37.747967 -10.466683 4294967295
49.838379 38.564392 -10.450263 4294967295
49.948891 37.091557 -10.500741 4294967295
49.970341 37.419651 -10.457601 4294967295
50.109047 36.438492 -10.457976 4294967295
50.166306 38.233444 -10.444982 4294967295
50.464558 36.598793 -10.405047 4294967295
50.464615 36.274071 -10.36884 4294967295
50.466129 37.573154 -10.507242 4294967295
50.472782 36.762447 -10.392785 4294967295
50.481426 36.114285 -10.288978 4294967295
50.513786 39.042225 -10.493877 4294967295
50.62952 35.621502 -10.308824 4294967295
50.65387 38.223297 -10.507199 4294967295
50.677177 36.765633 -10.259604 4294967295
50.716797 40.182438 -10.491856 4294967295
50.801445 35.94429 -10.331042 4294967295
50.821003 35.297596 -10.187243 4294967295
50.831406 36.436104 -10.274991 4294967295
50.85347 36.764385 -10.229952 4294967295
50.856926 39.363308 -10.505062 4294967295
50.891617 39.531685 -10.395718 4294967295
50.939404 36.261868 -10.477958 4294967295
50.97691 37.079605 -10.430273 4294967295
50.977619 35.780537 -10.283779 4294967295
51.015995 37.735466 -10.358822 4294967295
51.090076 40.346657 -10.374876 4294967295
51.116062 36.91013 -10.518785 4294967295
51.130398 37.074768 -10.484221 4294967295
51.142002 37.726131 -10.513596 4294967295
51.155991 36.59161 -10.336482 4294967295
51.168766 36.106316 -10.235712 4294967295
51.17667 38.868519 -10.512383 4294967295
51.188175 39.19524 -10.506186 4294967295
51.19091 38.383728 -10.406279 4294967295
51.208466 39.848297 -10.503753 4294967295
51.246124 40.991764 -10.491625 4294967295
51.271023 35.768906 -10.441462 4294967295
51.279755 36.257397 -10.463402 4294967295
51.341816 38.216007 -10.451839 4294967295
51.389736 37.736568 -10.222501 4294967295
51.437553 39.531628 -10.245213 4294967295
51.443321 39.857552 -10.260057 4294967295
51.447205 40.995388 -10.371667 4294967295
51.478863 35.77232 -10.296477 4294967295
51.486713 35.611061 -10.249776 4294967295
51.498257 36.10014 -10.261468 4294967295
51.505489 37.563156 -10.396746 4294967295
51.518539 38.53978 -10.456825 4294967295
51.530487 37.892063 -10.341259 4294967295
51.541237 36.756615 -10.176128 4294967295
51.549885 36.433002 -10.108544 4294967295
51.561893 38.709461 -10.316262 4294967295
51.57589 39.036724 -10.301021 4294967295
51.580303 38.062668 -10.177044 4294967295
51.589699 35.273926 -10.452486 4294967295
51.609413 35.601665 -10.416349 4294967295
51.60952 35.926491 -10.451894 4294967295
51.617237 40.506016 -10.31158 4294967295
51.624733 40.182411 -10.248235 4294967295
51.630112 36.416862 -10.430522 4294967295
51.633579 36.092564 -10.381921 4294967295
51.644524 40.673359 -10.229797 4294967295
51.724598 37.568863 -10.211011 4294967295
51.777657 39.689919 -10.250763 4294967295
51.781471 39.040627 -10.164959 4294967295
51.789856 35.276051 -10.335897 4294967295
51.809345 40.182915 -10.188917 4294967295
51.81514 35.767147 -10.297458 4294967295
51.816448 36.417118 -10.364529 4294967295
51.817951 40.834419 -10.229361 4294967295
51.827454 40.67363 -10.176697 4294967295
51.82774 35.606583 -10.233483 4294967295
51.863026 37.561569 -10.32021 4294967295
51.875671 36.26376 -10.130339 4294967295
51.876076 39.188156 -10.45216 4294967295
51.877319 36.588997 -10.160254 4294967295
51.881142 38.701694 -10.379808 4294967295
51.901875 40.004776 -10.447804 4294967295
51.90514 37.405849 -10.14852 4294967295
51.914124 37.894787 -10.169619 4294967295
51.928757 40.821747 -10.439501 4294967295
51.943451 40.661926 -10.367929 4294967295
51.958736 36.248154 -10.441421 4294967295
51.95919 35.598499 -10.367949 4294967295
51.965843 41.153358 -10.340115 4294967295
51.978275 37.712971 -10.531727 4294967295
52.097702 38.707333 -10.203993 4294967295
52.137825 40.176735 -10.219339 4294967295
52.146744 36.898396 -10.441358 4294967295
52.150005 35.599289 -10.285868 4294967295
52.150143 40.666431 -10.228313 4294967295
52.161121 40.993416 -10.224214 4294967295
52.168488 40.019585 -10.089615 4294967295
52.192348 41.161587 -10.128365 4294967295
52.202496 37.557056 -10.310022 4294967295
52.211918 37.071106 -10.221842 4294967295
52.212864 39.02092 -10.433799 4294967295
52.21817 38.534431 -10.360635 4294967295
52.2243 39.18531 -10.410099 4294967295
52.228073 37.723656 -10.234798 4294967295
52.230652 36.098934 -10.04584 4294967295
52.243912 35.775856 -9.9615936 4294967295
52.259979 38.216362 -10.172437 4294967295
52.269405 36.429958 -9.9405413 4294967295
52.26965 39.842987 -10.316735 4294967295
52.275063 41.143738 -10.440599 4294967295
52.275391 40.493919 -10.367614 4294967295
52.27747 39.35685 -10.234397 4294967295
52.277786 40.331863 -10.340944 4294967295
52.288071 35.267303 -10.360154 4294967295
52.299416 35.9188 -10.390637 4294967295
52.300594 39.685844 -10.186092 4294967295
52.306103 35.594891 -10.330395 4294967295
52.318645 36.571545 -10.392416 4294967295
52.328014 35.760639 -10.268576 4294967295
52.329632 37.710403 -10.478029 4294967295
52.360195 36.415478 -10.223207 4294967295
52.367836 38.041508 -10.374876 4294967295
52.431484 39.026989 -10.250923 4294967295
52.454102 40.818386 -10.366036 4294967295
52.459854 39.51936 -10.201542 4294967295
52.46323 40.495022 -10.296936 4294967295
52.468647 38.220516 -10.025948 4294967295
52.480122 38.384964 -10.002141 4294967295
52.483559 35.43119 -10.279266 4294967295
52.484146 39.848606 -10.149068 4294967295
52.497627 40.338581 -10.153862 4294967295
52.503544 37.546375 -10.439819 4294967295
52.505184 39.202003 -10.000709 4294967295
52.512299 35.922958 -10.228572 4294967295
52.517563 38.848255 -10.532347 4294967295
52.536205 37.876572 -10.356947 4294967295
52.539825 36.577183 -10.200243 4294967295
52.554947 39.666855 -10.486123 4294967295
52.556911 36.742348 -10.156055 4294967295
52.564938 41.000824 -9.9808216 4294967295
52.572094 39.344856 -10.38793 4294967295
52.576115 36.257694 -10.032367 4294967295
52.59082 38.698025 -10.248096 4294967295
52.591038 37.39785 -10.103736 4294967295
52.608181 35.612232 -9.8439255 4294967295
52.625023 40.491501 -10.321128 4294967295
52.642365 37.243431 -9.8991585 4294967295
52.680946 37.057907 -10.353175 4294967295
52.682018 36.733101 -10.313403 4294967295
52.698738 38.198112 -10.414084 4294967295
52.706291 38.686775 -10.440457 4294967295
52.718861 39.82616 -10.520321 4294967295
52.738342 37.879566 -10.234365 4294967295
52.777294 37.235622 -10.021102 4294967295
52.796673 38.051579 -10.040427 4294967295
52.800365 40.0028 -10.242311 4294967295
52.814381 41.305473 -10.334908 4294967295
52.842819 36.404408 -10.305109 4294967295
52.853287 38.193394 -10.464342 4294967295
52.853767 36.731098 -10.301234 4294967295
52.85701 37.219101 -10.343264 4294967295
52.885841 39.661076 -10.507565 4294967295
52.887421 41.156147 -10.051818 4294967295
52.891727 35.7617 -10.055818 4294967295
52.893124 37.874889 -10.283933 4294967295
52.901428 37.06358 -10.164114 4294967295
52.920101 39.179451 -10.329492 4294967295
52.921181 36.091267 -9.9847803 4294967295
52.929043 35.929871 -9.9382982 4294967295
52.93412 35.605434 -9.8839836 4294967295
52.935608 38.531944 -10.201503 4294967295
52.947479 37.395969 -10.032865 4294967295
52.951488 36.583664 -9.9286098 4294967295
52.954575 39.347824 -10.222358 4294967295
52.955551 36.259083 -9.8779716 4294967295
52.963768 39.024284 -10.153129 4294967295
52.977928 40.652172 -10.281094 4294967295
53.029079 35.591942 -10.150703 4294967295
53.070911 38.361507 -10.30383 4294967295
53.088573 36.57629 -10.042557 4294967295
53.127968 35.931881 -9.8279324 4294967295
53.131447 39.99704 -10.263691 4294967295
53.132107 40.809818 -10.350918 4294967295
53.132881 36.745731 -9.8998289 4294967295
53.146271 36.259914 -9.7974443 4294967295
53.150246 38.862309 -10.070047 4294967295
53.158207 37.074924 -9.8438826 4294967295
53.183281 39.680859 -10.039979 4294967295
53.184605 35.749985 -10.215431 4294967295
53.189625 35.588192 -10.179317 4294967295
53.198414 39.032986 -9.9133854 4294967295
53.215988 41.312569 -10.100771 4294967295
53.228714 36.406837 -10.127345 4294967295
53.250874 39.011078 -10.333871 4294967295
53.255192 39.336849 -10.35408 4294967295
53.255955 37.874138 -10.190014 4294967295
53.257313 39.824764 -10.400163 4294967295
53.259251 39.500065 -10.357303 4294967295
53.259968 36.73679 -10.049986 4294967295
53.269653 38.038914 -10.158328 4294967295
53.281368 37.227898 -10.026249 4294967295
53.283638 37.553436 -10.053893 4294967295
53.283802 38.528923 -10.160871 4294967295
53.309383 40.646511 -10.301242 4294967295
53.325401 37.397469 -9.8846912 4294967295
53.364635 40.168503 -10.047446 4294967295
53.388111 40.985691 -10.052094 4294967295
53.401161 38.680573 -10.363876 4294967295
53.416229 35.269012 -9.93297 4294967295
53.464348 39.17878 -10.189039 4294967295
53.467617 36.089783 -9.8366127 4294967295
53.4743 38.530109 -10.081354 4294967295
53.480255 40.644588 -10.292762 4294967295
53.480694 36.742344 -9.861022 4294967295
53.492016 40.971794 -10.286068 4294967295
53.500069 35.606647 -9.665349 4294967295
53.502602 37.396343 -9.8534536 4294967295
53.508514 39.836647 -10.100969 4294967295
53.516899 38.211857 -9.8913746 4294967295
53.525002 37.725216 -9.8082705 4294967295
53.526424 35.745575 -10.197691 4294967295
53.530106 41.303787 -10.184164 4294967295
53.531742 39.027508 -9.9273157 4294967295
53.534561 39.353256 -9.9529753 4294967295
53.547291 35.586105 -10.104305 4294967295
53.55468 40.16988 -9.9698381 4294967295
53.558437 39.682606 -9.902462 4294967295
53.566753 40.009338 -9.9082365 4294967295
53.575348 37.86636 -10.253708 4294967295
53.581692 38.355045 -10.284523 4294967295
53.58514 40.337849 -9.8775883 4294967295
53.592606 36.568466 -10.047976 4294967295
53.599121 37.545029 -10.131946 4294967295
53.61171 38.847679 -10.229767 4294967295
53.613312 36.409027 -9.9551907 4294967295
53.619843 35.922123 -9.8778019 4294967295
53.626858 41.1586 -9.8163548 4294967295
53.650345 37.715809 -9.9646912 4294967295
53.65324 40.968163 -10.312551 4294967295
53.65366 39.342468 -10.131902 4294967295
53.670986 39.670616 -10.105119 4294967295
53.742973 37.0509 -10.167368 4294967295
53.773544 40.501633 -9.8241434 4294967295
53.782589 41.641968 -9.9169254 4294967295
53.806564 36.084938 -9.8301563 4294967295
53.809231 38.850079 -10.125133 4294967295
53.812393 37.224384 -9.9345465 4294967295
53.81876 35.598747 -9.7323208 4294967295
53.826717 41.487309 -9.7395821 4294967295
53.826801 36.576004 -9.8108187 4294967295
53.826927 37.389317 -9.8999777 4294967295
53.833073 37.715591 -9.91362 4294967295
53.844223 36.904037 -9.783742 4294967295
53.844398 39.831673 -10.105632 4294967295
53.852261 39.182514 -10.005595 4294967295
53.852322 41.133881 -10.220314 4294967295
53.862373 39.021572 -9.9511681 4294967295
53.863426 38.208462 -9.8577642 4294967295
53.864918 35.931011 -9.601429 4294967295
53.869541 39.673359 -9.9969559 4294967295
53.882263 40.488747 -10.040601 4294967295
53.887714 39.351147 -9.8955145 4294967295
53.909218 36.722855 -10.139817 4294967295
53.912121 35.259808 -9.9681339 4294967295
53.915733 39.518578 -9.8122625 4294967295
53.915825 40.657307 -9.9373713 4294967295
53.92944 36.563358 -10.04893 4294967295
53.936783 40.986366 -9.897563 4294967295
53.937775 38.515846 -10.233764 4294967295
53.947132 37.54179 -10.092562 4294967295
53.952797 40.175735 -9.7501526 4294967295
53.960793 41.316036 -9.8467321 4294967295
53.966728 37.219639 -9.9860258 4294967295
54.027966 40.319752 -10.105426 4294967295
54.051743 40.974457 -10.091315 4294967295
54.067879 40.001392 -9.9256601 4294967295
54.129147 35.914959 -9.8650513 4294967295
54.143444 41.316242 -9.7964725 4294967295
54.144108 41.641773 -9.8299131 4294967295
54.149082 36.568642 -9.8648214 4294967295
54.154289 37.545425 -9.9535065 4294967295
54.158882 40.148216 -10.223425 4294967295
54.1609 36.733131 -9.8401241 4294967295
54.177757 39.500992 -10.083815 4294967295
54.188892 35.435699 -9.5958729 4294967295
54.190472 40.804188 -10.181222 4294967295
54.191582 39.991257 -10.087708 4294967295
54.192917 38.202278 -9.8859234 4294967295
54.196114 40.642567 -10.142987 4294967295
54.198414 37.227028 -9.7586288 4294967295
54.199272 39.341991 -9.9883776 4294967295
54.202297 41.815125 -9.6380348 4294967295
54.205437 35.763615 -9.5720568 4294967295
54.206856 41.132347 -10.157998 4294967295
54.218624 39.019901 -9.8828335 4294967295
54.220596 39.670937 -9.9473562 4294967295
54.222233 38.36974 -9.7981777 4294967295
54.231609 41.624706 -10.122529 4294967295
54.264164 39.84108 -9.8082781 4294967295
54.27293 35.420719 -9.9008121 4294967295
54.275806 36.884972 -10.051582 4294967295
54.278381 40.49437 -9.8286963 4294967295
54.279045 38.023827 -10.165224 4294967295
54.281944 37.861679 -10.136882 4294967295
54.297237 35.749638 -9.8490591 4294967295
54.308666 40.987862 -9.7733307 4294967295
54.315422 36.240398 -9.8372774 4294967295
54.327023 37.706249 -9.9566584 4294967295
54.360756 38.687717 -9.9426203 4294967295
54.429207 39.349922 -9.7678022 4294967295
54.437973 36.068241 -9.9852858 4294967295
54.443939 40.166035 -9.8043194 4294967295
54.488552 38.190605 -10.035988 4294967295
54.4907 37.865639 -9.9924593 4294967295
54.491489 35.913563 -9.7747955 4294967295
54.496456 37.215866 -9.9001617 4294967295
54.496651 39.655712 -10.167903 4294967295
54.508545 36.241539 -9.7492313 4294967295
54.512188 39.820999 -10.129916 4294967295
54.517284 39.008614 -10.022118 4294967295
54.518932 37.38208 -9.8372011 4294967295
54.531078 40.80011 -10.169341 4294967295
54.533409 36.408024 -9.6776733 4294967295
54.544094 40.314453 -10.068869 4294967295
54.574276 40.157021 -9.94244 4294967295
54.581478 40.483654 -9.9523373 4294967295
54.607464 35.415142 -9.9105968 4294967295
54.616547 40.00161 -9.7725344 4294967295
54.626266 36.881973 -10.004062 4294967295
54.630215 38.864666 -9.598031 4294967295
54.647789 41.797146 -9.8571119 4294967295
54.655407 41.635807 -9.8118219 4294967295
54.672668 39.166634 -10.087788 4294967295
54.713963 37.709179 -9.7783442 4294967295
54.714428 38.685532 -9.8840561 4294967295
54.732723 38.851265 -9.8362026 4294967295
54.738407 35.922642 -9.4935284 4294967295
54.739326 39.503216 -9.8840685 4294967295
54.754597 36.73901 -9.524868 4294967295
54.755699 36.413605 -9.4850798 4294967295
54.774399 40.973675 -9.9191256 4294967295
54.800648 39.35083 -9.6458435 4294967295
54.811966 37.207443 -9.9786482 4294967295
54.827339 41.95956 -9.8363409 4294967295
54.834167 37.861671 -9.9704847 4294967295
54.834255 35.909229 -9.7554464 4294967295
54.839256 36.560867 -9.8090649 4294967295
54.841858 41.636711 -9.7483997 4294967295
54.854359 37.539486 -9.8621979 4294967295
54.8638 42.129005 -9.7232943 4294967295
54.87011 36.07732 -9.6445675 4294967295
54.879177 39.983986 -10.041441 4294967295
54.879688 39.496021 -9.9859533 4294967295
54.881714 36.730091 -9.6744833 4294967295
54.882416 36.241928 -9.6182632 4294967295
54.886841 37.707355 -9.7634668 4294967295
54.888092 38.521194 -9.848444 4294967295
54.889313 35.591858 -9.5218897 4294967295
54.901104 40.313148 -9.9985199 4294967295
54.906013 39.012314 -9.8377781 4294967295
54.919399 40.967133 -10.004398 4294967295
54.920147 37.061554 -9.5722647 4294967295
54.92252 39.177799 -9.7964125 4294967295
54.924774 38.201679 -9.6809568 4294967295
54.943382 40.483219 -9.8646755 4294967295
54.944031 39.669647 -9.7728853 4294967295
54.945213 41.94796 -10.019084 4294967295
54.956333 35.248943 -9.8512554 4294967295
54.963428 38.859085 -9.6137629 4294967295
54.977592 40.814709 -9.7776775 4294967295
55.003445 35.418514 -9.7000828 4294967295
55.018959 39.000622 -10.037958 4294967295
55.024651 40.171803 -9.5372066 4294967295
55.030987 37.212788 -9.7980709 4294967295
55.061001 42.13195 -9.6215467 4294967295
55.074345 39.498005 -9.8929901 4294967295
55.083889 35.755871 -9.4472027 4294967295
55.099213 37.549011 -9.589098 4294967295
55.123859 40.320164 -9.8048649 4294967295
55.140156 39.183548 -9.6211929 4294967295
55.141502 38.532581 -9.5447817 4294967295
55.160118 36.553272 -9.8685417 4294967295
55.179493 41.632114 -9.7485189 4294967295
55.185207 41.307583 -9.6922569 4294967295
55.195225 36.884102 -9.7784662 4294967295
55.207165 40.660267 -9.5419569 4294967295
55.210255 35.584251 -9.5814734 4294967295
55.222935 37.051136 -9.6970377 4294967295
55.227104 39.492905 -9.9503546 4294967295
55.227722 36.237988 -9.5904245 4294967295
55.236202 36.402054 -9.5779266 4294967295
55.237106 38.02993 -9.7535782 4294967295
55.23909 39.006733 -9.8537693 4294967295
55.25074 35.753006 -9.4542294 4294967295
55.256329 37.707458 -9.6489134 4294967295
55.257389 40.962559 -10.002774 4294967295
55.260143 39.172981 -9.796217 4294967295
55.262512 42.13567 -9.5045958 4294967295
55.264797 37.546013 -9.600667 4294967295
55.266533 37.220688 -9.5586634 4294967295
55.273285 38.524086 -9.6775961 4294967295
55.279007 39.827183 -9.8001757 4294967295
55.280407 40.803902 -9.9024563 4294967295
55.311352 40.158264 -9.7200708 4294967295
55.316292 41.94952 -9.899086 4294967295
55.316952 38.856846 -9.5569086 4294967295
55.321812 38.694828 -9.5216007 4294967295
55.348576 37.367401 -9.8873024 4294967295
55.35355 39.351406 -9.4794607 4294967295
55.362335 39.678562 -9.4837704 4294967295
55.374496 41.308926 -9.6191053 4294967295
55.388565 41.799904 -9.6223869 4294967295
55.433521 36.892273 -9.5294933 4294967295
55.475555 38.20145 -9.5220985 4294967295
55.499672 39.508003 -9.5788574 4294967295
55.514717 41.627068 -9.7574873 4294967295
55.517452 40.976376 -9.676177 4294967295
55.519695 42.116325 -9.7933073 4294967295
55.52071 36.551704 -9.7858658 4294967295
55.523602 36.063854 -9.7218885 4294967295
55.54356 37.531761 -9.8113747 4294967295
55.546196 38.183174 -9.8734512 4294967295
55.546894 40.493076 -9.5171766 4294967295
55.54792 40.33041 -9.495616 4294967295
55.558342 37.696854 -9.7763834 4294967295
55.558548 36.720234 -9.6683788 4294967295
55.569061 41.962547 -9.598814 4294967295
55.569092 35.745007 -9.5233526 4294967295
55.569901 36.396366 -9.5919962 4294967295
55.581699 35.258362 -9.4245787 4294967295
55.586479 42.291412 -9.5722675 4294967295
55.602386 38.680588 -9.7261152 4294967295
55.603489 39.331879 -9.7936754 4294967295
55.609917 35.425297 -9.341506 4294967295
55.610874 37.379532 -9.5527124 4294967295
55.613117 37.868332 -9.5983429 4294967295
55.637871 38.035103 -9.5276823 4294967295
55.64484 39.50161 -9.6636858 4294967295
55.656742 39.992046 -9.6747637 4294967295
55.669445 40.645462 -9.7008486 4294967295
55.674553 38.366699 -9.4322491 4294967295
55.680115 41.786934 -9.7878437 4294967295
55.694672 38.85857 -9.4139585 4294967295
55.708401 41.3036 -9.6331062 4294967295
55.756466 36.233662 -9.510746 4294967295
55.769104 38.515011 -9.7158632 4294967295
55.837967 37.711884 -9.3803968 4294967295
55.838009 40.480247 -9.6841822 4294967295
55.840477 41.294716 -9.7647152 4294967295
55.841202 41.620438 -9.797863 4294967295
55.847649 38.853512 -9.4709759 4294967295
55.848042 41.947262 -9.8091755 4294967295
55.848091 39.504993 -9.5409126 4294967295
55.850758 35.56884 -9.7055931 4294967295
55.865669 38.6936 -9.3887167 4294967295
55.868443 40.648376 -9.5933523 4294967295
55.868454 37.036488 -9.8032227 4294967295
55.86919 36.711052 -9.7648544 4294967295
55.873196 35.897717 -9.6611996 4294967295
55.886723 42.117126 -9.6889257 4294967295
55.897366 36.389732 -9.6285114 4294967295
55.901085 37.367111 -9.7224445 4294967295
55.916073 41.796787 -9.5483675 4294967295
55.91869 40.820034 -9.431757 4294967295
55.931042 39.488144 -9.8477755 4294967295
55.9338 37.209393 -9.5877819 4294967295
55.942142 38.350433 -9.6830854 4294967295
55.9547 37.538319 -9.5488949 4294967295
55.965626 40.307941 -9.8136797 4294967295
55.970863 36.237919 -9.3481674 4294967295
55.971725 39.820595 -9.7383194 4294967295
55.986668 38.031921 -9.4884024 4294967295
56.013054 39.17622 -9.5193329 4294967295
56.036674 36.057156 -9.6981936 4294967295
56.039158 39.994915 -9.5155334 4294967295
56.046436 35.570168 -9.6097698 4294967295
56.083714 39.320259 -9.887661 4294967295
56.097954 38.020252 -9.693984 4294967295
56.103535 35.904224 -9.4417887 4294967295
56.108845 41.63591 -9.4456224 4294967295
56.114918 42.125683 -9.4775705 4294967295
56.155857 40.797691 -9.7911949 4294967295
56.168121 39.171501 -9.5688257 4294967295
56.169155 38.520233 -9.4936619 4294967295
56.169449 35.235329 -9.7374783 4294967295
56.173119 40.637894 -9.7117939 4294967295
56.182831 41.616524 -9.784339 4294967295
56.188148 41.129013 -9.7118053 4294967295
56.189857 38.197815 -9.3840857 4294967295
56.195301 40.478912 -9.6148567 4294967295
56.200718 36.379475 -9.7510386 4294967295
56.201515 40.317135 -9.5748377 4294967295
56.211239 35.56699 -9.6242342 4294967295
56.211987 35.892735 -9.6572971 4294967295
56.220413 41.786129 -9.6682453 4294967295
56.220482 42.274654 -9.7215986 4294967295
56.225094 39.018051 -9.3478041 4294967295
56.228447 37.034889 -9.7236567 4294967295
56.251987 37.364162 -9.6754875 4294967295
56.256187 41.466831 -9.5050135 4294967295
56.266014 35.737835 -9.4468517 4294967295
56.275963 37.205051 -9.5721893 4294967295
56.283405 39.160183 -9.760005 4294967295
56.284901 38.997616 -9.7368221 4294967295
56.304317 40.303371 -9.8105116 4294967295
56.31266 39.816357 -9.7272272 4294967295
56.329063 36.887474 -9.3472281 4294967295
56.338173 37.540482 -9.3862429 4294967295
56.362671 39.499088 -9.5133562 4294967295
56.367645 39.988548 -9.5492363 4294967295
56.393574 41.296009 -9.5997801 4294967295
56.417465 41.788906 -9.5682898 4294967295
56.42099 38.175774 -9.7644053 4294967295
56.432217 36.549183 -9.5458612 4294967295
56.452209 37.692242 -9.599699 4294967295
56.457687 41.95908 -9.4429312 4294967295
56.466263 38.508724 -9.6389589 4294967295
56.503845 39.166306 -9.5766296 4294967295
56.505936 35.582706 -9.1761618 4294967295
56.510258 39.493103 -9.5895214 4294967295
56.514771 40.796696 -9.7163134 4294967295
56.517365 35.910271 -9.1712103 4294967295
56.517475 40.308624 -9.6531219 4294967295
56.519436 36.399414 -9.2174406 4294967295
56.520859 38.028866 -9.3910522 4294967295
56.523029 37.377552 -9.3118534 4294967295
56.525898 39.821472 -9.5695753 4294967295
56.556332 40.641083 -9.5505733 4294967295
56.559166 41.130215 -9.5940666 4294967295
56.561974 40.153385 -9.4769316 4294967295
56.567654 42.271805 -9.6888523 4294967295
56.570625 35.402096 -9.5294523 4294967295
56.570957 39.014492 -9.3199224 4294967295
56.573734 41.784313 -9.6136656 4294967295
56.588078 41.624012 -9.5447826 4294967295
56.589283 37.521912 -9.6951962 4294967295
56.611385 35.733772 -9.4201574 4294967295
56.611401 37.036797 -9.5629635 4294967295
56.620197 37.689602 -9.6030903 4294967295
56.621769 35.246571 -9.3296309 4294967295
56.656639 36.717926 -9.3663378 4294967295
56.670475 38.511982 -9.5135727 4294967295
56.695095 37.212585 -9.2831383 4294967295
56.697525 41.285332 -9.7208815 4294967295
56.702518 40.634769 -9.6317348 4294967295
56.740906 37.871552 -9.1916609 4294967295
56.747696 37.192104 -9.696866 4294967295
56.77029 40.972401 -9.4265499 4294967295
56.771088 38.009968 -9.7029819 4294967295
56.789841 36.221287 -9.4399929 4294967295
56.842716 36.066208 -9.2342157 4294967295
56.850681 37.045067 -9.3130646 4294967295
56.851799 37.859879 -9.398366 4294967295
56.859402 36.3946 -9.2106342 4294967295
56.876942 40.144699 -9.5589781 4294967295
56.87999 39.493607 -9.476758 4294967295
56.880898 38.842087 -9.4021235 4294967295
56.882061 41.448643 -9.6835699 4294967295
56.890671 41.938793 -9.7065411 4294967295
56.893654 40.79916 -9.5710211 4294967295
56.896133 38.518692 -9.3122892 4294967295
56.900093 39.171104 -9.3696356 4294967295
56.902802 38.193859 -9.2528782 4294967295
56.904644 40.638168 -9.5141478 4294967295
56.916843 39.988583 -9.3994188 4294967295
56.921528 41.129856 -9.507741 4294967295
56.930893 36.214577 -9.5391836 4294967295
56.93359 35.726315 -9.4760494 4294967295
56.936596 41.784191 -9.5256329 4294967295
56.938549 36.378601 -9.5298433 4294967295
56.941269 39.666817 -9.276947 4294967295
56.947578 39.830841 -9.272397 4294967295
56.948864 42.275154 -9.5356131 4294967295
56.962143 39.151012 -9.7494249 4294967295
56.971607 37.360966 -9.5195589 4294967295
56.977776 41.628651 -9.3615694 4294967295
57.005943 39.97263 -9.6831999 4294967295
57.016674 36.879135 -9.3060131 4294967295
57.017803 38.182762 -9.4448137 4294967295
57.023121 40.627052 -9.6936197 4294967295
57.0275 35.577034 -9.1247292 4294967295
57.044872 41.282352 -9.6878052 4294967295
57.050507 40.957581 -9.6321421 4294967295
57.062973 36.043682 -9.6522121 4294967295
57.065655 35.392609 -9.5713434 4294967295
57.06572 36.723618 -9.1140356 4294967295
57.080456 38.681675 -9.2759962 4294967295
57.109005 36.213375 -9.506772 4294967295
57.166893 35.896065 -9.265728 4294967295
57.178848 39.808029 -9.6515884 4294967295
57.189548 38.995323 -9.5244532 4294967295
57.19014 40.787228 -9.7185793 4294967295
57.190796 38.669697 -9.4843445 4294967295
57.198479 35.737713 -9.1358252 4294967295
57.200035 40.300293 -9.6299915 4294967295
57.202789 36.716236 -9.2276421 4294967295
57.209137 41.930679 -9.7760811 4294967295
57.209435 40.464802 -9.6145086 4294967295
57.22155 39.489376 -9.4645243 4294967295
57.222675 37.860088 -9.2820644 4294967295
57.222977 38.186058 -9.3166962 4294967295
57.229218 37.046219 -9.1696091 4294967295
57.230125 39.164928 -9.3984241 4294967295
57.235249 39.980473 -9.4694901 4294967295
57.239899 35.227879 -9.5347967 4294967295
57.241573 38.026047 -9.2329035 4294967295
57.262596 35.88274 -9.5257072 4294967295
57.264107 36.04586 -9.5381813 4294967295
57.276272 37.350792 -9.6377754 4294967295
57.302219 37.680607 -9.5815058 4294967295
57.309387 42.111736 -9.4386597 4294967295
57.321476 39.149693 -9.6738052 4294967295
57.332703 41.138054 -9.2489681 4294967295
57.33358 35.40424 -9.2205858 4294967295
57.337807 36.545601 -9.3305349 4294967295
57.351608 36.384705 -9.2637758 4294967295
57.355034 36.874115 -9.3051767 4294967295
57.367123 37.853722 -9.3693933 4294967295
57.375652 41.276424 -9.7137451 4294967295
57.381603 37.530067 -9.2824039 4294967295
57.40984 41.445381 -9.610527 4294967295
57.416752 42.261162 -9.67521 4294967295
57.421558 35.552898 -9.5255919 4294967295
57.437111 40.309574 -9.389101 4294967295
57.444065 41.77734 -9.5250111 4294967295
57.460709 40.965523 -9.3769007 4294967295
57.516006 35.403557 -9.173316 4294967295
57.517006 37.522327 -9.4017019 4294967295
57.517712 38.988838 -9.5597162 4294967295
57.531776 42.11911 -9.2501574 4294967295
57.533382 40.131844 -9.6290703 4294967295
57.537277 37.199539 -9.294261 4294967295
57.539173 41.273129 -9.7333708 4294967295
57.546825 41.763149 -9.7597733 4294967295
57.54884 39.97155 -9.5565557 4294967295
57.55093 39.320168 -9.4778252 4294967295
57.557755 40.298916 -9.5606718 4294967295
57.567696 42.255585 -9.7394238 4294967295
57.570171 39.486309 -9.4275684 4294967295
57.580357 38.510155 -9.2845058 4294967295
57.584629 41.44408 -9.5903997 4294967295
57.587856 40.955853 -9.5254955 4294967295
57.59581 38.349644 -9.2119684 4294967295
57.605721 40.633053 -9.42663 4294967295
57.633194 35.556461 -9.3748169 4294967295
57.636871 41.942257 -9.4590969 4294967295
57.638683 39.823742 -9.2208242 4294967295
57.65995 40.479412 -9.2169352 4294967295
57.68166 37.845039 -9.4530487 4294967295
57.693336 35.891148 -9.1977272 4294967295
57.695431 38.499008 -9.4756784 4294967295
57.706795 36.382133 -9.2036428 4294967295
57.71806 36.220798 -9.1459656 4294967295
57.730156 37.363678 -9.2280502 4294967295
57.730724 36.711735 -9.1546812 4294967295
57.772263 37.044098 -9.043457 4294967295
57.774715 38.674774 -9.2131777 4294967295
57.777504 41.120064 -9.4708052 4294967295
57.781143 39.001846 -9.2261286 4294967295
57.805779 36.532085 -9.4693565 4294967295
57.819061 42.105293 -9.4309187 4294967295
57.841503 40.316139 -9.1554441 4294967295
57.846394 38.330708 -9.5219402 4294967295
57.857586 35.724857 -9.1971245 4294967295
57.869827 36.867664 -9.2787018 4294967295
57.870266 36.215733 -9.2058134 4294967295
57.883423 37.195724 -9.2663269 4294967295
57.895832 40.78297 -9.6146526 4294967295
57.901424 35.568172 -9.0243626 4294967295
57.905056 39.80687 -9.4751511 4294967295
57.908524 39.644485 -9.4450874 4294967295
57.909748 37.525799 -9.2089748 4294967295
57.912766 36.385059 -9.0734692 4294967295
57.922173 39.15781 -9.3433952 4294967295
57.927856 41.114441 -9.5372162 4294967295
57.934834 38.833878 -9.2630177 4294967295
57.936848 37.693043 -9.1310682 4294967295
57.937744 38.671337 -9.2349062 4294967295
57.946529 40.465801 -9.3999891 4294967295
57.95686 39.326527 -9.2387114 4294967295
57.95961 41.445965 -9.4607534 4294967295
57.983711 41.939209 -9.4291372 4294967295
57.988007 36.042606 -9.3694801 4294967295
57.988792 35.71677 -9.3310499 4294967295
58.013569 39.988152 -9.1097593 4294967295
58.01569 36.372658 -9.3073997 4294967295
58.022903 38.981216 -9.5670891 4294967295
58.023533 36.862797 -9.3331871 4294967295
58.024384 40.642216 -9.1428976 4294967295
58.027901 41.784126 -9.2553005 4294967295
58.034863 37.027508 -9.3110132 4294967295
58.059406 42.115871 -9.1797342 4294967295
58.063019 38.335831 -9.3542433 4294967295
58.06617 40.292 -9.5569658 4294967295
58.074772 38.500706 -9.3305788 4294967295
58.116894 38.181385 -9.1462717 4294967295
58.158615 37.99577 -9.5780201 4294967295
58.192886 42.107128 -9.3059893 4294967295
58.194061 35.393375 -9.1678839 4294967295
58.200748 38.491325 -9.4828959 4294967295
58.203117 41.130688 -9.1629524 4294967295
58.211346 36.374043 -9.2138672 4294967295
58.211346 38.981937 -9.4989796 4294967295
58.22834 39.147686 -9.4568911 4294967295
58.230625 36.702976 -9.1815195 4294967295
58.236439 38.171043 -9.3214254 4294967295
58.250557 35.727608 -9.0042439 4294967295
58.251694 37.847416 -9.231986 4294967295
58.255608 37.358921 -9.1647167 4294967295
58.260338 37.196602 -9.1302023 4294967295
58.26268 40.13131 -9.4427328 4294967295
58.266937 39.806038 -9.3920918 4294967295
58.26984 36.056572 -8.9718876 4294967295
58.272671 41.11092 -9.5144072 4294967295
58.277142 41.926556 -9.5877047 4294967295
58.294395 40.951721 -9.4200325 4294967295
58.297279 38.669857 -9.1603765 4294967295
58.297794 39.485149 -9.247673 4294967295
58.302589 36.685837 -9.5241079 4294967295
58.330975 36.038162 -9.3528347 4294967295
58.335323 41.610958 -9.347064 4294967295
58.347202 37.018513 -9.4025459 4294967295
58.356045 37.997753 -9.4782734 4294967295
58.383949 40.609661 -9.6649332 4294967295
58.403072 40.938862 -9.6332006 4294967295
58.409157 42.113327 -9.1403465 4294967295
58.418861 39.637764 -9.4351387 4294967295
58.423649 39.149548 -9.3648386 4294967295
58.43787 38.825825 -9.2791204 4294967295
58.531113 38.32217 -9.4930964 4294967295
58.53323 41.776794 -9.2640028 4294967295
58.538506 37.834373 -9.4136534 4294967295
58.544357 36.368137 -9.2327385 4294967295
58.544418 35.715988 -9.1612701 4294967295
58.554398 38.814861 -9.4645758 4294967295
58.557858 37.185318 -9.2742958 4294967295
58.567368 36.697647 -9.1873732 4294967295
58.574306 35.557232 -9.0382156 4294967295
58.584812 42.112186 -9.1180592 4294967295
58.593624 41.918053 -9.6648312 4294967295
58.604649 39.475105 -9.3589916 4294967295
58.612183 38.987251 -9.2790461 4294967295
58.630962 41.435745 -9.4801083 4294967295
58.634716 40.784355 -9.3956823 4294967295
58.650917 40.461075 -9.3030586 4294967295
58.651207 35.704388 -9.3808346 4294967295
58.667034 38.506897 -9.0325804 4294967295
58.668858 36.195961 -9.3721704 4294967295
58.670441 40.138283 -9.1987553 4294967295
58.678356 39.976547 -9.1530867 4294967295
58.685867 41.282375 -9.2691746 4294967295
58.691185 41.772476 -9.3039026 4294967295
58.697151 36.526176 -9.3082829 4294967295
58.713741 37.669823 -9.374589 4294967295
58.71381 39.299789 -9.5523739 4294967295
58.714695 37.180916 -9.3178186 4294967295
58.758392 38.655018 -9.3244295 4294967295
58.768539 36.047531 -9.0037594 4294967295
58.771049 41.102322 -9.546979 4294967295
58.78801 38.333652 -9.1846905 4294967295
58.803429 39.640633 -9.272953 4294967295
58.862591 39.161133 -9.0115452 4294967295
58.863823 41.607708 -9.2743769 4294967295
58.875816 41.446754 -9.2144279 4294967295
58.876781 40.142166 -9.0685444 4294967295
58.880493 36.362686 -9.2408075 4294967295
58.906612 39.138245 -9.4516821 4294967295
58.909081 36.693054 -9.1759653 4294967295
58.923531 37.021366 -9.1608143 4294967295
58.930126 40.93523 -9.5648727 4294967295
58.930393 39.957245 -9.4571619 4294967295
58.934174 38.816666 -9.3192806 4294967295
58.94334 41.752506 -9.6074467 4294967295
58.949432 37.677643 -9.1410503 4294967295
58.958652 38.657551 -9.2154989 4294967295
58.964508 40.289059 -9.372961 4294967295
58.966568 36.212288 -8.9205379 4294967295
58.97171 39.475006 -9.2586622 4294967295
59.003963 41.11108 -9.3234329 4294967295
59.007397 38.176022 -8.9908562 4294967295
59.012669 42.090927 -9.3996668 4294967295
59.016994 36.192268 -9.3379211 4294967295
59.022484 40.461983 -9.1871843 4294967295
59.024433 41.277721 -9.2693596 4294967295
59.025951 39.810181 -9.1037903 4294967295
59.042721 37.337322 -9.3722029 4294967295
59.048615 40.792656 -9.1310549 4294967295
59.070084 38.156734 -9.3651524 4294967295
59.077232 37.17955 -9.2332726 4294967295
59.106525 37.999409 -9.2194567 4294967295
59.110432 39.630596 -9.3837357 4294967295
59.153496 39.148487 -9.1792498 4294967295
59.176388 38.989109 -9.0811205 4294967295
59.2047 41.440403 -9.2488089 4294967295
59.206299 41.766853 -9.2787971 4294967295
59.218132 36.357449 -9.2437906 4294967295
59.224915 39.975864 -9.0176897 4294967295
59.22694 36.684883 -9.2484846 4294967295
59.242016 40.794449 -9.0467186 4294967295
59.244503 42.26297 -9.1982117 4294967295
59.244625 37.665936 -9.2932434 4294967295
59.255661 38.156834 -9.3079329 4294967295
59.256863 37.993961 -9.2859287 4294967295
59.267841 37.017185 -9.1406517 4294967295
59.278 38.812637 -9.3007936 4294967295
59.299072 39.957527 -9.35147 4294967295
59.302006 38.490326 -9.1810369 4294967295
59.317451 40.612881 -9.358223 4294967295
59.318897 38.982327 -9.1752205 4294967295
59.319641 40.776318 -9.3683481 4294967295
59.324234 41.266285 -9.4056215 4294967295
59.332596 41.593861 -9.4118891 4294967295
59.334362 39.637249 -9.1921978 4294967295
59.336281 42.246712 -9.4701395 4294967295
59.345139 41.759136 -9.3857384 4294967295
59.36623 39.316273 -9.0448809 4294967295
59.373676 40.296268 -9.1255894 4294967295
59.402237 37.98774 -9.3697119 4294967295
59.429409 38.481197 -9.3278971 4294967295
59.432011 38.155476 -9.2831974 4294967295
59.454376 37.506596 -9.1336794 4294967295
59.460838 40.279995 -9.4134855 4294967295
59.506168 36.861919 -8.8810349 4294967295
59.556885 39.969952 -9.0415888 4294967295
59.55938 40.622936 -9.104022 4294967295
59.564655 40.134403 -9.0321655 4294967295
59.565964 42.255299 -9.2588902 4294967295
59.567196 38.147636 -9.4026279 4294967295
59.567829 36.843224 -9.2581358 4294967295
59.610981 41.610786 -9.0301352 4294967295
59.6203 37.992886 -9.1990051 4294967295
59.622662 38.808727 -9.2796679 4294967295
59.636906 38.321705 -9.1764746 4294967295
59.65295 37.508583 -9.0313616 4294967295
59.66758 41.588596 -9.424839 4294967295
59.675468 39.143478 -9.130476 4294967295
59.675594 37.02256 -8.8987188 4294967295
59.678375 38.654549 -9.0669336 4294967295
59.693024 37.351559 -8.8733063 4294967295
59.714653 36.674255 -9.3189726 4294967295
59.722404 39.640602 -9.0196276 4294967295
59.728767 41.109993 -9.1574783 4294967295
59.7346 40.784721 -9.1014957 4294967295
59.769943 39.48526 -8.8355112 4294967295
59.79644 41.937656 -9.009737 4294967295
59.803288 37.013744 -9.0445871 4294967295
59.878971 38.493908 -8.940074 4294967295
59.88126 39.473297 -9.0388002 4294967295
59.881981 41.267975 -9.2319164 4294967295
59.884426 40.942142 -9.187808 4294967295
59.885201 40.126572 -9.0961723 4294967295
59.886555 38.984653 -8.9669285 4294967295
59.887077 39.963734 -9.0718346 4294967295
59.898598 37.844208 -8.8002787 4294967295
59.899895 40.455357 -9.0803995 4294967295
59.907253 41.761799 -9.1969461 4294967295
59.910561 36.838772 -9.243804 4294967295
59.911373 38.825462 -8.8623781 4294967295
59.922382 39.806438 -8.9306431 4294967295
59.934483 42.256081 -9.1551638 4294967295
59.95628 37.987499 -9.2085381 4294967295
59.966991 38.315414 -9.2066832 4294967295
59.974216 37.337746 -9.0747623 4294967295
59.981003 39.133228 -9.2466402 4294967295
59.996826 40.929981 -9.3869057 4294967295
60.002827 38.647358 -9.1170864 4294967295
60.040688 38.163857 -8.9314842 4294967295
60.063374 37.677776 -8.7988729 4294967295
60.1222 38.636932 -9.2917004 4294967295
60.215759 39.957256 -9.1074572 4294967295
60.219753 41.426273 -9.2534971 4294967295
60.229233 39.306778 -8.9893389 4294967295
60.230446 40.612377 -9.1273384 4294967295
60.230537 38.980602 -8.9492254 4294967295
60.246296 41.104588 -9.1253672 4294967295
60.252037 40.289684 -9.0164642 4294967295
60.254807 41.758724 -9.166791 4294967295
60.258335 39.474735 -8.9055824 4294967295
60.269699 42.087692 -9.1504011 4294967295
60.301483 38.472935 -9.2394285 4294967295
60.31171 37.332523 -9.079361 4294967295
60.333969 37.499084 -9.019516 4294967295
60.33704 38.315407 -9.0976887 4294967295
60.349361 37.664627 -8.9836321 4294967295
60.371162 41.910172 -9.3696651 4294967295
60.415348 38.164501 -8.8068953 4294967295
60.416302 38.654346 -8.8569155 4294967295
60.422272 38.002342 -8.7649794 4294967295
60.426537 40.940929 -9.0701065 4294967295
60.451813 40.455627 -8.9287024 4294967295
60.459026 40.783295 -8.9391184 4294967295
60.481789 39.317886 -8.6997547 4294967295
60.556461 38.157585 -8.9058523 4294967295
60.564716 37.832417 -8.8415422 4294967295
60.583061 39.793991 -8.990941 4294967295
60.58736 39.468273 -8.9404249 4294967295
60.594799 40.775177 -9.0566864 4294967295
60.604248 37.675259 -8.6860542 4294967295
60.606712 42.082764 -9.1573439 4294967295
60.611305 41.757206 -9.1058292 4294967295
60.621014 38.494225 -8.7165527 4294967295
60.625053 41.106789 -8.986886 4294967295
60.638321 40.292885 -8.85184 4294967295
60.638432 40.945866 -8.9225426 4294967295
60.654736 37.980816 -9.1359758 4294967295
60.657028 39.153103 -8.6622515 4294967295
60.659401 38.8269 -8.6184196 4294967295
60.666382 37.656265 -9.059926 4294967295
60.682476 38.637859 -9.1105089 4294967295
60.713902 40.601063 -9.2143135 4294967295
60.757675 40.11887 -9.008749 4294967295
60.797478 39.962265 -8.8525229 4294967295
60.818192 41.108521 -8.9048586 4294967295
60.823593 41.59919 -8.9393682 4294967295
60.837757 42.091415 -8.9434166 4294967295
60.881561 38.803318 -9.0253515 4294967295
60.892567 39.131504 -9.0226135 4294967295
60.907913 40.602863 -9.1291199 4294967295
60.919193 41.910294 -9.2319717 4294967295
60.950985 38.977669 -8.8017836 4294967295
60.953827 40.120926 -8.9162626 4294967295
60.957279 39.631744 -8.8509693 4294967295
60.960041 39.795456 -8.8591385 4294967295
60.967789 39.306927 -8.778904 4294967295
60.971615 38.654408 -8.6945248 4294967295
60.974991 42.083378 -9.0558691 4294967295
60.980804 40.778481 -8.8935652 4294967295
60.992752 41.270298 -8.9053411 4294967295
60.995716 38.331596 -8.5751915 4294967295
60.99979 41.434776 -8.8986559 4294967295
61.034542 38.961433 -9.1005659 4294967295
61.064072 40.271854 -9.1400585 4294967295
61.067017 40.925114 -9.2008438 4294967295
61.081295 42.233036 -9.2932682 4294967295
61.083103 41.254261 -9.1805048 4294967295
61.123787 41.424526 -9.0570183 4294967295
61.190964 38.496494 -8.5039959 4294967295
61.19334 41.763187 -8.851079 4294967295
61.19582 38.304855 -9.0581675 4294967295
61.202969 39.805153 -8.6044722 4294967295
61.239254 40.107212 -9.1027355 4294967295
61.244205 39.944817 -9.0678158 4294967295
61.264282 39.458408 -8.9448986 4294967295
61.276222 38.644012 -8.8146868 4294967295
61.27906 42.072578 -9.1776514 4294967295
61.305893 40.281578 -8.8893251 4294967295
61.309933 40.445526 -8.8930674 4294967295
61.315578 39.79335 -8.8024511 4294967295
61.323837 39.30481 -8.7205181 4294967295
61.32468 41.590904 -8.966197 4294967295
61.33931 38.817341 -8.613534 4294967295
