# .PCD v0.7 - Point Cloud Data file format
VERSION 0.7
FIELDS x y z rgb
SIZE 4 4 4 4
TYPE F F F U
COUNT 1 1 1 1
WIDTH 1121
HEIGHT 1
VIEWPOINT 0 0 0 1 0 0 0
POINTS 1121
DATA ascii
-24.613712 118.58157 -25.986982 4294967295
-24.612532 117.18889 -25.787619 4294967295
-24.611965 118.89327 -26.018442 4294967295
-24.609529 117.03732 -25.747126 4294967295
-24.607269 116.11018 -25.604744 4294967295
-24.598604 116.89455 -25.656015 4294967295
-24.592119 119.38042 -25.955664 4294967295
-24.582569 119.54618 -25.91601 4294967295
-24.579414 118.31049 -25.725348 4294967295
-24.578369 120.01562 -25.953131 4294967295
-24.573629 118.78181 -25.752357 4294967295
-24.53933 113.99823 -25.907707 4294967295
-24.525532 114.16806 -25.840967 4294967295
-24.514378 115.41936 -25.940229 4294967295
-24.511099 113.71889 -25.68495 4294967295
-24.511089 113.40901 -25.64226 4294967295
-24.504711 114.34555 -25.729424 4294967295
-24.49991 113.26606 -25.549591 4294967295
-24.499868 114.66068 -25.741146 4294967295
-24.497566 115.90249 -25.896894 4294967295
-24.496439 115.59393 -25.847105 4294967295
-24.496187 113.88995 -25.611101 4294967295
-24.496065 116.05904 -25.908625 4294967295
-24.491385 114.97979 -25.729628 4294967295
-24.491236 113.58534 -25.536865 4294967295
-24.486683 116.53408 -25.91268 4294967295
-24.484465 118.08523 -26.111485 4294967295
-24.484192 114.52278 -25.61981 4294967295
-24.484076 115.76243 -25.789539 4294967295
-24.480087 118.86434 -26.190033 4294967295
-24.476355 119.64266 -26.272673 4294967295
-24.475136 116.39195 -25.817738 4294967295
-24.475058 115.30752 -25.668093 4294967295
-24.470242 114.8479 -25.573425 4294967295
-24.470217 117.01704 -25.871574 4294967295
-24.470125 118.2562 -26.041361 4294967295
-24.467888 119.18783 -26.154844 4294967295
-24.464422 116.24887 -25.728104 4294967295
-24.45933 119.81689 -26.185442 4294967295
-24.455675 119.35654 -26.098289 4294967295
-24.449915 117.34949 -25.784719 4294967295
-24.436529 117.82924 -25.763269 4294967295
-24.436289 118.759 -25.88954 4294967295
-24.433947 117.52225 -25.704195 4294967295
-24.428505 120.00695 -26.010298 4294967295
-24.417749 118.47009 -25.728758 4294967295
-24.41745 119.55489 -25.875948 4294967295
-24.378733 113.38189 -25.810736 4294967295
-24.373022 113.69787 -25.816935 4294967295
-24.359047 115.57185 -25.983372 4294967295
-24.358404 116.50175 -26.106953 4294967295
-24.357571 114.48916 -25.824955 4294967295
-24.356123 114.80056 -25.858309 4294967295
-24.355276 114.02686 -25.746458 4294967295
-24.354746 114.18237 -25.764376 4294967295
-24.354515 115.26703 -25.91193 4294967295
-24.343714 116.9826 -26.077263 4294967295
-24.332172 113.89684 -25.577967 4294967295
-24.326986 116.38159 -25.885632 4294967295
-24.326982 117.62069 -26.055864 4294967295
-24.325714 114.98861 -25.685917 4294967295
-24.324137 114.6804 -25.633278 4294967295
-24.324085 118.55307 -26.165075 4294967295
-24.324034 113.28561 -25.44091 4294967295
-24.322857 118.24475 -26.11471 4294967295
-24.320021 113.59994 -25.457949 4294967295
-24.318935 117.16502 -25.940786 4294967295
-24.314806 116.08517 -25.765495 4294967295
-24.307735 115.78305 -25.677883 4294967295
-24.306927 118.88213 -26.098433 4294967295
-24.304529 115.94154 -25.678757 4294967295
-24.296732 119.04852 -26.054825 4294967295
-24.2936 118.12272 -25.907209 4294967295
-24.291355 116.73085 -25.701338 4294967295
-24.29129 117.81548 -25.849941 4294967295
-24.28636 118.44067 -25.9037 4294967295
-24.285135 117.35756 -25.746895 4294967295
-24.284063 116.89389 -25.676201 4294967295
-24.281216 118.75627 -25.913523 4294967295
-24.280191 119.53191 -26.013397 4294967295
-24.278683 119.99825 -26.067638 4294967295
-24.271034 119.85209 -25.9977 4294967295
-24.263927 119.39547 -25.888626 4294967295
-24.247038 119.7245 -25.823732 4294967295
-24.219353 114.00349 -25.891953 4294967295
-24.211536 113.39219 -25.75712 4294967295
-24.209227 114.94388 -25.955181 4294967295
-24.20857 115.40926 -26.014822 4294967295
-24.204514 113.86456 -25.776295 4294967295
-24.19343 113.25662 -25.620665 4294967295
-24.190447 114.49951 -25.771935 4294967295
-24.18973 113.72551 -25.660975 4294967295
-24.185596 116.98331 -26.081429 4294967295
-24.180752 115.1298 -25.795389 4294967295
-24.177736 115.59789 -25.840038 4294967295
-24.174334 114.36199 -25.648182 4294967295
-24.164324 116.38725 -25.861135 4294967295
-24.153505 114.69453 -25.558281 4294967295
-24.152653 116.70998 -25.829485 4294967295
-24.151649 118.72481 -26.099577 4294967295
-24.148029 117.79955 -25.948992 4294967295
-24.147196 119.81383 -26.220093 4294967295
-24.146999 115.32156 -25.602047 4294967295
-24.14537 117.49269 -25.889559 4294967295
-24.135698 119.98177 -26.16831 4294967295
-24.131016 115.95901 -25.585548 4294967295
-24.128662 116.11658 -25.591873 4294967295
-24.128584 118.44097 -25.91049 4294967295
-24.12846 117.20162 -25.73954 4294967295
-24.126328 118.28858 -25.874884 4294967295
-24.12464 118.13554 -25.842896 4294967295
-24.123466 116.89723 -25.665243 4294967295
-24.123226 119.53133 -26.025305 4294967295
-24.12224 115.81364 -25.50848 4294967295
-24.115032 118.92097 -25.888187 4294967295
-24.072805 119.43356 -25.683725 4294967295
-24.066729 113.22355 -25.824711 4294967295
-24.061792 113.69363 -25.857143 4294967295
-24.051928 114.0141 -25.837021 4294967295
-24.04884 113.39763 -25.732357 4294967295
-24.03883 115.11276 -25.902679 4294967295
-24.038715 114.49317 -25.816917 4294967295
-24.032465 114.80981 -25.819756 4294967295
-24.032112 113.57051 -25.647404 4294967295
-24.031425 115.58559 -25.919451 4294967295
-24.029026 114.34869 -25.73414 4294967295
-24.02289 114.66525 -25.737701 4294967295
-24.020641 116.68179 -25.999775 4294967295
-24.019361 114.97899 -25.75783 4294967295
-24.018124 116.99436 -26.026306 4294967295
-24.016926 115.44649 -25.806152 4294967295
-24.005274 116.23396 -25.838488 4294967295
-24.001898 115.77281 -25.753273 4294967295
-23.99851 115.31161 -25.667986 4294967295
-23.994511 116.86557 -25.855204 4294967295
-23.991522 117.95333 -25.985018 4294967295
-23.986893 115.94421 -25.679295 4294967295
-23.986624 117.18417 -25.847677 4294967295
-23.984711 117.80602 -25.920549 4294967295
-23.983328 118.27231 -25.975538 4294967295
-23.980539 119.66945 -26.149065 4294967295
-23.976255 116.42083 -25.675579 4294967295
-23.971384 116.58118 -25.665924 4294967295
-23.971054 118.13113 -25.876417 4294967295
-23.968891 116.11894 -25.586311 4294967295
-23.965281 119.53186 -26.031055 4294967295
-23.964041 117.36418 -25.725636 4294967295
-23.960587 118.76259 -25.895033 4294967295
-23.946428 117.53873 -25.635145 4294967295
-23.938251 119.87234 -25.902134 4294967295
-23.935982 117.70535 -25.59012 4294967295
-23.929417 118.48767 -25.654787 4294967295
-23.923813 118.64895 -25.640501 4294967295
-23.921268 120.04659 -25.815687 4294967295
-23.916239 119.27744 -25.6775 4294967295
-23.895399 115.25231 -26.021395 4294967295
-23.884367 113.55991 -25.71777 4294967295
-23.880198 115.7336 -25.988766 4294967295
-23.875763 115.58353 -25.939421 4294967295
-23.874016 113.88096 -25.694643 4294967295
-23.872961 114.81189 -25.815449 4294967295
-23.865211 116.05982 -25.936285 4294967295
-23.863047 116.21712 -25.943804 4294967295
-23.860552 113.7404 -25.588039 4294967295
-23.859003 114.51704 -25.684481 4294967295
-23.856821 114.98434 -25.734398 4294967295
-23.850657 113.28593 -25.461523 4294967295
-23.846407 115.46057 -25.732143 4294967295
-23.843744 116.39325 -25.842735 4294967295
-23.831861 119.34978 -26.170944 4294967295
-23.828844 114.70464 -25.514563 4294967295
-23.82757 117.80558 -25.931438 4294967295
-23.824379 116.5695 -25.74128 4294967295
-23.823627 118.27475 -25.970177 4294967295
-23.822834 116.72618 -25.752747 4294967295
-23.818081 119.05553 -26.041218 4294967295
-23.816542 118.43761 -25.946529 4294967295
-23.81554 117.97392 -25.876472 4294967295
-23.814075 117.35574 -25.782227 4294967295
-23.812038 115.96307 -25.578098 4294967295
-23.80567 119.22443 -25.983864 4294967295
-23.803759 118.7618 -25.908056 4294967295
-23.796694 117.68497 -25.714613 4294967295
-23.796316 118.6152 -25.839672 4294967295
-23.788481 116.91906 -25.556343 4294967295
-23.784946 117.54303 -25.61895 4294967295
-23.783979 119.71373 -25.910221 4294967295
-23.780973 118.94235 -25.784996 4294967295
-23.780109 119.56316 -25.864485 4294967295
-23.761084 120.04959 -25.807735 4294967295
-23.745586 119.91219 -25.688381 4294967295
-23.741753 113.23392 -25.778019 4294967295
-23.722374 114.64935 -25.846457 4294967295
-23.720737 113.56631 -25.687456 4294967295
-23.719744 114.18729 -25.766111 4294967295
-23.719381 114.49762 -25.806288 4294967295
-23.718624 114.80835 -25.843952 4294967295
-23.717747 114.96425 -25.859634 4294967295
-23.710218 114.04254 -25.684589 4294967295
-23.710104 115.90221 -25.938639 4294967295
-23.698835 116.99905 -26.015919 4294967295
-23.69882 113.43469 -25.527485 4294967295
-23.694187 115.14474 -25.731781 4294967295
-23.693926 113.74998 -25.538998 4294967295
-23.693787 114.3702 -25.623072 4294967295
-23.692642 113.90638 -25.552103 4294967295
-23.685184 115.77445 -25.759752 4294967295
-23.685162 115.30952 -25.695904 4294967295
-23.680365 116.55457 -25.835407 4294967295
-23.67783 117.48705 -25.946732 4294967295
-23.674456 116.87099 -25.840485 4294967295
-23.669584 115.63647 -25.639824 4294967295
-23.66781 117.3432 -25.862139 4294967295
-23.666021 118.42976 -25.999384 4294967295
-23.663963 117.1925 -25.816582 4294967295
-23.659634 118.28197 -25.937777 4294967295
-23.651054 119.68591 -26.074509 4294967295
-23.646717 119.22605 -25.983438 4294967295
-23.646101 115.507 -25.470003 4294967295
-23.642456 118.14617 -25.807932 4294967295
-23.641155 119.38725 -25.969496 4294967295
-23.633278 116.14117 -25.473841 4294967295
-23.631533 116.45318 -25.50528 4294967295
-23.630451 118.93444 -25.838154 4294967295
-23.620987 117.70506 -25.608471 4294967295
-23.616573 118.02 -25.623035 4294967295
-23.615572 119.57105 -25.828985 4294967295
-23.612761 119.88417 -25.853661 4294967295
-23.59947 119.12423 -25.663517 4294967295
-23.577137 113.24134 -25.741476 4294967295
-23.576284 113.55221 -25.778528 4294967295
-23.565357 115.7333 -26.006491 4294967295
-23.556105 113.41872 -25.629782 4294967295
-23.552061 114.19807 -25.710344 4294967295
-23.551163 115.5938 -25.895613 4294967295
-23.55072 115.90418 -25.93524 4294967295
-23.546974 115.4434 -25.847944 4294967295
-23.534718 114.83673 -25.685638 4294967295
-23.533195 114.52835 -25.633585 4294967295
-23.531231 113.75531 -25.515041 4294967295
-23.530342 116.39131 -25.870171 4294967295
-23.51693 116.25101 -25.764252 4294967295
-23.516224 117.18163 -25.887077 4294967295
-23.512383 117.34082 -25.884031 4294967295
-23.510305 116.10326 -25.701187 4294967295
-23.510181 119.20245 -26.124599 4294967295
-23.502792 115.02624 -25.50518 4294967295
-23.500139 117.04438 -25.764292 4294967295
-23.49835 118.9059 -26.007515 4294967295
-23.49556 117.5144 -25.799019 4294967295
-23.49365 118.29137 -25.893015 4294967295
-23.488472 117.67722 -25.775476 4294967295
-23.488335 115.19694 -25.435072 4294967295
-23.486755 118.76394 -25.913116 4294967295
-23.481213 118.61517 -25.856924 4294967295
-23.47954 117.84212 -25.740295 4294967295
-23.479303 116.91232 -25.611498 4294967295
-23.474981 119.70687 -25.966043 4294967295
-23.471857 118.16065 -25.734226 4294967295
-23.463966 120.02921 -25.938944 4294967295
-23.457073 119.41713 -25.810604 4294967295
-23.45363 119.11102 -25.746454 4294967295
-23.444706 119.89603 -25.796183 4294967295
-23.416761 114.01913 -25.837925 4294967295
-23.415031 114.95075 -25.954206 4294967295
-23.411764 113.24951 -25.700369 4294967295
-23.3979 114.34931 -25.761343 4294967295
-23.393335 115.74901 -25.923363 4294967295
-23.390833 113.73683 -25.631933 4294967295
-23.387693 113.58515 -25.590916 4294967295
-23.383162 114.83015 -25.731998 4294967295
-23.37187 115.15234 -25.703184 4294967295
-23.369041 115.46542 -25.727758 4294967295
-23.358675 118.42115 -26.065123 4294967295
-23.356209 114.23898 -25.477146 4294967295
-23.355122 117.34046 -25.894377 4294967295
-23.351604 117.80924 -25.935795 4294967295
-23.349775 119.36062 -26.136162 4294967295
-23.346357 114.55968 -25.457432 4294967295
-23.336237 117.2063 -25.754128 4294967295
-23.335865 116.43163 -25.645771 4294967295
-23.334599 116.74306 -25.680199 4294967295
-23.333666 116.58907 -25.653107 4294967295
-23.329365 120.00329 -26.0923 4294967295
-23.326849 115.35608 -25.440454 4294967295
-23.32613 119.85201 -26.050728 4294967295
-23.325706 116.2877 -25.560509 4294967295
-23.323107 115.98042 -25.501698 4294967295
-23.321705 117.68736 -25.726126 4294967295
-23.315996 115.678 -25.414434 4294967295
-23.31192 117.07803 -25.579628 4294967295
-23.309765 118.32063 -25.735674 4294967295
-23.309128 118.94135 -25.81645 4294967295
-23.306061 119.71969 -25.90309 4294967295
-23.305706 118.79018 -25.773689 4294967295
-23.303101 117.55289 -25.587656 4294967295
-23.302847 119.10337 -25.798059 4294967295
-23.286064 119.2772 -25.713501 4294967295
-23.278412 119.59583 -25.707687 4294967295
-23.260807 113.55237 -25.792688 4294967295
-23.242802 115.43141 -25.933525 4294967295
-23.234549 113.73532 -25.648481 4294967295
-23.228273 114.98216 -25.77849 4294967295
-23.225189 116.0704 -25.907373 4294967295
-23.22048 116.6954 -25.962444 4294967295
-23.220129 114.21581 -25.621243 4294967295
-23.209915 117.0169 -25.938303 4294967295
-23.207268 114.38462 -25.561447 4294967295
-23.205551 114.8516 -25.614222 4294967295
-23.204613 117.79752 -26.010824 4294967295
-23.202854 113.45889 -25.406445 4294967295
-23.2006 114.08162 -25.477057 4294967295
-23.200043 118.5773 -26.087938 4294967295
-23.199884 114.54759 -25.536137 4294967295
-23.199429 116.87343 -25.85112 4294967295
-23.199202 113.30767 -25.362236 4294967295
-23.195351 115.17268 -25.592367 4294967295
-23.191582 115.3318 -25.589832 4294967295
-23.191055 116.41759 -25.734859 4294967295
-23.182404 115.80688 -25.595634 4294967295
-23.181614 117.35799 -25.80254 4294967295
-23.180349 117.51438 -25.815765 4294967295
-23.171507 119.22895 -25.993097 4294967295
-23.167635 117.21835 -25.693378 4294967295
-23.166016 117.99522 -25.78911 4294967295
-23.163363 119.0831 -25.920687 4294967295
-23.16016 115.67594 -25.434385 4294967295
-23.150723 119.87215 -25.94706 4294967295
-23.150694 116.61673 -25.501972 4294967295
-23.147715 120.03051 -25.94931 4294967295
-23.146393 118.48204 -25.729189 4294967295
-23.144835 116.31297 -25.422693 4294967295
-30.080425 121.06258 -26.875301 4294967295
-30.076847 121.52987 -26.916563 4294967295
-30.075891 120.29653 -26.735544 4294967295
-30.054094 121.40354 -26.740957 4294967295
-30.047211 121.25765 -26.672606 4294967295
-30.04417 120.48952 -26.542912 4294967295
-30.039097 120.95887 -26.574095 4294967295
-30.021944 120.82545 -26.436319 4294967295
-29.924177 120.29032 -26.778887 4294967295
-29.90826 120.61838 -26.715075 4294967295
-29.903063 120.77907 -26.701797 4294967295
-29.90246 120.16234 -26.610497 4294967295
-29.892282 121.71837 -26.759901 4294967295
-29.887587 121.87849 -26.750019 4294967295
-29.884579 120.95601 -26.598873 4294967295
-29.879026 121.42594 -26.626837 4294967295
-29.859837 121.14066 -26.453722 4294967295
-29.853449 121.61174 -26.476068 4294967295
-29.77632 120.43378 -26.86994 4294967295
-29.762768 120.60458 -26.800425 4294967295
-29.74861 121.70222 -26.857552 4294967295
-29.735622 120.79198 -26.639339 4294967295
-29.729471 121.10825 -26.641489 4294967295
-29.718002 120.96785 -26.542439 4294967295
-29.716721 120.35175 -26.4466 4294967295
-29.71669 121.27826 -26.577183 4294967295
-29.714815 121.89812 -26.651724 4294967295
-29.705803 121.6004 -26.547443 4294967295
-29.600433 120.76562 -26.794088 4294967295
-29.592503 120.31214 -26.675434 4294967295
-29.568886 121.57594 -26.690802 4294967295
-29.559698 121.74158 -26.650805 4294967295
-29.544151 120.21622 -26.328434 4294967295
-29.543249 121.45291 -26.496639 4294967295
-29.541544 120.68277 -26.376266 4294967295
-29.540457 121.14745 -26.434309 4294967295
-29.522173 121.94205 -26.420279 4294967295
-29.451818 120.60129 -26.83651 4294967295
-29.42754 121.24825 -26.760532 4294967295
-29.424259 120.17147 -26.586206 4294967295
-29.420221 120.48518 -26.60261 4294967295
-29.407372 120.3463 -26.494583 4294967295
-29.400547 120.81787 -26.51405 4294967295
-29.392715 121.90838 -26.613821 4294967295
-29.389698 121.44881 -26.528276 4294967295
-29.387486 121.76037 -26.556948 4294967295
-29.383966 121.14691 -26.446274 4294967295
-29.381634 120.99529 -26.408852 4294967295
-29.299183 120.13311 -26.808434 4294967295
-29.290232 120.60703 -26.813652 4294967295
-29.282396 121.23399 -26.848083 4294967295
-29.280172 120.77358 -26.767971 4294967295
-29.253653 120.34242 -26.52499 4294967295
-29.240267 121.59411 -26.609257 4294967295
-29.23908 121.74998 -26.623039 4294967295
-29.232855 121.44872 -26.537834 4294967295
-29.231325 120.98724 -26.462351 4294967295
-29.22942 120.52614 -26.384329 4294967295
-29.224371 121.15014 -26.437498 4294967295
-29.196287 121.95676 -26.358059 4294967295
-29.124649 120.77195 -26.78595 4294967295
-29.120661 121.23993 -26.824423 4294967295
-29.112814 120.47744 -26.663317 4294967295
-29.108116 121.56395 -26.783957 4294967295
-29.107918 120.63777 -26.652277 4294967295
-29.107264 121.87376 -26.821686 4294967295
-29.084604 121.12929 -26.561487 4294967295
-29.07659 120.21218 -26.377474 4294967295
-29.069008 121.76604 -26.544083 4294967295
-29.062447 121.46512 -26.456722 4294967295
-28.980148 120.13947 -26.79077 4294967295
-28.95619 120.78593 -26.717569 4294967295
-28.943365 121.11028 -26.675327 4294967295
-28.939922 120.34223 -26.543787 4294967295
-28.932901 121.58625 -26.670582 4294967295
-28.917664 120.67798 -26.438536 4294967295
-28.913349 120.99215 -26.453154 4294967295
-28.900211 121.93496 -26.49571 4294967295
-28.88669 121.79695 -26.383711 4294967295
-28.805006 120.47019 -26.721323 4294967295
-28.7735 121.58926 -26.663118 4294967295
-28.772379 121.43619 -26.633945 4294967295
-28.769901 121.74808 -26.660816 4294967295
-28.766724 120.6707 -26.487761 4294967295
-28.766674 120.20729 -26.422331 4294967295
-28.760593 120.36909 -26.403482 4294967295
-28.755543 121.92 -26.586796 4294967295
-28.753469 120.99565 -26.442793 4294967295
-28.740271 120.85707 -26.33309 4294967295
-28.726315 121.3375 -26.305159 4294967295
-28.63361 121.41419 -26.763943 4294967295
-28.621037 120.50266 -26.550198 4294967295
-28.615652 121.89926 -26.709452 4294967295
-28.615355 121.12737 -26.5991 4294967295
-28.614122 120.66544 -26.525862 4294967295
-28.606569 120.829 -26.497261 4294967295
-28.60401 121.75895 -26.61031 4294967295
-28.603079 120.9877 -26.495716 4294967295
-28.601576 121.29848 -26.529074 4294967295
-28.564327 121.65258 -26.324554 4294967295
-28.488613 120.62767 -26.743944 4294967295
-28.469248 121.57763 -26.745216 4294967295
-28.467346 120.80766 -26.624283 4294967295
-28.465969 121.89047 -26.766747 4294967295
-28.46343 121.1213 -26.641586 4294967295
-28.459221 120.35395 -26.505301 4294967295
-28.457853 121.28249 -26.6262 4294967295
-28.447102 120.21394 -26.403095 4294967295
-28.438963 120.53271 -26.392359 4294967295
-28.434521 121.00162 -26.427849 4294967295
-28.404488 121.81052 -26.336662 4294967295
-28.322733 120.32944 -26.650295 4294967295
-28.306536 120.50329 -26.564486 4294967295
-28.30477 121.7412 -26.725929 4294967295
-28.304182 121.27852 -26.65711 4294967295
-28.297256 120.97788 -26.567875 4294967295
-28.282692 121.92239 -26.601162 4294967295
-28.280504 121.15252 -26.478416 4294967295
-28.275448 120.84955 -26.401567 4294967295
-28.27371 120.23344 -26.303429 4294967295
-28.266443 121.4785 -26.42845 4294967295
-28.259953 120.71357 -26.277124 4294967295
-28.249275 121.65376 -26.336239 4294967295
-28.148977 120.50394 -26.569712 4294967295
-28.145838 120.19867 -26.505655 4294967295
-28.143347 120.66518 -26.554049 4294967295
-28.13047 120.37151 -26.425507 4294967295
-28.121918 120.99988 -26.45542 4294967295
-28.114159 121.16372 -26.42568 4294967295
-28.106865 121.48158 -26.42065 4294967295
-28.106562 121.79101 -26.46191 4294967295
-28.102821 120.86821 -26.307322 4294967295
-28.063738 121.99731 -26.200045 4294967295
-27.98036 121.29036 -26.609968 4294967295
-27.97929 121.60064 -26.64612 4294967295
-27.976704 121.44926 -26.607416 4294967295
-27.969385 120.68541 -26.450956 4294967295
-27.963814 121.15569 -26.478981 4294967295
-27.963644 120.38315 -26.369762 4294967295
-27.954559 121.93947 -26.5259 4294967295
-27.952364 120.8603 -26.36005 4294967295
-27.940102 121.80238 -26.408724 4294967295
-27.936441 121.03392 -26.276423 4294967295
-27.835987 120.5027 -26.594418 4294967295
-27.832438 120.81596 -26.614182 4294967295
-27.820803 120.36623 -26.472599 4294967295
-27.81889 120.98666 -26.546375 4294967295
-27.817335 121.14304 -26.55772 4294967295
-27.791929 120.70972 -26.325253 4294967295
-27.788036 121.79636 -26.450788 4294967295
-27.787371 121.33348 -26.381586 4294967295
-27.757078 121.5244 -26.203314 4294967295
-27.674036 120.35401 -26.549322 4294967295
-27.649605 120.53757 -26.409937 4294967295
-27.648798 121.15678 -26.490978 4294967295
-27.641476 121.47466 -26.485905 4294967295
-27.630196 121.02442 -26.34684 4294967295
-27.606306 121.67139 -26.275826 4294967295
-27.518665 120.97014 -26.655556 4294967295
-27.485298 121.16446 -26.457676 4294967295
-27.48398 120.85687 -26.405865 4294967295
-27.482565 120.39478 -26.331837 4294967295
-27.470013 120.25501 -26.227694 4294967295
-27.461939 121.81071 -26.390354 4294967295
-27.461685 120.72877 -26.237658 4294967295
-27.454842 121.66463 -26.322104 4294967295
-27.442015 121.52536 -26.216181 4294967295
-27.347157 120.83279 -26.547977 4294967295
-27.338629 120.22459 -26.405775 4294967295
-27.337551 120.38045 -26.420252 4294967295
-27.322435 121.32592 -26.450331 4294967295
-27.317261 121.0229 -26.373251 4294967295
-27.31081 121.80357 -26.438669 4294967295
-27.298536 121.66365 -26.336544 4294967295
-27.296705 121.51122 -26.302969 4294967295
-27.206736 120.3494 -26.60153 4294967295
-27.167124 120.55078 -26.363407 4294967295
-27.156464 121.80027 -26.465853 4294967295
-27.146154 121.65799 -26.376751 4294967295
-27.139612 121.2019 -26.269251 4294967295
-27.137606 121.35892 -26.277637 4294967295
-27.13336 120.90002 -26.185171 4294967295
-27.126793 121.06248 -26.163673 4294967295
-27.118645 121.53616 -26.174915 4294967295
-27.02644 120.22215 -26.43697 4294967295
-27.02087 121.00172 -26.508121 4294967295
-27.019112 121.46756 -26.561172 4294967295
-27.013859 121.6284 -26.548332 4294967295
-26.992426 120.72615 -26.278942 4294967295
-26.983297 121.2009 -26.2838 4294967295
-26.972406 120.59512 -26.12641 4294967295
-26.971514 121.36954 -26.228226 4294967295
-26.970583 121.83461 -26.286718 4294967295
-26.88402 120.20486 -26.541967 4294967295
-26.865719 120.9994 -26.529938 4294967295
-26.860907 120.38664 -26.412466 4294967295
-26.842327 120.87244 -26.355614 4294967295
-26.839508 120.72112 -26.315685 4294967295
-26.832788 121.50228 -26.379343 4294967295
-26.823484 121.82262 -26.361597 4294967295
-26.821007 120.58827 -26.173304 4294967295
-26.804348 121.69074 -26.21509 4294967295
-26.798628 121.38818 -26.134695 4294967295
-26.797632 121.23466 -26.106682 4294967295
-26.709026 120.53506 -26.477249 4294967295
-26.706221 121.15681 -26.544895 4294967295
-26.683474 121.49298 -26.439545 4294967295
-26.674723 120.73009 -26.275005 4294967295
-26.672222 121.66096 -26.387669 4294967295
-26.670015 121.35429 -26.330292 4294967295
-26.664579 120.27795 -26.144346 4294967295
-26.660746 120.43716 -26.140848 4294967295
-26.647972 121.84444 -26.251047 4294967295
-26.560246 120.216 -26.497698 4294967295
-26.545773 121.00611 -26.510822 4294967295
-26.531885 120.86784 -26.398939 4294967295
-26.531284 120.09525 -26.287634 4294967295
-26.525457 120.56609 -26.314131 4294967295
-26.524515 121.49512 -26.436859 4294967295
-26.520134 120.41766 -26.257992 4294967295
-26.515327 121.66064 -26.398535 4294967295
-26.515137 121.81552 -26.418766 4294967295
-26.501472 120.74895 -26.179441 4294967295
-26.49029 121.38094 -26.192577 4294967295
-26.380838 120.24201 -26.361919 4294967295
-26.372211 120.56145 -26.34877 4294967295
-26.37079 121.49105 -26.468302 4294967295
-26.366125 121.0326 -26.373589 4294967295
-26.362867 121.34576 -26.395348 4294967295
-26.351709 121.66827 -26.365751 4294967295
-26.343416 120.90462 -26.204527 4294967295
-26.34244 120.75107 -26.176706 4294967295
-26.338463 121.83865 -26.301128 4294967295
-26.331476 120.45446 -26.0625 4294967295
-26.226963 121.16604 -26.521061 4294967295
-26.205776 121.80962 -26.469368 4294967295
-26.202719 120.26642 -26.23505 4294967295
-26.201759 121.50505 -26.400415 4294967295
-26.20129 120.4228 -26.247229 4294967295
-26.189114 120.90118 -26.232567 4294967295
-26.187246 121.67686 -26.327702 4294967295
-26.179562 120.60293 -26.127676 4294967295
-26.166971 121.39137 -26.153259 4294967295
-26.070103 120.23772 -26.403522 4294967295
-26.058008 121.17989 -26.453741 4294967295
-26.054382 120.56542 -26.344538 4294967295
-26.045122 120.1121 -26.220236 4294967295
-26.042742 120.88844 -26.311989 4294967295
-26.039482 121.66571 -26.398035 4294967295
-26.010973 120.7709 -26.084749 4294967295
-26.001251 120.47272 -25.978876 4294967295
-25.996738 121.56139 -26.099747 4294967295
-25.889175 121.03883 -26.366125 4294967295
-25.886229 120.73287 -26.304243 4294967295
-25.871195 121.21461 -26.271269 4294967295
-25.866348 120.13708 -26.089958 4294967295
-25.865246 121.53104 -26.275631 4294967295
-25.857492 120.30215 -26.054106 4294967295
-25.857246 120.61196 -26.095373 4294967295
-25.836241 121.87469 -26.13093 4294967295
-25.754873 120.85735 -26.501801 4294967295
-25.732189 121.50262 -26.440948 4294967295
-25.731833 120.72954 -26.331644 4294967295
-25.729546 121.19633 -26.381077 4294967295
-25.726791 120.42596 -26.256283 4294967295
-25.726595 120.27145 -26.233604 4294967295
-25.706169 121.06896 -26.208754 4294967295
-25.663296 121.89311 -26.039021 4294967295
-25.59432 120.24245 -26.403727 4294967295
-25.590143 120.09258 -26.355423 4294967295
-25.577919 120.41619 -26.319387 4294967295
-25.553389 121.83737 -26.353746 4294967295
-25.534788 121.70448 -26.212494 4294967295
-25.534214 121.55039 -26.187405 4294967295
-25.532438 121.08816 -26.111786 4294967295
-25.530584 120.78075 -26.057045 4294967295
-25.530373 120.6262 -26.034283 4294967295
-25.528507 120.93796 -26.065044 4294967295
-25.510902 121.26811 -25.994368 4294967295
-25.438549 120.24073 -26.422157 4294967295
-25.417494 120.72931 -26.350763 4294967295
-25.405544 120.43369 -26.231125 4294967295
-25.402632 121.67502 -26.383347 4294967295
-25.397999 120.90673 -26.246683 4294967295
-25.388515 120.60822 -26.142902 4294967295
-25.38809 121.07303 -26.204302 4294967295
-25.373186 121.24519 -26.129766 4294967295
-25.356768 121.88356 -26.109646 4294967295
-25.262463 121.03616 -26.416868 4294967295
-25.258642 121.65948 -26.477728 4294967295
-25.247787 120.89848 -26.301235 4294967295
-25.238466 121.21883 -26.284073 4294967295
-25.231947 121.3812 -26.263544 4294967295
-25.231569 120.76254 -26.17568 4294967295
-25.229452 120.45541 -26.119356 4294967295
-25.226572 121.85176 -26.293095 4294967295
-25.213181 120.16459 -25.972073 4294967295
-25.196451 120.33875 -25.885954 4294967295
-25.187225 121.58822 -25.997641 4294967295
-25.101067 120.57671 -26.335417 4294967295
-25.092001 120.74196 -26.298611 4294967295
-25.091661 120.43282 -26.253744 4294967295
-25.08724 121.83074 -26.417446 4294967295
-25.070045 120.92219 -26.179132 4294967295
-25.068434 121.69798 -26.275518 4294967295
-25.062202 121.08609 -26.150173 4294967295
-25.0613 121.55152 -26.208429 4294967295
-25.054932 121.40415 -26.146231 4294967295
-25.054863 120.32049 -25.996349 4294967295
-25.025276 121.28384 -25.934702 4294967295
-24.944778 120.73028 -26.37221 4294967295
-24.941135 120.27019 -26.284901 4294967295
-24.940638 121.19933 -26.409655 4294967295
-24.93111 120.12694 -26.199362 4294967295
-24.910738 121.07925 -26.196896 4294967295
-24.909357 120.46161 -26.102722 4294967295
-24.888588 121.56943 -26.119064 4294967295
-24.887299 120.64191 -25.982805 4294967295
-24.865131 121.90646 -26.011564 4294967295
-24.75679 120.30124 -26.121092 4294967295
-24.75079 120.77262 -26.146685 4294967295
-24.748346 120.15611 -26.045792 4294967295
-24.74593 121.39751 -26.200876 4294967295
-24.743631 120.62605 -26.079609 4294967295
-24.727163 121.8838 -26.144876 4294967295
-24.707548 121.28721 -25.934227 4294967295
-24.706615 120.97852 -25.88562 4294967295
-24.70179 120.51939 -25.790785 4294967295
-24.593107 121.39224 -26.238922 4294967295
-24.589117 121.24205 -26.192162 4294967295
-24.580154 121.56209 -26.177563 4294967295
-24.577612 121.10053 -26.097437 4294967295
-24.566227 121.88794 -26.1313 4294967295
-24.563976 120.49679 -25.92518 4294967295
-24.553423 120.81872 -25.900448 4294967295
-24.542542 120.21158 -25.745739 4294967295
-24.540707 120.36861 -25.755344 4294967295
-24.52853 121.77692 -25.869459 4294967295
-24.45577 121.05948 -26.333029 4294967295
-24.455284 121.21484 -26.351215 4294967295
-24.439693 121.38767 -26.273163 4294967295
-24.423624 120.63202 -26.064352 4294967295
-24.420561 121.71948 -26.19385 4294967295
-24.417152 120.3297 -25.980532 4294967295
-24.412558 120.48985 -25.972549 4294967295
-24.411066 120.95621 -26.026917 4294967295
-24.410997 121.88543 -26.154205 4294967295
-24.405674 120.18796 -25.886093 4294967295
-24.275301 121.08611 -26.195032 4294967295
-24.264318 120.63417 -26.061352 4294967295
-24.253246 120.95664 -26.033461 4294967295
-24.24823 121.27219 -26.044109 4294967295
-24.238306 120.19925 -25.832018 4294967295
-24.233072 120.82494 -25.883854 4294967295
-24.231176 121.91145 -26.020739 4294967295
-24.230066 121.60295 -25.971128 4294967295
-24.220966 120.37402 -25.742998 4294967295
-24.219364 120.53081 -25.754082 4294967295
-24.20602 121.47583 -25.796907 4294967295
-24.112923 120.7821 -26.129946 4294967295
-24.100264 121.72585 -26.17709 4294967295
-24.096586 121.57524 -26.13249 4294967295
-24.086681 120.34747 -25.89949 4294967295
-24.082191 120.19766 -25.84971 4294967295
-24.079966 121.12974 -25.963167 4294967295
-24.079229 121.90508 -26.064795 4294967295
-24.068541 121.29781 -25.911871 4294967295
-24.06575 120.68128 -25.809084 4294967295
-24.065607 121.45612 -25.914505 4294967295
-24.061747 120.53091 -25.762388 4294967295
-23.983027 120.1312 -26.228561 4294967295
-23.974829 120.75995 -26.261541 4294967295
-23.957014 121.86433 -26.297255 4294967295
-23.954725 120.47321 -26.091591 4294967295
-23.935434 120.34032 -25.948023 4294967295
-23.931986 121.7384 -26.117359 4294967295
-23.918264 121.13459 -25.945391 4294967295
-23.902254 121.30792 -25.865147 4294967295
-23.892458 121.00926 -25.760523 4294967295
-23.812479 120.45586 -26.196815 4294967295
-23.787048 120.32995 -26.014597 4294967295
-23.786455 120.1757 -25.989605 4294967295
-23.78051 121.57663 -26.143036 4294967295
-23.745646 121.46183 -25.901146 4294967295
-23.742867 120.69022 -25.77737 4294967295
-23.738455 121.16017 -25.813158 4294967295
-23.72813 121.327 -25.769054 4294967295
-23.727356 121.7928 -25.827858 4294967295
-23.722656 121.95319 -25.819359 4294967295
-23.638388 121.71387 -26.270203 4294967295
-23.620506 121.26975 -26.093588 4294967295
-23.616165 120.34516 -25.938845 4294967295
-23.610296 120.81667 -25.96541 4294967295
-23.602774 121.44501 -26.002747 4294967295
-23.60214 121.91051 -26.062387 4294967295
-23.597317 120.52156 -25.84094 4294967295
-23.592268 121.14717 -25.893921 4294967295
-23.580288 121.00591 -25.796993 4294967295
-23.482296 120.31831 -26.09701 4294967295
-23.479271 120.47665 -26.099121 4294967295
-23.47801 121.56237 -26.239544 4294967295
-23.472345 120.63945 -26.07663 4294967295
-23.45857 121.11993 -26.05332 4294967295
-23.454763 120.81441 -25.986887 4294967295
-23.454533 120.9696 -26.006634 4294967295
-23.448761 121.90578 -26.097425 4294967295
-23.428825 120.22399 -25.7384 4294967295
-23.421227 121.47257 -25.860126 4294967295
-23.418161 121.78603 -25.883209 4294967295
-23.41185 121.32832 -25.779762 4294967295
-23.310249 120.64466 -26.056618 4294967295
-23.310061 121.41949 -26.161345 4294967295
-23.30517 120.34055 -25.982241 4294967295
-23.292021 120.51041 -25.920601 4294967295
-23.288893 121.13381 -25.985653 4294967295
-23.278259 121.61083 -25.982244 4294967295
-23.269857 121.77543 -25.95051 4294967295
-23.266275 120.2296 -25.716017 4294967295
-23.257576 121.01455 -25.767199 4294967295
-23.168007 120.16255 -26.09812 4294967295
-23.140274 121.12366 -26.05073 4294967295
-22.998486 99.232475 -25.212284 4294967295
-22.842503 97.989197 -25.060463 4294967295
-22.813627 99.101677 -25.027454 4294967295
-21.728991 97.839066 -25.030285 4294967295
-23.119604 100.81799 -25.187202 4294967295
-23.117565 99.888947 -25.047127 4294967295
-23.114775 102.21861 -25.347586 4294967295
-23.107153 100.3641 -25.045185 4294967295
-23.105976 100.21001 -25.016562 4294967295
-23.084713 102.40219 -25.179585 4294967295
-23.080795 102.09559 -25.112513 4294967295
-23.078596 101.47697 -25.013855 4294967295
-23.072475 101.79309 -25.017733 4294967295
-23.070398 103.81205 -25.280273 4294967295
-23.067268 105.05591 -25.430098 4294967295
-23.06707 102.72924 -25.110941 4294967295
-23.064432 103.35237 -25.179144 4294967295
-23.062603 103.66441 -25.210032 4294967295
-23.057632 104.44485 -25.284733 4294967295
-23.055756 105.22222 -25.378872 4294967295
-23.043825 103.2169 -25.028269 4294967295
-23.039103 104.61794 -25.18935 4294967295
-23.037624 103.99873 -25.095268 4294967295
-23.028177 105.71455 -25.268982 4294967295
-23.026394 105.87142 -25.278967 4294967295
-23.025307 105.56223 -25.229744 4294967295
-23.020855 106.03199 -25.265324 4294967295
-23.016666 105.41553 -25.154203 4294967295
-23.013834 104.95279 -25.072798 4294967295
-22.991888 99.703934 -25.234373 4294967295
-22.975227 100.80525 -25.277939 4294967295
-22.967358 99.571297 -25.058945 4294967295
-22.962376 100.19657 -25.1124 4294967295
-22.937363 101.77148 -25.167072 4294967295
-22.929043 102.08963 -25.157162 4294967295
-22.928629 102.55547 -25.218124 4294967295
-22.915142 104.74007 -25.429893 4294967295
-22.906548 102.88674 -25.12175 4294967295
-22.902851 102.42471 -25.034962 4294967295
-22.899858 105.22023 -25.397432 4294967295
-22.898886 103.98017 -25.221907 4294967295
-22.898571 105.53168 -25.431683 4294967295
-22.895451 103.67316 -25.157955 4294967295
-22.88986 106.1606 -25.461678 4294967295
-22.887554 103.37037 -25.065985 4294967295
-22.876757 105.70814 -25.31588 4294967295
-22.874918 104.31358 -25.113726 4294967295
-22.871805 104.93726 -25.178904 4294967295
-22.867193 104.16584 -25.044014 4294967295
-22.865816 104.63273 -25.098919 4294967295
-22.849298 105.89018 -25.164654 4294967295
-22.84827 105.42567 -25.094658 4294967295
-22.817501 100.3395 -25.221197 4294967295
-22.791731 100.67368 -25.10181 4294967295
-22.776796 100.84272 -25.029266 4294967295
-22.774286 102.70712 -25.267591 4294967295
-22.770168 101.31448 -25.051205 4294967295
-22.766121 103.18029 -25.279871 4294967295
-22.752895 103.34804 -25.218092 4294967295
-22.752001 103.65919 -25.254812 4294967295
-22.750561 102.10883 -25.03406 4294967295
-22.749611 104.74741 -25.387957 4294967295
-22.746216 104.28532 -25.303188 4294967295
-22.738754 105.06818 -25.362206 4294967295
-22.737043 102.8976 -25.055143 4294967295
-22.734188 105.69308 -25.418219 4294967295
-22.733316 106.15925 -25.476221 4294967295
-22.718765 104.46693 -25.152225 4294967295
-22.709391 105.25185 -25.199276 4294967295
-22.707401 104.1675 -25.038616 4294967295
-22.703316 104.63703 -25.076513 4294967295
-22.694971 105.57625 -25.151201 4294967295
-22.692305 104.95808 -25.049809 4294967295
-22.68539 106.05115 -25.154644 4294967295
-22.66889 105.91212 -25.030041 4294967295
-22.645676 99.576195 -25.033903 4294967295
-22.627428 100.83458 -25.088881 4294967295
-22.62455 100.52684 -25.028515 4294967295
-22.624445 101.61327 -25.175989 4294967295
-22.623278 101.76953 -25.189842 4294967295
-22.616777 101.46525 -25.106806 4294967295
-22.61091 102.55699 -25.218159 4294967295
-22.609476 103.02382 -25.272635 4294967295
-22.590235 102.1109 -25.025181 4294967295
-22.584034 102.42716 -25.028664 4294967295
-22.579752 105.68966 -25.446032 4294967295
-22.573278 104.60999 -25.25749 4294967295
-22.570978 104.76737 -25.264248 4294967295
-22.568745 104.45921 -25.207958 4294967295
-22.559591 104.31284 -25.129505 4294967295
-22.557325 105.86669 -25.326813 4294967295
-22.548018 105.56546 -25.226267 4294967295
-22.543964 105.41424 -25.179747 4294967295
-22.54324 104.94938 -25.111755 4294967295
-22.534916 105.11264 -25.080797 4294967295
-22.520929 106.05746 -25.120186 4294967295
-22.50658 99.248383 -25.115353 4294967295
-22.473131 100.83101 -25.117571 4294967295
-22.468302 101.92178 -25.235367 4294967295
-22.464951 100.52816 -25.024101 4294967295
-22.450275 102.5594 -25.207205 4294967295
-22.44627 101.632 -25.055292 4294967295
-22.432371 102.26586 -25.052967 4294967295
-22.426886 102.89187 -25.103239 4294967295
-22.426193 104.13399 -25.268032 4294967295
-22.423706 105.6878 -25.463793 4294967295
-22.408371 103.21983 -25.029776 4294967295
-22.404581 104.46509 -25.175219 4294967295
-22.403004 103.84581 -25.08079 4294967295
-22.401182 104.62355 -25.175112 4294967295
-22.401123 105.86494 -25.343809 4294967295
-22.391359 104.94341 -25.155987 4294967295
-22.382278 104.79697 -25.078096 4294967295
-22.378212 106.04249 -25.22179 4294967295
-22.375587 105.26907 -25.099703 4294967295
-22.371542 105.11778 -25.053278 4294967295
-22.328924 99.886948 -25.082479 4294967295
-22.328163 99.732422 -25.056591 4294967295
-22.324562 100.20136 -25.097498 4294967295
-22.302639 101.92885 -25.193031 4294967295
-22.300962 101.1544 -25.07692 4294967295
-22.2642 102.74096 -25.058701 4294967295
-22.260338 104.29664 -25.245857 4294967295
-22.260225 104.45193 -25.266273 4294967295
-22.259993 103.36581 -25.116953 4294967295
-22.247507 104.9297 -25.250278 4294967295
-22.243467 106.01977 -25.372892 4294967295
-22.242933 106.17544 -25.390673 4294967295
-22.234829 104.01064 -25.044413 4294967295
-22.233673 105.09824 -25.185074 4294967295
-22.224236 105.41778 -25.168436 4294967295
-22.210827 105.74121 -25.127028 4294967295
-22.202877 105.90417 -25.09856 4294967295
-22.18294 99.410164 -25.09964 4294967295
-22.167522 100.20031 -25.109085 4294967295
-22.153479 100.83408 -25.105995 4294967295
-22.152363 100.36943 -25.035679 4294967295
-22.146664 101.30603 -25.126852 4294967295
-22.14456 101.77361 -25.177094 4294967295
-22.134439 101.47259 -25.071764 4294967295
-22.109163 102.89326 -25.104256 4294967295
-22.101263 103.05594 -25.076138 4294967295
-22.090048 103.8427 -25.111816 4294967295
-22.083561 105.7113 -25.324699 4294967295
-22.077198 104.32064 -25.095093 4294967295
-22.073452 104.94511 -25.156191 4294967295
-22.066265 104.79681 -25.090313 4294967295
-22.065462 105.57367 -25.190861 4294967295
-22.064102 105.41978 -25.161276 4294967295
-22.063328 105.11009 -25.114233 4294967295
-22.006653 99.737045 -25.033567 4294967295
-21.984035 101.46538 -25.124924 4294967295
-21.965515 101.79305 -25.051859 4294967295
-21.960812 103.19446 -25.212496 4294967295
-21.950762 102.4278 -25.044455 4294967295
-21.941032 105.23077 -25.363642 4294967295
-21.940704 102.90297 -25.045179 4294967295
-21.937613 105.38925 -25.363466 4294967295
-21.927794 104.46754 -25.175842 4294967295
-21.926943 106.02027 -25.381458 4294967295
-21.918818 105.09701 -25.20439 4294967295
-21.912069 104.79305 -25.120235 4294967295
-21.885704 105.59467 -25.061749 4294967295
-21.88402 105.75155 -25.072369 4294967295
-21.834715 100.21528 -25.016024 4294967295
-21.828308 100.84216 -25.06057 4294967295
-21.811777 101.7889 -25.084385 4294967295
-21.811705 101.94421 -25.105019 4294967295
-21.803698 102.72785 -25.160702 4294967295
-21.797474 103.66502 -25.248528 4294967295
-21.794594 103.04687 -25.146307 4294967295
-21.773607 105.70538 -25.374306 4294967295
-21.76582 104.16076 -25.115164 4294967295
-21.761681 104.63042 -25.152716 4294967295
-21.757145 103.85851 -25.019121 4294967295
-21.755796 105.10175 -25.179407 4294967295
-21.749151 104.79766 -25.095985 4294967295
-21.746998 106.04156 -25.251242 4294967295
-21.736773 105.43055 -25.103445 4294967295
-21.718254 105.91422 -25.051723 4294967295
-21.6896 99.892799 -25.059807 4294967295
-21.684858 100.67336 -25.135778 4294967295
-21.659191 102.40463 -25.208324 4294967295
-21.658102 101.62946 -25.096207 4294967295
-21.632601 102.89523 -25.10659 4294967295
-21.620241 103.0621 -25.051006 4294967295
-21.620132 105.2354 -25.345264 4294967295
-21.619047 104.61562 -25.254292 4294967295
-21.61644 104.77333 -25.259188 4294967295
-21.606676 104.31696 -25.135452 4294967295
-21.602997 104.94143 -25.196911 4294967295
-21.59094 104.17668 -25.016808 4294967295
-21.56251 105.60138 -25.030188 4294967295
-21.558281 105.91602 -25.046114 4294967295
-21.538197 99.420792 -25.043457 4294967295
-21.512461 100.84159 -25.073566 4294967295
-21.497211 101.16613 -25.021225 4294967295
-21.489216 101.48405 -25.013824 4294967295
-21.467834 104.14338 -25.239388 4294967295
-21.465174 105.0772 -25.349199 4294967295
-21.464241 102.74949 -25.027636 4294967295
-21.462675 105.2348 -25.354776 4294967295
-21.457623 103.68732 -25.113001 4294967295
-21.453554 105.39877 -25.319374 4294967295
-21.449499 104.47129 -25.167976 4294967295
-21.440325 104.63528 -25.132233 4294967295
-21.436789 104.32812 -25.068237 4294967295
-21.43618 104.94975 -25.148691 4294967295
-21.422285 105.89461 -25.188999 4294967295
-21.410225 105.751 -25.093307 4294967295
-21.381983 99.263649 -25.039461 4294967295
-21.350323 101.77672 -25.180386 4294967295
-21.344837 101.316 -25.083324 4294967295
-21.339628 101.63134 -25.093195 4294967295
-21.330179 102.72693 -25.182077 4294967295
-21.32069 103.51204 -25.228609 4294967295
-21.309671 102.43551 -25.013184 4294967295
-21.307678 103.36903 -25.127125 4294967295
-21.30765 104.45579 -25.274218 4294967295
-21.304945 104.14788 -25.215429 4294967295
-21.297388 103.68925 -25.105604 4294967295
-21.293211 105.55616 -25.332226 4294967295
-21.292961 104.78025 -25.225512 4294967295
-21.291178 103.8504 -25.088251 4294967295
-21.285694 104.63193 -25.159565 4294967295
-21.285543 106.18441 -25.368973 4294967295
-21.275391 104.33118 -25.053804 4294967295
-21.271835 105.88721 -25.242207 4294967295
-21.198986 101.30461 -25.1646 4294967295
-21.184654 101.0072 -25.034027 4294967295
-21.184511 101.47319 -25.096243 4294967295
-21.154467 102.27738 -25.015915 4294967295
-21.15395 103.36484 -25.159933 4294967295
-21.149008 103.05892 -25.087376 4294967295
-21.137945 104.93252 -25.271399 4294967295
-21.132814 104.62691 -25.197695 4294967295
-21.12849 104.32047 -25.128973 4294967295
-21.127914 106.02876 -25.356638 4294967295
-21.113117 105.88779 -25.244349 4294967295
-21.106956 104.49619 -25.017115 4294967295
-21.094246 105.44012 -25.064857 4294967295
-21.090916 105.7539 -25.086355 4294967295
-21.004246 103.04635 -25.175507 4294967295
-20.989386 103.68136 -25.167971 4294967295
-20.987278 104.30441 -25.239035 4294967295
-20.983467 103.22105 -25.068459 4294967295
-20.982336 104.61961 -25.250601 4294967295
-20.97489 103.85028 -25.099667 4294967295
-20.971092 104.94082 -25.223341 4294967295
-20.963905 104.17123 -25.074018 4294967295
-20.962399 104.01736 -25.043711 4294967295
-20.950825 105.2707 -25.140518 4294967295
-20.934935 105.5965 -25.084652 4294967295
-20.927536 106.0695 -25.102125 4294967295
-20.92634 105.76005 -25.052736 4294967295
-20.880245 100.5302 -25.055201 4294967295
-20.869175 101.62738 -25.134085 4294967295
-20.856897 102.10456 -25.121525 4294967295
-20.85391 101.48609 -25.019135 4294967295
-20.833132 102.59246 -25.038292 4294967295
-20.82548 102.9102 -25.033215 4294967295
-20.825125 103.84233 -25.15703 4294967295
-20.819315 104.46893 -25.20528 4294967295
-20.798609 105.26501 -25.182898 4294967295
-20.795732 105.42304 -25.186203 4294967295
-20.774986 105.59818 -25.079615 4294967295
-20.716393 100.69054 -25.046673 4294967295
-20.672533 102.90525 -25.071026 4294967295
-20.667383 104.46302 -25.249235 4294967295
-20.648872 103.85927 -25.051611 4294967295
-20.645079 105.57114 -25.259125 4294967295
-20.625744 105.43431 -25.119427 4294967295
-20.624285 105.28039 -25.089483 4294967295
-20.623505 105.12582 -25.063705 4294967295
-20.613268 105.75686 -25.084787 4294967295
-20.553341 101.00547 -25.064188 4294967295
-20.508165 102.75557 -25.017796 4294967295
-20.502123 104.31439 -25.190458 4294967295
-20.48872 105.25883 -25.234076 4294967295
-20.48188 104.17812 -25.045361 4294967295
-20.480412 105.11143 -25.162178 4294967295
-20.479576 104.95692 -25.136084 4294967295
-20.469784 105.89808 -25.201853 4294967295
-23.136227 109.9521 -25.521292 4294967295
-23.126726 111.6674 -25.694553 4294967295
-23.125576 111.82362 -25.708492 4294967295
-23.121681 109.81191 -25.408552 4294967295
-23.120279 111.36404 -25.61162 4294967295
-23.113844 111.06061 -25.528759 4294967295
-23.109991 109.04826 -25.228992 4294967295
-23.105825 110.75875 -25.435926 4294967295
-23.103628 110.14062 -25.33733 4294967295
-23.098816 111.23126 -25.455389 4294967295
-23.095009 112.32071 -25.579752 4294967295
-23.084097 110.31581 -25.235607 4294967295
-23.075819 113.1162 -25.564972 4294967295
-23.073053 110.63746 -25.208515 4294967295
-23.064497 111.57714 -25.281851 4294967295
-23.063766 112.04327 -25.340837 4294967295
-23.059765 112.82298 -25.421618 4294967295
-23.046881 112.68144 -25.319391 4294967295
-23.031816 106.95179 -25.461359 4294967295
-23.026295 106.80218 -25.405464 4294967295
-23.024799 106.49346 -25.353687 4294967295
-23.021908 108.51236 -25.610855 4294967295
-23.019329 108.04978 -25.531115 4294967295
-23.012743 108.83172 -25.595596 4294967295
-23.003681 107.44509 -25.348026 4294967295
-23.00276 106.20495 -25.172718 4294967295
-23.000679 109.30912 -25.583302 4294967295
-22.998198 107.29544 -25.292358 4294967295
-22.995573 110.24461 -25.678247 4294967295
-22.993359 106.6797 -25.177179 4294967295
-22.991022 106.37168 -25.120098 4294967295
-22.979443 109.17563 -25.428669 4294967295
-22.977684 107.62619 -25.20577 4294967295
-22.977337 108.40221 -25.30953 4294967295
-22.973169 107.78586 -25.198572 4294967295
-22.972094 108.25237 -25.255384 4294967295
-22.968136 110.1177 -25.484686 4294967295
-22.967936 107.94625 -25.186865 4294967295
-22.967503 109.49797 -25.396 4294967295
-22.964018 107.17432 -25.056273 4294967295
-22.961653 109.96925 -25.422768 4294967295
-22.958853 109.0414 -25.278091 4294967295
-22.958586 111.52316 -25.615238 4294967295
-22.955633 110.75089 -25.490831 4294967295
-22.952166 111.6849 -25.596087 4294967295
-22.94803 110.91381 -25.464249 4294967295
-22.945572 109.83057 -25.300545 4294967295
-22.945326 110.60641 -25.404898 4294967295
-22.940956 108.74922 -25.123234 4294967295
-22.933201 112.79013 -25.625158 4294967295
-22.932308 112.32588 -25.556053 4294967295
-22.93198 112.48129 -25.575153 4294967295
-22.931538 112.17162 -25.530039 4294967295
-22.930416 110.46663 -25.290051 4294967295
-22.922935 111.24998 -25.348961 4294967295
-22.911255 111.41722 -25.29677 4294967295
-22.906803 112.6628 -25.438221 4294967295
-22.887524 112.99329 -25.359509 4294967295
-22.865824 107.11492 -25.43779 4294967295
-22.850906 106.66435 -25.280632 4294967295
-22.846104 108.06519 -25.441017 4294967295
-22.844694 106.82564 -25.262802 4294967295
-22.843218 108.99862 -25.549885 4294967295
-22.837326 107.29837 -25.280077 4294967295
-22.834429 106.99096 -25.219543 4294967295
-22.830912 108.39066 -25.388014 4294967295
-22.830532 109.78687 -25.576094 4294967295
-22.826942 109.17019 -25.468929 4294967295
-22.826542 108.23994 -25.339418 4294967295
-22.818979 109.95374 -25.524776 4294967295
-22.815248 107.78583 -25.205032 4294967295
-22.806664 107.48406 -25.108786 4294967295
-22.801846 111.67714 -25.650045 4294967295
-22.801758 108.88544 -25.268579 4294967295
-22.801699 108.73036 -25.24703 4294967295
-22.800362 107.95589 -25.132774 4294967295
-22.797243 109.35544 -25.303761 4294967295
-22.796356 109.51147 -25.319359 4294967295
-22.795477 111.99388 -25.652412 4294967295
-22.7883 110.45045 -25.395815 4294967295
-22.787579 111.22672 -25.497107 4294967295
-22.786201 111.07304 -25.467306 4294967295
-22.784412 112.93575 -25.709944 4294967295
-22.784367 108.59267 -25.117102 4294967295
-22.781124 110.30269 -25.329639 4294967295
