# .PCD v0.7 - Point Cloud Data file format
VERSION 0.7
FIELDS x y z
SIZE 4 4 4
TYPE F F F
COUNT 1 1 1
WIDTH 1559
HEIGHT 1
VIEWPOINT 0 0 0 1 0 0 0
POINTS 1559
DATA ascii
216.80562 47.437603 6.1835785
218.72011 47.671989 6.1983876
220.27905 46.945663 6.0333176
201.09283 48.012501 7.8653345
203.1375 48.709675 7.9059601
204.98647 48.586491 7.7155371
207.06218 48.728535 7.6424041
209.07799 48.946247 7.5268264
210.96429 48.92778 7.2467527
212.97165 48.980698 7.0529842
214.95766 48.953377 6.8750958
217.01117 48.961899 6.7197728
219.00462 48.961884 6.4569912
220.89203 49.214691 6.2947607
222.82793 49.353901 6.1925912
224.86484 49.580563 6.1443348
226.327 48.949238 6.0200996
207.02998 50.315746 7.8115525
209.07014 50.557735 7.7988677
211.06178 50.600212 7.7052631
212.96812 50.654892 7.5821443
215.06419 50.893997 7.42205
217.03008 50.937866 7.2641106
219.03172 50.919518 7.0872846
221.04483 50.978336 6.7975798
223.03529 50.94408 6.6289101
225.04515 50.981678 6.4951949
226.9532 51.254269 6.2871094
228.64932 51.323586 6.1092253
231.0876 51.810509 6.0852718
212.97803 52.000526 7.8914013
215.25635 52.372124 7.7692623
217.09259 52.652939 7.7161484
219.09547 52.857452 7.6502619
220.97258 52.953087 7.476469
223.05029 53.06517 7.2623038
225.05946 52.965427 7.082458
227.01541 52.985916 6.6394787
229.05595 53.027706 6.4931216
231.02077 53.300415 6.3499188
232.98016 53.480869 6.1728911
235.26677 53.650909 6.2478523
236.75549 53.265961 6.0359097
238.90526 52.878658 6.1821022
221.64233 54.539532 7.8027821
223.10846 54.878929 7.7808065
225.12021 54.912094 7.6491714
227.04065 54.973614 7.4292159
229.07317 54.961571 7.0898004
231.04776 54.965176 6.8185267
233.03163 55.014744 6.654923
235.05757 55.079491 6.4030776
237.0896 55.143944 6.356885
239.0844 55.398594 6.2956195
240.73793 55.169056 6.1700153
242.67165 55.786011 6.1814723
244.03256 55.782425 6.1061802
225.04024 56.223392 7.8526535
227.20444 56.681683 7.7991109
229.04448 56.887039 7.6352906
231.12985 56.94471 7.427959
233.08763 56.945778 7.2622871
235.06302 56.911644 7.0912662
237.09322 56.947514 6.911623
239.07669 57.002277 6.6785254
240.94644 57.08181 6.4860525
242.88791 57.073433 6.3885722
244.74835 57.365566 6.261158
246.55655 57.46188 6.1777811
248.87369 57.580887 6.1490116
229.24814 58.232769 7.9348574
231.1436 58.363815 7.848537
232.98894 58.667267 7.7548018
235.12241 58.706226 7.5578156
237.13544 58.922031 7.5462389
239.05463 59.021572 7.3389955
240.92908 58.99297 7.1282272
243.01593 58.960918 6.9278932
245.01227 58.894852 6.6535463
246.97815 59.160225 6.5393343
248.95836 59.166088 6.3219361
250.97368 59.177898 6.2278633
252.27991 59.507896 6.158565
235.91481 60.414806 7.9798336
237.37802 60.475998 7.8672342
239.00963 60.520229 7.7927332
241.10603 60.758816 7.6387882
243.06195 60.86771 7.4640822
244.96324 61.010086 7.3462
246.92201 60.978336 7.1455636
249.01933 60.953114 6.898562
251.0977 60.985142 6.636436
253.00032 61.119408 6.4261298
254.87598 61.03772 6.3185925
256.81177 61.401245 6.227674
258.35141 61.572601 6.136374
260.78046 61.201591 6.0332642
241.46333 62.194313 7.9075394
242.96829 62.428375 7.8768215
245.09796 62.566402 7.7580199
247.05751 62.875706 7.6297698
248.95064 62.902828 7.5191579
251.00218 62.894524 7.3168759
253.00529 62.999729 6.9413276
255.13148 62.99585 6.7291021
257.18851 63.100517 6.5159101
259.02206 63.265438 6.2325673
260.96323 63.254845 6.2009249
262.48798 63.266689 6.1151452
264.52454 63.465034 6.0334282
244.92368 64.063812 7.9478855
247.40887 64.020782 7.9219074
248.96188 64.568176 7.8259406
250.83536 64.562996 7.7454972
252.92688 64.785751 7.5799518
255.00424 64.89917 7.4301677
256.95486 64.936485 7.2643285
258.89703 64.960854 6.922163
260.87561 65.039413 6.6738591
262.8353 65.084618 6.476202
264.87607 65.241066 6.3447423
266.85754 65.430412 6.2735891
268.66779 65.636787 6.2714186
270.32214 65.714592 6.1519256
249.53094 66.079811 7.9856186
252.78871 66.340401 7.8563061
255.10362 66.594894 7.7422833
257.06598 66.797653 7.6238155
259.02841 66.722855 7.4621711
260.89639 66.971397 7.2865109
262.92267 66.965729 7.0787101
264.95532 67.007057 6.8365865
266.94455 67.011787 6.7040324
268.93063 67.03286 6.5238295
270.48178 67.207764 6.3340468
258.91745 68.396927 7.8517771
261.04932 68.665375 7.7056489
262.94193 68.785393 7.6286106
264.90793 68.87748 7.4778171
266.98224 68.979385 7.2983346
269.00769 68.927696 7.1916442
270.51468 69.014565 6.8466573
261.58887 70.508339 7.9731712
263.37723 70.167068 7.9368992
264.95596 70.376778 7.8225665
266.95087 70.714523 7.8015237
268.98041 70.818977 7.6963305
270.58887 70.849953 7.4964375
265.97491 72.539261 7.9781799
269.49182 72.303719 7.8445129
270.50452 72.311783 7.7615061
267.74847 91.31015 6.317194
267.76852 92.248894 6.6451683
237.409 169.05603 7.7945433
239.12134 169.09583 7.5760574
240.26289 169.12236 7.4304008
247.19734 168.98705 7.9685059
113.55286 -5.6083541 8.9724102
120.70767 -5.7678633 8.7950754
123.95113 -5.7578049 8.5286942
111.52136 15.375117 8.1916981
112.99958 15.676473 8.0568209
111.37045 16.939552 8.6146755
113.00714 16.990486 8.3747072
114.96072 17.078352 8.2610836
117.00262 17.252522 8.2053566
118.64333 17.087183 8.0887709
111.28569 18.973101 9.2079678
113.00324 19.01594 9.0572805
115.02474 18.92816 8.9103937
117.06564 19.003519 8.6946354
119.09392 19.066578 8.4872589
121.12215 19.178883 8.2448387
122.76919 19.419025 8.2045383
124.38928 19.381313 8.075757
111.16861 20.511665 9.6889858
113.19282 21.019032 9.5803375
115.06488 20.980665 9.4924126
117.11841 21.017506 9.3557329
119.04794 20.970531 9.1136017
121.05806 20.984838 8.8628864
123.07108 20.922922 8.6366158
125.0611 21.038532 8.3972425
127.02171 21.200924 8.2660255
128.97261 21.386099 8.1463232
130.9568 21.635344 8.1036196
132.3064 21.748335 8.0858288
112.662 22.640667 9.9326439
115.1457 22.507639 9.8581839
117.13284 22.537504 9.7282982
119.15772 22.840836 9.6561289
121.1367 23.007961 9.4994068
123.11678 23.002344 9.2823277
125.11745 22.949297 9.0681753
127.10352 22.9636 8.7793598
129.07587 22.969038 8.5040922
131.04836 22.995676 8.3442926
133.06996 23.314638 8.296546
134.70193 23.288517 8.1516218
136.70451 23.793612 8.0701885
121.39833 24.786518 9.8941193
123.26827 24.832336 9.8034763
125.17492 24.983904 9.656003
127.15501 24.951859 9.4255733
129.13469 25.016947 9.2265692
131.10989 24.901098 8.932004
133.10576 24.934504 8.7096157
135.05292 25.017746 8.411294
136.96841 25.258396 8.2666874
138.91187 25.5378 8.1722841
141.42892 25.686161 8.1417751
125.23441 26.444056 9.8014593
127.18787 26.418577 9.7300072
129.16629 26.795647 9.7297115
131.18279 26.925001 9.5463686
133.09451 26.931969 9.3563452
135.09799 26.936522 9.0903921
137.11015 26.955626 8.7779999
139.09576 27.010614 8.5023203
141.00952 27.205755 8.3363857
142.90034 27.332291 8.20543
145.13268 27.541155 8.1978741
146.92123 27.456354 8.1425095
148.37975 27.756796 8.1552582
131.43144 28.426777 9.8120079
133.38826 28.497026 9.772089
135.1946 28.835474 9.7006655
137.16913 28.936398 9.3865194
139.12491 28.927946 9.1054325
141.11972 28.963804 8.877389
143.12579 29.053921 8.6374969
145.1143 29.026228 8.444499
147.12346 29.001711 8.3682089
148.96542 29.292421 8.1607828
150.84549 29.467545 8.3370867
152.50746 29.275192 8.0336542
133.92256 30.058815 9.8744621
135.33127 30.551008 9.8958035
137.1964 30.739744 9.7726192
139.15407 30.737104 9.6837149
141.17143 30.898775 9.5211191
143.10326 31.055367 9.4090481
145.11047 30.949947 9.2688808
147.01291 30.915735 8.9906578
148.97273 31.034876 8.8275814
151.06978 30.963203 8.5480165
153.09616 31.106405 8.29778
154.83168 31.329636 8.2248602
156.82143 31.522552 8.1160583
159.05815 31.835585 8.0201521
137.09628 32.12756 9.8725262
139.55336 32.037106 9.9364491
141.40161 32.29454 9.7025681
143.35342 32.828823 9.8552742
144.92256 32.953598 9.7967272
146.9826 32.87817 9.5704193
149.04175 32.94556 9.4095964
150.98965 32.917492 9.1483831
152.99153 33.001446 9.0029411
155.08789 32.985142 8.6566381
157.1078 33.060898 8.4757652
159.01453 33.089165 8.314847
161.00146 33.380993 8.2336407
162.94789 33.558033 8.1264191
164.07338 32.947998 8.1412048
166.06079 33.788296 8.0616779
143.93428 34.102371 9.8606358
145.54362 34.103527 9.7486753
147.51233 34.506779 9.9066792
149.07657 34.716347 9.8151808
150.82149 34.701488 9.76052
152.93549 34.85482 9.5302248
154.98782 34.963131 9.380394
156.98134 35.011162 9.2532969
158.90027 34.897293 8.928813
161.01018 34.963856 8.6633959
163.07301 35.090858 8.4773474
164.91736 35.021725 8.2277107
166.9119 35.658672 8.2886667
168.85573 35.020405 8.0271683
152.98274 36.153774 9.8229876
155.1779 36.488693 9.7272263
157.0069 36.85574 9.7024355
158.86787 36.923332 9.5915918
160.89124 36.89151 9.3315153
162.96095 36.938427 9.0718527
165.00531 36.957069 8.8880272
166.92551 37.016529 8.5127516
168.92368 37.307362 8.3398657
170.77863 37.271713 8.1530895
172.61775 37.889832 8.1429253
175.25197 37.875675 8.0036411
186.91718 37.359692 8.570631
156.58035 38.310104 9.8007736
158.83359 38.311687 9.8336439
161.07976 38.584209 9.7467403
163.02354 38.770073 9.5856295
164.99182 38.911057 9.4364586
166.89828 38.978222 9.0987492
168.81808 39.007656 8.8445988
170.83391 39.038364 8.6297369
172.84169 39.126808 8.4597502
174.74654 39.222073 8.302207
176.7912 39.244579 8.2219906
178.92369 39.633034 8.1589355
180.68869 39.864723 8.0600157
161.63971 40.043144 9.9858303
162.98622 40.03973 9.9054661
165.19858 40.655605 9.7691355
166.94855 40.762413 9.6859703
168.88893 40.958549 9.4415092
170.92995 40.900307 9.2372961
172.87231 41.011051 8.9993734
174.84506 41.015205 8.8104515
176.87247 41.003262 8.7080431
178.87875 41.025459 8.5166464
180.89288 41.192703 8.3949299
182.71425 41.38792 8.264698
184.61462 41.651222 8.1852741
189.86957 41.315456 8.1586494
190.89766 41.227768 8.1331873
194.37703 41.242874 8.0529003
167.4539 42.065025 9.9267092
169.01273 42.560371 9.8748074
170.89754 42.689827 9.6773443
172.9408 42.806416 9.6761742
174.90054 42.885853 9.534564
176.88396 42.939857 9.3920755
178.86815 43.016777 9.1789131
180.9371 43.051861 8.8649416
182.93958 42.989254 8.6831913
184.87636 43.090275 8.4338932
186.78464 43.208214 8.2947931
188.85025 43.537056 8.2545366
190.83313 43.43956 8.1552315
192.31212 43.447369 8.0377054
196.33331 43.298302 8.1715107
171.63606 44.114677 9.9003105
172.99889 44.217922 9.9169569
174.81482 44.154694 9.7763433
176.95512 44.526596 9.805233
179.07529 44.86607 9.6964321
180.96974 44.885635 9.520443
182.95738 44.883976 9.3953276
184.93784 44.94606 9.0994205
186.93436 44.984352 8.8666449
188.94398 45.003544 8.683856
190.92741 45.069393 8.4736052
192.90453 45.210567 8.2935915
194.70401 45.452652 8.1379719
196.21638 45.024975 8.151926
175.62633 46.145267 9.9353352
179.52554 46.050575 9.9373255
181.26436 46.127762 9.847168
183.05646 46.524441 9.8013811
184.99207 46.694153 9.6946316
186.96724 46.890175 9.49967
188.95497 46.963768 9.305625
190.95726 46.971279 9.0221672
192.95551 47.007275 8.7952242
194.97641 47.012074 8.6513882
196.85582 47.305573 8.379282
198.86472 47.412483 8.2577839
200.92456 47.388794 8.1739016
203.04495 47.644562 8.1564627
184.91504 48.106133 9.8162727
187.11397 48.346989 9.8654871
189.10176 48.620716 9.7466717
191.021 48.864853 9.6379843
192.98688 48.915123 9.4231195
194.98474 48.951885 9.1945887
196.97905 48.993824 8.9520426
198.97704 49.030899 8.72262
200.98032 49.06089 8.5121193
202.80479 49.322273 8.2310219
204.8933 49.362713 8.2154579
206.84674 49.494587 8.1194239
208.53928 49.797764 8.0593414
210.31296 49.44175 8.0412693
189.76253 50.067341 9.986618
191.39104 50.053486 9.920331
193.26678 50.41893 9.8402081
195.06183 50.586807 9.7401991
197.02043 50.88765 9.6174345
199.00824 50.938473 9.3512287
200.97614 51.015816 9.013526
203.00291 51.014542 8.8874941
204.99734 51.056641 8.6448221
207.00378 51.099445 8.4479141
209.00938 51.176163 8.3273401
211.01602 51.389633 8.2074232
213.11795 51.603294 8.1522808
214.31555 51.655315 8.168169
216.32152 51.879799 8.0113468
195.3772 52.089661 9.9415627
197.2261 52.419975 9.8552952
198.97812 52.382374 9.6122952
201.04411 52.886826 9.6367464
203.01234 52.950417 9.4390059
205.03369 53.022408 9.2482319
207.06438 52.95269 9.1764231
209.07051 52.980507 8.9724789
211.03752 53.057899 8.6336555
213.05637 53.07 8.472332
214.98404 53.294697 8.3507786
217.01018 53.481625 8.174407
218.92657 53.608597 8.1871977
221.33926 53.897514 8.023633
199.78296 54.103756 9.9955807
201.31166 54.429321 9.9429808
203.32159 54.501602 9.8529253
205.09558 54.608624 9.8394232
207.13179 54.755135 9.6798429
209.08382 54.877956 9.531991
211.07889 54.967796 9.3031902
213.10689 54.953224 9.1689968
215.06348 55.04285 8.7959776
217.08023 55.058434 8.6258316
219.10248 55.067955 8.4723721
220.94507 55.258995 8.2404537
223.09413 55.686157 8.1345959
224.74258 55.512955 8.0680485
209.13989 56.417053 9.8966141
211.26344 56.721718 9.7530584
213.14943 56.856037 9.7067986
215.07201 56.952145 9.4711714
217.07101 56.952026 9.3858757
219.12848 56.981152 9.0872116
221.13158 57.014217 8.8695717
223.08342 57.026138 8.5761023
225.13139 57.215969 8.3803158
227.08203 57.498928 8.3353519
229.12405 57.948383 8.1436539
230.56693 57.731541 8.0642166
213.45874 58.326283 9.8525229
215.16959 58.357277 9.7794466
217.30389 58.598164 9.6488228
219.17102 58.882343 9.6334753
221.15027 58.902008 9.4513826
223.0316 58.940273 9.2310858
225.07263 59.023468 9.0593557
227.12129 59.008419 8.7853613
229.02765 59.188419 8.5098162
231.04372 59.242847 8.3087454
233.16777 59.449684 8.2281828
234.89311 59.508858 8.1958752
236.01836 59.912766 8.1898174
238.06499 59.900288 8.0993328
219.26006 60.283119 9.8627291
221.32272 60.409546 9.7397404
223.21591 60.668667 9.7341671
225.0275 60.698784 9.6183748
227.01427 60.738659 9.4235773
229.04037 61.065208 9.2088156
231.00322 61.126549 9.0270777
233.04489 60.990498 8.6155205
234.97667 61.133396 8.4165621
236.94229 61.179268 8.3966274
239.00949 61.411057 8.2125959
240.64594 61.426819 8.1436501
242.87358 61.847481 8.0835266
247.00075 61.870419 8.0099945
222.2856 62.140888 9.9615593
229.08215 62.232262 9.8961964
231.22029 62.357292 9.6107893
233.05042 62.798992 9.2488041
234.99568 63.032524 9.0707512
236.93207 63.005951 8.9276419
238.99261 63.061768 8.7439756
241.01163 63.060818 8.6243925
242.90816 63.243053 8.3926096
244.69792 63.350384 8.2668018
246.49529 63.579353 8.1986084
248.08099 63.957916 8.06287
250.5786 63.905167 8.0641842
235.13464 64.470398 9.6172304
237.00963 64.877678 9.4812202
238.9772 64.974457 9.362257
240.96674 65.032806 9.1246634
242.93297 65.022461 8.8823004
244.89107 65.083733 8.6893911
246.89154 65.086716 8.5602818
248.83594 65.13942 8.3521194
250.86235 65.213593 8.261652
253.22292 65.660881 8.1589403
255.19173 65.922379 8.1048431
220.43964 66.742622 9.0311527
237.19734 66.747467 9.8720512
238.96053 66.506363 9.851222
240.94151 66.740952 9.7006741
242.88136 66.845459 9.5057993
244.88406 66.994011 9.3138199
246.92905 67.004837 9.0649052
248.95219 67.068726 8.9567137
250.92159 67.016441 8.6123667
252.84776 67.150215 8.4341249
254.81506 67.271278 8.2838001
256.70731 67.348213 8.2636986
258.99472 67.609955 8.1213675
260.67307 67.888992 8.2418518
240.96936 68.397835 9.7862301
243.0791 68.434402 9.8212662
245.0993 68.852463 9.6823568
246.9978 68.795639 9.6463337
248.93152 68.96048 9.5327415
250.94971 68.981087 9.3526964
252.92174 69.047958 9.0392056
254.97876 69.062271 8.8272591
256.94266 69.061859 8.5199995
258.96344 69.088097 8.4447832
260.84668 69.320816 8.2817879
262.47003 69.672089 8.1994972
265.03876 69.560127 8.0654755
243.95523 70.210724 9.8906288
245.58292 70.21212 9.7909393
247.27135 70.152626 9.8682585
248.96146 70.742889 9.8345909
251.07626 70.604889 9.740839
252.91092 70.977531 9.6060696
254.9438 71.001595 9.4159355
257.004 70.983139 9.2047892
258.93942 71.039253 8.9247341
260.92361 71.137993 8.7656183
262.89191 71.145554 8.4723215
264.83017 71.281425 8.3206654
266.94958 71.268188 8.264719
268.90277 71.429283 8.2286339
270.58273 71.4058 8.1405296
252.91479 72.281578 9.9298277
254.99678 72.577713 9.767766
257.04761 72.683464 9.7285891
258.96042 72.805214 9.554328
260.99661 73.003815 9.412775
263.02988 73.041367 9.1334457
265.03873 72.999619 8.8149347
267.03439 72.997467 8.6425724
269.04886 73.066132 8.6006899
270.48895 73.462204 8.3959341
258.87915 75.010414 9.8661785
260.9946 74.612648 9.7665358
263.01859 74.93985 9.6755638
264.99695 75.016785 9.496501
266.99207 74.953941 9.3675032
268.97366 75.033195 9.1241474
270.41602 75.106293 8.9152699
217.38287 77.942261 8.4466782
265.21826 76.35466 9.9177532
267.13531 76.602165 9.8063593
269.13907 76.766861 9.5846596
270.46112 76.933418 9.5033588
217.79343 78.702423 8.6587181
269.82275 78.181137 9.8896523
270.3602 78.316826 9.8751574
222.59991 82.191895 9.2353458
225.67586 82.733315 8.6809826
267.8707 97.036453 8.3178301
213.77443 163.9007 8.6889248
245.33629 164.86008 9.0697346
200.70773 169.51402 9.901741
221.43475 169.04683 9.9602861
222.95686 169.0822 9.7660751
224.85947 169.12642 9.5233116
237.28522 168.75671 9.2332382
239.0961 168.7988 9.0021811
241.1929 168.8475 8.7346411
243.00375 168.8896 8.5035839
244.90991 168.93388 8.2603693
246.43488 168.96931 8.065794
120.46686 -6.7559614 11.04428
123.71992 -6.7460632 10.777548
110.8221 17.389942 10.192502
111.147 19.80106 10.1058
111.36855 21.32814 10.136956
112.80355 21.561069 10.132311
115.95961 21.82025 10.12503
111.32259 23.069662 10.569468
113.12795 23.090088 10.440893
115.14574 23.234482 10.40063
117.03706 23.386196 10.188341
118.87598 23.624117 10.095202
120.95937 23.871723 10.050498
111.36554 24.955868 11.247704
113.19386 24.933083 11.053226
115.13168 24.975935 10.89066
117.12299 25.017366 10.735014
119.1604 25.045052 10.48275
121.04361 25.23385 10.299673
122.95022 25.409101 10.11873
124.36481 25.490026 10.088097
126.60951 25.213806 10.082207
111.33833 26.719992 11.737623
113.07473 26.846729 11.563789
115.01163 26.894241 11.501012
117.0106 26.911524 11.364416
119.06618 26.994764 11.129202
121.14057 27.007978 10.79107
123.02761 27.075861 10.70863
125.05801 27.123995 10.403556
127.11688 27.163631 10.248449
129.01941 27.549051 10.19702
130.40979 27.645229 10.221238
110.71828 29.069746 11.791482
113.45231 28.317057 11.872415
115.07489 28.427572 11.808158
117.13638 28.730894 11.758571
118.96438 28.657873 11.635289
120.88369 28.941595 11.507854
123.0052 28.958982 11.226994
124.96406 28.94066 11.043745
126.97271 29.007706 10.87135
129.03925 29.061176 10.509741
131.06622 29.132149 10.383185
132.98012 29.373346 10.311037
135.21503 29.875633 10.250962
136.42203 29.67836 10.121508
119.20973 30.501043 11.948761
121.24596 30.036955 11.893993
122.83932 30.609589 11.815713
124.91957 30.765026 11.669626
126.90531 30.921593 11.492509
128.90094 30.917355 11.20095
130.89403 31.044989 10.949291
132.94264 30.949532 10.753486
134.91054 31.124666 10.483498
136.8311 31.364746 10.346553
138.62411 31.599426 10.17483
140.42914 31.299416 10.110541
142.83659 31.909714 10.038544
125.25256 32.052711 11.9727
127.45699 32.960052 11.97928
128.91942 32.678867 11.663108
130.87396 32.866932 11.618506
132.88339 32.982574 11.319691
134.90282 32.924496 11.034205
136.85588 33.079601 10.850403
138.86926 33.011303 10.619929
140.89238 33.165661 10.395641
142.7939 33.284355 10.271326
144.73703 33.317032 10.165976
146.92348 33.374081 10.055417
148.47821 33.486439 10.030535
131.2572 34.192364 11.87287
133.03232 34.52499 11.819571
134.85999 34.755207 11.652051
136.90529 34.917854 11.47606
138.86508 35.010475 11.145539
140.83478 35.047134 10.962046
142.83018 35.081703 10.737971
144.87785 35.090149 10.535289
146.82336 35.204166 10.416693
148.7355 35.323383 10.340467
150.74387 35.478458 10.179405
152.07631 35.513454 10.110697
154.08371 35.922871 10.029463
135.62366 37.37891 11.952469
137.26289 36.476685 11.81529
138.91908 36.83041 11.72205
140.86183 36.967358 11.554906
142.87657 36.929462 11.323997
144.86476 37.012833 11.168158
146.84872 37.056015 11.052076
148.86807 37.060055 10.776921
150.91827 37.075863 10.515204
152.86847 37.134727 10.466991
154.73297 37.298306 10.198381
156.64833 37.659512 10.133583
158.92862 37.881794 10.202617
141.4668 38.444897 11.861821
142.88075 38.435123 11.793397
144.94962 38.838688 11.72289
146.97226 38.926785 11.587483
148.90372 38.962814 11.415735
150.88321 39.028374 11.111829
152.88673 39.049389 10.923309
154.89972 39.064732 10.618882
156.87723 39.125828 10.550885
158.87224 39.198162 10.330175
160.71559 39.292057 10.216028
162.57164 39.616428 10.105556
164.33194 39.924194 10.120622
144.86891 40.158684 11.924698
147.23926 40.417637 11.892822
149.10693 40.572407 11.890121
151.01945 40.660549 11.67886
152.9449 40.908962 11.580266
154.93092 40.964943 11.395408
156.92369 41.006485 11.153744
158.90463 41.068722 10.857905
160.90205 41.102173 10.637329
162.9028 41.130447 10.430411
164.7968 41.215443 10.269352
166.67877 41.388912 10.206741
169.12149 41.97802 10.04783
150.48444 42.169266 11.906185
153.2657 42.2519 11.959404
155.07968 42.533878 11.77412
157.06071 42.750839 11.751272
158.98383 42.921146 11.532893
160.9369 43.005962 11.273982
162.93459 43.039326 11.053762
164.9621 43.029648 10.814675
166.89867 43.11338 10.464177
168.86824 43.152321 10.363047
170.78917 43.301048 10.256019
172.95131 43.753372 10.207573
176.64679 43.857796 10.25968
155.69615 44.182137 11.908403
157.73471 44.142006 11.882736
159.00909 44.444592 11.791986
160.963 44.471462 11.760279
163.02675 44.844662 11.547907
164.96812 44.974808 11.474468
166.9391 45.052452 11.137482
168.92978 45.097633 10.886435
170.90387 45.023918 10.601701
172.88438 45.061714 10.475107
174.93732 45.113262 10.348403
177.0705 45.379406 10.246458
178.58644 45.494411 10.177858
180.2084 45.738907 10.155776
161.71849 46.188175 11.876501
162.96277 46.32708 11.998428
164.95341 46.518658 11.785263
167.08899 46.796707 11.77052
168.97052 46.991093 11.549534
170.98117 46.977413 11.224988
172.93106 47.003658 11.002014
174.93976 47.002342 10.901175
176.9614 47.035515 10.778672
178.9583 47.081066 10.563459
180.96442 47.124329 10.307694
182.85735 47.504337 10.227631
185.0343 47.589481 10.194674
166.93231 48.590382 11.982773
169.21758 48.506256 11.806228
171.01691 48.502441 11.765579
172.9949 48.885345 11.60458
175.05679 48.92812 11.472374
177.01219 49.006981 11.364869
179.03763 49.002235 11.113374
180.99295 48.990505 10.895265
182.9921 49.046288 10.614597
184.98006 49.11536 10.423158
186.89568 49.348892 10.316317
188.76982 49.423866 10.250933
190.24403 49.568066 10.151936
192.661 49.975716 10.051975
171.116 50.24202 11.870564
173.78748 50.169022 11.900043
175.23653 50.348724 11.705138
177.05986 50.746937 11.790278
178.98557 50.827251 11.660125
181.02747 51.002758 11.494815
183.04025 51.016254 11.329507
185.04428 51.043175 11.128034
187.06407 51.02494 10.913879
189.02139 51.016357 10.570741
190.98878 51.035938 10.426429
192.89484 51.279823 10.286273
194.91318 51.480549 10.236763
174.49599 52.276451 11.928799
180.89296 52.213257 11.933849
183.04358 52.574123 11.744042
185.12856 52.825279 11.685127
187.06726 52.963257 11.495617
189.04654 53.058071 11.206429
191.08531 52.992218 10.997283
193.09329 53.058044 10.814246
195.08299 53.042095 10.606177
196.94437 53.302338 10.444509
199.05304 53.191544 10.125173
200.69987 53.44286 10.192675
203.51328 53.994263 10.065067
204.34929 53.961708 10.10293
185.42906 54.195374 11.830955
187.16359 54.361614 11.767988
189.067 54.785339 11.741156
191.07027 54.870773 11.632131
193.08615 55.020267 11.4285
195.09 55.048717 11.223411
197.08115 55.094727 10.97031
199.03297 54.994591 10.634716
200.94989 55.101933 10.436563
202.93503 55.110161 10.279641
205.17287 55.418018 10.275006
206.94882 55.567421 10.223322
208.97162 55.769375 10.128737
211.05907 55.696533 10.202146
191.37314 56.47234 11.946338
193.22096 56.536114 11.859221
195.20062 56.848976 11.727446
197.16289 56.937222 11.558816
199.09241 57.062233 11.3051
201.13583 57.00116 10.980859
203.06664 56.91391 10.764726
205.0423 57.144539 10.564863
207.11632 57.060188 10.535028
209.09209 57.152138 10.378008
211.02922 57.310349 10.264382
212.62331 57.476368 10.097955
195.6402 58.438255 11.842494
197.2852 58.210079 11.784185
199.0416 58.719898 11.758973
201.14771 58.86018 11.622876
203.11365 58.963608 11.433962
205.1225 59.073223 11.267578
207.13336 59.094357 11.083543
209.12114 59.057571 10.920327
211.09892 59.017487 10.682282
213.1209 59.144779 10.474526
215.03928 59.290852 10.394146
216.90161 59.285378 10.198384
218.17114 59.682575 10.346129
220.26204 59.757355 10.206778
201.681 60.235939 11.803579
203.16615 60.391575 11.788665
205.08195 60.934399 11.774337
207.12628 60.884151 11.606896
209.1226 61.045956 11.464528
211.05379 61.110477 11.314036
212.90938 61.00502 11.184029
214.90294 61.021416 10.964083
216.96725 61.043148 10.645288
218.93286 61.107948 10.521478
220.78699 61.189137 10.341948
222.80917 61.431034 10.275873
225.05356 61.362236 10.456728
227.04657 61.688126 10.427804
228.87648 61.887848 10.286372
205.89767 62.230633 11.922071
209.78618 62.381187 11.864014
211.07397 62.734428 11.851567
213.06822 62.889275 11.651278
215.07961 62.98481 11.534532
217.03954 62.942997 11.313082
218.98308 62.978832 11.064599
220.99858 62.918636 11.130599
223.02489 62.863365 11.26532
225.07686 62.901909 11.27461
227.04868 62.973461 10.949093
229.04385 63.07774 10.773145
231.01428 63.220173 10.549825
232.97668 63.582081 10.369298
214.98288 64.537071 11.828357
216.95335 64.56321 11.785704
218.7859 64.495705 11.760739
221.57721 64.69928 11.824198
223.32036 64.585297 11.74169
224.87804 64.06295 11.621335
229.45404 64.180244 11.005702
231.23781 64.495949 10.879978
233.0829 64.945999 10.873183
234.85153 65.282578 10.567974
236.29919 65.540665 10.348758
238.63161 65.939209 10.286304
149.50977 67.231888 10.624765
220.50053 66.982964 10.800365
233.64323 66.401741 11.302399
235.11572 66.944588 11.232894
236.96622 66.998116 10.706782
238.88927 67.256981 10.282719
240.72476 67.505188 10.196775
242.97751 67.634048 10.040987
235.47424 68.590172 11.73296
237.0468 68.730873 11.508421
238.94606 69.070351 10.772143
240.88698 69.052917 10.436026
242.84915 69.161797 10.371058
244.72841 69.243462 10.337234
246.89034 69.406868 10.214823
237.53345 70.525299 11.850486
238.99556 71.030334 11.418591
240.95126 71.040924 11.097679
242.95139 71.078903 10.867664
244.96651 71.050652 10.609789
246.96771 71.123817 10.499529
248.93411 70.964821 10.270489
250.93187 71.318718 10.283847
253.28082 70.831573 10.018604
239.21179 72.484207 11.869563
241.10638 72.991623 11.721374
243.04994 72.971359 11.64627
244.9781 72.981201 11.396144
247.00897 73.105354 11.188554
248.99083 72.968498 10.849195
250.94505 73.009193 10.61384
252.98695 73.057068 10.42818
254.98154 73.165657 10.308041
256.96158 73.301186 10.307831
259.19415 73.550789 10.164619
241.68985 75.062874 11.972031
243.38731 74.413605 11.919504
245.24777 74.864052 11.800968
247.07512 74.90126 11.704844
249.04872 75.041634 11.562046
251.03 75.069016 11.271382
253.02182 75.025986 11.041123
255.05322 74.988358 10.792543
257.03412 74.910461 10.559039
259.09799 75.005104 10.370818
261.00085 75.289398 10.181199
262.6535 75.497025 10.098717
246.5513 76.252563 11.933611
249.26985 76.380653 11.904074
251.05215 76.806313 11.794059
253.11856 76.920807 11.652974
254.98286 77.031914 11.450785
257.04379 76.971191 11.265094
258.99176 77.046921 10.987082
261.02728 76.977608 10.723799
263.02332 76.916908 10.410954
264.91418 77.223557 10.294423
267.00266 77.225662 10.186065
268.88428 77.57666 10.17551
270.39954 77.643982 10.207314
219.86852 79.292114 11.874884
253.61172 78.648895 11.959509
255.08125 78.665184 11.826849
257.21066 78.809898 11.69547
259.15201 78.97393 11.496428
261.11008 79.072144 11.386552
263.06265 78.977455 11.068398
265.09772 79.011559 10.849572
267.1153 78.975449 10.735322
269.03329 79.051727 10.50512
270.51767 79.267876 10.406951
221.84184 81.322929 10.674063
225.43057 81.543777 11.08873
255.69949 80.343399 11.823917
257.83517 80.254807 11.979496
259.52829 80.42981 11.866148
261.11597 80.676102 11.799354
263.1637 80.921272 11.698816
265.06741 81.011299 11.522476
266.98917 81.098976 11.313752
269.02832 81.042427 11.09707
270.54089 81.090981 10.941816
263.04041 82.283379 11.942654
265.03473 82.658508 11.790069
267.03906 82.750412 11.682253
269.24854 82.833557 11.57661
270.53513 83.117088 11.561288
267.38263 84.35128 11.82814
268.65305 84.312584 11.880932
270.34753 84.261314 11.950314
267.65848 105.56979 11.352726
267.68253 106.69628 11.746295
195.57838 169.10193 11.968956
196.90771 169.13283 11.799339
198.80951 169.32347 10.850314
201.08568 169.22992 11.266256
202.98476 169.27403 11.023946
215.40721 168.86244 10.942692
217.05876 168.94514 10.518641
218.96138 168.98935 10.275877
220.6225 168.92937 10.538306
237.20587 168.42735 10.815363
117.96287 -7.1425142 12.105226
111.09528 27.519897 12.233028
112.43078 27.593271 12.137051
115.6604 27.55061 12.021741
111.35967 29.04862 12.547844
112.91102 29.22261 12.448921
114.87196 29.309378 12.392938
116.72681 29.556488 12.32938
119.03467 29.545673 12.198543
120.62036 29.799433 12.175385
111.09161 31.024996 13.305977
112.84399 31.031807 13.099867
114.90247 31.058617 12.891039
116.86763 31.054131 12.67531
118.85023 31.019053 12.456703
120.91532 31.108253 12.38915
122.85683 31.318666 12.250968
124.64813 31.643223 12.235256
126.38518 31.891996 12.031476
128.12317 31.926922 12.099548
111.19854 32.741585 13.708411
112.96323 32.822109 13.649811
114.90197 33.022579 13.50065
116.9361 32.987801 13.32447
118.91735 33.025116 13.221919
120.87012 33.039059 12.925805
122.91005 33.075695 12.693373
124.91483 33.102894 12.522861
126.768 33.155396 12.248878
128.79015 33.395412 12.203698
130.49167 33.612862 12.032295
113.30575 34.194534 13.913353
114.99376 34.653988 13.846036
116.9613 34.434349 13.753866
119.01091 34.804096 13.675371
120.92788 35.010044 13.513839
122.91183 35.068295 13.229108
124.90058 35.034706 13.053901
126.92331 35.075111 12.812603
128.89149 35.018436 12.501431
130.79965 35.002594 12.383484
132.77951 35.29652 12.251334
135.02325 35.483013 12.174455
136.13158 35.974312 12.219925
116.89185 36.250328 13.911335
118.89668 37.051235 13.927389
121.0022 36.714691 13.917388
123.11945 36.81612 13.748948
125.03208 36.847645 13.635257
126.95012 36.958752 13.483759
128.95898 37.035904 13.164771
130.92328 36.953686 12.920507
132.92712 37.042583 12.76203
134.83542 36.95908 12.400462
136.79167 37.316193 12.305153
138.60913 37.435787 12.165115
143.41 37.694267 12.292121
125.61445 38.322678 13.895774
127.01373 38.356133 13.822022
129.0325 38.677647 13.69874
131.06345 38.833317 13.480258
132.95587 39.048454 13.379704
134.91785 38.928753 13.104448
136.93132 39.147606 12.854707
138.92079 38.925655 12.540277
140.79164 38.96957 12.347802
142.79681 39.364384 12.388828
144.70355 39.223633 12.138098
146.56485 39.405468 12.100763
129.73291 40.643703 13.910908
131.3566 40.452766 13.855057
133.12003 40.600918 13.894795
135.01416 40.87899 13.71297
137.00792 40.987015 13.508521
138.95981 40.999149 13.146205
140.96393 40.97102 12.967945
143.00644 41.017422 12.725824
144.95168 41.019619 12.575637
146.87524 41.152489 12.404521
148.85648 41.271133 12.311135
150.95995 41.396706 12.270486
152.40329 41.780487 12.243419
154.62065 41.97858 12.141043
135.54637 42.65564 13.87428
137.10175 42.563862 13.731223
139.05673 42.844334 13.711648
140.98282 43.042255 13.628831
142.95644 43.002384 13.352271
144.98695 43.085972 13.249926
146.96088 43.018143 13.047426
148.98856 43.091518 12.840966
150.95145 43.09042 12.592894
152.94272 43.155903 12.385818
154.84169 43.300869 12.335502
156.59004 43.478142 12.129088
158.21649 43.61282 12.12092
138.9371 44.685478 13.947971
141.22147 44.742783 13.836548
143.05464 44.602451 13.806905
145.1223 44.792091 13.732205
147.03545 44.989811 13.657321
149.01225 45.061493 13.43176
151.01038 45.092388 13.21875
153.00543 45.041706 12.969182
155.01448 45.047764 12.723684
156.97403 44.955902 12.515043
158.96967 45.282127 12.325736
160.92624 45.477882 12.227609
162.84315 45.470264 12.200376
165.08121 45.964603 12.262018
146.8167 46.204643 13.953657
149.26138 46.464508 13.786548
151.12622 46.891773 13.744568
153.084 46.981277 13.551145
155.02687 47.039188 13.34571
157.03206 47.016701 13.153375
159.0118 47.016853 12.910003
161.09506 47.055004 12.706421
162.98047 47.009708 12.417591
165.02287 47.258137 12.301276
166.68526 47.335125 12.117442
170.68239 47.620907 12.051949
151.81377 48.242527 13.902397
153.06316 48.441444 13.779016
155.03104 48.700886 13.766485
157.06758 48.883759 13.681067
159.04907 49.066662 13.521503
160.99379 49.026051 13.248316
163.06664 48.98579 13.009192
165.03561 49.090038 12.814498
167.04332 48.917633 12.435365
168.96974 49.213406 12.419877
171.01134 49.28751 12.240993
172.97882 49.340069 12.11482
174.27316 49.651501 12.116034
154.59106 50.283077 13.984149
157.13452 50.69162 13.872272
159.18181 50.573666 13.870574
161.12543 50.793045 13.852827
163.12923 50.909977 13.535812
165.05185 51.050159 13.458514
166.98535 50.958073 13.099241
168.96489 50.970348 12.822234
170.99866 50.972725 12.686032
172.98412 51.034599 12.398144
174.97345 51.152493 12.23212
177.0836 51.441269 12.302628
179.33162 51.81144 12.232925
163.54201 52.482105 13.941426
165.17459 52.652828 13.706615
167.15184 52.974636 13.707911
169.0706 52.961895 13.435958
171.0847 53.025002 13.235702
173.05637 53.023823 13.021414
175.07317 53.059807 12.887381
177.07188 53.086697 12.803847
179.06284 53.059193 12.544007
181.13245 53.037636 12.295507
183.14233 53.28196 12.226793
184.87244 53.440887 12.065722
187.16199 53.642189 12.073866
166.2292 54.296761 13.942909
169.31287 54.428387 13.857733
171.22029 54.495747 13.73524
173.17871 54.89352 13.625858
175.10713 55.089111 13.553971
177.1082 55.11871 13.346117
179.11456 55.054279 13.135932
181.12958 54.94257 12.888247
183.11555 55.029659 12.623029
185.10408 54.976486 12.398702
187.01147 55.215168 12.277597
189.06474 55.734894 12.266065
191.34142 55.560448 12.174192
173.87927 56.285599 13.860212
175.13994 56.509022 13.752236
177.21837 56.626934 13.79827
179.25285 56.783928 13.621791
181.01886 56.929878 13.486727
183.00252 57.045757 13.373568
185.04797 56.997768 13.104482
187.10527 57.042229 12.906408
189.05849 56.976841 12.657996
191.02174 57.059704 12.439819
192.97482 57.377281 12.367474
194.7518 57.453979 12.151803
196.78911 57.412521 12.062267
177.66498 58.512348 13.948304
181.51535 58.6926 13.802936
182.9631 58.850163 13.815427
184.99863 58.937569 13.733324
186.97084 59.026066 13.527039
189.06197 58.996754 13.349624
191.07794 58.950111 13.040359
193.13721 59.02198 12.860223
195.0392 59.002701 12.542362
196.99852 59.129784 12.429662
199.0825 59.499626 12.288816
200.8848 59.50275 12.122515
184.95154 60.255928 13.985531
186.86877 60.569324 13.782561
189.04579 60.781937 13.78458
191.19453 61.006248 13.598446
193.06094 61.029114 13.434484
195.00136 60.965626 13.252784
197.04871 61.008701 13.018931
199.08539 60.898952 12.701389
201.06306 60.994431 12.40871
203.05161 61.132874 12.271473
204.84737 61.372395 12.182904
206.95105 61.562878 12.310083
191.55991 62.534088 13.875982
193.3282 62.628437 13.850597
195.01611 62.59861 13.740759
197.03804 62.886623 13.496941
198.97581 62.960224 13.219013
201.03998 62.981735 13.014684
203.07715 62.93956 12.781925
204.95459 62.938004 12.645161
206.93745 63.083195 12.537371
208.84685 62.977192 12.370982
210.68175 63.270138 12.311062
212.59433 63.287945 12.143877
214.65208 63.408234 12.08152
219.96391 63.087013 12.278805
220.72357 63.830624 12.236623
222.77333 63.813099 12.163837
224.24283 63.859257 12.249897
197.44592 64.707664 13.866788
199.05858 64.81691 13.804983
200.95357 64.898758 13.688313
202.89977 64.999321 13.514544
204.93883 64.974434 13.299959
206.8972 65.13324 13.247445
208.86577 65.052505 12.945239
210.90868 65.013855 12.738336
212.86449 64.942558 12.441128
214.78542 65.198914 12.367897
216.86249 65.35334 12.249084
219.19525 65.344917 12.603823
220.94032 64.952545 12.460199
222.6479 64.65419 12.155928
149.35818 66.478745 12.827026
203.09764 66.483353 13.830617
205.13568 66.840462 13.824973
206.90752 66.882774 13.798108
209.01045 67.032768 13.653034
210.93498 67.051376 13.342735
213.00316 66.939949 13.139723
214.82503 66.96611 12.828293
216.93471 66.96109 12.832923
219.07074 66.987534 13.214549
220.37025 66.666496 12.798994
209.3219 68.572563 13.849357
211.13989 68.556114 13.752899
212.79138 68.815437 13.674349
214.93494 68.966736 13.479451
216.9319 68.835358 13.569754
219.07983 68.795395 13.62337
235.68327 69.432182 12.264774
237.05612 69.546928 12.26368
238.14175 69.477226 12.406588
213.19136 70.010719 13.545179
215.32227 70.459648 13.70457
216.25432 70.688072 13.87067
218.63646 70.208809 13.896961
235.92786 70.812248 12.773637
236.94519 71.154404 12.427917
238.2502 71.730484 12.00758
235.98676 72.833771 13.065659
237.00826 73.057495 13.077481
238.83269 73.127022 12.536284
240.7778 73.010269 12.15204
242.85063 73.300591 12.115112
235.64171 75.037346 13.677604
237.19891 75.061699 13.514767
239.03299 74.98777 12.809104
241.01736 74.94841 12.511046
242.96382 75.043037 12.325304
244.94681 75.009453 12.268024
246.87119 75.477982 12.213188
248.73561 75.335098 12.026705
235.94733 76.623306 13.98315
237.39558 76.951607 13.692532
239.08006 76.986053 13.472291
241.03815 76.911613 13.07243
242.94919 76.996864 12.952906
245.00577 76.910713 12.642074
247.08037 76.95623 12.443363
248.99161 77.140625 12.340896
251.06572 77.307899 12.198114
252.71465 77.628349 12.116529
256.87274 77.686928 12.134529
237.19914 78.544998 13.849484
239.1846 78.86557 13.791163
241.14047 78.748421 13.717326
243.12509 79.027039 13.531157
245.08018 78.998283 13.312692
247.09251 78.983864 13.012017
249.05295 79.026169 12.904129
251.03975 78.972046 12.687986
253.04228 78.978127 12.39134
254.99004 79.131851 12.264818
256.68323 79.238274 12.337785
258.35706 79.569031 12.112485
221.47688 80.459793 12.067844
223.47182 80.828659 13.415886
225.49989 80.827812 13.305927
226.30162 81.223946 13.336615
240.50772 80.44117 13.672274
243.19513 80.335609 13.850568
245.24829 80.812477 13.827891
247.04564 80.944794 13.739041
249.17609 81.031319 13.542426
251.02879 81.052048 13.358488
252.94664 80.964828 13.134483
254.97836 80.874329 12.834656
257.06613 80.970879 12.721853
258.97861 81.144974 12.296541
261.06796 81.231377 12.207425
262.67557 81.4114 12.269997
265.2244 81.770493 12.106419
247.16322 82.247742 13.805205
249.12691 82.595924 13.801096
251.27647 82.828461 13.740851
253.12085 82.885818 13.636175
254.98941 82.863373 13.411483
257.08499 83.009361 13.410612
259.05026 82.916466 13.014993
261.06503 82.905457 12.690577
263.07159 83.08091 12.42827
265.0607 83.082573 12.336409
266.96005 83.463905 12.232233
268.72083 83.4869 12.154126
251.86386 84.365959 13.952791
253.90723 84.363739 13.848946
255.10893 84.525864 13.755524
257.19278 84.925537 13.758774
258.965 84.784599 13.512617
260.97934 84.937851 13.326071
263.05994 84.940491 12.977307
264.849 85.050873 12.876749
267.0018 84.93177 12.675654
269.0871 85.014671 12.42758
270.50385 85.021629 12.423958
259.40402 86.37426 13.852402
261.20868 86.377159 13.746305
263.11801 86.87104 13.702904
264.99698 86.938408 13.522934
266.93768 86.973221 13.390347
269.06488 86.916298 13.140782
270.53705 86.95694 13.07621
265.19897 88.362892 13.910751
266.94083 88.823608 13.79313
268.83612 88.719818 13.684296
270.06476 89.173302 13.751984
269.76447 90.413315 13.835705
270.05038 91.077522 13.028324
267.70255 107.63502 12.074268
267.733 109.0619 12.572789
267.77469 111.01447 13.254972
267.80273 112.3287 13.714136
237.30602 167.98122 12.95508
173.04068 169.23177 13.558943
177.08447 169.32573 13.042976
178.53772 169.3595 12.857552
180.98296 169.2702 13.252042
193.56226 168.99632 12.50961
194.62886 169.07988 12.090111
215.04382 168.42453 13.055332
110.97266 31.207773 14.005745
110.95005 33.46286 14.29639
112.70422 33.613834 14.121111
111.14075 34.934162 14.648308
112.92471 34.932636 14.346288
114.90335 35.087273 14.276483
116.87295 35.386311 14.148664
118.65352 35.593895 14.159663
111.20947 37.015194 15.21852
112.98582 36.910267 15.051539
115.01594 36.848869 14.844985
116.99992 37.022835 14.689281
118.96302 36.997711 14.54344
120.96716 36.998405 14.319311
122.84733 37.045689 14.275774
124.72428 37.417336 14.184217
127.02812 37.433182 14.069443
111.32174 38.787094 15.755722
113.08303 38.856075 15.582745
114.9393 38.877304 15.374597
117.02222 39.06789 15.265505
119.04183 39.121822 15.110121
120.97976 38.995716 14.879096
122.9976 39.005096 14.615588
124.88472 39.068607 14.501391
126.98051 39.119095 14.281036
128.87021 39.469669 14.174156
130.70648 39.504299 14.137158
110.4733 41.426846 15.37604
113.5103 40.510391 15.90295
115.33724 40.54158 15.699798
117.15958 40.751434 15.818334
119.20107 40.847736 15.655548
121.05953 41.020199 15.530269
123.05869 41.032124 15.341825
125.05841 41.014484 15.046033
126.99011 40.95105 14.778688
128.97078 41.041248 14.57116
130.94873 41.14624 14.425381
132.88834 41.24361 14.210109
135.03044 41.291653 14.116333
136.64719 41.475983 14.090073
138.66299 41.668671 14.015215
110.49749 42.560356 15.772063
121.58569 42.672619 15.887386
123.26826 42.739597 15.84328
125.09975 42.897118 15.656761
127.12602 42.980476 15.494323
129.08012 43.08078 15.221424
131.07692 43.031963 14.992312
133.00461 42.969273 14.714628
134.97504 42.912937 14.467669
136.94223 43.247799 14.432256
138.91766 43.180344 14.12356
125.71328 44.709919 15.893468
127.1173 44.581238 15.860531
129.0246 44.78569 15.730159
131.04036 44.960438 15.496708
133.1037 44.977295 15.384372
135.06775 44.970024 15.161275
137.06827 45.065453 14.889349
138.99713 44.961716 14.53618
140.9512 45.014648 14.385315
142.95078 45.385258 14.271379
144.79527 45.434967 14.141112
146.66209 45.723988 14.106249
129.40474 46.02459 15.568138
130.86304 46.510719 15.893478
133.26353 46.661205 15.804536
135.06766 47.02906 15.624049
137.08299 47.077263 15.436867
139.05713 46.937729 15.142943
141.04039 46.873463 14.832158
143.05046 47.040035 14.723144
145.02472 46.941189 14.525054
147.09592 47.068962 14.352798
149.00603 47.067608 14.197186
150.57947 47.61581 14.233252
152.70795 47.431183 14.113518
135.16362 48.664867 15.761205
137.23465 48.514709 15.84417
139.34152 48.853661 15.735196
141.12718 48.956547 15.471229
143.08098 49.063965 15.36026
145.11725 49.032307 15.192769
147.08942 49.02496 14.985709
149.08659 49.023209 14.761936
151.00165 49.022339 14.517719
153.05577 49.171108 14.333655
155.08713 49.454288 14.234329
156.85246 49.633854 14.254041
139.8688 50.350628 15.909664
141.07274 50.620106 15.874184
143.23965 50.665482 15.789468
145.12624 51.009834 15.739041
147.15477 51.116291 15.637159
149.12198 51.110821 15.442648
151.11148 51.057793 15.080383
153.0726 50.940552 14.944873
155.08334 51.021072 14.59129
157.09442 50.945534 14.511197
159.06749 51.070526 14.314312
161.00577 51.371876 14.103702
162.8138 51.311672 14.155117
165.57101 51.70742 14.066814
147.63353 52.486374 15.801854
149.09962 52.631691 15.879608
151.20337 52.871838 15.650699
153.10664 52.936226 15.563036
155.07964 52.997082 15.256049
157.14774 52.945679 15.096346
159.09892 52.943092 14.86287
161.08693 52.948208 14.5966
162.95967 53.153042 14.473212
165.0591 53.180077 14.305891
166.51541 53.575195 14.153478
169.13486 53.779892 14.012629
151.08102 54.397949 15.799988
153.37079 54.256435 15.65509
155.1377 54.74577 15.76441
157.22354 54.875294 15.585396
159.12215 54.942051 15.470381
161.0947 55.026192 15.203308
163.12668 55.048462 15.013868
165.00027 54.976048 14.77829
167.03078 55.038811 14.553725
169.05699 55.137768 14.273588
171.05447 55.309975 14.158866
172.84106 55.362183 14.124825
156.32877 56.346138 15.979774
159.26685 56.591614 15.825205
161.25818 56.840488 15.762467
163.11943 56.92363 15.572294
165.00069 56.944523 15.40461
167.04839 56.963417 15.146741
169.11841 56.957329 14.80123
171.1172 56.967804 14.508975
173.09776 57.009022 14.3699
175.08011 57.135151 14.258067
176.99828 57.440308 14.290101
178.84579 57.458359 14.147715
180.68333 57.750813 14.110372
182.07536 57.688538 14.200462
163.54999 58.631428 15.888771
165.3623 58.181206 15.646484
167.15987 58.689568 15.568547
169.14635 58.918579 15.489583
171.10831 58.931885 15.251792
173.05602 58.954407 15.047923
175.11641 58.900677 14.71399
177.02606 59.045452 14.73948
178.9568 59.017281 14.537078
180.89217 59.066051 14.334592
183.17772 59.286564 14.211248
184.86327 59.44556 14.279799
187.69102 59.714993 14.147137
165.90779 60.817726 15.973892
166.7337 60.006638 15.812916
169.23671 60.632545 15.814382
171.26945 60.872433 15.718167
173.08467 60.822975 15.581846
174.94557 60.888405 15.501153
176.968 60.921932 15.43919
179.0085 61.018265 15.188315
180.96361 60.984341 14.919198
182.97588 60.873844 14.636456
184.96576 61.116512 14.508979
186.85612 61.021004 14.345284
188.69972 61.469624 14.177501
190.1864 61.370667 14.126973
192.45941 61.790627 14.003906
170.29628 62.068565 15.7728
172.60863 62.292801 15.801826
175.13576 62.72229 15.797716
177.09015 62.803482 15.826675
178.96387 62.865784 15.669739
180.81937 62.975517 15.581544
182.87878 62.973522 15.35697
184.96245 63.021729 15.156764
186.98918 62.948875 14.955337
188.90063 62.957798 14.624892
190.90018 63.074337 14.393164
192.97073 63.309887 14.249165
194.98988 63.569534 14.168133
196.79793 63.710815 14.087526
149.20584 65.721703 15.040674
179.60757 64.188034 15.831766
181.36665 64.243767 15.769702
182.8091 64.769463 15.799664
184.80061 64.960518 15.709357
186.93527 64.916946 15.503429
188.98235 65.054153 15.260206
190.9355 64.989708 14.980552
192.85342 64.922592 14.751886
194.85547 64.978088 14.613052
196.88536 65.019173 14.383613
198.63678 65.445587 14.255999
200.66573 65.558281 14.081081
182.79076 66.015633 15.877567
184.40042 66.416725 15.848576
186.85182 66.668167 15.869531
188.9882 66.61338 15.776117
190.96594 66.798225 15.637084
192.88805 66.930679 15.480082
194.94286 66.984596 15.307002
196.87033 66.981781 14.970172
198.91452 66.921738 14.652587
200.91728 66.998489 14.507939
202.84233 67.182968 14.338137
204.71681 67.279121 14.216664
206.85315 67.608101 14.130282
208.14893 67.400749 14.03943
190.04126 68.397667 15.919983
193.2386 68.488846 15.819825
194.93172 68.70771 15.732937
196.91878 69.013 15.574728
198.89088 68.974625 15.348363
200.90337 68.886131 15.08872
202.89363 68.932587 14.834332
204.90549 68.952477 14.657093
206.93999 68.945595 14.557717
208.85234 69.144241 14.359128
210.89761 69.331184 14.259188
213.1687 69.605255 14.121216
214.9093 69.225578 14.097313
217.34265 69.429222 14.241475
218.69026 69.354965 14.162474
141.23573 71.035507 14.717374
195.65063 70.032608 15.765148
197.31999 70.36013 15.952858
199.09125 70.527901 15.770061
200.96396 70.735634 15.596075
