# .PCD v0.7 - Point Cloud Data file format
VERSION 0.7
FIELDS x y z
SIZE 4 4 4
TYPE F F F
COUNT 1 1 1
WIDTH 1558
HEIGHT 1
VIEWPOINT 0 0 0 1 0 0 0
POINTS 1558
DATA ascii
209.08801 122.66532 33.848412
211.15141 122.92042 33.667286
213.14133 122.98826 33.565559
215.07561 123.06112 33.345951
216.88458 123.12451 33.300301
218.35312 123.64485 33.707409
227.61592 123.30853 32.894417
228.62805 123.11472 32.273357
211.7863 124.67174 33.824913
213.22563 124.31598 33.86726
215.26549 124.66696 33.845818
217.21484 124.90685 33.637554
218.90038 125.09604 33.783222
220.64561 125.43845 33.459385
223.0105 125.60302 33.689083
225.06622 125.40938 33.575138
227.09862 124.98959 32.957779
229.06691 124.92963 32.38533
230.98579 125.20406 32.300594
232.76674 125.31525 32.146351
234.50175 125.60714 32.019409
216.25331 126.24252 33.979195
219.61668 126.44476 33.872448
221.17921 126.82137 33.884846
223.20712 127.01424 33.8484
225.03847 126.97599 33.585503
227.16553 127.07801 33.312634
229.1301 126.98029 33.017658
231.04968 127.01587 32.752388
233.05429 126.97557 32.590805
235.00717 127.10798 32.455086
237.03117 127.13219 32.262714
238.83768 127.24005 32.179073
240.88748 127.50739 32.170837
242.8197 127.61849 32.070496
244.97079 127.71935 32.002388
223.49332 128.28134 33.819733
225.0871 128.53722 33.839058
227.07005 128.76631 33.703629
229.05203 128.92024 33.660625
231.12886 128.99071 33.463326
233.02548 129.15891 33.274876
235.00235 129.04654 33.083447
236.8961 129.01653 32.766426
238.85614 128.95868 32.664768
240.81105 128.97786 32.556026
242.86227 129.00319 32.45076
244.79729 129.12616 32.167538
246.07034 129.75336 32.093102
248.11823 129.75854 32.00013
231.45369 130.54884 33.822319
232.80141 130.62854 33.731777
234.94563 130.9324 33.660114
236.88895 131.086 33.554012
238.91792 130.9944 33.299225
240.91676 131.0625 33.109871
242.89993 130.89909 32.810341
244.96469 130.89197 32.597553
246.84447 131.04062 32.445885
248.79417 131.08162 32.190186
250.79005 131.67592 32.221298
252.13466 131.75993 32.114143
235.58382 132.69337 33.901825
236.83789 132.54633 33.898117
238.96997 132.53056 33.839394
240.96661 132.72513 33.800106
242.95537 132.97153 33.516964
244.88632 132.99542 33.200859
246.9501 133.0434 33.081169
248.94051 133.03812 32.891899
250.8598 133.00728 32.631329
252.18318 133.25049 32.423969
240.3708 134.34363 33.734024
243.06674 134.52296 33.921463
245.03726 134.74205 33.765202
247.03876 134.99217 33.750637
248.98122 135.10951 33.54879
250.98389 135.07773 33.212337
252.28204 134.819 32.710484
248.8709 136.50938 33.865189
251.08858 136.78656 33.727062
90.765556 82.969429 34.179302
92.100777 83.641121 34.198967
91.252457 84.951302 34.530033
92.966393 85.098717 34.286495
94.731583 85.280121 34.188248
96.807381 85.577339 34.473217
98.397125 85.617561 34.259701
91.158295 87.060753 35.028316
92.907707 87.018211 34.882938
94.917534 87.009285 34.689713
96.886559 87.020119 34.551632
98.905746 87.137512 34.291962
100.94385 87.284744 34.161243
103.19103 87.797455 34.194988
91.234543 88.893318 35.653111
92.980942 88.960869 35.550365
94.955841 89.104805 35.369049
96.981377 89.035011 35.052654
98.942612 88.97155 34.914318
100.9258 89.028069 34.627193
102.88641 89.023369 34.404198
104.96003 89.176819 34.214336
106.71725 89.25235 34.108204
108.53243 89.684555 34.143467
92.564102 90.499077 35.86187
95.145599 90.740715 35.830051
96.95076 90.90284 35.657612
98.987984 91.017273 35.642681
100.97845 91.090706 35.414295
102.93636 91.008598 35.023129
104.92101 90.994736 34.839622
106.92764 91.027985 34.508808
108.92417 90.972626 34.420975
110.87148 91.213554 34.275188
112.86764 91.598457 34.239246
114.28065 91.56295 34.100189
117.37231 91.683411 34.006741
97.356461 92.299904 35.74889
99.246521 92.525871 35.82893
100.94742 92.469582 35.776138
103.08768 92.960213 35.622387
104.97876 92.993431 35.434441
106.97124 93.099083 35.228256
108.93343 92.986732 34.968113
110.9342 93.041031 34.815754
112.92271 92.983459 34.649689
114.95959 92.960182 34.405621
116.85919 93.121338 34.261162
118.70815 93.100586 34.258896
120.17007 93.299339 34.059402
123.01127 93.785217 34.158031
104.87998 94.525841 35.894024
107.10996 94.798897 35.700008
109.03551 94.995369 35.65493
111.05405 95.012177 35.498661
113.0509 95.025276 35.20446
115.02402 94.992401 35.068317
116.95771 94.973473 34.915123
118.97696 94.983139 34.661713
120.91507 95.06131 34.454636
122.95132 95.023499 34.283054
124.8603 95.251617 34.174572
126.79697 95.599396 34.081116
109.29159 96.58168 35.855347
111.01259 96.65554 35.874382
113.06993 96.649544 35.693409
115.06702 96.912903 35.680347
117.06334 97.003418 35.532494
119.07751 97.062965 35.345394
121.03223 97.029778 35.07745
123.01378 96.922379 34.839142
125.03679 96.933311 34.703278
127.07646 96.998878 34.41888
128.96785 97.15123 34.317108
130.69937 97.325859 34.293598
133.43689 97.488998 34.079163
115.82947 98.252274 35.887726
117.17501 98.638435 35.928661
119.14591 98.823982 35.770126
121.13638 98.983795 35.659969
123.04752 99.006439 35.49791
125.06389 98.997391 35.310074
127.01265 98.996262 35.068485
129.04388 98.983742 34.890732
131.04248 99.01403 34.690842
132.96968 99.035194 34.466305
134.89276 99.096016 34.225109
136.99013 99.455925 34.219517
138.4695 99.666183 34.24572
121.86145 100.23225 35.96048
123.05518 100.25863 35.812862
125.06158 100.705 35.759636
127.20763 100.88702 35.719158
129.07936 101.08121 35.566456
131.10405 101.04334 35.31366
133.01712 101.00621 35.052231
135.06645 100.97999 34.788353
137.01093 101.095 34.645
138.96428 101.04325 34.338017
140.7794 101.30346 34.24527
143.05769 101.55449 34.134712
145.82289 101.65508 34.234283
146.29398 101.70609 34.035271
125.42286 103.09172 35.989323
129.31511 102.52869 35.904255
131.25954 102.57522 35.670509
133.1548 102.98496 35.639057
135.05997 103.04115 35.485306
137.11229 103.08911 35.22226
139.1219 102.98762 34.988956
141.07919 102.94662 34.7812
143.10782 102.93494 34.550838
145.04796 103.07064 34.51825
146.97995 103.19045 34.369987
148.74063 103.34788 34.17292
151.04369 103.56572 34.235519
153.95663 103.69332 34.01886
154.61458 103.42754 34.188522
133.91316 104.22775 35.991661
135.44174 104.52826 35.77969
137.40492 104.73902 35.763512
139.1138 104.95839 35.53883
141.08641 105.01171 35.383183
143.06775 105.00953 35.144714
145.14368 105.01553 35.037956
147.12769 104.99005 34.900951
149.11667 104.96265 34.624619
151.15245 104.98215 34.410973
153.02155 105.12354 34.381329
154.8687 105.3363 34.327713
156.73245 105.59411 34.045643
158.76097 105.71899 34.002487
138.69087 106.41693 35.879814
141.08243 106.54642 35.853493
143.14372 106.81426 35.82695
145.10223 107.03439 35.623627
147.10179 107.0369 35.515041
149.06825 107.01922 35.225777
151.08142 106.89174 35.003021
153.0789 107.07563 34.947037
155.13446 107.06985 34.750374
157.02603 107.01834 34.552536
158.91737 107.08966 34.337872
160.90851 107.27607 34.155743
162.5368 106.96095 34.103672
164.46378 107.6301 34.353214
145.13594 108.26595 35.915962
147.69629 108.396 35.832699
149.22116 108.9194 35.751232
151.13971 108.80935 35.589344
153.07324 108.93095 35.539936
155.12283 109.04831 35.378536
157.04884 108.98071 35.061153
159.09326 109.07191 34.926403
161.0433 108.9118 34.74369
163.05573 109.01312 34.499161
165.05595 109.16046 34.2584
167.05087 109.23584 34.283997
168.74077 109.58548 34.240723
151.56856 110.65842 35.994293
153.29651 110.5554 35.862217
155.22726 110.77911 35.773975
156.96971 110.86435 35.598602
158.92747 111.07205 35.560627
160.96849 110.97749 35.266121
162.91267 111.0491 35.089619
164.97923 111.04515 34.913952
166.95174 110.88409 34.571167
168.84204 111.16294 34.525349
170.82053 111.09473 34.285717
172.86121 111.38438 34.112232
174.86958 111.31304 34.116295
181.01764 111.25253 34.069736
157.97163 113.09223 35.924843
159.22427 112.49827 35.91893
160.9698 112.49415 35.792057
162.86987 112.86328 35.643208
164.88449 113.07134 35.580605
166.92336 112.95722 35.303307
168.92813 113.03169 35.083641
170.92554 113.0697 34.859367
172.92693 112.93642 34.603981
174.81808 113.11044 34.589188
176.85333 113.23309 34.416569
178.6985 113.38331 34.25444
180.84367 113.37927 34.205708
182.80695 113.44881 34.070732
163.2337 114.26486 35.966217
164.99222 114.42952 35.858772
167.14687 114.7468 35.758488
169.0654 114.84296 35.629662
170.95924 115.10018 35.508419
172.92601 115.00609 35.319916
174.9095 115.02901 35.09586
176.84396 114.95007 34.890984
178.91798 114.97322 34.609211
180.89767 114.97834 34.419235
182.85275 114.94202 34.338238
184.877 115.17702 34.306435
187.04282 115.5312 34.125153
188.58968 115.70271 34.194824
169.23386 116.30916 35.822876
170.9245 116.50323 35.802139
173.02034 116.77658 35.778793
174.89246 116.88451 35.72274
176.96542 116.98473 35.45953
178.9044 117.04646 35.271553
180.92845 117.07203 35.093643
182.91887 117.03349 34.87949
184.91095 117.0147 34.73473
186.97751 117.02348 34.419247
188.93848 116.9433 34.324741
190.81369 117.27531 34.273121
192.37891 117.33826 34.129139
195.42403 117.73669 34.066494
177.18294 118.42049 35.867077
179.22731 118.55745 35.724018
181.03067 118.81268 35.734425
183.04123 119.06224 35.592232
184.95757 118.99038 35.398792
186.90421 118.94556 35.041222
188.96266 119.03616 34.896347
190.97366 118.92932 34.617702
192.93915 118.93876 34.45335
194.84584 119.1293 34.309601
196.74748 119.31197 34.169842
198.41315 119.54988 34.143936
181.70502 120.32397 35.79509
183.13506 120.31623 35.768047
185.00996 120.66418 35.682755
187.02176 120.84249 35.581573
189.06572 121.06483 35.63142
190.98642 121.00531 35.33638
193.02188 120.96848 35.125076
194.98395 120.91519 34.78093
196.99142 121.01063 34.663868
199.00801 120.95458 34.422707
200.86461 121.30605 34.214291
202.98994 121.40272 34.203053
205.14182 121.60699 34.090347
206.33864 121.32271 34.179966
208.7469 121.75023 34.035805
217.85234 121.65021 34.063683
185.29666 122.33485 35.873055
186.75476 122.2984 35.956692
189.03593 122.80355 35.834568
190.97659 122.56796 35.641647
193.19563 122.78213 35.737915
195.04242 122.97488 35.56028
197.04475 123.09994 35.307568
199.04268 123.01757 35.10603
200.99007 122.99566 34.831745
202.98288 123.03262 34.591694
205.01778 122.97971 34.36005
206.99344 123.10275 34.315285
209.06949 123.19912 34.183369
210.56935 123.63528 34.146671
212.37006 123.73639 34.220367
218.26788 122.41962 34.278305
195.0433 124.39287 35.934662
197.41632 124.60805 35.812599
199.06335 124.88447 35.680874
201.09602 125.0444 35.493412
203.09093 125.06628 35.311836
205.10867 124.98534 35.125748
207.04417 124.95493 34.864029
209.03766 124.94204 34.675472
211.03558 124.93726 34.490723
213.03706 125.11903 34.321869
214.90828 125.31049 34.208996
216.77037 125.50116 34.163937
219.69789 124.54205 34.029694
220.78391 125.32091 34.179325
222.57048 125.56855 34.223125
224.44313 124.72012 34.767529
201.45912 126.33724 35.767651
203.32214 126.79526 35.792725
205.10895 126.9179 35.696686
207.1282 126.9452 35.481453
209.14363 126.98529 35.375477
211.01704 126.99281 35.162071
213.08371 126.99357 35.037453
215.14607 126.95321 34.659206
217.17285 126.98727 34.399738
218.98279 127.12636 34.347748
220.92442 127.26983 34.141685
222.3553 127.04978 34.100002
224.40961 127.81139 34.010918
205.45134 128.74104 35.910149
207.75507 128.49411 35.988995
208.90845 128.56194 35.883587
211.06903 128.81206 35.735718
213.05966 128.90207 35.570736
215.04558 128.96771 35.398205
216.92926 128.96046 35.178188
219.00723 128.98642 34.923573
221.06987 128.9071 34.629047
222.97726 129.01404 34.490257
224.95297 129.23186 34.427784
226.91208 129.33942 34.16127
228.47186 129.28938 34.146622
230.34416 129.67749 34.043194
213.79553 130.31546 35.917953
215.23505 130.73483 35.840176
217.00732 130.89099 35.625675
219.03607 130.97395 35.491886
220.93083 130.94334 35.428062
222.92551 131.00041 35.204235
224.96989 131.00583 34.969662
226.95676 130.96239 34.651268
228.91492 130.91228 34.441631
230.77101 131.0569 34.314339
232.88873 131.42369 34.251705
234.6709 131.64417 34.17205
216.72844 132.17186 35.812778
219.20448 132.47536 35.89006
221.08983 132.43971 35.653332
222.96663 132.95126 35.734287
224.80479 132.98056 35.603306
226.86046 132.95064 35.357719
228.89684 132.98557 35.148022
230.89529 132.89177 34.924206
232.86932 132.95383 34.606976
234.81412 133.02971 34.379524
236.95053 133.3494 34.315075
238.87646 133.43901 34.229694
240.92169 133.64253 34.145878
242.19981 133.81418 34.150681
224.62796 134.55811 35.895218
226.98369 134.62581 35.782196
228.94279 134.8335 35.723297
230.92863 134.93068 35.549923
232.95506 135.02084 35.334671
234.98354 135.0368 35.066532
236.92094 134.92461 34.838264
238.95392 134.94028 34.70789
241.00598 134.98718 34.589691
242.93106 135.14474 34.331764
244.84155 135.43248 34.188313
246.5956 135.64615 34.100311
248.64769 135.84239 34.074356
230.92422 136.56168 35.747475
233.10504 136.83481 35.831219
234.89714 136.87375 35.676128
236.91458 136.91107 35.575348
238.98842 136.88707 35.36438
240.97781 136.89232 35.083767
242.98935 136.92525 34.884144
244.97859 136.97504 34.615414
246.98824 137.00972 34.408459
249.05424 137.20171 34.3564
250.84091 137.5522 34.257687
235.30571 138.37488 35.937374
237.23233 138.33188 35.714596
239.02357 138.45717 35.791733
240.97643 138.59427 35.7062
243.00255 138.9063 35.581684
245.01167 138.98045 35.381252
246.97978 138.99556 35.087585
249.0329 138.9465 34.84787
251.03294 138.98857 34.611141
243.19858 140.39249 35.8573
245.21475 140.58463 35.853699
247.1291 140.76401 35.633854
249.07874 140.97508 35.516895
251.08377 140.95395 35.375225
247.41936 142.3913 35.96804
249.17455 142.15492 35.758583
251.26299 142.58379 35.788059
251.84962 144.00227 35.975822
90.894073 89.676033 36.107662
92.917847 89.533707 36.127388
91.20726 90.94017 36.408222
93.114365 91.076431 36.34494
94.85463 91.240929 36.186199
97.087463 91.486305 36.14875
99.017647 91.776314 36.014709
91.21788 92.996017 37.067482
93.03717 92.870438 36.849449
95.036896 92.887299 36.693188
97.011353 92.957985 36.474735
98.937172 93.124214 36.294678
101.04996 93.29129 36.177486
102.49835 93.496941 36.145687
105.04639 93.755913 36.08477
91.340706 94.836845 37.624851
93.083511 94.886147 37.456131
95.078934 94.973633 37.401672
97.049042 94.993629 37.115902
99.076042 95.013023 36.950447
101.01077 95.013794 36.722492
103.02435 94.982132 36.439651
105.11848 95.303001 36.312649
106.79179 95.563927 36.242611
108.62849 95.808487 36.03186
110.24461 95.793388 36.00341
93.877136 96.358353 37.718784
95.151184 96.609734 37.865314
97.161423 96.87886 37.730022
99.121208 96.930504 37.61211
101.09058 97.023773 37.375118
103.09254 97.063568 37.123089
105.03927 96.915291 36.864227
107.03184 97.026863 36.53986
108.99944 97.033508 36.443989
111.04752 97.202293 36.230797
112.96476 97.362694 36.213455
114.85316 97.801636 36.04863
117.09135 97.756134 36.095303
118.32257 96.925766 36.018246
96.689049 98.33596 37.949226
99.285324 98.563461 37.759117
101.18236 98.621971 37.753132
103.1257 98.945488 37.652378
105.1686 98.940468 37.534489
107.06886 99.002182 37.311157
109.06464 98.924919 37.08316
111.06276 99.020561 36.801544
113.04256 98.984383 36.688862
115.05235 99.004646 36.491074
117.04637 99.123291 36.34613
118.91372 99.347252 36.132393
120.41196 99.65863 36.089943
124.33313 99.744141 36.087063
101.89931 100.33577 37.987946
103.29971 100.34753 37.881012
105.51854 100.32944 37.838371
107.40675 100.86606 37.694168
109.1428 100.88584 37.559666
111.13262 101.05936 37.487373
113.2146 100.9653 37.293301
115.06904 100.99982 37.097061
117.11093 101.00141 36.995186
119.09579 100.93848 36.69791
121.06931 100.96653 36.461651
123.10226 101.06792 36.287777
125.12774 101.17891 36.280499
126.72215 101.49853 36.157455
108.70316 102.23389 37.824051
111.27981 102.51658 37.782413
113.04479 102.81541 37.722775
115.16427 102.9733 37.709927
117.09447 103.00263 37.535408
119.14822 102.99519 37.369877
121.15196 102.99827 37.115791
123.10847 102.92245 37.011002
125.11178 102.97092 36.761101
127.13929 102.91368 36.530907
129.03412 103.16359 36.297577
131.00291 103.26052 36.20713
132.73483 103.58821 36.098103
135.577 103.36629 36.014072
137.2301 103.30749 36.14312
117.70674 104.42771 37.788448
119.09879 104.58338 37.785011
121.21178 104.88091 37.66188
123.10773 104.97346 37.524345
125.14069 105.09604 37.378864
127.15057 104.85579 37.021034
129.13727 104.94276 36.949741
131.07347 104.92083 36.671104
133.05653 105.0463 36.474758
134.92903 105.17982 36.348907
136.87686 105.24986 36.263645
138.76015 105.78937 36.134834
141.59109 105.78526 36.020851
123.58098 106.54932 37.918976
124.86884 106.64886 37.812126
127.09362 106.63309 37.6264
128.99274 107.01853 37.528061
131.02887 107.00086 37.35154
133.09508 106.97332 37.092537
135.08212 106.95874 36.8755
136.98137 106.90322 36.691898
139.07724 107.04083 36.463295
141.19069 107.33163 36.260906
143.17128 107.62617 36.167362
145.19722 107.39592 36.050198
147.62343 107.78701 36.030704
127.2963 108.49464 37.872345
129.61086 108.70752 37.999969
130.97874 108.64227 37.766972
133.0067 108.85958 37.677013
134.89803 108.9408 37.502632
136.86177 109.04411 37.323967
138.96611 108.96326 37.088318
140.96169 109.02037 36.834873
143.02667 108.96455 36.595242
145.06982 108.9811 36.399914
146.9953 109.02707 36.279633
149.00661 109.16251 36.198605
150.88243 109.38053 36.137192
152.95007 109.7879 36.07682
154.70525 109.15627 36.027382
135.31207 110.54613 37.858894
137.05563 110.60477 37.721245
138.825 110.87036 37.659981
140.97696 110.97989 37.546017
142.89816 110.95672 37.277977
144.86465 111.00844 37.134796
146.94618 111.02156 36.966339
148.99005 110.84853 36.660309
150.84486 111.03494 36.479916
152.77695 111.12872 36.344711
154.83301 111.37372 36.163368
156.93584 111.38769 36.129456
159.27818 111.80514 36.021454
139.57349 112.03261 37.550621
140.6389 112.63381 37.960289
143.02165 112.55274 37.707302
144.99881 112.86173 37.677849
146.94693 112.95876 37.60891
148.87733 112.99807 37.416096
150.85085 113.02684 37.22686
152.85081 112.92763 36.920689
154.86983 113.00289 36.665318
156.93127 112.9427 36.577465
158.80568 113.12115 36.343475
160.80583 113.31213 36.234077
162.74017 113.62225 36.061485
164.11676 113.7853 36.166813
149.10628 114.61667 37.809494
151.06445 114.73766 37.682034
152.99507 114.81997 37.598351
154.91161 115.01681 37.365479
156.84978 114.97581 37.141586
158.90117 114.88344 36.926003
160.88892 114.95789 36.744698
162.88275 114.98566 36.509876
164.8956 115.25192 36.335934
166.6604 115.48376 36.223232
168.68858 115.64282 36.120564
153.27606 116.47902 37.774101
154.7979 116.57165 37.752579
156.98418 116.73065 37.680046
158.95747 116.93333 37.558105
160.97333 116.95011 37.336674
162.9039 117.01881 37.165741
164.91922 116.93339 36.940548
166.92012 116.94109 36.651306
168.92343 116.98398 36.538548
170.91042 117.18115 36.32539
172.75505 117.46775 36.304268
174.97224 117.40981 36.12059
176.78328 117.81812 36.070602
158.7236 118.35336 37.89975
160.82689 118.57858 37.746567
163.04472 118.75105 37.788109
164.97305 118.92422 37.538536
166.94022 118.94997 37.384289
168.96339 118.8668 37.114979
170.95544 118.91145 36.867123
172.94455 118.95932 36.606918
174.97041 118.96515 36.504345
176.95657 119.06312 36.410526
178.85608 119.25573 36.263874
180.88142 119.58557 36.27227
182.64473 119.31252 36.059689
161.68784 120.39075 37.89975
165.1918 120.44773 37.860252
167.2189 120.53069 37.72266
169.04269 120.64803 37.626598
170.98747 120.97639 37.532318
173.00156 120.8976 37.283653
174.97067 120.9407 37.21114
177.01437 120.93698 36.976936
179.02094 120.92113 36.776802
180.99359 120.98307 36.595512
182.97122 121.15446 36.334297
185.05544 121.14328 36.187351
187.06253 121.52356 36.195625
188.5018 121.59174 36.218224
169.72299 122.81065 37.817188
170.17764 122.36605 37.920532
173.10741 122.5455 37.754154
175.09915 122.80657 37.703354
177.05014 122.90353 37.561901
179.00101 122.91933 37.398849
181.01396 122.94179 37.235325
183.05675 122.99757 36.942764
185.05318 123.03089 36.702866
187.07639 123.03485 36.568726
189.05223 123.06815 36.407032
191.07852 123.33716 36.269444
192.82108 123.41943 36.184753
177.84274 124.75437 37.981419
179.3176 124.43764 37.71244
181.23772 124.74533 37.689323
183.11415 124.94689 37.525242
184.99518 125.01359 37.361416
187.04475 124.93034 37.201527
189.04172 124.94132 36.961239
191.07025 124.96792 36.658585
193.08894 124.98679 36.51004
195.10139 125.14144 36.369377
196.93608 125.27582 36.188046
199.14655 125.47518 36.171448
201.63336 125.78251 36.314316
183.36189 126.48392 37.74147
184.97707 126.62625 37.664112
187.20953 126.81077 37.749603
189.08333 126.92329 37.579174
191.12239 126.89629 37.378128
193.1167 126.89508 37.122917
195.11127 126.93845 36.88036
197.12248 126.96551 36.700821
199.11888 127.00671 36.601917
201.02855 127.09773 36.32172
202.93018 127.35262 36.217216
204.99857 127.51418 36.114136
206.60272 127.65274 36.091599
208.01698 127.86076 36.034889
187.86559 128.01132 37.792259
189.36348 128.39384 37.857273
191.18544 128.3763 37.713688
193.19873 128.4854 37.664913
195.18777 128.8461 37.558842
197.16516 128.85915 37.371544
199.12883 129.00403 37.09124
201.11746 129.01132 36.816826
203.1519 128.98749 36.650394
205.09755 129.061 36.43222
207.07484 129.07439 36.303234
209.1631 129.34375 36.193897
210.58563 129.58664 36.262516
212.62184 129.63454 36.088409
214.48904 129.85796 36.072746
195.37434 130.30074 37.715023
197.20186 130.24329 37.698189
199.16443 130.75885 37.714497
201.0275 130.96722 37.554203
202.94109 130.91437 37.374397
205.0701 130.97868 37.12067
207.04407 130.98431 36.919201
208.95781 130.88641 36.826908
210.87364 131.00575 36.626961
212.85448 131.09253 36.406235
214.85118 131.30063 36.272209
217.01096 131.64375 36.103985
219.76437 131.83141 36.251102
200.98709 132.27609 37.753033
203.32765 132.61116 37.762844
205.01195 132.82166 37.645615
206.83275 132.83276 37.637875
208.88481 132.97948 37.511578
210.88365 132.94156 37.254635
212.86211 132.94188 36.994446
214.86113 132.98254 36.762806
216.84972 133.04982 36.562809
218.82603 133.13272 36.401291
220.92184 133.15988 36.239208
222.77161 133.47551 36.171143
225.35933 133.88261 36.106224
203.96413 134.01723 37.939571
207.022 134.21581 37.868889
209.11595 134.59662 37.832951
211.00119 134.67711 37.704372
212.94334 134.86104 37.63007
214.90651 134.91943 37.454491
216.88457 134.93362 37.137596
218.933 135.00229 36.919575
220.92824 134.97368 36.702061
222.9052 135.03696 36.519333
224.95091 135.18225 36.339806
226.83424 135.48479 36.24453
228.78749 135.71841 36.188599
230.16557 135.90668 36.096069
212.64883 136.32935 37.879215
215.01442 136.26204 37.779202
217.07089 136.64728 37.750916
218.91888 136.87537 37.55003
220.93124 136.97842 37.43877
222.92484 136.98247 37.177544
224.95869 136.96375 36.994747
226.9545 137.00784 36.749588
228.94771 137.05414 36.495205
230.97351 137.16638 36.372623
232.78192 137.45863 36.26215
234.91841 137.85385 36.120819
237.46115 137.71777 36.037422
219.03642 138.1779 37.829426
221.35748 138.30705 37.791428
223.05731 138.6967 37.733669
224.99272 138.81316 37.557335
226.99242 138.90694 37.403545
229.00648 138.93668 37.218109
231.00043 138.98242 36.966118
232.97522 139.04321 36.651726
234.98584 139.09499 36.517315
236.97887 139.23958 36.364017
239.02306 139.28442 36.223797
241.15369 139.51094 36.167736
243.36993 139.93082 36.065186
223.33516 140.03751 37.942432
225.60318 140.02733 37.918106
227.10376 140.45058 37.821217
229.17477 140.66582 37.718796
231.02098 140.89514 37.56358
233.01982 140.93706 37.327869
235.03139 140.96935 37.132328
237.03658 141.00677 36.915413
239.06252 141.02869 36.763527
241.0553 141.07564 36.506084
243.03793 141.18393 36.292072
245.04918 141.33223 36.224136
247.08179 141.70537 36.177479
231.69707 142.31551 37.906452
233.20073 142.38524 37.831509
235.10454 142.77596 37.679718
237.08118 142.86879 37.582516
239.10101 142.92761 37.420067
241.10699 142.95583 37.316437
243.00392 142.96227 37.015862
245.03224 143.05074 36.791378
247.0869 143.12483 36.498051
249.09096 143.15172 36.326519
250.90555 143.48633 36.183865
235.84769 144.05763 37.944687
237.09213 144.37645 37.862019
239.18416 144.51607 37.792484
241.30763 144.61205 37.726276
243.0954 144.89108 37.521481
245.05615 144.93193 37.395367
247.13593 144.99657 37.125252
249.14305 145.0336 36.910748
251.14235 145.07617 36.672466
241.88245 146.08226 37.892475
243.72412 146.47491 37.919201
245.44995 146.53186 37.923779
247.11475 146.74901 37.723324
249.05885 146.9924 37.554367
251.01442 146.91716 37.322628
252.02586 147.34644 37.477951
249.31645 148.55708 37.885044
251.15742 148.55913 37.700535
252.01373 148.89522 37.875267
251.89795 150.321 37.908073
251.8813 152.72298 37.211475
251.92171 154.61621 37.872929
91.043518 95.579956 38.372528
93.001129 95.685486 38.155087
91.122833 96.994751 38.689396
93.09391 97.061462 38.321087
95.106567 97.271896 38.224121
97.027855 97.538391 38.214863
98.982033 97.682114 38.077446
101.96568 97.819458 38.034439
91.299965 98.950279 39.257267
93.121628 98.964928 38.987003
95.160774 98.952667 38.766396
97.139343 98.979385 38.5798
99.087135 99.086632 38.416862
101.12284 99.284409 38.23687
103.1045 99.488083 38.158951
104.76431 99.633469 38.117714
91.332275 100.95016 39.723038
93.184486 100.92152 39.58696
95.075195 100.91765 39.467316
97.023781 100.91605 39.246887
99.149025 100.98887 38.953876
101.13746 100.99921 38.730961
103.1415 101.08024 38.486542
105.13613 101.07742 38.271488
106.83337 101.26167 38.220264
109.16771 101.65013 38.142853
111.16972 101.86643 38.021362
113.00323 101.82375 38.084061
116.05263 101.77046 38.126743
91.199944 102.0061 39.917244
92.991287 102.13849 39.734924
95.090309 102.47803 39.748829
96.928314 102.55743 39.759953
98.803047 102.79528 39.64838
100.92582 102.85461 39.408745
102.99334 102.94203 39.169109
105.09673 102.99474 38.887234
107.13757 102.96917 38.598896
109.12885 103.14087 38.407387
111.03154 103.18153 38.306683
113.02892 103.38355 38.189255
114.99126 103.57809 38.168663
117.19274 103.86517 38.033962
99.345726 104.15646 39.779465
101.00475 104.36036 39.799171
102.83043 104.65634 39.731125
104.8569 104.84466 39.545036
106.89954 104.95308 39.362724
109.04916 104.96529 39.10405
111.07598 104.88475 38.837761
113.03776 105.06044 38.665688
114.95584 104.94893 38.481709
116.92115 105.16592 38.371922
119.04182 105.48597 38.216339
120.77014 105.48779 38.181709
122.8102 105.87179 38.039101
104.62469 106.22124 39.832634
107.07112 106.46983 39.725231
108.94028 106.65002 39.630444
110.86765 106.85928 39.499714
112.91947 106.86073 39.293125
114.90063 106.94659 39.13702
116.84908 107.01773 38.99659
118.86404 107.08982 38.933743
120.81607 107.0042 38.709137
122.77788 107.18445 38.346375
125.05242 107.43192 38.429333
126.59618 107.56586 38.203911
128.64737 107.85062 38.134972
107.21288 108.4379 39.956833
109.2388 108.21095 39.937099
110.67378 108.18611 39.856411
112.78993 108.48724 39.746613
114.83421 108.45404 39.668941
116.84607 108.34143 39.691837
119.00887 108.28194 39.698021
121.03887 108.17722 39.619576
122.98712 108.67464 39.381565
124.9087 108.93535 38.937641
126.86367 109.09335 38.566563
128.89375 109.11688 38.364429
130.85118 109.23367 38.244301
132.61758 109.58778 38.116756
135.13426 109.87054 38.057369
119.30748 110.36606 39.958046
125.36679 110.5446 39.801128
127.10249 110.64545 39.315845
128.86205 110.98326 38.984741
130.88707 110.99654 38.84922
132.86252 111.0188 38.509003
134.77487 111.14647 38.393578
136.81467 111.19466 38.227329
138.74516 111.53722 38.131451
140.51035 111.84219 38.205135
129.18912 112.694 39.555527
130.91109 113.06591 39.449879
132.89223 112.92818 39.110142
134.91887 112.98527 38.990646
136.88866 112.99184 38.707466
138.8923 113.01614 38.533295
140.92625 113.14622 38.332329
142.76672 113.34467 38.210381
144.67406 113.34706 38.140022
146.63983 113.65396 38.149208
129.72667 114.39366 39.952621
130.89946 114.58332 39.713078
132.97916 114.6861 39.654926
134.89581 114.91278 39.47757
136.92513 114.97748 39.366879
138.92653 114.9185 39.161427
140.90929 114.97388 38.873764
142.91003 115.00332 38.681652
144.91393 115.02863 38.504505
146.94499 115.01695 38.463661
148.81456 115.34712 38.314793
150.77887 115.46827 38.168499
152.44493 115.78873 38.06427
155.39056 115.87453 38.009357
135.14008 116.30683 39.930649
137.07288 116.5698 39.874706
138.99146 116.63844 39.649242
140.99759 116.9474 39.470177
142.95094 116.89566 39.345909
144.97322 116.96249 39.192863
146.96481 116.9392 39.020138
148.95998 116.97781 38.794472
150.95206 117.0208 38.552723
152.8819 117.14405 38.294735
155.00822 117.35027 38.249035
156.93567 117.60209 38.201481
158.60052 117.66866 38.143448
161.42381 117.88256 38.004326
139.59705 118.56515 39.94569
140.93633 118.44632 39.820744
142.83621 118.35555 39.66169
144.97385 118.59364 39.661167
146.98705 118.80678 39.576859
148.96886 118.91698 39.465916
151.0045 118.96524 39.369576
152.98671 118.95487 38.982567
154.99059 118.9829 38.796879
156.97473 119.03648 38.515259
159.01248 119.11231 38.419708
160.96716 119.20946 38.196823
162.96532 119.69894 38.207478
165.01965 119.89545 38.078873
145.77255 120.41704 39.996201
149.20874 120.42168 39.84425
151.16608 120.47282 39.716255
153.04269 120.77937 39.60722
155.12035 120.85432 39.475159
157.02122 120.92264 39.206314
159.02579 120.95072 39.021088
161.00005 121.00723 38.86031
163.01289 121.03489 38.544952
164.93469 121.20475 38.272694
166.89748 121.38194 38.25325
168.93634 121.48747 38.165966
171.05869 121.8981 38.095741
153.82239 122.22984 39.864246
154.98434 122.40211 39.793007
157.11284 122.78979 39.809856
159.0787 122.83425 39.653873
161.03355 122.91468 39.402645
163.05545 122.97139 39.227547
165.04218 122.97694 38.946579
167.03523 123.01982 38.705608
169.01115 123.05951 38.543766
171.07478 123.1157 38.314957
172.92337 123.42027 38.303982
175.01311 123.73048 38.167114
177.0179 123.78245 38.176102
157.83557 124.02888 39.942429
158.93155 124.14929 39.834705
161.13037 124.6968 39.897659
163.13461 124.70788 39.723797
165.07387 124.88142 39.568459
167.08678 124.9011 39.417236
169.07521 124.94964 39.154522
171.06615 124.99518 38.903126
173.07477 125.02088 38.72868
175.07619 125.05502 38.521294
177.06392 125.08346 38.404079
178.98457 125.27617 38.367203
180.90421 125.41131 38.155369
182.64738 125.60003 38.129654
185.57596 125.91544 38.000511
163.24316 126.24613 39.946983
165.27629 126.33815 39.916485
167.07483 126.53249 39.762993
169.19571 126.70707 39.75359
171.08661 126.912 39.477016
173.10103 126.93115 39.329174
175.10695 126.9603 39.141899
177.14035 126.95996 39.069798
179.13133 127.00636 38.815472
181.14313 127.03045 38.647537
183.06874 127.21523 38.500877
185.18648 127.23954 38.165791
186.80582 127.57294 38.164623
189.2005 127.70274 38.148563
168.45415 128.06744 39.893597
171.19592 128.26089 39.846298
173.06297 128.42552 39.818924
175.18893 128.74033 39.683731
177.18137 128.84067 39.554298
179.11903 128.87767 39.447247
181.12677 128.94975 39.215878
183.0313 128.98167 38.953873
185.05252 129.03587 38.861397
187.04218 129.06084 38.566151
189.01355 129.08522 38.471291
190.92982 129.28908 38.341885
192.84586 129.58241 38.162601
194.56572 129.6454 38.164593
173.48366 130.05902 39.989227
175.10919 130.05922 39.93227
177.38582 130.13728 39.870914
179.29869 130.46065 39.829811
181.05461 130.55759 39.728451
183.15337 130.82558 39.625439
185.01512 130.91576 39.524517
187.06941 130.933 39.193989
189.09564 130.98062 39.060905
190.99788 131.01494 38.788616
192.87723 131.07385 38.628658
194.88022 131.16417 38.456543
196.80634 131.235 38.297718
198.55945 131.59932 38.23872
200.00209 131.97263 38.013729
183.25365 132.33623 39.812599
185.21773 132.32196 39.873959
187.02911 132.52155 39.769424
188.83487 132.94113 39.696304
190.93068 132.86716 39.490467
192.93494 132.93062 39.308102
195.03647 132.99063 39.001953
197.04515 133.05209 38.821323
198.90672 133.08812 38.537155
200.86401 133.17795 38.411293
202.65266 133.37764 38.282288
204.85773 133.34763 38.214947
206.98877 133.42404 38.099697
188.96407 134.05608 39.951881
191.18898 134.26649 39.860256
192.9337 134.4174 39.747356
194.80225 134.74304 39.609501
196.91286 134.91525 39.416039
198.96375 134.96828 39.262218
200.94846 135.03656 38.985653
202.91359 135.06436 38.811028
204.86461 135.10069 38.528511
206.89191 135.13228 38.474483
208.8255 135.29996 38.294403
210.80765 135.42529 38.174603
212.52519 135.8409 38.059628
195.25339 136.08618 39.858109
196.9243 136.30748 39.834824
199.1398 136.76422 39.670921
200.98868 136.89203 39.591187
202.98126 136.93156 39.383636
204.94234 136.99361 39.201618
206.9174 137.0247 39.011009
208.94003 137.0442 38.866898
210.95354 137.07217 38.688454
212.98482 137.16611 38.457916
214.93692 137.22227 38.329231
216.66331 137.36493 38.226551
218.20789 137.94312 38.262566
200.47144 138.10092 39.862236
203.15474 138.50815 39.795334
204.9726 138.68359 39.71394
206.95599 138.92232 39.666531
209.01204 138.92653 39.515285
211.02307 138.94075 39.323139
212.9747 139.02492 39.055084
214.97203 139.06708 38.81778
217.03065 139.01045 38.610722
219.00064 139.19086 38.477531
220.91209 139.248 38.271824
222.86002 139.61028 38.198616
224.85556 139.77606 38.133244
206.73878 140.0921 39.935104
209.23674 140.57132 39.819084
211.06664 140.75807 39.812836
213.06894 140.88559 39.640026
215.03038 140.8764 39.45348
217.01411 141.00224 39.25787
219.02548 141.03319 39.068371
221.02391 141.07486 38.833519
223.04253 141.10052 38.666145
225.01564 141.09294 38.439911
227.00841 141.3 38.346603
228.67757 141.29762 38.164337
230.6974 141.9848 38.178047
213.37599 142.24866 39.879616
215.25916 142.4294 39.871971
217.15921 142.64523 39.831318
219.08794 142.86954 39.588802
221.05357 142.98029 39.458874
223.06133 143.01463 39.255611
225.07974 143.04073 39.08717
227.07608 143.08453 38.843727
229.0527 142.95074 38.482243
230.99207 143.11411 38.313717
232.95354 143.3466 38.239704
234.85884 143.59172 38.21146
237.14789 143.62215 38.017208
217.38043 144.1244 39.930359
221.28015 144.35278 39.821449
223.1263 144.71536 39.767113
225.14838 144.85406 39.626369
227.11176 144.98512 39.490555
229.11264 145.02539 39.262238
231.12274 145.02626 38.999195
233.14963 145.05922 38.802162
235.07927 145.07681 38.483955
237.13902 145.20364 38.358582
238.99193 145.25101 38.255936
240.84712 145.38115 38.116219
242.61096 145.42412 38.060791
225.62407 146.25673 39.941032
227.24533 146.35861 39.851475
229.32225 146.65672 39.767838
231.18748 146.92723 39.606339
233.14258 147.01257 39.426762
235.09186 147.03387 39.133503
237.03059 147.11101 38.964539
239.10167 146.96513 38.749847
240.99484 147.05623 38.634422
242.97008 146.95486 38.373947
244.87982 147.22639 38.269253
246.6884 147.65782 38.27166
252.72559 147.34213 38.379208
229.90469 148.1315 39.990906
231.32146 148.14752 39.884842
233.21019 148.58046 39.872543
235.07684 148.68317 39.685661
236.99702 148.93004 39.645641
239.06273 148.98654 39.531342
240.94438 148.99716 39.346062
242.86496 149.05476 39.068459
244.9015 149.12509 38.846306
246.97896 149.04825 38.617397
248.76678 149.18434 38.32346
250.86087 149.34129 38.300297
252.76208 149.05241 38.976738
235.89539 150.379 39.856655
237.6095 150.1373 39.982498
239.00589 150.16895 39.807873
241.06844 150.54366 39.760517
242.86913 150.88208 39.68774
244.89787 151.02908 39.481552
246.88661 151.06976 39.25246
248.90021 151.04567 38.906052
250.90271 150.99472 38.709129
252.4545 151.22679 39.106831
241.97488 152.17827 39.89743
243.00974 152.36728 39.943531
244.75652 152.39975 39.860165
247.02066 152.76888 39.770477
248.92206 152.99684 39.660221
250.8848 153.01259 39.408737
252.17699 153.12378 39.089226
249.25604 154.19717 39.846649
251.18677 154.5235 39.766117
252.28671 154.95753 39.506222
251.43193 157.3539 38.40424
252.40933 156.21823 39.873482
247.99022 159.48393 39.923256
248.92995 159.498 39.840084
251.02271 159.28932 39.565952
240.79303 161.53387 39.954254
245.65367 161.5818 39.644592
246.96616 161.53151 39.862827
249.05969 161.14763 39.721615
250.7191 160.8983 39.650669
237.16623 162.39027 39.793137
247.6252 162.02011 39.455631
249.18054 162.07803 39.152958
250.33177 162.13094 38.880905
90.473907 99.437744 40.189796
90.600182 101.11507 40.561516
92.036713 101.52848 40.091595
91.05278 103.06053 40.809673
92.86084 103.10067 40.498825
94.797943 103.2106 40.318989
96.790863 103.51795 40.191734
98.545036 103.66547 40.177559
100.05827 103.9326 40.046627
91.204269 104.97443 41.262775
92.884071 104.99805 41.016796
94.892258 104.99661 40.930428
96.875252 105.05243 40.643093
98.857658 105.10617 40.485401
100.77972 105.32233 40.285179
102.87288 105.58414 40.228382
104.62563 105.70376 40.046539
91.089104 106.82389 41.713894
92.994774 106.87074 41.675404
94.954887 106.89646 41.498749
96.918068 106.93855 41.322544
98.904518 106.98661 41.0625
100.89546 107.02533 40.835461
102.88502 107.06693 40.597984
104.90705 107.14386 40.35659
106.80923 107.34611 40.250202
108.77007 107.50093 40.134277
111.6874 107.94873 40.02449
112.11292 107.90566 40.160049
90.897087 108.9192 41.927536
93.731247 108.06942 41.875336
95.217873 108.47594 41.840263
97.073311 108.58084 41.779373
98.920631 108.8236 41.660236
100.94836 108.92554 41.464432
102.92641 108.95652 41.265747
104.9127 109.005 41.00415
106.89752 109.05637 40.856655
108.87562 109.12103 40.536839
110.89827 109.24158 40.296944
112.99834 109.50404 40.247574
114.99348 109.3157 40.565895
116.99939 109.14949 40.553257
118.96693 109.16026 40.399429
121.01609 109.21802 40.279926
122.91077 109.4966 40.242165
125.12327 109.85775 40.04237
99.554321 110.04973 41.960983
101.12663 110.34539 41.895
102.98267 110.5638 41.774639
105.00238 110.83423 41.627003
106.97561 110.90681 41.414822
108.92135 111.00142 41.112595
110.92783 111.01185 40.988388
112.97765 110.98975 41.155655
114.97516 110.82831 41.285358
116.91341 110.44019 40.922733
119.8719 110.08548 40.951149
121.17966 110.32861 40.443211
123.18748 110.57668 40.533421
125.03616 111.02966 40.385704
126.79504 111.36258 40.308781
104.94723 112.09048 41.846775
107.36054 112.18855 41.764595
109.04446 112.71027 41.719669
110.94566 112.6471 41.607533
112.91412 112.61303 41.745983
114.47166 112.34995 41.25
125.60246 112.40408 40.834141
127.05722 112.9691 40.730156
128.72878 113.3298 40.506931
130.97511 113.9436 40.031921
107.74036 114.1008 41.951607
110.37144 114.07053 41.953907
127.42708 114.73912 41.359638
129.02289 115.0107 41.240192
130.97206 115.21091 40.291859
132.85083 115.65979 40.198082
134.8855 115.94116 40.146538
137.41068 115.94181 40.040649
127.70699 116.42514 41.726406
129.24188 116.72678 41.698067
130.99852 117.03647 40.854202
132.98647 117.08395 40.595551
134.96756 117.22066 40.426193
136.8941 117.36881 40.282188
138.87575 117.4314 40.21875
140.62801 117.82161 40.237953
129.87222 118.66502 41.778366
131.05952 118.91653 41.43224
133.02177 118.98445 41.227928
135.01927 119.01757 41.023354
137.01122 119.05923 40.786793
138.94757 119.139 40.544235
141.00432 119.19762 40.377037
143.07491 119.35642 40.245544
145.00667 119.43738 40.187057
147.0491 119.77537 40.139881
149.94479 119.86096 40.375042
129.83624 120.08887 41.869003
131.52451 120.33467 41.811352
133.15443 120.57697 41.679272
135.08238 120.89396 41.615097
137.03777 120.97198 41.372459
139.04781 120.98787 41.23423
141.04607 121.02095 41.030289
143.02571 121.08029 40.726822
145.00182 121.13035 40.590202
147.06172 121.09423 40.516945
148.9702 121.27721 40.296597
151.00891 121.41027 40.271847
152.94038 121.54279 40.155338
154.53793 121.50816 40.22691
156.31566 121.95703 40.023067
132.62563 122.09711 41.979027
135.29048 122.17641 41.889984
137.30017 122.42592 41.806625
139.09238 122.72795 41.768013
141.12703 122.84452 41.559887
143.06366 122.97649 41.375629
145.08453 122.97949 41.287682
147.08707 123.00816 41.1012
149.08945 123.03755 40.911945
151.08153 123.0806 40.670391
153.04134 123.15427 40.444511
155.01154 123.30141 40.289131
156.93678 123.56044 40.191025
159.32889 123.4514 40.123306
161.01454 123.81397 40.122883
139.45941 124.09688 41.967308
141.61574 124.3569 41.945496
143.18596 124.63593 41.871597
145.10852 124.59702 41.794579
147.13234 124.81328 41.668064
149.12547 124.93687 41.551647
151.12538 124.9698 41.349369
153.12131 125.0082 41.12579
155.13895 125.01389 40.843391
157.09772 125.1048 40.602058
159.09889 125.1282 40.571301
161.18254 125.36228 40.367256
163.0341 125.64751 40.279385
165.16866 125.93517 40.287292
145.46703 126.51354 41.971085
147.07672 126.52549 41.865974
149.18053 126.38605 41.875019
151.3224 126.54512 41.782959
153.19058 126.74174 41.686874
155.17456 126.92936 41.47208
157.14772 126.98692 41.309643
159.13751 127.03321 41.055336
161.10916 127.01923 40.85207
163.0619 127.07416 40.611511
165.05193 127.17019 40.43819
167.11852 127.23716 40.269157
169.10907 127.48999 40.161057
171.38895 127.96461 40.196617
153.27814 128.09209 41.967983
155.29427 128.29958 41.891006
157.19334 128.52101 41.763012
159.10425 128.76169 41.648849
161.08794 128.93721 41.544468
163.09422 128.92802 41.260948
165.06245 128.99516 41.103336
167.09142 129.04477 40.801548
169.1425 129.07097 40.658363
171.00049 129.17462 40.388493
172.99603 129.46281 40.258183
174.90262 129.46785 40.244488
176.51616 129.57947 40.154118
178.84718 129.97665 40.133568
157.13513 130.11023 41.99762
159.94873 130.33459 41.826515
160.85072 130.30766 41.903744
163.09502 130.67119 41.777367
164.93027 130.92036 41.709141
167.00137 130.98994 41.492897
169.08183 130.95146 41.241596
170.92935 131.1283 40.959435
172.90578 131.11661 40.78672
174.97981 131.04584 40.630302
177.04723 131.12454 40.486263
178.93732 131.25943 40.379463
180.81557 131.45299 40.306229
182.51833 131.52547 40.172081
165.19958 132.11063 41.955704
167.05106 132.52876 41.866287
168.93051 132.78146 41.706188
170.92769 132.87747 41.658821
172.90674 132.99133 41.465019
174.89178 132.96031 41.386196
176.84857 133.03899 41.141148
178.94115 133.00169 40.913837
180.93472 133.09073 40.666695
182.8587 133.24977 40.563419
184.85144 133.22075 40.296394
186.63747 133.42279 40.286922
188.94075 133.04169 40.171459
190.41475 133.57921 40.170841
170.61737 134.12378 41.954014
172.97023 134.50119 41.805313
175.05949 134.54453 41.771168
176.88597 134.85049 41.683937
178.90007 134.96042 41.558472
180.87219 135.02464 41.301777
182.8987 135.02177 41.053329
184.87433 135.09659 40.877518
186.96645 135.0463 40.654961
188.93135 135.11736 40.459469
190.85876 135.13074 40.465118
192.79829 135.39166 40.15033
195.07494 135.42691 40.159512
178.98166 136.2384 41.865658
181.1391 136.73535 41.801941
182.94579 136.90816 41.724205
184.97449 136.95209 41.478737
186.94536 136.99919 41.445171
188.92413 137.05765 41.14069
190.9463 137.00288 40.92601
192.95499 137.04724 40.679451
194.93182 137.0647 40.545612
196.94666 137.30516 40.290352
198.6226 137.43889 40.252182
200.8723 137.46892 40.200718
202.19003 137.63821 40.02578
182.66667 138.15945 41.876175
185.11427 138.41449 41.880157
187.25841 138.60185 41.760303
188.9781 138.74686 41.709579
190.99023 138.93146 41.518509
192.94983 139.04301 41.304665
194.9581 139.07353 41.116558
196.9234 139.07047 40.871433
198.96291 139.11603 40.618782
200.94246 139.01883 40.463894
202.87718 139.19537 40.285248
204.82159 139.39923 40.219784
208.29491 139.21146 40.138138
210.29678 139.63684 40.017941
186.88396 140.15308 41.994728
189.12817 140.15154 41.935616
191.25734 140.26018 41.847908
192.98042 140.68967 41.861057
195.0522 140.79533 41.597507
197.01811 140.97301 41.557972
199.04646 141.01768 41.382355
201.0065 141.04745 41.070732
202.9817 141.09441 40.814064
205.00723 141.02049 40.549374
207.02985 141.04445 40.400253
208.91251 141.13402 40.359074
210.90228 141.27203 40.190659
212.28424 141.42624 40.209564
214.82977 141.63202 40.134628
195.57556 142.1608 41.926735
197.15927 142.4005 41.859001
199.18173 142.78267 41.847618
201.07874 142.92552 41.704109
203.01955 143.03683 41.478317
205.0081 143.08578 41.212868
207.0137 143.06216 41.055626
209.07283 143.09151 40.872417
211.06955 143.04024 40.674259
213.04384 143.0667 40.462261
215.01511 143.05264 40.284546
216.91301 143.26631 40.107151
218.73714 143.50722 40.196999
200.5954 144.16992 41.960335
203.02255 144.36423 41.841969
205.20906 144.48222 41.725601
207.11562 144.92506 41.740952
209.11896 144.99725 41.54921
211.02046 145.03001 41.350266
212.98085 145.08458 41.152027
215.10434 144.9966 40.804737
217.09209 144.97859 40.676258
219.10179 145.02306 40.429638
220.9502 145.23906 40.227474
223.05423 145.2627 40.173603
224.79272 145.64445 40.250427
209.26836 146.49432 41.863663
211.15225 146.67931 41.81179
213.12071 146.93886 41.733498
215.10222 146.98245 41.505665
217.08977 147.06328 41.346455
219.09868 147.08772 41.104343
221.0952 147.03986 40.814014
223.1093 146.94847 40.606941
225.01445 147.00241 40.428532
227.01587 147.20584 40.308517
228.80556 147.35835 40.144951
230.82356 147.2879 40.076111
213.62737 148.3269 41.94355
215.16647 148.4368 41.850422
217.04541 148.6769 41.776165
219.19547 148.89438 41.633781
221.07628 148.99573 41.503334
222.98311 149.03049 41.328228
224.98509 148.9976 41.08939
227.0584 149.02892 40.881405
229.04662 149.02321 40.594673
231.05037 148.99355 40.374226
232.95296 149.2235 40.21558
234.85802 149.48125 40.106483
236.75827 149.60193 40.10931
238.14659 149.66206 40.264133
219.53024 150.40714 41.946568
220.82433 150.534 41.805466
222.95511 150.76436 41.835979
224.9949 150.77888 41.710312
226.92403 151.10677 41.539547
228.95009 151.07159 41.356609
230.95815 150.972 41.011765
232.91415 150.94479 40.794487
234.94672 150.99245 40.557762
236.96608 150.97333 40.44112
238.76807 151.13298 40.275593
240.66121 151.30756 40.1665
242.7607 151.72429 40.083591
227.13211 152.54294 41.81575
229.14101 152.67642 41.752571
230.95343 153.05171 41.655449
232.91815 152.97998 41.451965
234.86101 153.01073 41.243927
236.87271 152.99785 41.086769
238.88919 153.04103 40.85812
240.89658 152.95235 40.713409
242.86617 153.10797 40.547905
244.96538 153.22372 40.302742
246.65967 153.32394 40.158318
248.15901 153.33292 40.08493
229.96953 154.24664 41.898186
233.13802 154.41518 41.860828
234.8633 154.66275 41.759216
236.91586 154.99104 41.657627
238.94322 155.05255 41.542793
240.91315 155.06258 41.255371
242.95801 155.05525 41.060566
244.90816 155.03227 40.790588
246.9151 154.95235 40.594742
248.89235 154.95485 40.281223
250.76633 155.20482 40.227684
252.19911 155.05963 40.200207
230.70792 157.72296 41.825844
233.12541 157.76408 41.723934
235.2467 157.77628 41.808537
236.98782 157.51114 41.745087
239.03761 157.27336 41.626488
240.95924 157.05835 41.57946
242.92767 156.89026 41.618885
244.92871 156.97546 41.465668
246.95393 156.85437 41.14484
248.94858 156.82114 40.930485
250.82426 156.79417 40.657925
252.29492 156.35054 40.207611
225.77397 159.98584 41.785049
226.62343 159.96521 41.868114
