# .PCD v0.7 - Point Cloud Data file format
VERSION 0.7
FIELDS x y z
SIZE 4 4 4
TYPE F F F
COUNT 1 1 1
WIDTH 1558
HEIGHT 1
VIEWPOINT 0 0 0 1 0 0 0
POINTS 1558
DATA ascii
196.97821 44.780037 7.8388166
199.03935 44.931732 7.7862148
201.07036 45.004631 7.5607705
203.02815 45.063282 7.4046206
205.03758 45.048985 7.142036
207.06056 45.042252 6.9291248
209.06392 44.948658 6.7373495
211.03282 45.039143 6.523838
213.15915 45.114933 6.4021583
215.07709 45.136356 6.2626376
216.87671 45.027485 6.2211137
219.1496 45.568642 6.060668
126.93404 46.355282 7.9650373
201.34071 46.391335 7.6017532
203.01343 46.555546 7.7436419
205.19597 46.819576 7.7857771
207.09322 47.033329 7.5776105
209.08646 46.994766 7.4279232
211.08691 47.044899 7.1468735
213.04063 47.007664 6.8926477
215.06984 46.958935 6.8369994
217.09178 46.936592 6.5217872
219.00766 47.015419 6.3483052
221.09935 47.258667 6.2929468
223.24472 47.368519 6.1882043
224.63766 46.833565 6.05301
226.4222 47.667328 6.003067
229.3963 47.224777 6.1373367
230.26266 47.650093 6.3826694
205.42137 48.303905 7.9569473
207.54343 48.507755 7.8479443
208.90863 48.859283 7.7741561
211.22203 48.870403 7.7165608
213.0955 48.979092 7.5849195
215.10208 49.074364 7.4380522
217.16096 49.012703 7.2283797
219.12666 49.001972 6.964601
221.0873 48.910572 6.7216835
223.09424 49.037601 6.529109
225.02937 49.052914 6.3121681
227.01097 49.214233 6.2654672
229.11882 48.952724 6.6089725
242.75531 49.888817 7.0846996
131.88222 51.120144 7.342474
211.89143 50.278152 7.9936504
213.19745 50.489296 7.9177055
215.35725 50.684483 7.8309293
217.10606 50.782566 7.7632403
219.11162 50.935375 7.6073656
220.95589 50.98814 7.4534178
222.95862 51.128452 7.3019104
225.04842 50.823769 6.9655175
226.9709 50.928516 6.7246237
228.75391 50.881824 7.1519299
242.75479 51.396992 6.4786987
219.1221 52.709751 7.9026451
221.133 52.760319 7.850235
223.00607 52.875191 7.7901688
224.89828 52.852043 7.5525994
226.87904 53.021374 7.4482546
228.79172 52.944889 7.6908994
241.84442 53.33519 7.1024799
242.79753 53.14452 6.5614891
244.22403 53.243336 6.0202732
224.77306 54.699406 7.9532394
226.92889 54.454403 7.7068086
228.83722 54.91066 7.7497549
241.34755 55.143475 7.2627182
242.97412 54.973267 6.4925041
244.55122 55.176498 6.2736835
246.5925 55.367336 6.2094731
249.41611 55.691532 6.0226536
251.91855 55.634003 6.0265179
239.40968 57.171406 7.7895741
241.04811 57.060421 7.3989797
242.94548 57.02739 6.9201617
244.88098 57.105156 6.7697735
246.9212 57.065029 6.4661303
248.82317 57.177376 6.4337096
250.89354 57.299603 6.213871
252.9323 57.529911 6.0398774
254.41199 57.411884 6.0795503
256.32596 57.661461 6.0598373
234.82718 58.326656 7.9258957
237.61121 59.563103 7.8744335
239.07367 58.81358 7.8630109
241.0155 58.993233 7.7030559
243.02692 59.036358 7.5828209
244.93076 59.034306 7.3408771
246.96437 58.945805 7.1218534
249.00522 59.064674 6.9865127
250.98738 58.931366 6.6903725
253.00092 58.973438 6.3882699
254.91171 59.182442 6.2989941
256.91367 59.318989 6.1661906
259.20245 59.299072 6.081275
260.57535 59.253494 6.1257267
241.10318 60.305904 7.971137
242.83472 60.600712 7.8343163
245.00555 60.756695 7.7548547
247.00507 60.890125 7.6213641
249.11604 60.986397 7.564889
251.08093 60.981289 7.3691745
253.04388 60.916378 6.9832969
255.04614 60.883389 6.8247399
257.0314 60.923466 6.5886264
259.03345 61.005123 6.4241619
261.02203 61.199749 6.3887949
262.88037 61.364662 6.2216172
264.49377 61.746071 6.0775414
266.05087 61.234875 6.2242699
247.34798 62.321484 7.9168577
249.55782 62.414318 7.9233546
251.19937 62.805931 7.7965655
252.95523 62.791271 7.6166081
255.02013 62.952888 7.4716024
257.01956 63.023663 7.1466932
259.04358 63.0117 7.0581479
261.07208 62.937313 6.7811251
263.02994 63.01553 6.5690756
264.9393 63.117161 6.3197927
253.78452 64.351013 7.8118458
255.39539 64.630836 7.7259407
257.10916 64.707367 7.7294812
259.11575 64.930046 7.6621256
261.06183 64.980659 7.462152
263.04681 64.976852 7.2669191
264.88196 64.866783 6.8812509
257.79721 66.356613 7.9224319
259.82593 66.175095 7.7105751
261.21954 66.68177 7.8717957
263.16907 66.827232 7.6647258
264.89746 66.949234 7.4949036
263.43344 68.371216 7.909574
265.08829 68.545135 7.9246778
171.56169 163.97076 7.3923531
215.4183 164.86595 7.7828579
98.889275 166.72192 6.6523361
247.19734 168.98705 7.9685059
97.989517 170.22827 6.2240858
140.68381 -4.3668699 9.1408348
193.49619 -4.9419894 9.5499821
228.66229 -5.0109596 9.1366501
246.81105 -5.2027483 9.2561398
104.27539 9.2761307 8.2231226
104.62389 11.191432 8.5971146
104.94935 13.012963 8.5780973
106.84977 13.273564 8.2002773
108.75235 13.376987 8.148921
105.13159 14.998588 9.0545988
106.98462 14.960191 8.702961
108.9599 14.984074 8.4807997
110.99455 15.199421 8.2674818
112.89581 15.507521 8.2390842
114.62395 15.761465 8.084444
105.09286 17.013695 9.5130692
107.0807 17.013584 9.3639736
109.06905 16.951378 9.0734491
111.04958 16.981363 8.8596544
113.03815 16.908218 8.5717134
115.03145 17.09828 8.3693771
117.00918 17.32826 8.251667
118.95734 17.438375 8.149663
120.74149 17.651112 8.1145382
122.68684 17.6917 8.0881834
104.82502 18.684526 9.804162
107.25514 18.818914 9.8038464
109.14439 18.862005 9.5963411
111.05169 18.928911 9.4910765
113.04081 18.954803 9.2037249
115.02567 18.925943 8.9156694
117.04815 18.972429 8.7717819
119.08101 18.98605 8.5944757
121.02363 19.088226 8.4175177
123.09767 19.119957 8.2764969
124.9283 19.429579 8.237504
127.49103 19.734108 8.0533247
128.31032 19.699499 8.0800056
109.88997 20.342892 9.9278851
111.25868 20.423872 9.7506466
113.25565 20.848257 9.6451187
115.1571 20.815878 9.5039234
117.14247 20.956825 9.5033417
119.06851 21.048727 9.2402649
121.06187 20.946354 9.0627956
123.08829 20.890106 8.8388042
125.07044 20.91976 8.6262579
127.04209 20.966328 8.3889484
128.96208 21.127991 8.2807608
131.03055 21.325102 8.1514721
133.52716 21.718208 8.0741587
134.32915 21.724667 8.0018234
115.7112 22.340788 9.9255104
117.26051 22.607424 9.8257828
119.10902 22.722811 9.6591272
121.211 22.788187 9.6098423
123.14586 23.001331 9.4674139
125.1629 23.017479 9.2862072
127.10126 22.987429 9.040062
129.13719 22.951454 8.7811804
131.08041 23.033327 8.5217962
133.07361 23.116261 8.3665524
134.95638 23.300751 8.1768522
137.01778 23.398514 8.1083403
121.10793 24.396751 9.8093271
123.54549 24.432331 9.8196325
125.24097 24.801565 9.8581944
127.16705 24.957884 9.7016869
129.11755 24.953575 9.4786949
131.1107 25.143377 9.2515993
133.17622 24.968992 8.9329519
135.13367 25.023535 8.7696972
137.06313 24.975355 8.4916382
139.12228 25.092144 8.3284016
140.69368 25.27685 8.251111
142.66008 25.440964 8.1286907
144.37065 25.740566 8.071291
127.55038 26.355415 9.8631048
128.96625 26.667017 9.885808
131.19168 26.849167 9.7101336
133.10117 26.846897 9.4228592
135.07115 27.079252 9.3767118
137.15958 26.955107 9.1511698
139.07091 27.009733 8.9177122
141.16333 26.942497 8.655282
143.11981 26.944834 8.3887396
144.94888 27.103296 8.2637434
147.07028 27.4006 8.2724323
148.70877 27.210789 8.1475563
131.53021 28.430483 9.795826
133.61888 28.670679 9.7714205
135.25958 28.698936 9.6988688
136.9767 28.852858 9.6727972
139.06255 28.969358 9.5302496
140.96786 29.043688 9.2733059
142.95216 28.889626 9.0601206
144.96732 28.9755 8.8658724
146.98354 28.913702 8.6005812
148.95569 29.031216 8.4046755
150.90442 29.127674 8.3611565
152.6411 29.172064 8.2523451
154.43274 29.226084 8.116518
135.53877 30.834038 9.9835625
139.0905 30.373089 9.8167591
141.08189 30.568007 9.7938576
143.06575 30.803122 9.5473013
145.12965 30.98407 9.4285164
147.01584 30.937387 9.1706085
148.92119 30.913013 9.0165787
150.85826 30.918388 8.8896923
152.89133 30.951485 8.6729946
154.80217 30.966036 8.4209032
156.92804 31.039217 8.2971487
158.81688 31.275297 8.1966696
160.72664 31.374783 8.2017546
162.08392 31.716682 8.1173801
143.56078 32.071674 9.5749035
145.054 32.547871 9.7700729
147.1651 32.571442 9.7041235
148.91336 32.76429 9.5903797
150.80116 32.926468 9.5489454
152.79088 32.947548 9.3598022
154.81239 32.920109 9.0879297
156.8605 32.857132 8.8646536
158.93607 32.957047 8.5899744
160.81995 33.069603 8.3660917
162.87157 33.010384 8.2838573
164.96628 33.30994 8.2577019
166.638 33.263222 8.0797892
168.51158 33.741276 8.0164928
148.56276 34.370449 9.9655142
150.99698 34.321823 9.7875977
152.99069 34.42421 9.6508369
154.91844 34.810635 9.6622887
156.89613 34.91386 9.467886
158.85405 34.968163 9.1954565
160.91043 34.890354 8.9926357
162.86211 34.914459 8.7057962
164.854 35.016582 8.631856
166.85745 34.959988 8.4149342
168.78622 35.099266 8.2861834
170.63971 35.313087 8.1393461
173.32376 35.76548 8.0261955
157.05286 36.34399 9.8533525
159.05615 36.641754 9.6634417
160.95251 36.749249 9.5588388
162.87625 36.96986 9.4162455
164.93764 36.915119 9.1810207
166.86803 36.968197 8.9381409
168.8911 36.92437 8.6675968
170.85445 36.978031 8.4429636
172.94246 37.136543 8.3235674
174.75415 37.354332 8.1887732
176.76135 37.71032 8.1098127
178.54468 37.781612 8.0289707
180.61058 37.713444 8.068779
161.37614 38.699268 9.8676891
162.964 38.457195 9.739522
164.92967 38.710037 9.6339741
166.99713 38.921417 9.5678577
168.90482 38.942375 9.372508
170.91451 38.879955 9.0397987
172.92018 38.955555 8.9333286
174.91391 38.945992 8.6001396
176.92088 38.96801 8.4086857
178.92833 39.250839 8.2844963
180.7988 39.405197 8.2178965
182.83582 39.456661 8.1426315
185.40799 39.761818 8.0171442
164.08432 40.00198 9.9320717
166.89232 40.50185 9.7860641
169.05594 40.60051 9.7658806
170.99559 40.840366 9.6691275
172.99054 40.906963 9.4462671
174.98851 40.921967 9.2996292
176.90384 41.011868 9.0480413
178.93411 40.984604 8.7518148
180.96545 40.92461 8.6448879
182.99532 41.053268 8.5017433
184.93353 41.111706 8.4285841
186.99792 41.273014 8.1763353
188.61897 41.498402 8.1359148
190.7168 41.261307 8.245966
196.43013 41.988869 8.2193985
128.16875 42.670628 9.7767792
171.2881 42.849998 9.8673267
172.92421 42.496284 9.7673836
174.98849 42.814075 9.7197609
176.99277 42.883308 9.6321268
178.98346 42.980721 9.4789906
181.01054 43.009254 9.3757992
183.05893 42.942177 9.2001781
185.03844 42.967285 8.8800364
187.00291 42.950436 8.6991644
188.9552 42.981102 8.506278
190.93721 43.121521 8.3428822
192.83893 43.361748 8.1434383
195.05408 43.517963 8.0510454
196.63467 43.330555 8.0655346
175.05103 44.296719 9.9541502
177.04402 44.339031 9.7105169
179.19177 44.586197 9.8010406
181.2697 44.875492 9.8819237
183.00113 44.966373 9.6773777
185.06476 44.924431 9.5032682
187.02379 44.907597 9.2967529
189.01414 45.023129 9.1029224
191.08635 44.913967 8.8803167
193.05133 44.918724 8.6433363
195.06117 44.940765 8.4531193
197.05836 45.058857 8.2360601
199.05557 45.219273 8.2124929
200.80705 45.567356 8.1237545
203.96674 45.740257 8.0300598
126.95004 47.104816 8.2269087
180.96356 46.015392 9.9387646
185.02898 46.505753 9.8927546
187.21545 46.715252 9.7737446
189.12115 46.92934 9.6404428
191.11464 46.851543 9.5138426
193.06982 46.932953 9.2463875
195.03957 46.948833 9.0857935
197.04214 46.891151 8.8446951
199.10587 46.904209 8.6757593
201.00371 46.990765 8.4636421
203.00456 47.25206 8.3689547
204.90874 47.41074 8.2179222
206.75037 47.766212 8.168045
208.77255 47.77512 8.0133228
188.89037 48.532959 9.9506512
191.1554 48.472046 9.7488575
193.0257 48.61908 9.7172041
195.12192 48.854164 9.6548147
197.06371 48.873489 9.4612923
199.04677 49.016289 9.2809715
201.06862 48.945454 8.9610567
203.08339 48.896053 8.8261061
205.07672 49.013699 8.4746637
207.01993 49.099285 8.352562
209.26904 49.229248 8.2385998
210.94496 49.383156 8.1606445
212.84528 49.448517 8.2499399
131.74721 50.58754 8.8024235
197.49123 50.668297 9.7984695
199.27686 50.820946 9.7351847
201.18437 50.733063 9.5910416
202.94843 50.873409 9.376524
204.9662 50.92181 9.2600203
207.09724 50.926292 9.0045023
209.01012 50.969761 8.7685347
211.03758 50.997211 8.5583086
213.06104 51.085529 8.3601456
214.84048 51.242481 8.3106861
216.88046 51.401806 8.1139603
218.67233 51.474464 8.0354815
229.19435 51.561092 8.0706959
201.88239 52.837364 9.8234444
203.42337 52.651798 9.7141275
205.1962 52.825043 9.6476812
207.02872 52.856636 9.4958162
209.07742 53.012211 9.4300804
210.95966 52.977123 9.1250706
213.02734 52.950104 8.9481192
215.09242 52.988823 8.7437744
217.08937 53.091377 8.4893913
218.87425 53.004456 8.4171391
220.64973 53.194832 8.2773905
222.54739 53.448448 8.1555815
224.61806 53.784454 8.1306581
229.51488 52.895794 8.1102114
230.43987 53.579571 8.6295662
205.58276 54.265816 9.7732944
207.25433 54.505322 9.7933855
208.67401 54.609768 9.7556152
211.07646 54.769623 9.6297188
212.91728 54.822067 9.5464621
214.86877 55.090649 9.3982801
216.85358 55.016582 9.2422171
218.86827 54.884892 8.9479933
220.95979 54.903839 8.6859531
222.99747 55.057423 8.5162935
224.95064 54.978939 8.3534021
226.95395 55.06007 8.2993641
228.93448 55.327892 8.2028027
230.96652 55.183517 8.5979548
232.59959 55.716965 8.7980671
240.32077 55.551125 8.1806307
211.16115 56.211849 9.9476137
213.18007 56.322147 9.811245
215.05865 56.828354 9.7700491
217.131 56.67078 9.7149506
218.8839 56.850998 9.606782
220.85963 56.998905 9.4259443
222.89667 57.06255 9.1835814
224.95714 56.87542 8.9754601
226.91806 57.057877 8.7555876
228.87273 57.002277 8.5595989
230.92078 56.971348 8.4801426
233.03357 57.066681 8.6757469
235.07491 57.256741 8.8211546
237.12173 57.35807 8.5890675
238.71675 56.90036 8.3343525
240.36502 57.282112 8.1201954
217.17227 58.447575 9.8821869
219.35915 58.35817 9.7988739
220.98999 58.416454 9.7340956
222.96693 58.877361 9.7822924
224.93559 58.94931 9.5749931
226.92644 59.030945 9.4383469
228.93997 58.997494 9.1763649
230.91083 58.932373 8.8675728
232.92111 58.959911 8.6653948
234.91628 59.032799 8.5455275
236.98251 58.987865 8.3875771
238.79411 59.322723 8.1807585
240.58197 59.561768 8.0985279
242.24403 59.786194 8.1664848
225.40144 60.689213 9.8657389
227.13235 60.591599 9.6957026
228.96846 60.819664 9.6803741
230.96674 60.834171 9.466115
232.966 60.914639 9.304903
234.93944 60.948788 9.0866537
236.9581 60.93996 8.8477077
238.93768 61.00172 8.5501051
240.94084 61.096386 8.5122976
243.0246 61.174511 8.3188686
245.04396 61.277016 8.2326841
246.92683 61.482056 8.1094465
248.59344 61.707375 8.0746508
250.33508 61.796528 8.0183048
229.70702 62.409966 9.9590282
231.09384 62.308163 9.8177357
233.12047 62.62249 9.7524281
235.02623 62.848755 9.5979538
236.95471 62.885098 9.3763666
238.95966 62.947144 9.2177563
241.00105 62.991879 9.068531
243.01495 62.939415 8.8521099
245.05154 62.941166 8.7234421
247.00401 63.061607 8.4715137
248.99043 63.096924 8.3146591
250.88612 63.346786 8.2235479
253.19331 63.675522 8.1591682
255.5871 63.792511 8.0867386
233.66919 64.081093 9.8070354
234.65729 64.168526 9.9045668
237.00806 64.38871 9.7408447
238.91794 64.726387 9.674346
241.03932 64.818344 9.5736294
243.04744 64.878365 9.4460087
245.07213 64.962044 9.3062105
247.05565 64.917404 9.0419559
249.05331 64.960136 8.7977839
251.01576 65.020348 8.5564356
253.01347 65.014465 8.4513664
254.96643 65.202827 8.2576866
257.07001 65.490486 8.2362156
258.87088 65.395477 8.1793804
238.49706 66.082336 9.8769169
241.25484 66.166908 9.8785086
242.89282 66.646515 9.8275414
245.19019 66.68898 9.773633
247.158 66.829277 9.6038675
249.14536 66.91864 9.4300299
251.03493 66.938614 9.2588472
253.03156 66.968803 9.0404844
255.11461 66.959091 8.806469
256.97961 67.04084 8.5126963
258.92465 67.000481 8.5124655
260.87387 67.222664 8.3833714
263.00311 67.572456 8.2007189
264.78613 67.862823 8.0744743
245.59764 68.051796 9.9058447
246.96245 68.502754 9.746891
249.17545 68.610535 9.8350096
251.19273 68.720123 9.7398758
253.19316 68.723167 9.6054039
255.08636 68.908356 9.3734035
257.03452 69.027054 9.2161398
259.07919 68.995682 9.0303612
261.09128 68.932137 8.7981119
263.04486 69.142998 8.5427265
264.9144 69.194061 8.3698931
251.2504 70.047081 9.947608
253.21913 70.308868 9.8947048
255.23071 70.580139 9.7060003
257.10449 70.717545 9.7735662
259.04898 70.799683 9.5133257
261.12064 70.920059 9.4428892
263.04279 70.956314 9.1780186
264.88248 71.011322 8.9205542
257.6908 72.265594 9.9114399
259.1893 72.458351 9.8820181
260.9892 72.546364 9.767827
263.25018 72.787056 9.7010965
264.97021 72.916992 9.4430904
263.7037 74.181488 9.9619703
265.12628 74.414436 9.8695602
243.05791 163.5623 9.6913328
202.98238 169.56688 9.6115093
221.43475 169.04683 9.9602861
222.95685 169.0822 9.7660751
224.85947 169.1264 9.5233116
237.47583 168.76114 9.2089167
239.00078 168.79659 9.0143423
241.09758 168.84529 8.7468014
243.00375 168.8896 8.5035839
244.90991 168.93388 8.2603703
246.43488 168.96931 8.065794
228.74374 -6.0130177 11.423883
138.60374 -4.7416668 10.148359
246.90215 -5.8727579 10.784815
104.38468 14.396896 10.012201
104.76105 17.68848 10.42505
105.1501 19.175756 10.274834
106.91593 19.443363 10.220154
108.88647 19.753675 10.169464
110.33791 19.817024 10.123878
105.13875 20.969397 10.850122
107.1273 21.018023 10.59032
109.10062 21.051083 10.458872
111.11915 21.261774 10.360346
112.95662 21.334349 10.17607
115.01428 21.707636 10.113443
117.16708 21.814919 10.053343
105.19386 22.967405 11.529507
107.1386 22.882971 11.280076
109.13589 22.999701 11.163655
111.12656 22.935539 10.825999
113.10721 23.03607 10.609896
115.10424 23.087069 10.447634
117.0612 23.231663 10.242123
119.18894 23.495911 10.123102
121.12524 23.703844 10.148987
105.42607 24.37002 11.829997
107.0213 24.424515 11.708583
108.97481 24.814732 11.714968
111.14668 24.901381 11.438843
113.16993 25.011503 11.222939
115.05886 24.981646 10.971531
117.09481 24.994759 10.831816
119.09838 25.008512 10.531228
120.96732 25.039766 10.468146
122.92743 25.158054 10.313661
124.9558 25.583143 10.246426
127.22256 25.522934 10.16729
128.64043 25.765942 10.181829
109.79593 26.461657 11.909912
110.98363 26.383747 11.826191
112.9724 26.74048 11.784472
114.94593 26.892437 11.555123
116.9727 26.917828 11.438025
119.0046 26.896725 11.180137
121.00965 26.949661 11.078832
122.9356 26.953543 10.894212
124.96957 27.004524 10.620189
126.87257 27.074045 10.376901
128.97241 27.173059 10.303983
130.92096 27.477968 10.19936
132.63983 27.607681 10.161707
134.04825 27.410248 10.017927
113.59917 28.084412 11.905502
115.06297 28.117462 11.9389
117.10087 28.461706 11.800353
118.87273 28.608709 11.691645
120.95433 28.778276 11.617543
122.94015 28.888523 11.493937
124.87775 28.921776 11.283496
126.88979 28.94026 11.088281
128.95363 29.022165 10.739112
130.95355 29.100174 10.550488
132.7979 29.105289 10.347074
134.87842 29.322353 10.241467
136.83545 29.615688 10.14275
138.28133 29.380501 10.202145
119.58892 30.156868 11.70257
121.63855 30.058817 11.811506
122.90159 30.34276 11.785643
124.85672 30.683443 11.743248
126.97713 30.811253 11.560279
128.86298 30.959543 11.437797
130.90182 30.936913 11.178797
132.89088 30.926237 10.981941
134.81538 31.002974 10.746342
136.83658 31.038567 10.471692
138.78496 31.14818 10.308763
140.72856 31.303179 10.177387
142.47169 31.438534 10.166076
144.63129 31.680542 10.134818
127.66612 32.049397 11.816901
129.07115 32.401955 11.783421
130.88492 32.610138 11.729259
132.87236 32.891575 11.511657
134.87526 32.910709 11.326557
136.87592 32.935398 11.12746
138.87154 32.970551 10.9013
140.91876 32.980949 10.693231
142.90193 33.047993 10.475041
144.89044 33.244789 10.312406
146.79417 33.43063 10.209039
148.79126 33.564491 10.085398
131.66473 34.477837 11.941229
132.78448 34.151672 11.87472
135.08755 34.569408 11.751279
136.8244 34.768822 11.581795
138.93036 34.909168 11.49226
140.88832 34.939571 11.236908
142.89081 34.961739 11.044504
144.88736 34.996037 10.821039
146.87621 35.045479 10.55889
148.9398 35.130013 10.504671
150.89528 35.294701 10.287598
152.92467 35.282433 10.218475
155.02563 35.667255 10.25721
156.13286 35.863567 10.045574
135.96515 37.10894 11.513897
136.48422 36.077267 11.928564
138.83638 36.313534 11.794911
141.00201 36.611378 11.80122
142.90895 36.865784 11.487938
144.92593 36.894062 11.473934
146.91135 36.950108 11.194788
148.94209 36.920197 11.136745
150.9355 36.961784 10.894588
152.91743 37.024796 10.597537
154.93857 37.016026 10.484997
156.90929 37.195843 10.257734
158.80737 37.42841 10.271928
160.8208 37.574398 10.23749
164.24681 37.760746 10.16386
143.28836 38.681622 11.851553
145.11357 38.498428 11.759912
146.96069 38.660431 11.745664
148.92732 38.854267 11.605294
150.97923 38.896484 11.405025
152.96196 38.91209 11.278932
154.93686 38.976608 11.108355
156.95938 38.976845 10.842861
158.96324 39.000797 10.64659
160.86502 39.129082 10.451827
162.97279 39.238701 10.206121
165.01665 39.560768 10.15243
166.63377 39.591858 10.27748
148.93425 40.185936 11.86647
150.82799 40.500893 11.885207
153.13881 40.510933 11.731099
155.07935 40.725544 11.678431
157.032 40.841694 11.488008
158.99863 40.950115 11.296952
160.98775 40.954483 11.022831
162.96796 41.019547 10.719591
164.97131 41.045128 10.519557
166.95685 41.154243 10.254312
168.9326 41.44173 10.263108
170.80815 41.4702 10.145079
155.59692 42.035789 11.924677
157.18205 42.282383 11.734839
159.12494 42.717991 11.756985
160.99724 42.902653 11.545457
163.0159 42.901821 11.414952
164.98863 42.978882 11.080186
166.9928 43.003162 10.883873
168.9991 43.044716 10.773568
170.98073 43.075653 10.476449
172.88628 43.149647 10.258822
174.82147 43.475441 10.254753
177.06433 43.576248 10.220463
236.38927 42.407948 10.229471
127.41028 44.15715 10.403429
158.98642 44.069691 11.994717
161.40269 44.234718 11.853958
163.11491 44.442753 11.77787
165.05936 44.571075 11.690123
167.00456 44.85751 11.561215
169.09924 44.908447 11.383729
171.02565 44.974319 11.081082
173.05423 44.881256 10.829291
174.99809 45.123219 10.622787
177.04082 45.144234 10.433031
178.92416 45.262932 10.302993
180.75906 45.346409 10.180112
182.79039 45.773499 10.087069
184.89143 45.888756 10.025007
165.78737 46.523693 11.86237
167.48662 46.368202 11.842032
169.20659 46.610001 11.793379
171.03084 46.783001 11.648625
173.07408 46.889389 11.559502
175.06992 46.998123 11.269897
177.041 47.006241 10.986565
179.06569 47.001755 10.867776
181.08612 47.004738 10.729138
183.06487 47.070484 10.42311
185.06689 47.208771 10.324987
186.84235 47.500359 10.174326
189.08925 47.50568 10.160162
190.74715 47.735806 10.058356
131.47562 49.516136 11.739271
171.14941 48.387188 11.876849
173.1153 48.244431 11.880388
175.21852 48.595852 11.704117
177.04198 48.893906 11.622726
179.13225 48.949863 11.519429
181.08777 48.958233 11.236246
183.07118 48.93417 11.077321
185.05687 49.032963 10.867643
187.10561 49.034481 10.642159
189.15665 49.111401 10.565957
191.08484 49.309052 10.252049
193.2123 49.540302 10.232477
195.17569 49.859081 10.210367
196.98209 49.883194 10.028799
131.61169 50.052879 10.267982
175.63275 50.127197 11.896828
177.87985 50.481983 11.952477
179.14513 50.378475 11.820624
181.13252 50.522438 11.712194
183.11691 50.755196 11.594913
185.11452 50.908802 11.395057
187.12283 50.963524 11.214536
189.13805 50.976505 11.050458
191.12704 51.026859 10.785447
193.13547 51.050304 10.593123
195.03734 51.015392 10.407337
196.86667 51.233997 10.354276
198.86455 51.436287 10.224958
200.93604 51.58778 10.147378
203.3956 51.666885 10.59885
181.88846 52.098404 11.952166
183.09735 52.261463 11.897016
185.20589 52.37212 11.811663
187.29733 52.615795 11.728931
189.03821 52.807648 11.651788
191.04764 52.855904 11.458195
193.05482 52.950253 11.252087
195.088 53.007587 11.052235
197.17046 53.024757 10.785509
199.03769 53.031605 10.648578
200.9319 53.085617 10.515645
202.82384 53.193295 10.289971
204.56432 53.295197 10.160747
207.13823 53.463291 10.124427
189.13716 54.101818 11.858335
191.25603 54.434654 11.867907
193.12486 54.517197 11.738585
195.06917 54.845318 11.644025
197.08632 54.905586 11.452406
199.05685 54.971558 11.397793
200.9726 54.961231 11.010899
203.04797 55.092407 10.793528
204.97711 55.071331 10.540616
206.91408 55.243053 10.378978
209.02119 55.42522 10.172931
210.60329 55.5005 10.181793
212.6246 55.64357 10.252626
237.66855 55.81424 11.213165
195.30321 56.243103 11.846501
197.06163 56.49966 11.814749
198.80257 56.742977 11.707387
201.04015 56.835392 11.549629
203.07149 56.885799 11.362219
204.9834 57.005764 11.149957
206.95792 57.01342 10.909167
208.90744 57.04652 10.738974
210.80687 57.111145 10.539159
212.81999 57.126846 10.42634
214.73134 57.32177 10.322757
216.73926 57.453598 10.122382
218.32288 57.896584 10.163248
199.98671 58.121155 11.868662
201.19257 58.264439 11.790459
203.23375 58.339588 11.738771
204.92632 58.773933 11.705716
206.87225 58.912464 11.615787
208.91505 58.984093 11.379656
210.94875 58.929577 11.12244
212.92485 59.032856 11.002061
214.89445 59.033638 10.777424
216.89844 59.078594 10.627064
218.88019 59.148605 10.48048
220.9648 59.314754 10.305873
222.85503 59.647476 10.208477
224.91451 59.568726 10.153967
205.00565 60.132141 11.895677
206.85014 60.205639 11.876495
209.05533 60.522869 11.83416
210.95659 60.78862 11.740466
212.95911 60.89381 11.559231
214.94225 60.925655 11.402157
216.93172 60.971947 11.19904
218.93285 61.008312 10.972598
220.93193 61.047531 10.738331
222.94957 61.065468 10.563722
224.89635 61.150589 10.422617
226.81261 61.48082 10.195306
229.06639 61.689781 10.232033
230.55197 61.678585 10.173617
233.07634 61.895813 10.007719
211.25491 62.127728 11.89217
213.00786 62.135574 11.763046
215.04303 62.429863 11.863601
217.0004 62.848988 11.732466
219.00346 62.804157 11.573875
221.01422 62.902756 11.416097
223.00035 62.950512 11.260512
224.98317 63.008827 10.972274
226.95334 63.081039 10.644448
228.9615 63.104755 10.556898
231.00069 63.299858 10.381977
232.7493 63.409946 10.289077
234.87527 63.609276 10.11432
217.28851 64.33551 11.904528
218.9892 64.391266 11.84599
221.00221 64.644844 11.785475
223.06245 64.783493 11.613909
225.06494 64.88842 11.521928
227.01974 64.948883 11.390223
229.01137 64.997063 11.130582
231.00943 65.037933 10.891504
233.01045 65.075775 10.661551
235.01781 65.157692 10.405871
236.97931 65.315918 10.379635
239.16647 65.468719 10.248415
241.09735 65.593994 10.112024
243.01018 65.777351 10.082899
225.30896 66.39077 11.831506
226.92082 66.632706 11.728483
229.08708 66.714355 11.626292
231.063 66.925446 11.478015
233.03502 66.990173 11.274635
235.06268 66.999413 11.126923
237.04832 67.026077 10.787124
239.07457 67.054131 10.584345
240.99936 67.110062 10.44946
243.02744 67.120628 10.297821
244.80922 67.361641 10.278208
246.6125 67.400024 10.095866
248.78828 67.654762 10.259278
231.0976 68.482124 11.788272
233.12222 68.894409 11.765822
235.16415 68.916702 11.667448
237.05363 68.988609 11.403255
239.07037 69.010239 11.220841
241.07458 69.045143 10.999338
243.09761 69.045418 10.829382
245.03181 69.022575 10.632173
247.09601 69.0895 10.565781
249.03867 69.305542 10.387943
250.98531 69.357452 10.291122
253.18015 69.730881 10.232233
254.42731 69.739014 10.044987
232.13864 70.183128 11.923122
235.37973 70.975281 11.898718
237.28445 70.516785 11.732744
239.1244 70.60453 11.758224
241.05257 70.817535 11.616522
243.0849 70.958435 11.49942
245.0139 70.867958 11.311802
246.91156 71.050896 11.102033
248.95375 71.002533 10.890183
250.98421 70.987984 10.68715
252.96405 71.213669 10.516482
254.96515 71.318245 10.366242
256.83243 71.36615 10.219686
258.91245 71.751289 10.110106
260.05276 71.961739 10.048901
239.42822 72.422493 11.981441
241.18694 72.171562 11.785202
243.05357 72.506058 11.803127
245.16991 72.699219 11.750813
247.15643 72.794746 11.577031
249.03615 72.992508 11.521129
250.96031 72.943581 11.293654
253.02541 73.021622 11.141318
254.93111 73.04892 10.900066
256.90109 73.084503 10.632494
258.96164 73.325417 10.47347
261.0303 73.291183 10.344355
262.64658 73.506187 10.142207
247.14229 74.328384 11.961639
249.09598 74.411858 11.757193
251.01988 74.781082 11.721852
252.94695 74.861473 11.693776
254.8716 74.981415 11.464835
257.04816 74.97364 11.26531
258.94351 75.055428 11.007661
260.90204 75.030266 10.823796
262.8082 75.059357 10.489676
264.75421 75.252571 10.415749
253.64014 76.104065 11.982847
255.07538 76.292938 11.755726
256.95905 76.609444 11.820299
259.0108 76.764282 11.600504
260.93207 76.988327 11.397542
262.88095 77.027489 11.223941
264.88162 77.05217 10.886113
266.39536 77.193672 11.811577
257.74615 78.793533 11.932579
259.03204 78.50457 11.839191
260.89655 78.605469 11.828814
263.01706 78.697075 11.666121
264.87921 79.004456 11.477557
262.92639 80.464272 11.919437
265.07446 80.303185 11.863025
263.27057 103.21597 11.119328
263.29462 104.34247 11.512897
168.79318 162.94479 10.410625
171.82806 163.37527 10.150194
191.03282 162.93974 11.791353
211.9836 163.48427 10.660713
242.36896 163.23761 11.215054
245.25266 163.48343 10.926773
98.923546 169.38556 10.264188
195.64537 169.20113 11.489495
197.00526 169.20831 11.433708
198.9967 169.18137 11.532798
201.08569 169.2299 11.266255
202.88979 169.27184 11.036062
215.40721 168.86243 10.942692
217.05876 168.94514 10.518641
218.96138 168.98935 10.275877
220.48346 169.02472 10.081667
237.20587 168.42735 10.815363
133.89165 -6.1648221 13.735807
140.78561 -6.0046253 12.856176
145.97595 -6.6109991 13.846489
193.87199 -6.2633715 12.537897
134.02641 -5.5035515 12.222511
104.8354 23.504841 12.088458
104.99187 25.197939 12.404821
106.78241 25.386154 12.244795
108.84209 25.662958 12.174552
110.07059 25.465849 12.222336
105.06651 27.031067 12.974993
106.88311 27.039473 12.703134
108.82294 27.126114 12.566659
110.85066 27.301691 12.369302
112.59285 27.551851 12.23018
114.46063 27.137903 12.057006
116.08794 27.885328 12.236547
105.08881 28.974207 13.511894
106.89386 28.975916 13.3837
108.8861 29.014612 13.148726
110.84667 29.008385 12.786963
112.86433 29.108702 12.637033
114.81268 29.082253 12.433475
116.76191 29.237223 12.347028
118.77618 29.339924 12.191211
120.62799 29.655203 12.084803
122.09486 29.53265 12.021787
105.13425 30.530918 13.932419
107.08652 30.658785 13.77248
108.8954 30.806124 13.705979
110.92352 30.977957 13.495503
112.90382 31.004541 13.292439
114.89095 31.010416 13.014917
116.92178 31.021935 12.729512
118.8724 31.01454 12.506042
120.89104 31.119497 12.453739
122.90978 31.231091 12.397811
124.99483 31.352404 12.207636
126.58134 31.678236 12.210837
109.1824 32.271206 13.97694
110.97263 32.484859 13.742034
113.03716 32.745228 13.787125
114.97754 32.895725 13.62926
116.9239 32.988415 13.451517
118.92299 33.01152 13.256399
120.92334 33.032528 13.066758
122.93006 33.039551 12.912559
124.92065 33.084496 12.661997
126.9201 33.10973 12.46163
128.8248 33.227737 12.292463
130.98277 33.578819 12.225409
133.13371 33.951576 12.089913
134.56456 33.904861 12.113714
115.32257 34.72863 13.952044
117.18006 34.797012 13.811884
118.84949 34.740574 13.761945
120.89008 34.880009 13.599916
122.95002 34.980507 13.454163
124.94609 35.012405 13.236931
126.94169 35.045856 13.015738
128.93976 35.074154 12.807761
130.88176 35.024857 12.515894
132.90117 35.131859 12.391405
134.83755 35.325798 12.348632
137.14917 35.703934 12.155659
138.98801 35.501255 12.139471
121.08816 36.141293 13.913707
123.04396 36.538567 13.866879
124.96618 36.648438 13.715232
126.95895 36.920864 13.634805
128.97618 36.976959 13.44689
130.97052 37.013714 13.217459
132.9884 37.020786 12.934535
134.95279 37.101635 12.721454
136.98512 37.146427 12.515113
138.89305 37.214909 12.322216
140.84792 37.358269 12.217999
142.66106 37.78022 12.229733
124.52502 38.230331 13.835292
127.36469 38.172253 13.798419
129.1004 38.371975 13.802427
131.03706 38.754654 13.745214
132.97923 38.801777 13.462599
135.02113 38.974373 13.343277
136.98021 39.048233 13.113037
138.99774 39.055759 12.828822
140.98428 39.078182 12.63774
142.93619 39.178738 12.476257
144.82744 39.226974 12.29938
146.98813 39.642723 12.239513
149.59482 39.786034 12.028404
151.17328 39.659836 12.06778
129.4278 40.900421 12.119493
135.63887 40.365108 13.501155
137.05614 40.781704 13.529061
139.00424 40.949665 13.475698
141.00992 41.016525 13.314489
143.01447 41.034752 13.133768
145.04984 41.039398 12.759812
146.94302 41.055607 12.591726
148.96426 41.10144 12.422287
151.01582 41.312344 12.348909
152.87376 41.482388 12.282462
154.76363 41.704182 12.209382
156.78783 41.820107 12.039479
137.30789 42.753395 13.497957
138.74847 42.292206 13.871468
141.28926 42.549992 13.779169
143.09109 42.875549 13.554576
145.04811 42.951687 13.366334
147.05528 42.997471 13.218862
149.02444 43.025169 13.015687
151.0163 43.050777 12.853288
153.03485 43.109676 12.659382
155.0304 43.147373 12.42783
156.98421 43.269226 12.286613
158.77585 43.434563 12.217004
160.3083 43.878643 12.420231
127.39084 44.127861 12.759987
143.5249 44.274792 13.889754
144.96049 44.650787 13.840439
147.12292 44.683022 13.759712
149.05299 44.886105 13.700613
151.0764 44.955559 13.449724
153.0838 44.989151 13.361485
155.0722 45.039745 13.096145
157.06189 45.087818 12.837211
159.08913 45.079483 12.594923
161.0038 45.178364 12.385249
162.93179 45.212627 12.284142
164.95534 45.459515 12.188186
166.97618 45.817577 12.150449
168.40216 45.427498 12.339464
128.27484 47.107933 13.864672
147.84471 46.166248 13.990889
149.45392 46.302551 13.903735
151.16284 46.377552 13.847441
153.17918 46.714943 13.704639
155.12218 46.943771 13.635518
157.0719 46.973339 13.429421
159.0854 47.04184 13.210308
161.08313 47.076328 12.987684
163.10834 46.949188 12.721711
165.11034 47.05883 12.596628
166.90744 47.241074 12.348145
168.96913 47.386967 12.41023
171.25708 47.589714 12.265718
128.94658 48.168175 13.256104
130.69363 49.069553 13.006407
132.56146 49.328846 13.339403
155.17911 48.369831 13.92165
157.21898 48.663769 13.905114
159.14958 48.815079 13.721316
161.13095 48.919727 13.586274
163.09882 49.0429 13.326777
165.08069 49.015705 13.176677
167.13614 49.030182 12.843244
169.02016 49.044407 12.730778
170.99245 49.063477 12.612229
173.1118 49.299774 12.428378
174.80092 49.253902 12.212705
176.93481 49.496967 12.368733
161.20309 50.656086 13.878492
163.1161 50.767883 13.834265
165.18716 50.83984 13.718069
167.15411 50.987522 13.541996
169.09866 50.903118 13.268481
171.10031 51.034081 13.085643
172.99731 51.133076 12.823157
174.99716 51.021275 12.625603
177.08917 50.995396 12.418789
179.04178 51.284821 12.327804
181.04376 51.463501 12.284245
182.94672 51.65797 12.157495
184.62726 51.549461 12.11434
163.86792 52.242012 13.876842
165.93918 52.156864 13.98139
167.29642 52.536469 13.857359
169.28358 52.56675 13.816888
171.0894 52.780651 13.666748
173.03394 52.993626 13.489095
175.0873 53.069473 13.240045
177.12685 53.043995 13.132946
179.06242 53.081562 12.766193
181.00966 53.142262 12.713849
182.97385 53.147789 12.479589
184.96237 53.254131 12.383537
186.78159 53.382881 12.270807
188.83249 53.648621 12.188248
190.04855 53.374054 12.043725
171.41411 54.448002 13.988551
173.16898 54.33794 13.868246
175.24184 54.891075 13.702109
177.02547 54.931347 13.58933
179.06792 54.987091 13.44267
181.04373 55.056099 13.32274
183.0432 55.106255 13.105175
185.08304 54.974873 12.896012
187.02908 55.007816 12.66832
188.92796 55.19685 12.487357
190.84528 55.256294 12.340418
192.77573 55.352161 12.269742
194.28665 55.447311 12.247322
237.73946 55.28038 12.709557
177.17236 56.196045 13.906904
178.94099 56.368153 13.792186
181.01936 56.689442 13.760527
183.08827 56.761211 13.641734
184.89465 57.002846 13.555022
186.88518 57.026817 13.31779
188.95776 57.113796 13.082462
191.03242 57.098175 12.860896
193.02618 57.045895 12.628575
194.91574 57.056328 12.458724
196.82152 57.175934 12.32681
198.80748 57.346027 12.239183
200.76479 57.26907 12.163039
183.27495 58.341888 13.783772
185.05676 58.604168 13.835596
186.89606 58.728481 13.772264
188.93661 58.924404 13.666021
190.91983 59.044643 13.525901
192.89793 59.029209 13.254092
194.95271 59.044258 12.969574
196.95193 59.039532 12.882446
198.89647 59.121338 12.584306
200.84549 59.09726 12.409132
202.72638 59.040623 12.179386
204.52487 59.525204 12.267786
206.12712 59.997059 12.212126
187.57529 60.264996 13.799
191.08322 60.385674 13.725693
193.06462 60.633549 13.719366
194.93288 60.975204 13.585613
196.91879 61.0093 13.532824
198.93343 61.056892 13.179823
200.97833 61.033909 12.943891
202.99873 60.926693 12.658403
204.93663 61.079525 12.471449
206.95064 60.987171 12.313342
208.74348 61.451317 12.24189
210.7892 61.654804 12.23136
212.48811 61.426167 12.201985
215.26793 61.552696 12.076994
194.05286 62.216461 13.905207
197.13452 62.791878 13.850491
199.00493 62.623066 13.740118
201.00945 62.923462 13.59044
202.93422 62.972157 13.345818
204.92595 63.023869 13.097706
206.90495 62.959335 12.823333
208.92822 63.075104 12.707595
210.97337 63.01268 12.556496
212.97519 63.133732 12.424592
214.85588 63.175407 12.264065
216.69299 63.187122 12.187248
218.8652 63.37719 12.121756
220.26443 63.599709 12.008963
201.30042 64.421997 13.848494
203.1503 64.697006 13.908114
204.90515 64.752396 13.724771
207.01076 64.983566 13.56463
208.96303 65.064583 13.3732
210.93619 64.973572 13.122246
213.0002 65.093681 13.046449
215.00862 64.980553 12.751373
217.008 65.02507 12.577745
218.94681 65.071556 12.341978
221.00226 65.505219 12.320761
222.8983 65.667755 12.294788
224.30775 65.377869 12.160281
207.06726 66.233223 13.794042
208.95764 66.540482 13.748357
211.13274 66.911858 13.755041
213.04205 66.979652 13.576965
215.04294 66.998444 13.421824
217.02219 67.041939 13.176641
219.05299 66.997513 12.929556
221.00693 67.046204 12.822052
223.07838 67.077408 12.607227
224.92563 67.092369 12.419526
227.1635 67.350113 12.281056
228.97614 67.518349 12.181998
230.36375 67.571442 12.221189
233.20186 67.974564 12.11706
234.43118 67.967255 12.065847
210.92877 68.252823 13.864201
213.1396 68.329201 13.925514
215.08629 68.721527 13.828846
217.22197 68.707436 13.653598
219.08492 69.017998 13.576805
221.10245 69.004303 13.406162
223.01225 69.033669 13.201132
225.08092 69.031517 12.967515
227.01945 69.089569 12.699719
229.06699 69.049004 12.438733
230.95099 69.37571 12.422039
232.97174 69.174164 12.192945
234.67252 69.533318 12.192258
219.63441 70.424011 13.828934
221.1422 70.606171 13.829455
223.16551 71.002747 13.792894
225.16595 70.955742 13.529174
227.1393 71.019981 13.364172
229.05257 71.045776 13.058076
231.06473 71.084229 12.855506
233.0959 71.027489 12.598624
235.06499 70.981133 12.301615
236.97772 71.133896 12.330657
239.06075 71.51384 12.262396
241.43582 71.597717 12.219297
243.14165 71.591522 12.138546
244.96227 71.538483 12.191359
223.00592 72.266129 13.824867
225.40594 72.39315 13.9402
227.38583 72.778229 13.767828
229.16815 72.823509 13.60198
231.14317 73.030334 13.497365
233.07112 73.081818 13.19041
235.07951 73.056961 12.966066
237.06221 73.012154 12.78953
239.05048 73.042969 12.73755
241.00728 73.165619 12.474639
243.00764 73.199432 12.33542
245.03114 73.388069 12.257401
246.66362 73.484917 12.190922
248.09464 73.224068 12.042963
227.21077 74.278351 13.895589
229.2668 74.255569 13.84662
231.21802 74.660942 13.788511
233.25075 74.623726 13.686482
235.09399 74.992584 13.587804
237.03426 75.09346 13.479074
239.05974 75.070526 13.274875
241.01172 75.086533 12.984044
243.02591 75.027466 12.84148
244.98904 75.064072 12.634786
247.04762 75.032188 12.49157
248.83549 75.199287 12.371898
250.71768 75.388031 12.234742
252.78168 75.496323 12.163297
256.1983 75.614548 12.038403
235.43373 76.337051 13.918021
237.33859 76.620499 13.783765
239.13512 76.917099 13.735463
240.96588 76.927292 13.612949
243.03537 77.102859 13.409041
245.02988 77.059036 13.281008
246.95221 77.038506 13.036134
248.90535 77.074501 12.948348
250.8549 77.001671 12.629636
252.8465 77.042351 12.512417
254.81332 77.213303 12.405672
256.87463 77.403801 12.294906
258.72021 77.421638 12.195079
260.20654 77.627449 12.128952
266.41159 77.953789 12.077145
239.10815 78.274712 13.92454
241.17949 78.338348 13.937403
242.99452 78.628532 13.773365
245.03415 78.817436 13.742246
246.99178 78.881027 13.669889
248.93652 78.90078 13.506035
250.92859 79.125977 13.351926
252.88803 79.095589 13.077003
254.95934 79.016273 12.751094
256.93433 79.077324 12.671327
258.88452 79.147881 12.447323
260.91406 79.171448 12.254933
262.81464 79.371582 12.110923
265.42844 79.651955 12.114834
266.43591 79.093979 12.475496
247.39285 81.05999 13.989234
249.09021 80.417526 13.830607
250.88754 80.619598 13.751809
253.00209 80.949478 13.585208
254.97293 81.05098 13.447098
257.01968 81.125465 13.306067
258.98297 81.123474 13.04613
260.92694 81.077248 12.765159
262.95108 80.994789 12.565879
264.83209 81.141258 12.312667
266.46024 80.234146 12.873848
251.60431 82.292412 13.861177
253.13496 82.389885 13.802191
255.11432 82.450249 13.834709
256.9989 82.884979 13.726082
258.95038 83.073662 13.59929
261.00684 83.062241 13.467621
262.94882 83.019409 13.180494
264.9733 83.008644 12.86712
257.22043 84.321632 13.802044
259.02383 84.485428 13.852374
261.04312 84.658417 13.714201
263.0802 84.860016 13.707105
264.99796 84.952301 13.53065
266.03207 85.258766 13.026535
265.33606 86.619804 13.825089
266.06851 86.965691 13.622894
191.01483 162.63184 13.220427
212.12268 163.08958 12.493727
242.19963 162.83052 13.111794
246.37883 163.07597 13.720259
237.30602 167.98122 12.95508
176.45262 169.31105 13.123598
178.34816 169.35509 12.881739
181.06824 169.19914 13.594403
193.56226 168.99632 12.50961
194.62886 169.07988 12.090111
215.04382 168.42453 13.055332
140.60304 -7.0013256 15.135514
145.86453 -7.2772484 15.369347
105.09422 31.09276 14.385821
106.77665 31.171436 14.246794
109.0376 31.627161 14.166578
110.58219 30.779133 14.026631
105.13699 33.086987 14.781166
107.00236 33.036896 14.750819
108.93022 33.117245 14.503463
110.87156 33.311806 14.284341
112.66689 33.436592 14.247756
114.36927 33.647301 14.144119
105.04816 35.05542 15.482981
107.00473 35.083347 15.375812
108.99661 35.075954 15.13231
110.98296 34.938835 14.822304
112.94943 35.004684 14.519034
114.90654 35.031937 14.318308
116.77209 35.003017 14.20965
119.21343 35.372284 14.176555
121.40936 35.487385 14.102271
123.43369 35.985878 14.161003
105.05988 36.729717 15.852931
107.05767 36.530315 15.774048
109.02233 37.019802 15.698177
111.02369 37.016483 15.417058
113.01567 37.022251 15.17302
114.9706 37.038403 14.984853
116.96348 36.972584 14.726321
118.98413 37.045712 14.593708
121.00499 36.973721 14.42774
122.93227 37.022251 14.294052
124.95855 37.574398 14.150311
127.65118 37.786934 14.226765
109.78904 38.74078 15.728809
111.07243 38.652905 15.874584
113.02563 38.844116 15.717017
115.03931 39.067562 15.55478
117.11993 38.957893 15.406591
119.02952 39.124352 15.234558
121.00048 38.947868 15.003563
123.05058 39.018841 14.777868
125.10307 39.011837 14.675645
126.98243 38.927044 14.425632
129.01442 39.100918 14.276428
130.53534 39.344547 14.173674
113.40802 40.183369 15.830185
115.43301 40.406124 15.862914
117.23081 40.627216 15.726379
119.16154 40.80616 15.838393
121.11204 40.84602 15.699574
123.09014 41.053799 15.534954
125.05767 40.990898 15.319586
127.03395 40.957588 14.961427
128.69197 40.768135 14.714676
130.21515 40.07692 14.243954
137.22736 41.24522 14.095085
139.10596 41.687679 14.220751
119.02953 42.302879 15.898921
121.44633 42.486465 15.821865
123.41796 42.557686 15.788322
125.28526 42.724365 15.751923
127.0852 43.010448 15.530486
128.60847 42.052227 14.796398
137.59129 42.728695 14.480621
139.0457 43.126095 14.312613
140.90219 43.201302 14.278166
142.60712 43.649315 14.19119
144.3087 43.237572 14.034529
125.46436 44.272575 15.935312
127.27872 44.360432 15.868572
128.68118 45.4594 15.986786
137.52975 45.15453 15.004106
139.12903 45.055298 14.873343
141.11986 45.001373 14.683177
142.96498 45.131268 14.423054
145.08055 45.245247 14.263024
146.92693 45.602524 14.185933
149.30743 45.677406 14.060442
135.58757 47.541451 15.923848
137.24722 46.95089 15.737063
139.15485 46.948448 15.594399
141.09915 47.049759 15.376695
143.11063 47.027298 14.968879
145.11259 47.013233 14.770271
147.10803 47.053761 14.53161
149.04878 47.003323 14.366503
151.01511 47.25 14.259088
152.91031 47.370342 14.265792
154.36662 47.613903 14.285458
156.6743 47.84026 14.297424
132.20203 48.837074 14.704533
137.9142 48.267532 15.892244
139.92764 48.464153 15.809532
141.14438 48.546509 15.798462
143.20128 48.970291 15.627774
145.1736 49.050018 15.39055
147.10886 48.998489 15.165191
149.09644 48.987354 14.960032
151.07375 48.984936 14.742604
153.06171 48.944912 14.584164
155.05598 49.120361 14.374036
157.14162 49.041008 14.194719
159.08144 49.296249 14.190574
160.95967 49.692677 14.025538
162.02202 49.997238 14.29508
143.36894 50.330002 15.743648
145.31339 50.62262 15.775669
147.19319 50.79718 15.715749
149.11461 50.93211 15.567242
151.04897 51.069687 15.395323
153.08936 50.930336 15.174838
155.10287 51.087029 14.947419
157.06845 50.933624 14.709877
159.07025 50.95673 14.556381
160.92508 51.183781 14.45965
163.04021 51.470917 14.206469
164.80042 51.411644 14.224482
166.61694 51.453659 14.11153
145.90543 52.323658 15.967997
149.14835 52.681507 15.953299
151.0697 52.558697 15.778451
153.14067 52.907742 15.665922
155.03763 52.987564 15.556312
157.00539 53.018883 15.341507
158.99486 53.074608 15.243585
160.95459 52.969334 14.956548
162.95833 53.076176 14.789362
164.96347 52.945866 14.531085
166.79021 53.113514 14.470924
168.78592 53.256409 14.303937
170.81001 53.492268 14.113994
172.01816 53.695076 14.067507
153.6362 54.629642 15.885267
155.61264 54.231655 15.98049
156.91626 54.671089 15.861934
159.02547 54.729145 15.652939
160.99261 54.939316 15.561401
162.99945 55.117283 15.514452
165.05634 54.8918 15.102418
167.02646 55.005386 14.956925
168.93547 54.955257 14.77392
170.85406 55.001133 14.543985
172.86295 55.064461 14.328815
174.33038 55.166245 14.182285
177.05295 55.682076 14.160606
237.56596 54.558838 14.748767
160.98907 56.507393 15.835531
163.10422 56.638416 15.81503
164.87691 56.867855 15.669599
166.94344 57.095028 15.466338
168.97878 57.014336 15.342475
170.9216 57.0467 15.114096
172.87732 56.947426 14.871657
174.8688 57.013668 14.619005
176.85493 56.909073 14.422977
178.80814 57.048096 14.285977
180.78477 57.31089 14.384207
182.66122 57.398472 14.123626
184.5269 57.656624 14.139099
165.99925 58.719116 15.891876
167.80283 58.447083 15.64706
168.94125 58.550373 15.787157
170.93741 59.021225 15.675853
172.87648 59.021919 15.502072
174.90369 58.927052 15.236938
176.87015 59.051403 14.987698
178.82851 58.979588 14.750984
180.88773 58.912327 14.566065
182.80963 59.070961 14.53505
184.92531 59.106613 14.375045
186.76723 59.349232 14.253452
188.51819 59.301075 14.062275
170.81514 60.33186 15.848681
173.07721 60.779095 15.849999
174.99463 60.914104 15.66551
176.86086 61.045883 15.658429
178.8914 60.994804 15.40563
180.86485 60.997475 15.260896
182.90553 61.040958 15.028695
184.87416 61.086063 14.875148
186.91679 61.101265 14.707153
188.91666 61.032665 14.458835
190.82921 61.123135 14.354247
