# .PCD v0.7 - Point Cloud Data file format
VERSION 0.7
FIELDS x y z
SIZE 4 4 4
TYPE F F F
COUNT 1 1 1
WIDTH 1559
HEIGHT 1
VIEWPOINT 0 0 0 1 0 0 0
POINTS 1559
DATA ascii
139.12935 78.968895 25.172091
141.13229 78.98642 25.006899
143.11853 79.032516 24.753532
145.1161 79.060081 24.557312
147.1261 79.067772 24.421995
149.00037 79.287918 24.287989
151.22821 79.576202 24.213398
152.7516 79.620018 24.138453
133.09984 80.135735 25.799255
135.33978 80.28241 25.874189
137.34746 80.338913 25.751598
139.17766 80.752869 25.61051
141.08542 80.757912 25.565779
143.16624 80.91066 25.452061
145.13918 80.979012 25.129875
147.15919 80.970238 25.046633
149.13576 81.032745 24.742561
151.05533 81.107735 24.51697
153.14149 81.169151 24.324652
155.04129 81.384003 24.248491
157.0883 81.570251 24.105049
158.57629 81.874397 24.224461
136.28111 82.158066 25.86788
139.73737 82.29142 25.9212
141.47418 82.399284 25.883984
143.33897 82.587936 25.831207
145.18164 82.648666 25.602699
147.09163 82.850731 25.579781
149.08791 82.950836 25.374168
151.11502 82.970894 25.14784
153.12135 83.006493 24.926702
155.11014 83.029633 24.745989
157.14761 83.069489 24.509573
159.02698 83.212601 24.354008
160.99066 83.265152 24.264202
162.82309 83.854858 24.110592
164.99179 83.892906 24.139622
145.34464 84.101349 25.868284
147.45276 84.36853 25.858433
149.1992 84.709221 25.781118
150.96234 84.691284 25.648016
152.87111 84.849777 25.599779
155.028 84.9132 25.387009
157.06541 84.951469 25.149797
159.09421 85.036652 24.974182
161.09412 85.048927 24.679363
163.03723 85.158195 24.401495
164.98987 85.402771 24.445093
166.90419 85.419693 24.159666
168.39861 85.686058 24.26549
151.15004 86.503532 25.923155
153.0247 86.238785 25.866125
154.94228 86.427826 25.853079
156.86215 86.636864 25.746824
158.88383 86.84742 25.540369
160.98349 86.907837 25.399231
163.08896 87.018753 25.033052
165.14459 87.048546 24.834543
167.11757 87.064957 24.569706
169.07845 87.231483 24.386896
171.12151 87.32045 24.262716
173.1823 87.573547 24.164408
174.20758 87.705872 24.20966
177.23875 87.904953 24.084843
157.60202 88.065468 25.952112
159.20361 88.418144 25.889017
161.1898 88.618042 25.816351
163.03752 88.740112 25.615128
164.95528 88.936989 25.404585
166.96413 89.014748 25.265039
169.0222 88.979912 24.956442
171.06512 89.089088 24.760042
173.07672 89.053841 24.599363
174.95464 89.198914 24.382837
176.8387 89.436729 24.383188
178.88615 89.528198 24.173853
180.74324 89.845528 24.135849
182.87604 89.500412 24.056623
163.79663 90.492401 25.9091
165.03468 90.400513 25.84157
167.0354 90.81617 25.747953
168.81105 90.930328 25.587452
170.89195 90.927299 25.33816
172.97079 91.051926 25.194468
174.97742 90.994659 25.004362
177.01315 91.090691 24.798225
178.9758 91.016502 24.602804
180.98947 91.084778 24.45458
182.88161 91.332184 24.268808
184.76721 91.815315 24.219025
186.65749 91.91481 24.188368
188.98679 91.819168 24.039108
167.99889 92.102737 25.901588
169.27625 92.35717 25.824926
171.03235 92.391418 25.829229
173.08206 92.737282 25.717402
175.02127 92.925468 25.589563
176.86983 92.9403 25.388956
178.84363 92.976669 25.225986
180.93857 93.015022 25.044172
182.91618 93.017883 24.82284
184.87926 93.081802 24.571947
186.86702 93.147575 24.373962
188.76227 93.296829 24.314957
190.84383 93.636749 24.125507
192.38507 93.74511 24.304672
194.5289 93.509583 24.05191
174.99356 94.253983 25.899918
176.93118 94.337112 25.80393
179.10995 94.707443 25.673077
180.89963 94.866951 25.668104
182.87842 94.903526 25.45215
184.877 94.968529 25.251497
186.89955 95.028839 24.948996
188.89568 95.049255 24.780708
190.85542 95.088417 24.551958
192.83441 95.190063 24.430672
194.78914 95.461243 24.307074
196.83371 95.588135 24.154928
198.82355 95.526917 24.085434
176.76675 96.151459 25.891655
179.98474 96.174187 25.655508
181.26311 96.224281 25.890755
183.14285 96.452194 25.811409
184.87555 96.774719 25.710077
186.90942 96.830391 25.658419
188.89253 96.952606 25.405161
190.90918 96.964706 25.264612
192.87167 97.040222 24.913662
194.91608 97.074944 24.695719
196.90166 97.108894 24.483376
198.73732 97.21846 24.414589
200.77122 97.38118 24.240976
202.58943 97.698502 24.187031
204.82472 97.527771 24.089109
185.51601 98.244995 25.90634
187.47362 98.116348 25.77499
188.97395 98.637047 25.786602
190.92999 98.668427 25.699598
192.9937 98.834671 25.578423
194.91173 98.951241 25.293442
196.88478 99.026993 25.058233
198.91685 98.996414 24.899504
200.95302 99.130478 24.561178
202.92662 99.07019 24.38098
204.92842 99.390511 24.266069
206.82089 99.369247 24.209629
208.72781 99.539696 24.158455
210.58243 99.440506 24.050835
191.08153 100.10107 25.944115
193.22771 100.40752 25.811148
194.90398 100.60032 25.763794
196.86186 100.87235 25.608898
198.90805 100.96998 25.448092
200.91718 100.99275 25.274002
202.89107 101.05382 24.96991
204.89415 101.03883 24.760342
206.91782 100.99712 24.685064
208.98738 101.05584 24.551331
210.88304 101.2435 24.326445
212.81473 101.31134 24.200047
214.70665 101.55381 24.119776
197.41792 102.26278 25.851486
199.32617 102.50525 25.882692
200.92061 102.83648 25.775391
202.95114 102.79772 25.592113
204.9389 102.97063 25.449043
207.02174 102.91016 25.239775
208.96947 103.00607 25.136347
210.96637 103.04338 24.912773
212.98895 103.042 24.655785
214.91739 103.16072 24.386011
216.8795 103.42355 24.309919
218.84778 103.43844 24.255779
220.73808 103.81934 24.171408
223.06073 103.93442 24.145214
201.45883 104.1611 25.817299
203.67557 104.17854 25.652929
205.0472 104.83304 25.874081
207.08459 104.79842 25.751398
209.04301 104.85157 25.706606
210.99902 104.92931 25.407673
212.97804 104.99933 25.260849
215.01367 104.98479 25.049379
216.95354 105.09271 24.750042
218.95021 105.0861 24.512623
220.94104 105.15588 24.534029
222.96915 105.49083 24.340906
224.9097 105.54405 24.259224
226.79059 105.61569 24.16423
206.90096 106.33048 25.981155
209.57199 106.10746 25.911095
211.26999 106.62204 25.811831
213.05855 106.6237 25.69138
215.09399 106.83607 25.582821
216.98682 106.99192 25.387114
219.01137 107.0028 25.256348
221.01205 107.03729 25.043465
223.02592 107.05942 24.873491
224.97781 107.06625 24.590904
227.02127 107.21889 24.38372
228.92711 107.49787 24.299622
231.04057 107.26669 24.069897
233.06944 107.97176 24.133652
234.26999 107.99332 24.002901
213.71608 108.16626 25.794748
215.1342 108.20915 25.873285
217.20236 108.50452 25.747889
219.03656 108.67428 25.718576
221.04713 108.93511 25.624838
223.0696 108.94901 25.422974
225.03406 109.01817 25.211952
227.0152 109.07129 24.933769
228.97118 109.11626 24.686134
230.98631 109.02138 24.421038
232.94437 109.22622 24.264164
234.94672 109.45249 24.207802
236.85622 109.59724 24.100468
239.5042 109.9888 24.068939
221.34177 110.20042 25.904215
223.1915 110.68672 25.865974
225.13855 110.74205 25.647795
227.07144 110.86113 25.556499
229.04205 111.01204 25.334379
231.05092 111.0096 25.082603
233.03378 111.00574 24.849682
235.01634 111.00607 24.612738
237.02972 111.15244 24.477808
239.03027 111.2626 24.420345
241.00453 111.18536 24.267033
242.97481 111.5288 24.107828
245.18684 111.56603 24.125866
223.77431 112.14063 25.987572
225.40759 112.13764 25.927073
227.53873 112.28178 25.913309
229.13451 112.57133 25.797546
231.02844 112.81748 25.70072
233.06383 112.9933 25.501751
235.06703 113.02667 25.294014
237.02606 113.0691 25.055346
239.05455 113.0695 24.965908
241.06133 113.06676 24.708305
243.01918 113.01398 24.457905
244.98094 113.21408 24.310181
247.05099 113.47482 24.19232
249.05481 113.69159 24.159765
251.22153 113.77296 24.148048
231.41675 114.16353 25.843864
233.29433 114.55764 25.838882
234.82471 114.65962 25.72542
237.13495 114.83712 25.664095
239.10956 114.99065 25.524485
241.11386 115.0238 25.317917
243.08919 115.02072 25.11866
245.02922 115.10027 24.871695
247.06071 115.08781 24.613802
248.97874 115.14163 24.414003
250.89082 115.38698 24.40826
252.86948 115.48606 24.265324
255.57518 115.62935 24.005692
236.64645 116.15772 25.91046
239.49593 116.62844 25.88879
241.15179 116.58224 25.786459
243.10551 116.87032 25.705074
245.13867 117.00398 25.49114
247.07249 117.05393 25.292469
249.0495 117.06295 25.053331
251.13359 117.12035 24.811058
253.17921 117.10213 24.616116
255.09927 117.05444 24.417934
256.91809 117.44087 24.304878
258.98434 117.63369 24.258675
243.48573 118.17422 25.829247
245.4892 118.51301 25.856091
247.2608 118.85263 25.778795
249.04576 118.69099 25.672569
250.9921 118.99529 25.548632
252.99149 119.08164 25.20648
255.04726 119.07497 25.026192
257.05621 118.99997 24.748512
259.1178 119.12152 24.630949
260.99014 119.11462 24.369305
262.38708 119.34488 24.29368
247.91306 120.15829 25.969515
249.00919 120.47044 25.91843
251.41386 120.67538 25.86447
253.11877 120.64553 25.7435
255.11719 120.94271 25.620445
257.1019 121.02319 25.402933
259.04422 121.00213 25.107904
260.99728 121.05281 24.933329
262.65701 121.26851 24.759602
255.61903 122.45115 25.855566
257.13733 122.43893 25.84226
259.112 122.85707 25.563869
261.09204 123.02368 25.560442
262.66135 123.07211 25.222145
259.15466 124.18307 25.943396
261.25793 124.43551 25.84469
262.80322 124.59935 25.790945
104.77201 67.522621 26.030422
103.74125 69.311302 26.21665
104.92159 69.415215 26.300171
106.69096 69.841179 26.312927
103.78709 70.990265 26.740509
105.17477 71.092407 26.699242
107.19742 71.162529 26.477568
109.04156 71.388817 26.261545
111.00545 71.667236 26.284191
112.55579 71.976959 26.151741
114.99339 71.717545 26.157677
103.71223 72.956963 27.338243
104.95481 73.059311 27.241812
107.0564 73.048271 27.007404
109.17358 73.090019 26.657982
111.13919 73.186577 26.506943
113.14989 73.125473 26.415241
115.05215 73.383209 26.380068
116.95987 73.273216 26.231663
118.88403 73.746651 26.178282
120.83192 73.864716 26.35021
103.62787 74.661934 27.89332
105.00342 74.649673 27.721256
107.018 74.87484 27.548777
109.00213 75.032036 27.370293
110.99549 75.088661 27.17939
112.99662 75.008644 26.956396
114.95158 75.095726 26.837254
117.03921 75.00322 26.60718
119.10835 75.142235 26.408562
120.96841 75.439735 26.338614
122.91751 75.514038 26.20166
124.70648 75.885529 26.138966
127.21539 75.737137 26.065138
107.41456 76.75943 27.916737
109.09978 76.480484 27.774921
111.00142 76.756386 27.756754
113.02557 76.954803 27.553562
115.10391 77.043648 27.421782
117.01293 77.057991 27.216629
119.00939 76.957863 27.006151
120.99456 77.128548 26.776316
123.04259 77.100914 26.504631
125.09585 77.019135 26.324696
126.996 77.541656 26.257195
129.08463 77.390244 26.188068
130.81956 77.735069 26.196922
111.22621 78.140038 27.987022
113.49017 78.292336 27.823587
115.12651 78.649414 27.850451
116.8139 78.690125 27.735397
118.83989 78.888321 27.625731
120.89715 78.924629 27.417191
122.85671 79.05735 27.214533
124.83031 78.998985 26.887077
126.92472 79.086449 26.696493
128.99686 79.027534 26.506258
130.98047 79.150291 26.366976
132.76274 79.45385 26.275993
134.41234 79.653099 26.24938
136.81462 79.970383 26.111347
117.63905 80.131126 27.976692
118.9799 80.126793 27.916687
120.89089 80.392952 27.730188
122.83871 80.743698 27.673685
124.83252 80.959129 27.511343
126.8333 81.009117 27.35499
128.90337 80.978531 27.142664
130.95111 81.020348 26.899284
132.96471 81.185593 26.677034
134.97386 81.1091 26.437983
137.01608 81.142174 26.248829
138.5988 81.586296 26.219576
140.89259 81.697212 26.1863
142.23637 81.761093 26.132633
145.27182 81.936348 26.077431
123.62898 82.364281 27.890167
125.38293 82.471474 27.898481
126.8882 82.435768 27.753027
128.85867 82.759903 27.718319
130.84969 82.982269 27.536461
132.85481 82.993919 27.391262
134.94582 83.00116 27.065428
137.05586 83.014137 26.767969
139.00633 83.080383 26.519392
140.9342 83.202629 26.351709
142.87193 83.429596 26.357082
144.98479 83.412277 26.24271
146.84766 83.75708 26.214283
128.01433 84.98214 27.998638
131.11862 84.584526 27.763697
132.94025 84.765656 27.757256
134.90602 84.909485 27.629786
136.8972 84.988739 27.451857
138.85722 85.087822 27.138214
140.82274 85.049995 26.943697
142.9091 84.978127 26.72043
144.90355 85.097359 26.53063
146.76315 85.261459 26.424959
148.72543 85.251999 26.299322
150.67984 85.342735 26.173365
152.86427 85.828194 26.204735
154.45114 85.999573 26.019413
135.2466 86.56089 27.926884
137.00446 86.320969 27.763527
138.91988 86.918915 27.684267
140.84061 86.9618 27.57782
142.91177 86.977554 27.280579
144.89612 87.06501 27.256599
146.85353 87.070702 27.02253
148.87537 87.044823 26.709898
150.87363 86.98291 26.553198
152.83423 87.228554 26.382774
154.74023 87.459259 26.283663
156.89497 87.480133 26.187439
159.27571 87.97953 26.142265
160.49982 87.766548 26.088686
138.83171 88.57991 27.981035
141.14012 88.275002 27.944082
143.01169 88.624725 27.786997
144.88312 88.709717 27.753632
146.8826 88.84845 27.595575
148.87997 89.007317 27.42911
150.91954 88.953499 27.195425
152.9198 89.037949 27.014595
154.90445 89.103889 26.747108
156.8222 89.069977 26.5396
158.76288 89.156708 26.367126
160.59514 89.412643 26.339787
162.59238 89.581612 26.210752
147.12126 90.327332 27.765894
148.82687 90.523201 27.700788
151.0692 90.816841 27.710167
152.94937 90.915825 27.584074
154.88751 91.023102 27.371443
156.88383 91.00956 27.15494
158.87997 91.041824 26.946598
160.91142 91.046112 26.681387
162.79099 91.019501 26.427881
164.76958 91.256699 26.386419
166.55165 91.371223 26.254375
168.91975 91.951088 26.353804
151.65775 92.197052 27.802559
152.99274 92.161026 27.853336
155.05849 92.643379 27.766226
156.9389 92.800644 27.648058
158.98969 92.894531 27.574141
160.96069 92.998283 27.392286
162.94882 93.025627 26.988258
164.90184 93.083458 26.804338
166.94159 93.044945 26.545116
168.84418 93.241241 26.493597
170.81543 93.240479 26.236727
172.85641 93.633682 26.277983
174.50786 93.800156 26.181879
156.88322 94.172844 27.914848
158.90324 94.300026 27.853605
161.33925 94.492607 27.843706
162.97485 94.853287 27.662161
165.00146 94.919769 27.397041
166.87543 94.995049 27.179811
168.89105 95.101524 27.002424
170.89726 94.988716 26.674337
172.90207 95.089973 26.572126
174.81512 95.138054 26.394062
176.79622 95.233925 26.252302
178.60556 95.331345 26.256794
181.34297 95.608185 26.084261
182.70557 95.852142 26.132635
162.98209 96.394272 27.861757
165.50937 96.488136 27.772133
166.94313 96.673241 27.710299
168.96935 96.960907 27.582838
170.92633 97.027275 27.446205
172.90062 97.089317 27.139917
174.96599 97.005898 27.006666
176.95035 96.996651 26.800648
178.93533 97.027161 26.599705
180.84715 97.017578 26.378124
182.81299 97.287323 26.336103
184.7863 97.529648 26.276892
186.96625 97.512421 26.076651
189.81728 97.982765 26.112045
169.51671 98.185921 27.830687
171.01079 98.631798 27.817221
172.89609 98.87706 27.747097
174.96111 98.988701 27.613298
176.94986 99.027321 27.444473
178.95375 99.052422 27.261681
181.01595 98.961914 26.931561
183.00279 99.008118 26.848118
184.90402 99.149651 26.58563
186.86369 99.050499 26.316538
188.81348 99.308578 26.348513
190.89938 99.457054 26.116688
192.47224 99.462433 26.157547
194.6161 99.614914 26.008287
197.46848 99.991066 26.011328
175.46381 100.32397 27.834494
176.9263 100.60911 27.739206
178.93254 100.67542 27.701487
181.02782 100.92532 27.701172
182.98021 100.98925 27.456017
184.96637 101.06878 27.207014
186.99065 101.00307 27.017883
188.96721 101.00587 26.771612
190.9454 101.04607 26.539141
192.81702 101.1559 26.328009
194.99429 101.47317 26.362059
197.14757 101.59686 26.243628
198.28374 101.92564 26.493471
177.70834 102.19456 27.979603
179.7317 102.1952 27.881569
181.16711 102.27037 27.913502
183.2339 102.57228 27.85183
185.01949 102.82729 27.795465
187.02563 102.99245 27.600439
188.98244 103.05077 27.366255
190.98976 103.07412 27.190912
193.00208 103.02301 26.952541
194.97166 103.11382 26.699436
196.91481 103.06779 26.434275
198.86916 103.23105 26.276176
200.78392 103.62701 26.257769
202.76659 103.7356 26.269943
187.2715 104.39301 27.845774
189.22466 104.64042 27.762836
191.02232 104.86037 27.791739
193.1088 104.92478 27.56743
195.01128 105.03718 27.295601
196.98251 105.05305 27.102314
198.94254 105.01887 26.831038
200.9649 105.09663 26.609884
202.98347 105.01829 26.385576
204.88834 105.03821 26.171883
206.81491 105.34806 26.2684
208.45462 105.61574 26.22728
210.56871 105.60318 26.173615
191.37094 106.58706 27.984425
193.10867 106.37836 27.9081
195.12254 106.5845 27.709637
197.06459 106.85536 27.686302
199.04262 107.02133 27.446978
201.00984 107.08528 27.254185
203.03456 106.98317 27.05044
204.9904 106.99706 26.776766
206.98283 107.06635 26.55945
208.9852 107.07505 26.454845
210.93129 107.21777 26.334358
212.92667 107.32524 26.157726
214.67969 107.32234 26.088217
199.29221 108.56323 27.83898
201.03448 108.76804 27.701565
203.02686 108.96677 27.604546
205.04263 109.05088 27.471983
207.02504 109.01639 27.17704
209.05948 109.10118 27.112974
211.06477 109.04414 26.897404
213.01097 109.03008 26.576612
215.04291 109.1557 26.465517
217.02185 109.23399 26.283005
218.95955 109.61039 26.151339
220.71988 109.24468 26.079483
222.35503 109.62643 26.128035
202.61682 110.19772 27.934711
205.16121 110.35683 27.747812
207.23599 110.751 27.660656
209.07564 110.9622 27.673056
211.05939 111.01859 27.472052
213.0661 111.09512 27.233023
215.04901 111.08631 27.004993
217.00722 111.09145 26.740881
219.10573 111.01474 26.637938
221.02785 111.1737 26.413118
222.81317 111.26356 26.33404
224.82045 111.42783 26.159344
227.00598 111.65661 26.094582
209.2662 112.18944 27.943661
211.24692 112.27948 27.832035
213.21939 112.83572 27.641029
215.03516 113.03928 27.555244
217.05785 113.04296 27.462179
219.09726 113.0999 27.225185
221.07433 113.09724 26.975737
223.11804 113.02684 26.832457
225.06023 113.01794 26.51189
226.99405 113.0936 26.35894
229.04848 113.46469 26.293005
231.29878 113.43327 26.090656
215.06345 114.51061 27.924892
216.98975 114.58248 27.832655
219.11586 114.93868 27.721024
221.12213 115.02554 27.616211
223.12585 115.07339 27.419277
225.09082 115.02323 27.169207
227.07292 115.03451 26.92281
229.0323 115.0243 26.617025
231.08691 115.02647 26.467602
233.034 115.15629 26.295242
235.31111 115.41422 26.16
236.37387 115.192 26.118595
238.05365 115.61589 26.319351
219.84665 116.63396 27.91326
220.78566 116.42056 27.897346
223.20789 116.53909 27.817623
225.21179 116.87947 27.700937
227.12477 116.89243 27.602718
229.09821 117.09219 27.308716
231.07323 117.07174 27.113808
233.0816 117.0637 26.882561
235.11415 116.91388 26.582617
237.15543 116.98091 26.460752
239.00461 116.92989 26.239468
241.10165 117.49426 26.215288
242.81949 117.27734 26.10993
244.01569 117.49576 26.0191
225.70662 118.22244 27.921432
227.20085 118.35028 27.769321
229.14742 118.72836 27.823471
231.04141 118.9893 27.633495
233.07668 119.07214 27.471464
235.05652 119.02192 27.369953
237.05241 118.94863 27.09186
239.07271 119.01842 26.855164
241.03041 119.0078 26.710503
242.97658 119.01138 26.47876
244.90204 119.14075 26.312153
246.7206 119.37286 26.246538
248.88803 119.49296 26.251759
250.13345 119.63349 26.295656
229.48047 120.23933 27.961376
231.09785 120.6377 27.95347
233.27019 120.47081 27.802843
235.00676 120.67362 27.79174
237.09152 120.79623 27.635996
239.07942 121.08147 27.446644
240.99908 121.04385 27.406691
242.93556 121.0217 27.15592
244.88319 121.02747 26.901428
246.9845 121.02105 26.626549
248.99182 121.0432 26.530767
250.77516 121.12239 26.324978
253.01793 121.13925 26.179445
254.56009 121.45676 26.112722
237.77721 122.22951 27.922541
239.01794 122.3139 27.945795
240.98985 122.74862 27.84338
243.03552 122.79246 27.643892
244.94304 123.0323 27.596617
246.93826 123.03304 27.258816
248.91182 123.04096 27.078789
250.91335 123.03136 26.873837
252.88202 122.90021 26.614027
254.71873 123.06147 26.418695
256.8486 123.14206 26.294601
258.59753 123.36037 26.12561
243.31824 124.50607 27.953779
245.48082 124.58599 27.828436
247.06837 124.79189 27.69449
249.07764 124.8936 27.646427
250.97957 125.09837 27.501211
252.9303 124.98968 27.277634
254.91202 125.03392 27.051411
256.96643 124.99396 26.797804
258.8598 125.07694 26.62097
260.85501 125.06458 26.315147
262.56689 125.31562 26.22332
247.99881 126.2485 27.955013
249.39153 126.66479 27.888515
250.95135 126.50207 27.861385
252.93834 126.76129 27.758757
254.88879 126.90277 27.640942
256.91443 127.06995 27.351259
258.98544 127.08829 27.180861
260.90744 126.92047 26.866684
262.66437 127.05044 26.69743
255.62096 128.29617 27.730015
256.93799 128.49474 27.827387
259.04498 128.88489 27.679459
260.96677 129.05132 27.484707
262.54852 128.92319 27.329117
261.26407 130.58047 27.863468
262.35532 130.84789 27.785364
103.69019 75.177475 28.46056
104.70445 75.273819 28.292616
106.33643 75.50605 28.165075
103.56456 77.142265 28.898712
104.84527 77.040947 28.610319
106.7973 77.016571 28.432413
108.67369 77.179108 28.239433
110.33785 77.575294 28.266043
112.8903 77.619247 28.205023
103.53487 79.03862 29.539938
104.94896 79.03923 29.30876
106.93787 79.076172 29.083986
108.85212 78.962646 28.7155
110.8747 79.057487 28.542578
112.77853 79.00975 28.41033
114.68941 79.218285 28.200699
116.92847 79.464272 28.202581
118.90491 79.614677 28.207661
120.50155 79.636253 28.052448
103.59821 80.367462 29.760187
105.01156 80.797325 29.739439
106.92294 80.996185 29.572624
108.96028 81.021492 29.347511
110.92953 81.063889 29.218475
112.91077 81.033821 28.932993
114.8858 81.041176 28.802212
116.86219 81.075806 28.585526
118.85854 81.061859 28.416548
120.86987 81.112061 28.26018
122.79887 81.484673 28.226309
124.9123 81.627228 28.158585
107.19834 82.365364 29.881744
109.06604 82.769295 29.829927
111.01173 82.725189 29.734526
113.02498 82.984077 29.580488
114.9371 83.063965 29.465919
116.93506 83.084122 29.294538
118.93204 83.048973 29.002779
120.87045 82.992012 28.709106
122.87397 83.095795 28.592442
124.72773 83.15033 28.433079
126.82521 83.241844 28.261333
128.91232 83.521492 28.213017
112.6956 84.312874 29.88274
115.09468 84.478828 29.793636
117.14598 84.609123 29.770092
118.95657 85.027611 29.676231
120.96978 85.033852 29.394316
122.93198 85.110245 29.200193
124.95751 85.09362 28.990868
126.95191 85.000084 28.783541
128.93761 85.023354 28.512365
130.80399 85.101181 28.340405
132.65076 85.459656 28.235796
134.32709 85.627716 28.280121
117.05108 86.532585 29.877707
119.27594 86.369621 29.92536
120.98105 86.661049 29.810209
123.09145 86.809242 29.71752
124.98708 86.989479 29.67452
126.95033 87.078339 29.397499
128.94516 87.062225 29.188526
130.91937 86.987434 28.931204
132.9268 87.043121 28.636971
134.85838 87.014374 28.407644
136.83658 87.165337 28.278488
138.38896 87.379845 28.273605
141.3165 87.684547 28.038113
142.57756 87.991234 28.335962
125.28532 88.759521 29.851063
126.9697 88.506233 29.827265
128.9971 88.951187 29.683027
130.98553 89.023964 29.394943
132.94362 89.11171 29.28038
134.9576 89.047432 29.082014
136.92357 88.992622 28.77986
138.93192 89.034599 28.490301
140.86314 89.120529 28.368277
142.87888 89.137238 28.280172
144.82933 89.433495 28.235136
146.95532 89.548882 28.152136
129.33997 91.041916 29.993406
131.26138 90.679916 29.882263
133.0475 90.755951 29.781067
134.98898 90.991547 29.68207
137.01506 91.058136 29.367636
138.89577 91.080849 29.101036
140.94601 91.099922 28.933315
142.93243 91.001595 28.742525
144.96968 91.039688 28.512575
146.85298 91.026085 28.403429
148.95987 91.243721 28.22674
150.4454 91.366348 28.189697
152.38025 91.631676 28.250431
133.74461 92.250923 29.915972
135.25565 92.515999 29.79163
137.20572 92.808868 29.779346
139.02031 92.779289 29.646503
140.93915 93.044884 29.523262
142.96329 93.049095 29.296154
144.95967 93.044083 29.180948
146.99837 92.982483 29.025591
148.97916 92.963516 28.740417
150.927 93.050079 28.602707
152.9503 93.049614 28.373659
154.79771 93.283615 28.289783
156.82539 93.478188 28.142965
158.43739 93.547791 28.061874
134.89429 94.302536 29.977188
139.76358 94.237427 29.950197
141.02026 94.722961 29.892096
143.04082 94.70974 29.777327
144.9127 94.843597 29.759546
147.04654 94.962151 29.530178
148.95398 95.04744 29.413738
151.01599 95.072563 29.226849
152.95116 95.011185 28.918966
154.99026 95.046234 28.708809
156.95116 95.008408 28.608046
158.9518 94.969025 28.258751
160.76044 95.121262 28.273268
162.68286 95.56971 28.19146
164.42604 95.632431 28.244789
167.03323 95.661064 28.019251
145.74898 96.279205 29.80261
147.23184 96.309021 29.909781
149.06383 96.679802 29.822264
151.00868 96.935326 29.675377
153.04788 96.965462 29.622503
154.98857 97.04538 29.415028
157.02708 97.083221 29.187033
158.97604 96.988319 28.869957
161.028 96.948792 28.771822
162.97418 97.035034 28.387548
164.83249 97.012993 28.306334
166.93855 97.36734 28.185062
168.36685 97.520111 28.022005
151.3555 98.284119 29.797745
153.39195 98.385765 29.825304
155.15225 98.661583 29.864954
157.14232 98.897446 29.79351
159.06598 99.002472 29.630907
161.05292 98.973198 29.382704
162.96877 98.993713 29.069435
165.01813 99.029922 28.846735
166.94737 98.890427 28.559528
168.90141 98.999939 28.342163
170.92897 99.095657 28.213537
173.19461 99.497192 28.157141
174.60437 99.311493 28.011019
159.00642 100.33232 29.832809
161.12042 100.50745 29.797709
163.12334 100.85907 29.724604
165.0327 101.05113 29.464836
167.036 100.97805 29.214746
169.01509 101.01543 28.991735
170.95232 101.00379 28.692429
172.95517 100.909 28.494993
174.89339 101.01264 28.379091
177.02281 101.06078 28.287823
179.05959 101.37886 28.142319
180.6358 101.49958 28.082199
183.06688 101.69411 28.014463
163.80196 102.65733 29.914907
165.0815 102.645 29.897465
167.09833 102.59859 29.723038
169.0957 102.99708 29.680248
171.10645 102.97244 29.357395
173.0345 103.00754 29.112646
175.00252 102.9537 28.948618
176.97289 103.0014 28.690891
178.94501 103.02853 28.503929
180.94118 103.09079 28.421812
182.92334 103.06924 28.266546
184.97325 103.37257 28.123795
186.29132 103.26826 28.183247
168.40758 104.46059 29.938789
171.099 104.71647 29.79158
173.11604 104.91787 29.721203
175.13957 104.93198 29.614876
177.05457 105.02178 29.434401
179.09212 105.04278 29.266712
181.07477 105.00439 29.039757
183.03893 105.02376 28.746273
185.01102 104.96745 28.592075
187.01271 105.08395 28.383341
188.85266 105.19554 28.240015
191.06569 105.16767 28.052856
192.41689 105.57302 28.089739
194.72427 105.69455 28.0439
175.25327 106.52863 29.806057
177.10982 106.85759 29.813379
179.22433 106.76476 29.744907
181.04114 106.93382 29.537153
183.0683 107.10514 29.407799
185.11098 107.06872 29.178505
187.04129 106.98497 28.97864
189.10875 107.02466 28.744379
191.00677 106.95223 28.48538
193.03976 107.01243 28.293736
194.92799 107.38123 28.199038
196.86362 107.73289 28.093052
198.2906 107.72697 28.049452
179.79736 108.70607 29.831331
180.50177 108.54252 29.889511
183.16003 108.57868 29.887804
184.97343 108.7849 29.811756
187.10417 108.97799 29.560108
189.08513 109.0703 29.427177
191.10616 108.99619 29.159178
193.0705 108.95462 28.96405
195.06335 109.02505 28.623655
197.05846 108.94715 28.370049
198.86798 109.21978 28.232361
201.02496 109.4818 28.152363
203.09818 109.73357 28.088314
185.65488 110.27508 29.896357
187.00912 110.33431 29.92193
188.95767 110.50845 29.844208
191.18042 110.81968 29.801373
193.23274 110.97041 29.528042
195.11807 111.08317 29.386738
197.07394 110.98296 29.086689
199.09845 110.98705 28.854221
201.01762 110.92289 28.561794
203.04918 111.04442 28.430357
205.04907 111.16624 28.300573
206.85727 111.29421 28.147669
208.88203 111.45527 28.113554
210.82938 111.08539 28.113655
193.52869 112.25113 29.906189
195.27016 112.91798 29.818392
197.1498 112.93952 29.714119
199.15108 113.04884 29.477381
201.14775 112.99787 29.254169
203.14212 113.07355 29.032223
205.11613 113.01413 28.75437
207.09578 112.92451 28.554604
209.02206 113.03158 28.432739
211.07103 113.03954 28.365116
212.80637 113.36702 28.222311
215.22673 113.67857 28.30633
197.9023 114.28329 29.866131
199.26703 114.67631 29.886129
201.17955 114.86369 29.782654
203.17323 114.90011 29.575386
205.13086 115.03263 29.579838
207.13951 115.03155 29.281536
209.12663 114.96259 29.047892
211.08296 114.88965 28.785671
212.97675 114.87936 28.56077
214.96649 115.06898 28.450062
217.17265 115.40652 28.223398
218.84688 115.2678 28.103848
221.20712 115.34888 28.011288
203.13058 116.27119 29.951248
205.26067 116.65286 29.811829
207.14931 116.76367 29.847277
208.96455 116.89408 29.702148
210.99464 116.91915 29.450798
213.04269 117.06779 29.233213
215.04019 116.97242 28.940491
217.06248 116.97327 28.718822
219.01921 116.81651 28.538105
221.05002 117.10816 28.441223
222.99785 117.22866 28.238277
224.72498 117.54865 28.15799
227.24171 117.74117 28.108656
209.78394 118.26004 29.976387
211.38295 118.56711 29.794342
213.15689 118.94409 29.773508
215.17253 118.95714 29.590105
217.09422 118.96835 29.350965
218.95627 119.02402 29.210432
220.94476 118.96455 29.075439
222.99693 118.96384 28.834515
225.00116 118.98158 28.487244
226.92427 119.041 28.292624
228.8374 119.34245 28.248632
231.20897 119.77079 28.098419
215.58272 120.28986 29.885262
217.20236 120.46468 29.829454
218.91739 120.47641 29.741655
220.93344 120.95786 29.633406
222.93164 120.96453 29.386766
224.92383 121.02797 29.193665
227.03339 120.9313 28.880226
228.94679 120.9997 28.730263
230.91441 120.94304 28.431477
232.91046 121.20382 28.345907
234.88675 121.47885 28.270256
236.658 121.56211 28.145962
238.46733 121.78024 28.031515
221.19139 122.49986 29.901524
223.32161 122.9252 29.771416
225.10068 123.04228 29.685347
226.93678 122.91404 29.561069
228.93298 122.94855 29.328651
230.93083 123.04406 29.098549
232.97374 122.93562 28.810963
234.92084 122.92443 28.661457
236.8286 122.97235 28.415241
238.85332 123.1284 28.31344
240.76973 123.32975 28.206617
242.79768 123.47459 28.157673
245.33852 123.77573 28.03705
227.19003 124.50533 29.78261
228.9267 124.78368 29.870489
231.0715 124.95278 29.694031
232.87672 125.01367 29.433777
234.90829 124.97901 29.367968
236.83484 124.99559 29.093626
238.88065 124.91582 28.848427
240.82872 124.98623 28.673277
242.79128 125.01456 28.424969
244.75984 125.06738 28.334799
246.79498 125.27217 28.293116
248.75182 125.56266 28.184969
232.46117 126.29844 29.943544
235.02687 126.84463 29.786026
237.01178 127.00892 29.70915
238.91023 126.86558 29.487261
240.96298 127.05099 29.393972
242.89694 126.98139 29.16783
244.92783 126.94289 28.934689
246.91161 126.90751 28.641567
248.9584 127.00336 28.471931
250.92081 127.24029 28.301998
252.76773 127.63846 28.189428
254.96306 127.71236 28.102072
237.25264 128.31712 29.933952
238.88974 128.50877 29.931095
240.99825 128.67584 29.861046
242.95056 128.97064 29.66958
244.94589 129.02892 29.577162
246.93628 129.00507 29.309528
248.94624 128.99094 29.152702
250.94598 128.92487 28.856178
252.9409 128.92223 28.607239
254.88097 129.01158 28.320641
256.92557 129.20651 28.245981
258.66446 129.57375 28.154703
260.26611 128.58267 28.055382
243.69135 130.32724 29.899012
244.79852 130.48624 29.841669
247.12256 130.88806 29.770086
249.019 130.97745 29.656578
250.94038 131.00052 29.422598
252.96689 130.98517 29.271183
254.96762 130.86357 29.006845
256.95959 130.95187 28.774523
258.93253 130.96562 28.461504
260.84839 131.09961 28.251116
262.51776 131.58322 28.172668
247.61803 132.37973 29.782845
249.54837 132.31442 29.978521
251.00706 132.52733 29.824532
253.01521 132.58873 29.775021
255.0831 132.7001 29.592241
256.9856 132.96777 29.425774
258.92871 132.91205 29.100243
260.92987 132.94943 28.881805
262.55127 132.94292 28.661335
254.96283 134.3277 29.970383
257.01517 134.75435 29.83894
259.01852 134.89993 29.694883
261.05472 134.97108 29.505104
262.57352 135.04086 29.325809
257.26773 136.36256 29.974766
261.45032 136.76514 29.87299
262.6073 136.55409 29.858908
103.55574 81.189804 30.320248
104.85283 81.297081 30.157177
106.97498 81.741425 30.097256
108.58017 81.740875 30.011906
103.62189 83.000504 30.942703
104.97894 83.002457 30.62554
106.93836 83.018066 30.34511
108.83983 83.20916 30.152702
110.82809 83.589119 30.184534
112.31112 83.485435 30.045378
103.6516 85.111366 31.56451
105.04214 85.085907 31.273655
107.01022 84.906944 30.852989
108.95601 84.949112 30.757803
110.97385 84.94455 30.52177
113.04563 85.099052 30.365931
114.91009 85.201172 30.204227
116.78085 85.387733 30.092941
103.57641 86.976524 31.855028
105.20486 86.757126 31.712702
107.00133 86.893013 31.512478
109.10001 87.030998 31.33988
111.01423 87.017159 31.108551
113.00376 87.052788 30.889294
115.02084 86.999313 30.839216
116.98597 87.007156 30.562576
118.91539 87.076691 30.366009
120.94263 87.374275 30.318451
122.6595 87.501686 30.188547
124.60448 87.740891 30.087234
105.4225 88.74353 31.907873
107.04506 88.50592 31.916342
109.25395 88.648346 31.848803
111.21942 88.841553 31.718134
113.06887 89.089569 31.610312
115.05115 89.024574 31.458189
117.02368 88.984489 31.202534
119.04829 88.974525 31.012426
121.08304 88.975708 30.758282
123.00283 88.907303 30.461817
124.85776 89.055626 30.261112
126.98875 89.36377 30.131472
128.82947 89.407303 30.235512
130.27042 89.644608 30.41176
111.44341 90.311035 31.938896
113.32021 90.566612 31.787579
115.0022 90.472778 31.813198
117.16142 90.776039 31.674253
119.07367 90.981728 31.690277
121.01575 91.015915 31.437794
123.03889 90.967117 31.130632
125.01553 91.003319 30.910505
127.04565 90.904091 30.72253
128.96654 90.953308 30.468758
130.87927 91.077133 30.364645
132.96878 91.118156 30.198298
134.90266 91.324883 30.153437
136.22678 91.551437 30.028387
119.8768 92.473221 31.957045
121.28068 92.478294 31.869225
123.09175 92.8759 31.722038
125.06957 92.986382 31.589119
127.0313 92.963211 31.356001
129.08659 92.986954 31.173294
131.00462 93.018089 30.853767
132.99046 92.923759 30.608213
134.93588 93.062424 30.41972
136.81487 93.143448 30.263739
138.84541 93.58223 30.191175
141.45699 92.933807 30.031584
123.41162 94.390251 31.651363
124.8513 94.624741 31.84119
127.27283 94.824409 31.820429
129.19424 94.900009 31.718122
131.07152 95.060608 31.539516
133.06456 94.942314 31.296721
135.00945 94.978729 31.069052
137.02667 94.906334 30.802694
138.98756 94.950386 30.512856
140.99664 95.048653 30.335041
142.86586 95.384323 30.288025
145.17609 95.303482 30.148369
146.64996 95.484375 30.091154
129.88486 96.278778 31.991407
131.38757 96.480118 31.801126
133.28949 96.772163 31.754061
135.08818 96.996056 31.623188
137.0842 96.999756 31.437119
139.03925 96.98217 31.157427
141.04758 96.962494 30.855494
143.01259 96.926689 30.729275
145.00334 96.948395 30.5131
146.97804 97.113388 30.375439
148.99014 97.227608 30.263395
151.01283 97.27549 30.203447
152.82124 97.588966 30.197767
133.45586 98.320007 31.962296
135.32661 98.723183 31.917074
137.23181 98.645851 31.804523
139.14584 98.949844 31.669819
141.05522 99.035172 31.540295
143.09814 99.021111 31.358393
145.04478 98.974213 31.179022
147.04518 98.981987 30.924683
149.0731 98.948112 30.800936
151.04703 98.97953 30.566904
153.00267 99.023933 30.359459
154.93121 99.294525 30.223209
156.7968 99.283806 30.185545
158.69614 99.541321 30.129971
160.29675 99.757637 30.026123
141.68991 100.59965 31.959198
143.26537 100.83658 31.808903
145.25453 100.85219 31.636539
147.09996 101.03922 31.539074
149.0815 101.00758 31.410862
151.09785 101.02824 31.234459
153.09773 100.97186 30.95373
155.11043 100.98441 30.67252
157.02917 100.97668 30.454617
159.06915 101.12155 30.338434
161.03123 101.24859 30.237955
162.82536 101.55096 30.187532
164.9274 101.53376 30.147079
145.06393 102.33553 31.912312
147.08871 102.63395 31.936008
149.14485 102.58167 31.768345
151.1749 102.8852 31.722704
153.14714 102.98583 31.501631
155.02298 103.03004 31.33379
157.1131 102.9458 31.116488
159.07742 102.94665 30.898039
161.09486 102.92902 30.710083
162.98251 103.00797 30.48181
165.06097 103.10641 30.303127
167.02693 103.39497 30.203665
168.4957 103.76543 30.183014
170.71985 103.76719 30.073181
149.43307 104.37866 31.831446
151.09546 104.3086 31.999491
153.0988 104.58823 31.897621
155.13603 104.83485 31.698145
157.10851 104.95072 31.656395
159.21779 104.89489 31.572824
161.1382 104.98415 31.353617
163.08772 105.00361 31.06035
165.09543 104.88261 30.797928
167.08377 104.99318 30.642738
169.13599 105.00591 30.369556
171.02213 105.22608 30.195093
172.75513 105.63981 30.122894
174.85158 105.38434 30.047239
157.47675 106.35995 31.798042
159.53673 106.69442 31.990187
161.33318 106.78308 31.728607
163.18573 106.89917 31.567646
165.14365 106.90633 31.458456
167.13388 107.01775 31.236235
169.12674 106.94682 30.988625
171.09096 106.91515 30.684748
173.08208 106.95522 30.452707
175.03871 107.15165 30.369192
177.04251 107.1583 30.184284
178.85686 107.50795 30.195841
181.40535 107.446 30.103821
183.20306 107.35268 30.058561
163.90843 108.34499 31.829691
165.26309 108.46552 31.83268
167.1226 108.604 31.650393
169.16975 108.90014 31.588488
171.08575 108.98773 31.309645
173.13495 109.02419 31.215946
175.13004 108.98502 30.981525
177.09248 108.99083 30.746635
179.04681 109.0024 30.644436
181.15327 109.03432 30.402975
183.12132 109.11575 30.248356
185.34782 109.38922 30.109295
187.18362 109.76498 30.169548
171.30881 110.40748 31.756901
172.99615 110.92317 31.759352
175.11118 110.90522 31.594822
177.06807 111.02222 31.415014
179.00638 111.01279 31.29236
181.09117 110.96892 30.959673
183.12964 110.91873 30.801804
185.01694 110.9408 30.580112
187.10622 111.15469 30.36478
189.18347 111.30197 30.245991
190.94987 111.34476 30.128548
192.53773 111.63626 30.172729
170.22058 112.03175 31.711559
173.12427 112.33261 31.997522
175.90454 112.00878 31.548611
177.38097 112.60697 31.720387
179.19778 112.75357 31.711927
181.10027 112.7579 31.542606
183.07901 112.97701 31.436119
185.01497 112.99554 31.140123
187.07001 112.95836 30.992235
189.10184 112.90711 30.727154
191.00496 112.92921 30.504465
193.00922 113.01351 30.360445
194.83575 113.29006 30.184273
197.04015 113.54947 30.060175
198.21027 113.5943 30.09882
177.09337 114.36288 31.974962
179.34048 114.34061 31.961548
181.55666 114.7422 31.913572
183.36432 114.74303 31.665218
185.22125 114.85412 31.632854
187.04327 114.93218 31.510826
188.99651 115.03199 31.397432
190.96188 114.94743 31.1432
193.08278 114.97606 30.894258
195.1313 114.92956 30.588997
197.08621 115.02215 30.412308
199.09827 115.18784 30.2521
201.07965 115.4255 30.10107
202.74341 115.55164 30.177479
204.02698 115.80164 30.11846
185.95973 116.74024 31.992437
186.96652 116.55484 31.87122
189.25381 116.75076 31.817064
191.06412 116.58278 31.68325
193.00845 116.99129 31.537327
194.97012 116.99828 31.30657
197.01541 116.99243 31.111656
199.106 116.94244 30.808353
201.17064 116.97049 30.508989
203.09039 117.14059 30.364296
204.95625 117.26125 30.358053
206.8853 117.34016 30.129955
208.67609 117.76435 30.326855
210.05183 117.81203 30.09277
191.95114 118.00211 31.667419
193.18358 118.37357 31.7743
195.134 118.71648 31.840029
197.02013 118.82206 31.642471
198.89449 119.00422 31.50366
200.9543 118.95084 31.206816
203.04646 118.89665 30.963964
205.01222 118.89148 30.774492
206.98195 118.97817 30.623075
209.00914 119.048 30.465193
210.80504 119.2771 30.220325
212.64407 119.55372 30.244715
214.4693 119.60962 30.15547
195.94475 120.38937 31.852234
197.98837 120.37701 31.817722
199.35402 120.67277 31.816648
201.09039 120.88342 31.801294
202.91595 120.78024 31.597122
204.99323 120.95001 31.456047
206.90102 120.94257 31.23502
208.87268 120.89252 30.99848
210.99989 120.9071 30.751364
212.98375 121.00743 30.549704
214.79959 121.04989 30.440374
216.8795 121.29704 30.303139
218.96194 121.36475 30.264917
220.41046 121.6058 30.189543
222.16129 121.78387 30.229769
203.23488 122.34631 31.974245
205.07008 122.53571 31.855282
206.93201 122.65454 31.766397
208.94832 122.75522 31.61735
210.85376 122.9388 31.499546
212.94519 122.9281 31.290342
214.94678 122.97988 30.968851
216.89246 122.98678 30.827456
218.88322 122.95376 30.623835
220.83546 123.10279 30.337105
222.67163 123.22581 30.339264
224.6208 123.40765 30.245871
226.51247 123.83481 30.119158
228.16243 123.82073 30.109962
211.27701 124.21597 31.775736
212.83157 124.53019 31.753361
214.92493 124.87413 31.672749
216.91151 125.06001 31.467472
218.92705 125.01479 31.291298
220.89899 124.90296 30.988947
222.93329 124.96444 30.735823
224.9938 125.01545 30.460543
226.87376 125.14697 30.383121
228.75093 125.53008 30.182383
230.64275 125.38231 30.135668
233.4138 125.8006 30.238895
215.28334 126.36112 31.942581
217.0197 126.64529 31.841667
219.08771 126.74646 31.772825
220.9832 126.84556 31.643383
222.89955 126.93741 31.378586
224.88431 126.99974 31.222067
226.88106 126.95174 30.818169
228.89432 126.97621 30.648375
230.90939 126.99963 30.482777
232.92897 127.0658 30.283899
234.73669 127.27075 30.222204
236.47572 127.4306 30.205334
238.78268 127.75663 30.055553
222.80196 128.49847 31.769266
225.12413 128.8441 31.731995
226.93271 128.90634 31.480282
228.93115 128.87105 31.297825
230.91441 128.92099 31.029716
232.90735 128.96286 30.792831
234.91174 128.99548 30.592127
236.92194 129.04204 30.471788
238.952 129.08652 30.29973
240.91237 129.38829 30.220264
243.02815 129.43561 30.190588
227.03287 130.46675 31.772032
228.99954 130.60101 31.691877
231.00848 130.70662 31.643093
232.96455 130.92657 31.531435
234.95482 130.95866 31.334007
236.96136 130.91663 31.066738
238.97871 130.93964 30.904488
241.00177 130.95854 30.758278
242.95636 131.03668 30.515215
245.02507 131.34683 30.324934
246.75014 131.37868 30.225513
248.73022 131.75478 30.187368
231.11334 132.38986 31.959381
233.47246 132.53906 31.829943
234.88631 132.65277 31.71817
237.02646 132.84346 31.653336
239.05519 132.96185 31.574049
240.99718 132.9599 31.351343
243.00507 132.91719 31.086836
245.00473 132.9548 30.867603
246.96387 133.02939 30.638565
248.94987 133.09778 30.445631
250.96129 133.4182 30.34531
253.00911 133.52267 30.220741
254.83411 133.60934 30.176682
256.69128 133.88013 30.059273
236.51515 134.15224 31.852858
238.99127 134.58508 31.959682
241.19348 134.60127 31.821018
243.15913 134.87526 31.686506
245.0643 134.84828 31.591307
247.0462 134.98106 31.290443
249.03914 134.97145 31.084921
251.03125 134.97072 30.828962
253.01411 135.02109 30.558382
255.01523 135.12508 30.360147
256.98895 135.44286 30.24428
258.88071 135.90147 30.128225
260.51465 135.85953 30.246595
240.93591 136.01019 31.947348
242.93832 136.62152 31.901348
245.45779 136.56615 31.8368
247.12492 136.582 31.734657
249.06068 136.8817 31.690626
251.08505 136.90948 31.4953
253.09637 136.9393 31.308577
255.06732 136.94258 31.036871
257.02942 137.02763 30.764837
259.03415 137.04263 30.498316
260.91415 137.1696 30.237282
262.62579 137.50166 30.184824
248.90642 138.21698 31.902683
250.89732 138.42819 31.815596
252.99524 138.69031 31.764462
255.14967 138.83832 31.613829
257.06296 138.9054 31.346756
259.05353 138.95016 31.098824
261.03845 138.99883 30.834938
262.6387 139.02936 30.658638
255.19284 140.19795 31.83017
257.12219 140.50389 31.785042
259.10461 140.76096 31.711781
261.06036 140.90417 31.443045
262.65524 140.93828 31.252035
261.17041 142.33919 31.870098
262.6214 142.34758 31.730394
103.72608 87.044502 32.272808
104.98409 87.248123 32.16721
107.2207 87.691917 32.059578
108.3009 87.407135 32.021378
103.73037 88.893311 32.870945
105.07021 88.99144 32.600052
107.09521 89.103821 32.399761
108.99232 89.231041 32.218826
110.70217 89.565193 32.26775
113.04114 89.139496 32.131569
115.12579 89.779251 32.121742
103.59209 90.853233 33.502728
105.15372 90.947578 33.221184
107.09725 90.940842 32.997173
109.10778 90.951172 32.701729
111.04424 91.090622 32.519169
112.97852 91.234505 32.33543
115.12546 91.246002 32.26461
117.00424 91.359283 32.205875
118.9119 91.808334 32.131989
123.16918 91.743073 32.131252
103.68204 92.147224 33.626163
105.22624 92.746735 33.713825
107.21827 92.940315 33.568443
109.13522 92.923134 33.393269
111.13229 92.885696 33.108658
113.11641 92.932083 32.854244
115.12252 92.935448 32.742138
117.11331 92.969719 32.528149
119.03668 93.050972 32.342091
121.04514 93.199875 32.222416
123.06608 93.509453 32.169842
125.25107 93.691704 32.032742
127.55302 93.783524 32.07547
107.62177 94.499168 33.748627
109.31567 94.402046 33.710197
111.21326 94.656082 33.603142
113.1636 94.938278 33.585598
115.07729 94.921654 33.429867
117.1703 94.980583 33.228199
119.10946 94.946274 32.958576
121.10221 94.97757 32.754639
123.09162 95.028542 32.439861
125.15139 95.099693 32.315521
126.98618 95.196449 32.219822
128.64569 95.646927 32.213402
131.9395 95.815559 32.044868
113.05738 96.392708 33.84164
115.40437 96.396332 33.7141
117.20114 96.879639 33.75351
119.22459 96.788704 33.54829
121.14586 97.00164 33.450047
123.12806 96.939415 33.071419
125.14399 96.999458 32.92009
127.13842 96.941696 32.70435
129.09311 97.014992 32.478138
131.03618 97.176704 32.282524
132.82391 97.397224 32.167107
135.54538 97.608093 32.155056
119.7863 98.355423 33.922752
121.21297 98.47081 33.744408
123.06932 98.715942 33.655945
124.96532 98.930695 33.486225
127.04721 98.950531 33.355034
129.08391 98.898865 33.040493
131.07072 98.993286 32.927254
133.10616 99.019897 32.551834
135.08727 99.060646 32.392391
136.9996 99.369232 32.190449
138.93065 99.495232 32.189075
123.69511 100.52552 33.9072
125.24573 100.43693 33.660927
127.33648 100.51191 33.563534
128.97371 100.79934 33.668377
130.91953 101.0301 33.600353
133.04726 100.95975 33.256748
135.14458 100.92829 32.93066
137.1467 100.94688 32.771557
139.12074 101.01022 32.459476
141.00481 101.12737 32.307846
142.83459 101.49184 32.201286
144.95006 101.38525 32.181339
147.17714 101.80199 32.218964
149.57925 101.83032 32.0075
127.94959 102.02062 33.809174
131.33322 102.63268 33.870884
133.26718 102.77438 33.726696
135.01642 102.84074 33.643063
136.95555 102.89815 33.516388
139.06528 102.99678 33.234344
141.14987 102.93966 32.886292
143.13878 102.97973 32.653828
145.1404 103.06906 32.501274
147.14233 103.13981 32.343964
149.12791 103.28651 32.242977
150.83481 103.68162 32.264969
152.47968 103.62189 32.154808
135.43927 104.27187 33.822079
137.47745 104.78859 33.746403
139.21487 104.96678 33.639488
140.96458 104.91313 33.521458
142.98451 104.97642 33.348316
145.05858 105.03138 33.252159
147.06198 104.89249 32.996773
149.09735 105.02373 32.779224
151.10182 104.95652 32.575924
153.00616 105.20546 32.410282
154.97517 105.45248 32.32822
156.36945 105.44011 32.161312
158.64397 105.65788 32.168987
139.56441 106.31242 33.881073
141.58142 106.40641 33.824097
143.2108 106.65845 33.715031
145.16585 106.76823 33.618401
147.15578 106.90753 33.57349
148.97115 106.91225 33.360104
150.96078 106.90551 33.20723
153.00902 107.02324 32.988686
155.01527 106.96618 32.703468
157.00497 107.12964 32.502327
158.98564 107.03214 32.289806
160.88493 107.18915 32.253689
163.09995 107.77425 32.124138
165.00168 107.85086 32.061691
145.98705 108.39724 33.924473
147.06264 108.52694 33.907169
