# .PCD v0.7 - Point Cloud Data file format
VERSION 0.7
FIELDS x y z rgb
SIZE 4 4 4 4
TYPE F F F U
COUNT 1 1 1 1
WIDTH 1120
HEIGHT 1
VIEWPOINT 0 0 0 1 0 0 0
POINTS 1120
DATA ascii
-84.907455 56.561039 -33.746967 4294967295
-84.905968 56.861053 -33.794403 4294967295
-84.889915 58.2234 -33.850239 4294967295
-84.889656 58.521687 -33.918324 4294967295
-84.886963 58.674305 -33.909122 4294967295
-84.886902 57.780437 -33.690647 4294967295
-84.88588 57.036469 -33.492229 4294967295
-84.878456 58.834843 -33.802208 4294967295
-84.878311 58.984016 -33.835918 4294967295
-84.876526 57.943348 -33.5522 4294967295
-84.874008 57.350338 -33.364754 4294967295
-84.870514 58.100479 -33.48719 4294967295
-84.863785 60.344582 -33.917503 4294967295
-84.862518 60.793056 -34.004745 4294967295
-84.85994 59.754189 -33.707809 4294967295
-84.859833 59.456348 -33.633621 4294967295
-84.858765 60.053749 -33.760593 4294967295
-84.852463 60.509441 -33.763191 4294967295
-84.84935 60.662781 -33.746998 4294967295
-84.849258 59.619987 -33.491817 4294967295
-84.845352 61.115253 -33.788429 4294967295
-84.845108 61.562317 -33.892956 4294967295
-84.844269 62.158981 -34.023598 4294967295
-84.83725 61.72253 -33.796982 4294967295
-84.835182 61.278717 -33.653488 4294967295
-84.832909 62.324383 -33.868782 4294967295
-84.831917 62.921246 -33.996822 4294967295
-84.828522 62.777409 -33.90353 4294967295
-84.828056 62.629227 -33.859543 4294967295
-84.818703 61.898254 -33.521244 4294967295
-84.814278 63.245045 -33.772636 4294967295
-84.814186 63.096294 -33.734943 4294967295
-84.746933 56.573154 -33.574345 4294967295
-84.740845 57.326534 -33.652943 4294967295
-84.732391 56.741165 -33.366467 4294967295
-84.71035 58.857956 -33.503078 4294967295
-84.700775 59.318218 -33.450943 4294967295
-84.678535 62.180416 -33.764648 4294967295
-84.677704 61.287857 -33.534115 4294967295
-84.652351 62.96331 -33.506844 4294967295
-84.598007 56.570183 -33.597099 4294967295
-84.59166 57.025726 -33.599289 4294967295
-84.588737 56.731293 -33.478226 4294967295
-84.588615 57.3279 -33.62043 4294967295
-84.58432 57.780788 -33.656891 4294967295
-84.579636 58.234196 -33.686756 4294967295
-84.5774 58.088112 -33.61343 4294967295
-84.574989 57.644032 -33.464924 4294967295
-84.571693 58.84103 -33.698284 4294967295
-84.569 58.993713 -33.689327 4294967295
-84.567909 60.038128 -33.923275 4294967295
-84.566597 57.953384 -33.39687 4294967295
-84.563354 58.55415 -33.486961 4294967295
-84.563065 59.299839 -33.66238 4294967295
-84.559311 60.199009 -33.81583 4294967295
-84.556572 59.606789 -33.626041 4294967295
-84.551506 59.464684 -33.505444 4294967295
-84.548904 61.554062 -33.966282 4294967295
-84.546577 60.365711 -33.639362 4294967295
-84.542656 60.669205 -33.645935 4294967295
-84.541 61.118488 -33.726387 4294967295
-84.539764 62.013859 -33.921722 4294967295
-84.539757 59.928051 -33.4174 4294967295
-84.532524 61.875336 -33.764999 4294967295
-84.529266 62.624626 -33.890648 4294967295
-84.528717 62.327602 -33.809597 4294967295
-84.522415 62.187775 -33.668446 4294967295
-84.519745 62.787403 -33.767872 4294967295
-84.519043 61.447624 -33.432129 4294967295
-84.515991 63.090721 -33.777298 4294967295
-84.514328 63.242069 -33.785564 4294967295
-84.426598 57.491146 -33.461681 4294967295
-84.414803 58.252373 -33.445229 4294967295
-84.40506 59.010998 -33.462929 4294967295
-84.385376 61.422878 -33.71069 4294967295
-84.382935 60.681229 -33.490475 4294967295
-84.370377 63.231731 -33.892334 4294967295
-84.369858 63.381386 -33.919563 4294967295
-84.363663 62.049809 -33.493622 4294967295
-84.356064 62.358772 -33.439236 4294967295
-84.35508 62.807217 -33.530716 4294967295
-84.349533 63.113289 -33.510357 4294967295
-84.344093 63.568214 -33.527763 4294967295
-84.277954 57.189407 -33.418446 4294967295
-84.276993 58.234573 -33.653461 4294967295
-84.275337 57.640289 -33.482635 4294967295
-84.271904 57.793938 -33.461597 4294967295
-84.270668 58.093838 -33.512802 4294967295
-84.259827 59.301113 -33.620018 4294967295
-84.259735 59.152161 -33.582676 4294967295
-84.256653 59.603546 -33.63916 4294967295
-84.25016 60.208622 -33.675018 4294967295
-84.248306 58.720135 -33.2859 4294967295
-84.24572 59.021919 -33.314831 4294967295
-84.245361 59.917099 -33.52396 4294967295
-84.244858 60.663036 -33.694752 4294967295
-84.242348 59.473892 -33.36657 4294967295
-84.241173 61.562141 -33.848587 4294967295
-84.233627 62.168667 -33.867035 4294967295
-84.230568 61.27911 -33.60154 4294967295
-84.230194 61.1306 -33.559547 4294967295
-84.224709 60.392822 -33.289566 4294967295
-84.222809 60.991882 -33.401451 4294967295
-84.218407 62.637402 -33.722584 4294967295
-84.214172 62.34552 -33.580952 4294967295
-84.206543 63.250462 -33.669704 4294967295
-84.205261 63.103359 -33.612667 4294967295
-84.195564 63.415485 -33.523941 4294967295
-84.143867 56.868919 -33.615822 4294967295
-84.137154 56.728352 -33.469273 4294967295
-84.13295 57.926937 -33.685917 4294967295
-84.131165 57.780163 -33.620743 4294967295
-84.109695 58.255795 -33.373829 4294967295
-84.096802 59.615318 -33.48288 4294967295
-84.089951 60.519215 -33.584393 4294967295
-84.061729 61.602112 -33.369446 4294967295
-84.048058 63.112225 -33.501431 4294967295
-83.981384 56.883224 -33.416275 4294967295
-83.93972 60.070618 -33.48061 4294967295
-83.936661 60.671207 -33.572876 4294967295
-83.935646 60.374409 -33.485001 4294967295
-83.934082 61.718079 -33.779934 4294967295
-83.933632 61.122597 -33.630093 4294967295
-83.930557 62.17004 -33.82885 4294967295
-83.922699 60.839584 -33.37933 4294967295
-83.919754 61.589165 -33.509251 4294967295
-83.919151 62.335243 -33.677345 4294967295
-83.915359 62.638668 -33.68639 4294967295
-83.912498 62.940769 -33.710709 4294967295
-83.911575 61.302402 -33.303768 4294967295
-83.898705 62.51342 -33.377628 4294967295
-83.896111 63.411469 -33.548759 4294967295
-83.89267 63.267422 -33.456699 4294967295
-83.842285 57.165962 -33.672451 4294967295
-83.832344 57.327877 -33.545292 4294967295
-83.831116 56.583374 -33.347389 4294967295
-83.83049 57.031857 -33.443844 4294967295
-83.828339 58.078846 -33.657528 4294967295
-83.827728 57.781338 -33.576508 4294967295
-83.822227 58.23597 -33.593136 4294967295
-83.821587 57.49091 -33.404827 4294967295
-83.814339 57.649479 -33.3218 4294967295
-83.811493 59.443138 -33.701874 4294967295
-83.810921 57.952358 -33.336983 4294967295
-83.806282 58.555237 -33.403297 4294967295
-83.805695 59.600025 -33.642532 4294967295
-83.803596 59.006306 -33.466049 4294967295
-83.803482 60.050274 -33.713009 4294967295
-83.79406 60.510338 -33.665543 4294967295
-83.785789 59.3284 -33.245968 4294967295
-83.780487 61.27441 -33.621292 4294967295
-83.763794 60.99931 -33.277287 4294967295
-83.762817 63.236721 -33.79422 4294967295
-83.751305 62.955246 -33.535088 4294967295
-83.750145 62.658768 -33.445156 4294967295
-83.659233 58.997139 -33.565216 4294967295
-83.657265 57.507557 -33.178402 4294967295
-83.653885 57.661179 -33.158829 4294967295
-83.649399 58.114803 -33.192097 4294967295
-83.648262 58.414791 -33.244541 4294967295
-83.643791 59.614326 -33.455444 4294967295
-83.606041 63.542908 -33.762024 4294967295
-83.602165 62.505131 -33.451038 4294967295
-83.601624 62.058544 -33.335968 4294967295
-83.591309 63.116947 -33.416203 4294967295
-83.589722 63.417393 -33.461182 4294967295
-83.541229 56.716381 -33.561195 4294967295
-83.537964 56.571251 -33.472759 4294967295
-83.532059 57.623234 -33.624474 4294967295
-83.530243 57.028706 -33.453522 4294967295
-83.528732 57.329082 -33.499756 4294967295
-83.522636 58.082916 -33.577621 4294967295
-83.521767 58.382385 -33.634281 4294967295
-83.518929 58.68441 -33.658852 4294967295
-83.515938 59.13575 -33.716427 4294967295
-83.511497 58.246548 -33.43224 4294967295
-83.508347 59.742302 -33.734684 4294967295
-83.506485 57.954563 -33.280067 4294967295
-83.504784 59.00132 -33.50008 4294967295
-83.50412 59.449692 -33.595345 4294967295
-83.503387 59.898056 -33.689541 4294967295
-83.500252 59.305672 -33.497208 4294967295
-83.48761 60.814072 -33.645599 4294967295
-83.486382 61.561131 -33.802353 4294967295
-83.483582 60.223 -33.438934 4294967295
-83.481728 60.076317 -33.373566 4294967295
-83.480812 62.016003 -33.817982 4294967295
-83.473793 62.323906 -33.774872 4294967295
-83.471336 61.134605 -33.452435 4294967295
-83.468498 61.287647 -33.441822 4294967295
-83.460495 61.746143 -33.418095 4294967295
-83.460075 62.64135 -33.623173 4294967295
-83.459946 63.088669 -33.727089 4294967295
-83.381241 57.473373 -33.582691 4294967295
-83.363197 57.794888 -33.361382 4294967295
-83.360123 58.545017 -33.488148 4294967295
-83.336823 59.620144 -33.358368 4294967295
-83.322456 61.429623 -33.54945 4294967295
-83.316727 61.139187 -33.386391 4294967295
-83.292076 62.814171 -33.376133 4294967295
-83.234268 56.572323 -33.427288 4294967295
-83.230026 57.174706 -33.499699 4294967295
-83.223763 57.481136 -33.469101 4294967295
-83.221375 57.782661 -33.501007 4294967295
-83.221054 57.932301 -33.531052 4294967295
-83.212387 58.540333 -33.532261 4294967295
-83.208511 58.843796 -33.540112 4294967295
-83.206375 59.592484 -33.681572 4294967295
-83.204544 59.29657 -33.581745 4294967295
-83.204346 58.99844 -33.508209 4294967295
-83.203873 58.402115 -33.359966 4294967295
-83.203789 56.909031 -33.006638 4294967295
-83.193245 59.908241 -33.540573 4294967295
-83.191986 58.268162 -33.13335 4294967295
-83.189232 59.764381 -33.440868 4294967295
-83.187698 59.467964 -33.345875 4294967295
-83.185295 61.26123 -33.728989 4294967295
-83.182625 60.369987 -33.475174 4294967295
-83.182549 60.817589 -33.57943 4294967295
-83.174622 60.67915 -33.416679 4294967295
-83.170639 62.026909 -33.668938 4294967295
-83.168907 62.476566 -33.746552 4294967295
-83.166824 61.584801 -33.502197 4294967295
-83.166656 60.092915 -33.147915 4294967295
-83.162148 60.546753 -33.180862 4294967295
-83.158653 62.938183 -33.687084 4294967295
-83.156288 61.151653 -33.227268 4294967295
-83.155182 62.346638 -33.490677 4294967295
-83.154823 63.241741 -33.695728 4294967295
-83.153595 62.199696 -33.430099 4294967295
-83.153389 61.006359 -33.145458 4294967295
-83.148987 62.8027 -33.496517 4294967295
-83.138252 63.116104 -33.39426 4294967295
-83.136864 63.565453 -33.47736 4294967295
-83.057198 57.201591 -33.140743 4294967295
-83.039078 58.568672 -33.16605 4294967295
-83.036102 59.915974 -33.434193 4294967295
-83.014168 61.288322 -33.398293 4294967295
-82.994339 61.464592 -33.115631 4294967295
-82.930534 57.170521 -33.522732 4294967295
-82.929161 56.57502 -33.360752 4294967295
-82.921509 57.928204 -33.553444 4294967295
-82.921211 57.331478 -33.40876 4294967295
-82.916313 58.382553 -33.575459 4294967295
-82.911148 58.090645 -33.422894 4294967295
-82.910263 57.643864 -33.303822 4294967295
-82.901474 56.908051 -32.988178 4294967295
-82.900017 59.299007 -33.525078 4294967295
-82.893448 58.859776 -33.315132 4294967295
-82.89164 59.757668 -33.496155 4294967295
-82.891434 60.056358 -33.562847 4294967295
-82.889717 58.565964 -33.185623 4294967295
-82.887421 58.270226 -33.07885 4294967295
-82.886673 60.95776 -33.696606 4294967295
-82.883896 59.021442 -33.197643 4294967295
-82.873955 61.571583 -33.633575 4294967295
-82.873619 60.229218 -33.313461 4294967295
-82.870705 62.023445 -33.686516 4294967295
-82.870667 59.934582 -33.196312 4294967295
-82.86956 60.831608 -33.388557 4294967295
-82.866417 61.432678 -33.478344 4294967295
-82.860985 62.484249 -33.636322 4294967295
-82.860558 61.739056 -33.454678 4294967295
-82.858467 62.785995 -33.666008 4294967295
-82.858231 61.145348 -33.277752 4294967295
-82.848091 62.203758 -33.360729 4294967295
-82.847542 61.309074 -33.142208 4294967295
-82.84581 63.25108 -33.569027 4294967295
-82.843025 62.65836 -33.384758 4294967295
-82.823296 63.581158 -33.279972 4294967295
-82.749992 58.99876 -33.463203 4294967295
-82.739685 57.518452 -32.95005 4294967295
-82.73864 60.058289 -33.526764 4294967295
-82.726891 58.879253 -33.060722 4294967295
-82.722069 59.632229 -33.158634 4294967295
-82.721466 59.483681 -33.114178 4294967295
-82.703346 61.000793 -33.175026 4294967295
-82.699409 62.49852 -33.461254 4294967295
-82.692657 63.104599 -33.493435 4294967295
-82.692581 63.253864 -33.527065 4294967295
-82.599571 59.445271 -33.569473 4294967295
-82.59565 59.002544 -33.402931 4294967295
-82.594856 57.808826 -33.111813 4294967295
-82.592445 57.961243 -33.108501 4294967295
-82.589798 59.308674 -33.379913 4294967295
-82.589279 58.562733 -33.197624 4294967295
-82.58815 58.414818 -33.144814 4294967295
-82.587944 59.908173 -33.489693 4294967295
-82.58493 58.866993 -33.198349 4294967295
-82.582108 60.21434 -33.466793 4294967295
-82.575096 60.96981 -33.52972 4294967295
-82.573929 59.627903 -33.198048 4294967295
-82.573326 61.718147 -33.675549 4294967295
-82.564056 60.835312 -33.320103 4294967295
-82.55793 61.888248 -33.466667 4294967295
-82.557838 61.440689 -33.360855 4294967295
-82.549622 61.302486 -33.19598 4294967295
-82.548866 62.646671 -33.497032 4294967295
-82.547493 62.200928 -33.371075 4294967295
-82.544235 62.503853 -33.388981 4294967295
-82.536034 62.96283 -33.363567 4294967295
-82.527412 63.422482 -33.331482 4294967295
-82.520424 63.133766 -33.151356 4294967295
-82.514 63.590519 -33.154034 4294967295
-82.477753 56.869877 -33.432751 4294967295
-82.45536 56.747917 -33.04435 4294967295
-82.455345 57.345623 -33.183048 4294967295
-82.454865 57.644993 -33.244968 4294967295
-82.454109 58.094013 -33.337246 4294967295
-82.448814 58.84734 -33.427261 4294967295
-82.447029 58.252285 -33.260204 4294967295
-82.43734 59.757877 -33.454403 4294967295
-82.398621 62.794407 -33.537579 4294967295
-82.398567 63.241989 -33.640793 4294967295
-82.397133 60.557205 -32.993652 4294967295
-82.388657 61.165924 -32.998852 4294967295
-82.386879 61.765659 -33.109711 4294967295
-82.380646 61.923424 -33.04612 4294967295
-82.316467 56.732395 -33.229076 4294967295
-82.308136 57.04142 -33.167259 4294967295
-82.255959 60.842278 -33.212944 4294967295
-82.251213 61.147228 -33.207569 4294967295
-82.250854 60.251549 -32.994244 4294967295
-82.250374 62.491783 -33.505829 4294967295
-82.249916 61.298271 -33.221817 4294967295
-82.249748 61.895664 -33.357578 4294967295
-82.242477 61.009487 -33.035763 4294967295
-82.241829 60.562195 -32.921585 4294967295
-82.240768 62.057083 -33.251175 4294967295
-82.237755 63.255199 -33.480648 4294967295
-82.230911 61.622387 -32.99255 4294967295
-82.223785 62.975994 -33.192188 4294967295
-82.222717 62.828175 -33.140789 4294967295
-82.220345 63.577835 -33.276516 4294967295
-82.219398 62.384735 -32.984894 4294967295
-82.160278 57.186253 -33.245213 4294967295
-82.154091 57.343266 -33.182831 4294967295
-82.14682 56.604794 -32.895985 4294967295
-82.145096 57.653221 -33.110981 4294967295
-82.142097 56.760036 -32.856525 4294967295
-82.141167 56.910679 -32.876534 4294967295
-82.140747 58.256321 -33.181026 4294967295
-82.138008 58.110329 -33.103577 4294967295
-82.135445 58.56179 -33.16711 4294967295
-82.133492 59.161793 -33.274727 4294967295
-82.12989 59.315754 -33.252911 4294967295
-82.11882 58.881653 -32.975803 4294967295
-82.112015 59.786873 -33.076622 4294967295
-82.111649 60.086121 -33.139969 4294967295
-82.098846 61.596409 -33.284878 4294967295
-82.0868 61.313786 -33.027355 4294967295
-82.083549 62.811405 -33.32172 4294967295
-82.082985 62.961449 -33.347363 4294967295
-82.081207 62.068066 -33.112484 4294967295
-82.059532 63.590935 -33.118679 4294967295
-81.964142 59.483318 -33.051975 4294967295
-81.920441 62.379303 -33.025295 4294967295
-81.919945 62.678692 -33.086422 4294967295
-81.91433 63.433025 -33.171017 4294967295
-81.910706 63.139347 -33.0457 4294967295
-81.905197 63.594944 -33.063221 4294967295
-81.854218 57.488605 -33.239201 4294967295
-81.848976 57.64447 -33.192066 4294967295
-81.848526 57.346107 -33.116302 4294967295
-81.838936 56.909237 -32.863945 4294967295
-81.838104 56.611126 -32.782265 4294967295
-81.836617 57.061584 -32.862282 4294967295
-81.834038 58.111252 -33.063046 4294967295
-81.825264 58.271622 -32.960968 4294967295
-81.824181 58.721382 -33.047356 4294967295
-81.813583 59.482021 -33.054482 4294967295
-81.811638 59.633934 -33.058655 4294967295
-81.811035 61.128475 -33.392891 4294967295
-81.808945 60.085648 -33.119991 4294967295
-81.808899 61.429916 -33.42841 4294967295
-81.808746 59.189243 -32.910561 4294967295
-81.806602 61.73156 -33.461361 4294967295
-81.805458 59.0439 -32.825172 4294967295
-81.804985 60.38958 -33.127144 4294967295
-81.802124 59.347126 -32.842045 4294967295
-81.800613 62.038128 -33.437092 4294967295
-81.794632 60.851269 -33.06945 4294967295
-81.787476 62.951523 -33.439198 4294967295
-81.784058 62.806892 -33.35181 4294967295
-81.779694 62.514172 -33.215431 4294967295
-81.779434 61.319477 -32.93655 4294967295
-81.777779 63.263317 -33.357311 4294967295
-81.773674 61.62595 -32.915863 4294967295
-81.765213 63.579151 -33.23101 4294967295
-81.698174 56.746502 -32.984131 4294967295
-81.697777 57.942837 -33.252438 4294967295
-81.686607 57.209045 -32.907883 4294967295
-81.675407 59.614391 -33.283188 4294967295
-81.669746 60.816532 -33.469692 4294967295
-81.667755 57.830219 -32.753197 4294967295
-81.667732 58.278881 -32.855804 4294967295
-81.663498 60.227196 -33.236057 4294967295
-81.637444 60.111244 -32.798599 4294967295
-81.631424 61.165363 -32.945404 4294967295
-81.551979 57.188393 -33.156662 4294967295
-81.540115 57.800755 -33.110481 4294967295
-81.532669 56.61335 -32.721729 4294967295
-81.530312 58.709682 -33.164406 4294967295
-81.525871 57.967701 -32.924889 4294967295
-81.524162 56.922745 -32.658932 4294967295
-81.522743 58.270592 -32.945133 4294967295
-81.522247 57.673023 -32.800591 4294967295
-81.521935 59.16851 -33.137894 4294967295
-81.510933 60.228504 -33.207584 4294967295
-81.509567 59.632488 -33.049789 4294967295
-81.505646 59.936394 -33.057724 4294967295
-81.505363 59.488338 -32.950706 4294967295
-81.500984 60.540134 -33.122673 4294967295
-81.495522 62.04108 -33.380192 4294967295
-81.493736 61.446007 -33.215984 4294967295
-81.489716 61.301876 -33.119938 4294967295
-81.486359 60.409523 -32.86298 4294967295
-81.485435 61.606316 -33.122257 4294967295
-81.484978 60.11227 -32.773369 4294967295
-81.484238 60.860703 -32.932892 4294967295
-81.483139 61.011589 -32.950226 4294967295
-81.476349 62.215935 -33.119068 4294967295
-81.476166 63.41095 -33.389503 4294967295
-81.472198 61.175327 -32.815754 4294967295
-81.467339 62.82555 -33.116928 4294967295
-81.464043 62.381763 -32.963631 4294967295
-81.458878 62.986351 -33.020798 4294967295
-81.458199 63.286049 -33.078728 4294967295
-81.454514 63.589825 -33.090233 4294967295
-81.39518 57.045006 -33.028645 4294967295
-81.394272 56.597408 -32.912354 4294967295
-81.371292 59.914474 -33.309818 4294967295
-81.358307 58.286232 -32.735104 4294967295
-81.356728 58.138577 -32.676701 4294967295
-81.354164 58.5905 -32.739716 4294967295
-81.34977 60.987942 -33.218086 4294967295
-81.344177 59.50032 -32.791149 4294967295
-81.340279 59.804325 -32.799488 4294967295
-81.337936 62.347885 -33.343216 4294967295
-81.296806 62.851067 -32.814407 4294967295
-81.245308 57.341835 -33.110077 4294967295
-81.242455 56.896599 -32.964275 4294967295
-81.239624 56.750381 -32.886856 4294967295
-81.237167 57.800228 -33.087597 4294967295
-81.231133 57.209282 -32.858936 4294967295
-81.226028 58.262379 -33.019104 4294967295
-81.225334 57.964142 -32.940411 4294967295
-81.223282 58.564789 -33.045181 4294967295
-81.216446 59.320766 -33.110771 4294967295
-81.214149 59.024628 -33.007576 4294967295
-81.209648 58.432007 -32.802444 4294967295
-81.204765 60.23233 -33.136116 4294967295
-81.203262 58.888599 -32.806854 4294967295
-81.201675 59.787804 -32.986763 4294967295
-81.200218 60.835922 -33.202667 4294967295
-81.198723 61.136696 -33.247803 4294967295
-81.196442 61.289062 -33.246948 4294967295
-81.193764 60.993683 -33.137939 4294967295
-81.191612 59.950031 -32.866863 4294967295
-81.190735 59.502483 -32.751396 4294967295
-81.189995 60.550129 -32.978268 4294967295
-81.188568 60.701443 -32.99052 4294967295
-81.188057 61.748226 -33.220715 4294967295
-81.174019 62.065506 -33.074162 4294967295
-81.171478 63.562729 -33.375179 4294967295
-81.162537 62.827888 -33.068645 4294967295
-81.161858 62.978214 -33.09222 4294967295
-81.161339 62.231693 -32.914352 4294967295
-81.1539 63.437149 -33.072678 4294967295
-81.081604 57.056965 -32.844292 4294967295
-81.070343 57.81847 -32.84248 4294967295
-81.07032 56.771049 -32.604221 4294967295
-81.06588 59.917301 -33.249641 4294967295
-81.057274 60.376541 -33.220341 4294967295
-81.037964 60.102032 -32.858185 4294967295
-81.034416 59.657791 -32.702274 4294967295
-81.028366 61.310432 -32.983456 4294967295
-81.024994 62.659828 -33.237427 4294967295
-81.000526 63.589043 -33.06831 4294967295
-80.92289 59.308624 -33.232441 4294967295
-80.915276 57.972019 -32.811924 4294967295
-80.913483 59.469807 -33.123413 4294967295
-80.913193 59.91864 -33.220501 4294967295
-80.912071 58.275112 -32.831032 4294967295
-80.907837 59.626358 -33.071495 4294967295
-80.904396 58.882866 -32.84996 4294967295
-80.904205 60.079426 -33.117882 4294967295
-80.903839 60.827209 -33.281601 4294967295
-80.903091 61.127022 -33.337955 4294967295
-80.901443 60.381886 -33.143661 4294967295
-80.890381 60.694923 -33.043427 4294967295
-80.888817 61.593735 -33.222775 4294967295
-80.887672 61.296314 -33.137753 4294967295
-80.885452 61.00021 -33.036369 4294967295
-80.881668 62.350174 -33.283489 4294967295
-80.881035 61.902737 -33.172302 4294967295
-80.872917 62.660538 -33.218372 4294967295
-80.857025 62.831032 -33.011093 4294967295
-80.856293 62.533043 -32.932377 4294967295
-80.852402 62.986637 -32.974819 4294967295
-80.834618 63.458851 -32.806602 4294967295
-80.789635 56.594284 -32.889355 4294967295
-80.789482 57.342499 -33.056095 4294967295
-80.781334 58.399162 -33.169262 4294967295
-80.778526 56.906597 -32.78878 4294967295
-80.775307 57.658581 -32.909012 4294967295
-80.774193 58.108696 -32.993565 4294967295
-80.769966 59.459682 -33.233612 4294967295
-80.769577 57.815052 -32.856068 4294967295
-80.763062 59.169186 -33.061581 4294967295
-80.746719 58.740471 -32.712917 4294967295
-80.743706 61.435925 -33.275379 4294967295
-80.740005 59.796009 -32.847908 4294967295
-80.732124 59.955441 -32.762489 4294967295
-80.707962 63.276024 -33.140072 4294967295
-80.699654 63.58601 -33.081974 4294967295
-80.640388 57.189701 -33.048042 4294967295
-80.619263 58.710815 -33.066448 4294967295
-80.618958 56.7659 -32.623508 4294967295
-80.615219 59.612991 -33.207638 4294967295
-80.608742 57.97546 -32.739311 4294967295
-80.596619 59.336845 -32.859978 4294967295
-80.576103 61.605968 -33.056236 4294967295
-80.574356 61.010078 -32.895176 4294967295
-80.573891 61.309769 -32.955509 4294967295
-80.573471 62.356789 -33.184933 4294967295
-80.573166 60.712448 -32.809864 4294967295
-80.561905 62.670864 -33.078129 4294967295
-80.558784 63.422276 -33.199387 4294967295
-80.557693 63.124832 -33.115631 4294967295
-80.554832 62.082047 -32.836876 4294967295
-80.553406 63.578876 -33.152157 4294967295
-80.482361 57.346619 -32.973167 4294967295
-80.474602 57.804684 -32.957443 4294967295
-80.4739 58.254341 -33.047737 4294967295
-80.472954 57.208042 -32.798126 4294967295
-80.472626 56.759354 -32.692265 4294967295
-80.467232 58.112724 -32.913986 4294967295
-80.465584 56.917286 -32.619999 4294967295
-80.465172 58.564041 -32.983852 4294967295
-80.46035 59.317806 -33.079586 4294967295
-80.456139 57.976334 -32.713673 4294967295
-80.45591 57.677227 -32.642895 4294967295
-80.443657 61.132923 -33.23217 4294967295
-80.438141 58.896069 -32.645187 4294967295
-80.437759 60.841377 -33.076519 4294967295
-80.434242 59.798752 -32.788364 4294967295
-80.433517 60.547626 -32.945637 4294967295
-80.433517 61.743813 -33.214321 4294967295
-80.433464 59.949333 -32.810326 4294967295
-80.432114 60.250225 -32.857288 4294967295
-80.431709 61.895615 -33.220779 4294967295
-80.414948 61.319 -32.834923 4294967295
-80.412094 63.26635 -33.228794 4294967295
-80.404259 62.230129 -32.876221 4294967295
-80.402847 61.633652 -32.720535 4294967295
-80.37986 63.608089 -32.812557 4294967295
-80.301544 58.428604 -32.759296 4294967295
-80.299461 57.38308 -32.493114 4294967295
-80.296944 59.780857 -32.992336 4294967295
-80.290726 59.489281 -32.832256 4294967295
-80.289612 58.143471 -32.513561 4294967295
-80.285339 58.597778 -32.550304 4294967295
-80.271042 59.363701 -32.504204 4294967295
-80.261803 61.021545 -32.735065 4294967295
-80.243095 62.242352 -32.723598 4294967295
-80.240173 62.694908 -32.780579 4294967295
-80.238724 63.145508 -32.859394 4294967295
-80.236298 63.447792 -32.890167 4294967295
-80.230415 63.305992 -32.768852 4294967295
-80.173264 57.203209 -32.829262 4294967295
-80.171829 56.755741 -32.707397 4294967295
-80.165421 57.062626 -32.678829 4294967295
-80.158165 58.568081 -32.905357 4294967295
-80.157104 56.622963 -32.454216 4294967295
-80.156281 57.672222 -32.676434 4294967295
-80.151688 57.977081 -32.674885 4294967295
-80.151428 58.426479 -32.771492 4294967295
-80.151062 58.726261 -32.832966 4294967295
-80.148087 57.53212 -32.52066 4294967295
-80.144096 59.931767 -32.996773 4294967295
-80.143341 59.184566 -32.818222 4294967295
-80.135536 58.295746 -32.500927 4294967295
-80.131851 59.348206 -32.680408 4294967295
-80.126183 61.001194 -32.963905 4294967295
-80.121284 59.0616 -32.455971 4294967295
-80.121063 60.109821 -32.687 4294967295
-80.117981 61.310707 -32.908661 4294967295
-80.115013 60.566319 -32.697216 4294967295
-80.112335 60.270302 -32.590382 4294967295
-80.105583 61.476025 -32.757442 4294967295
-80.104568 61.926144 -32.842644 4294967295
-80.098335 62.23333 -32.816727 4294967295
-80.096939 62.683865 -32.896294 4294967295
-80.093933 63.58503 -33.051979 4294967295
-80.093155 62.987919 -32.90675 4294967295
-80.078949 62.856846 -32.661884 4294967295
-80.012695 59.158909 -33.119667 4294967295
-79.996078 57.382339 -32.472103 4294967295
-79.980141 60.545238 -32.936577 4294967295
-79.976028 60.849579 -32.942261 4294967295
-79.957069 62.219868 -32.961166 4294967295
-79.956085 60.2757 -32.512745 4294967295
-79.871391 56.901409 -32.761871 4294967295
-79.865089 57.357899 -32.768524 4294967295
-79.860947 57.811901 -32.807068 4294967295
-79.858414 58.563328 -32.936161 4294967295
-79.855339 59.015961 -32.990597 4294967295
-79.852722 58.270714 -32.785278 4294967295
-79.849907 56.626465 -32.376972 4294967295
-79.848061 58.725346 -32.816284 4294967295
-79.839523 57.98679 -32.523308 4294967295
-79.835266 58.890358 -32.660183 4294967295
-79.828941 59.9459 -32.799797 4294967295
-79.827309 58.450573 -32.442432 4294967295
-79.822052 59.505188 -32.597939 4294967295
-79.819031 59.359108 -32.519882 4294967295
-79.816422 59.661762 -32.547928 4294967295
-79.813202 60.563976 -32.700138 4294967295
-79.812431 61.013935 -32.788639 4294967295
-79.808052 60.420639 -32.590733 4294967295
-79.799927 61.478596 -32.70359 4294967295
-79.799614 61.77829 -32.765629 4294967295
-79.797691 63.276665 -33.069904 4294967295
-79.797577 62.080158 -32.801987 4294967295
-79.795891 62.231934 -32.81036 4294967295
-79.790474 63.136505 -32.929958 4294967295
-79.77726 63.004051 -32.701389 4294967295
-79.774567 63.456417 -32.761494 4294967295
-79.766228 63.616947 -32.6716 4294967295
-79.724915 56.595581 -32.761253 4294967295
-79.692497 58.130718 -32.615437 4294967295
-79.686554 60.682465 -33.092621 4294967295
-79.677971 60.543442 -32.932976 4294967295
-79.657341 62.514225 -33.060608 4294967295
-79.639923 62.686157 -32.837254 4294967295
-79.636879 63.587654 -32.991581 4294967295
-79.574905 57.042549 -32.874516 4294967295
-79.565826 57.352459 -32.807472 4294967295
-79.557533 58.260475 -32.884529 4294967295
-79.556503 57.962238 -32.803047 4294967295
-79.556084 58.561588 -32.929516 4294967295
-79.551033 56.770226 -32.457253 4294967295
-79.548515 58.420811 -32.785103 4294967295
-79.548058 57.522751 -32.579403 4294967295
-79.545364 57.825462 -32.606144 4294967295
-79.544731 56.927261 -32.397766 4294967295
-79.539665 58.880474 -32.754509 4294967295
-79.530319 60.687939 -33.014969 4294967295
-79.530006 58.74218 -32.579533 4294967295
-79.528214 59.642807 -32.752048 4294967295
-79.523285 59.948196 -32.745968 4294967295
-79.522713 59.499695 -32.638199 4294967295
-79.51162 60.561283 -32.707264 4294967295
-79.508614 61.014076 -32.762608 4294967295
-79.507195 60.267246 -32.576008 4294967295
-79.507187 62.063416 -32.973488 4294967295
-79.505043 63.113197 -33.173801 4294967295
-79.502396 61.470863 -32.770683 4294967295
-79.49839 61.625561 -32.744976 4294967295
-79.492424 62.68066 -32.88937 4294967295
-79.491348 61.933769 -32.707966 4294967295
-79.489326 63.582226 -33.0425 4294967295
-79.488655 62.386185 -32.767853 4294967295
-79.48629 63.436588 -32.964916 4294967295
-79.485062 62.839722 -32.814434 4294967295
-79.475975 63.300339 -32.780491 4294967295
-79.410782 58.104687 -32.913074 4294967295
-79.395012 57.224228 -32.483627 4294967295
-79.377991 57.843235 -32.366814 4294967295
-79.367043 59.054764 -32.471283 4294967295
-79.364433 61.453548 -32.962097 4294967295
-79.357101 61.612347 -32.887917 4294967295
-79.348877 62.370911 -32.932907 4294967295
-79.307373 63.621395 -32.590611 4294967295
-79.271729 56.592228 -32.756973 4294967295
-79.259109 57.055931 -32.671764 4294967295
-79.230293 59.186432 -32.713451 4294967295
-79.229332 58.588421 -32.56749 4294967295
-79.223969 59.343716 -32.654243 4294967295
-79.219719 60.846088 -32.922211 4294967295
-79.218674 60.547989 -32.841026 4294967295
-79.214478 61.90012 -33.076542 4294967295
-79.212364 61.154495 -32.880962 4294967295
-79.211708 61.005619 -32.838421 4294967295
-79.2062 61.311806 -32.824055 4294967295
-79.200371 62.965191 -33.101688 4294967295
-79.199135 60.122452 -32.457222 4294967295
-79.197807 61.771305 -32.800732 4294967295
-79.193825 60.728092 -32.511719 4294967295
-79.190811 63.276627 -33.028381 4294967295
-79.187927 62.53212 -32.821648 4294967295
-79.186653 62.683399 -32.836056 4294967295
-79.181747 62.090828 -32.632648 4294967295
-79.17466 63.147697 -32.760258 4294967295
-79.169075 63.603886 -32.777721 4294967295
-79.113266 56.899044 -32.71413 4294967295
-79.109512 56.6036 -32.593655 4294967295
-79.107254 57.654884 -32.791454 4294967295
-79.103531 57.209721 -32.638466 4294967295
-79.097069 58.115986 -32.742123 4294967295
-79.092201 59.020252 -32.868885 4294967295
-79.091942 57.372757 -32.502895 4294967295
-79.090927 58.422691 -32.718719 4294967295
-79.088623 59.323952 -32.882698 4294967295
-79.084602 56.78149 -32.26437 4294967295
-79.077225 60.535282 -32.98035 4294967295
-79.060532 60.855026 -32.803715 4294967295
-79.05864 61.605827 -32.940742 4294967295
-79.054924 60.113049 -32.557697 4294967295
-79.052299 62.661274 -33.078903 4294967295
-79.044693 63.119785 -33.067066 4294967295
-79.035942 61.184673 -32.512497 4294967295
-79.010071 63.313686 -32.597645 4294967295
-78.933403 57.979546 -32.526363 4294967295
-78.933121 59.927082 -32.949234 4294967295
-78.931419 57.831959 -32.464745 4294967295
-78.910355 59.055355 -32.422619 4294967295
-78.905235 59.361107 -32.414227 4294967295
-78.894066 61.621529 -32.745243 4294967295
-78.888901 61.478161 -32.637608 4294967295
-78.885185 62.680584 -32.846462 4294967295
-78.883629 63.281231 -32.955162 4294967295
-78.87809 63.587605 -32.94072 4294967295
-78.871422 62.398441 -32.58181 4294967295
-78.803116 56.605915 -32.53178 4294967295
-78.803085 57.654938 -32.760868 4294967295
-78.796967 56.762676 -32.475807 4294967295
-78.791428 57.518353 -32.559776 4294967295
-78.790985 58.268074 -32.717278 4294967295
-78.787224 57.073421 -32.400726 4294967295
-78.786674 57.373863 -32.458313 4294967295
-78.777596 59.631844 -32.819027 4294967295
-78.777153 59.931885 -32.878105 4294967295
-78.776215 59.333923 -32.733528 4294967295
-78.77581 59.184597 -32.694988 4294967295
-78.775444 58.43586 -32.525848 4294967295
-78.774818 60.234146 -32.910011 4294967295
-78.774475 57.987347 -32.41341 4294967295
-78.764938 58.747791 -32.439747 4294967295
-78.764717 60.545773 -32.829845 4294967295
-78.76429 60.097004 -32.725372 4294967295
-78.762535 58.900463 -32.437897 4294967295
-78.762238 61.297401 -32.95776 4294967295
-78.761047 60.849697 -32.842396 4294967295
-78.752914 62.057339 -32.987057 4294967295
-78.749298 59.515511 -32.378094 4294967295
-78.744164 61.019981 -32.63168 4294967295
-78.744019 62.517467 -32.957008 4294967295
-78.741776 62.969276 -33.022915 4294967295
-78.738777 60.427231 -32.422981 4294967295
-78.735497 60.730877 -32.441196 4294967295
-78.733017 62.83065 -32.864033 4294967295
-78.730278 61.186707 -32.464333 4294967295
-78.726898 61.490482 -32.48111 4294967295
-78.718521 63.14838 -32.720642 4294967295
-78.70533 63.464615 -32.596027 4294967295
-78.646477 57.95974 -32.746365 4294967295
-78.636292 58.720558 -32.763329 4294967295
-78.61647 60.840778 -32.936031 4294967295
-78.609436 60.999035 -32.867622 4294967295
-78.601501 61.607639 -32.884357 4294967295
-78.595581 59.817169 -32.407063 4294967295
-78.584343 61.329105 -32.572483 4294967295
-78.583389 62.079185 -32.72216 4294967295
-78.554253 63.16399 -32.532494 4294967295
-78.551582 63.61668 -32.592274 4294967295
-78.504013 57.199585 -32.706642 4294967295
-78.503235 57.050583 -32.662819 4294967295
-78.502884 56.751198 -32.592491 4294967295
-78.500198 57.803288 -32.782425 4294967295
-78.495422 58.408024 -32.844479 4294967295
-78.487946 59.015858 -32.867832 4294967295
-78.487633 56.61816 -32.341179 4294967295
-78.487488 57.967575 -32.63295 4294967295
-78.486427 58.56818 -32.748295 4294967295
-78.483116 59.171276 -32.831245 4294967295
-78.482788 57.673134 -32.500305 4294967295
-78.479553 57.37693 -32.388683 4294967295
-78.475624 56.931438 -32.234356 4294967295
-78.472015 59.334045 -32.704948 4294967295
-78.469452 59.786499 -32.766041 4294967295
-78.468307 59.937653 -32.782246 4294967295
-78.467339 58.140434 -32.376904 4294967295
-78.466377 61.437405 -33.080585 4294967295
-78.457664 60.849049 -32.825466 4294967295
-78.45652 60.251251 -32.67873 4294967295
-78.452522 61.304546 -32.849686 4294967295
-78.447678 61.01088 -32.715099 4294967295
-78.442848 62.065102 -32.874203 4294967295
-78.439903 60.420906 -32.4734 4294967295
-78.436165 63.271046 -33.039146 4294967295
-78.434937 61.925098 -32.728317 4294967295
-78.427109 62.683575 -32.779331 4294967295
-78.425209 62.386425 -32.686913 4294967295
-78.420837 61.642769 -32.461361 4294967295
-78.398262 63.468643 -32.529633 4294967295
-78.32267 58.281773 -32.502525 4294967295
-78.31974 58.584934 -32.525745 4294967295
-78.310776 58.895058 -32.46291 4294967295
-78.298828 59.958233 -32.520229 4294967295
-78.295914 59.811779 -32.446117 4294967295
-78.293045 59.515327 -32.340038 4294967295
-78.285187 61.62278 -32.683601 4294967295
-78.277573 61.182529 -32.477337 4294967295
-78.274277 63.583069 -32.950668 4294967295
-78.249969 63.014565 -32.474197 4294967295
-78.198578 56.90097 -32.595367 4294967295
-78.197975 57.35136 -32.68428 4294967295
-78.187157 57.063545 -32.46537 4294967295
-78.182724 58.867294 -32.792107 4294967295
-78.181564 57.219715 -32.418247 4294967295
-78.179596 57.971607 -32.552723 4294967295
-78.179123 56.772476 -32.285923 4294967295
-78.172089 58.429863 -32.543362 4294967295
-78.171783 58.730003 -32.604023 4294967295
-78.168243 57.83448 -32.358631 4294967295
-78.168076 58.284515 -32.453739 4294967295
-78.163795 58.139423 -32.360386 4294967295
-78.155373 58.598885 -32.338074 4294967295
-78.153618 59.050728 -32.410576 4294967295
-78.153343 59.350887 -32.471573 4294967295
-78.150078 60.403854 -32.652435 4294967295
-78.149406 60.554489 -32.675407 4294967295
-78.14592 61.157936 -32.755707 4294967295
-78.142899 59.812798 -32.420551 4294967295
-78.140778 61.313946 -32.715046 4294967295
-78.140144 60.115852 -32.446308 4294967295
-78.132675 63.270741 -33.021553 4294967295
-78.131706 60.275726 -32.358768 4294967295
-78.130318 61.776062 -32.66378 4294967295
-78.128906 62.976013 -32.903179 4294967295
-78.128464 62.077946 -32.702343 4294967295
-78.12809 62.377987 -32.76189 4294967295
-78.124702 61.033585 -32.421665 4294967295
-78.123657 62.83279 -32.796173 4294967295
-78.119583 63.137383 -32.8032 4294967295
-78.108147 63.451229 -32.705715 4294967295
-78.047668 56.599606 -32.533817 4294967295
-78.015076 59.334797 -32.655071 4294967295
-78.010254 59.640144 -32.651516 4294967295
-78.008469 60.8409 -32.885296 4294967295
-78.002045 59.949478 -32.599979 4294967295
-78.001656 58.450592 -32.270405 4294967295
-78.001579 61.897552 -33.014339 4294967295
-77.98381 60.570518 -32.47121 4294967295
-77.980438 62.672211 -32.876778 4294967295
-77.975822 63.57637 -33.0056 4294967295
-77.972542 61.333427 -32.47361 4294967295
-77.881393 57.214863 -32.44952 4294967295
-77.879486 56.766964 -32.325481 4294967295
-77.875603 57.971115 -32.529457 4294967295
-77.875145 57.521744 -32.425915 4294967295
-77.872765 59.323463 -32.780327 4294967295
-77.871101 58.575928 -32.595181 4294967295
-77.867065 57.080654 -32.21463 4294967295
-77.865746 56.631924 -32.098923 4294967295
-77.86425 58.133835 -32.401348 4294967295
-77.861122 59.786533 -32.712883 4294967295
-77.860184 60.986244 -32.958054 4294967295
-77.85936 59.189007 -32.558727 4294967295
-77.858559 60.089245 -32.741333 4294967295
-77.857323 61.289215 -32.982319 4294967295
-77.855644 60.542198 -32.797153 4294967295
-77.854683 60.693169 -32.815838 4294967295
-77.852524 58.747002 -32.365131 4294967295
-77.851875 59.047668 -32.420624 4294967295
-77.849022 62.197777 -33.058903 4294967295
-77.84832 61.599586 -32.919895 4294967295
-77.846207 61.152721 -32.793118 4294967295
-77.844933 59.505501 -32.419651 4294967295
-77.841995 59.658848 -32.410503 4294967295
-77.838593 62.360264 -32.944027 4294967295
-77.835503 61.764858 -32.771286 4294967295
-77.829918 62.670433 -32.886234 4294967295
-77.821266 62.980648 -32.828796 4294967295
-77.821121 61.482487 -32.503777 4294967295
-77.817863 63.583935 -32.90995 4294967295
-77.804939 62.850994 -32.566261 4294967295
-77.801804 63.454212 -32.651157 4294967295
-77.72818 58.265598 -32.647106 4294967295
-77.720642 59.922871 -32.895763 4294967295
-77.685005 60.114258 -32.426685 4294967295
-77.684441 60.264858 -32.450989 4294967295
-77.679703 62.368687 -32.835632 4294967295
-77.678703 62.220089 -32.789425 4294967295
-77.678291 62.969543 -32.944725 4294967295
-77.661995 62.090511 -32.522259 4294967295
-77.655403 63.597034 -32.751904 4294967295
-77.582565 57.508476 -32.564358 4294967295
-77.552025 57.392094 -32.10363 4294967295
-77.545181 59.800011 -32.522934 4294967295
-77.545067 59.200302 -32.392567 4294967295
-77.544792 62.048374 -32.999855 4294967295
-77.539062 62.354866 -32.983929 4294967295
-77.520531 63.426006 -32.949276 4294967295
-77.512978 62.836098 -32.71492 4294967295
-77.511375 63.587135 -32.853226 4294967295
-77.496483 62.55648 -32.419586 4294967295
-77.491226 63.312412 -32.506832 4294967295
-77.488335 63.166084 -32.43417 4294967295
-77.438255 56.599747 -32.468067 4294967295
-77.430237 56.908474 -32.420288 4294967295
-77.428894 57.20998 -32.465736 4294967295
-77.423851 57.665535 -32.491585 4294967295
-77.420425 59.16888 -32.764889 4294967295
-77.415512 58.424728 -32.535713 4294967295
-77.408707 59.631989 -32.697514 4294967295
-77.405006 58.136463 -32.324539 4294967295
-77.403992 58.737648 -32.438835 4294967295
-77.398849 57.392925 -32.077702 4294967295
-77.394249 58.298504 -32.206295 4294967295
-77.39357 59.949276 -32.550133 4294967295
-77.392326 59.350834 -32.404381 4294967295
-77.380928 62.362286 -32.887096 4294967295
-77.37545 62.66856 -32.874805 4294967295
-77.353371 62.995186 -32.630722 4294967295
-77.329971 63.623528 -32.43251 4294967295
-77.267265 58.570198 -32.609581 4294967295
-77.252838 56.635265 -31.991613 4294967295
-77.250069 57.539028 -32.145523 4294967295
-77.199532 63.446949 -32.691586 4294967295
-77.188362 63.160866 -32.472244 4294967295
-77.186134 62.863716 -32.377216 4294967295
-77.175186 63.626816 -32.385059 4294967295
-77.127312 56.60635 -32.350498 4294967295
-77.113663 56.921204 -32.22488 4294967295
-77.11042 57.525066 -32.307896 4294967295
-77.107605 59.32835 -32.652584 4294967295
-77.105225 58.43108 -32.427753 4294967295
-77.100601 57.385681 -32.139515 4294967295
-77.098129 58.589024 -32.361179 4294967295
-77.09507 57.691952 -32.126698 4294967295
-77.094887 58.892719 -32.380184 4294967295
-77.034599 63.612617 -32.534878 4294967295
-76.965897 57.216339 -32.338085 4294967295
-76.959824 57.973286 -32.413643 4294967295
-76.951065 56.932095 -32.068863 4294967295
-76.947617 56.785633 -31.989166 4294967295
-76.824425 56.604206 -32.346333 4294967295
-76.818466 56.91077 -32.327873 4294967295
-76.816986 57.962837 -32.530518 4294967295
-76.812187 57.367809 -32.336937 4294967295
-76.806213 58.274746 -32.44569 4294967295
-76.80616 57.674526 -32.317516 4294967295
-76.802086 57.078461 -32.133808 4294967295
-76.800003 58.131519 -32.328121 4294967295
-76.798363 56.78212 -32.018688 4294967295
-76.796143 57.535301 -32.147419 4294967295
-76.646912 57.231476 -32.113438 4294967295
-76.520882 56.902916 -32.397583 4294967295
-76.517357 57.507065 -32.476181 4294967295
-76.513847 58.11113 -32.554897 4294967295
-76.510658 56.763638 -32.2258 4294967295
-76.508789 56.615456 -32.168434 4294967295
-76.507607 57.817772 -32.406036 4294967295
-76.500259 57.225185 -32.178509 4294967295
-76.496529 57.9799 -32.286026 4294967295
-76.349457 57.073174 -32.154915 4294967295
-76.33371 57.840942 -32.098282 4294967295
-76.203949 56.615135 -32.140587 4294967295
-76.202965 57.066742 -32.221912 4294967295
-76.201096 57.369057 -32.25975 4294967295
-76.198669 58.122353 -32.384666 4294967295
-76.191231 57.830109 -32.22031 4294967295
-76.185402 57.536003 -32.077759 4294967295
-76.051544 56.915344 -32.190254 4294967295
-76.0467 57.220848 -32.187664 4294967295
-76.043137 58.275791 -32.36005 4294967295
-76.032898 57.385704 -32.032013 4294967295
-75.88179 57.984978 -32.162941 4294967295
-75.739838 57.072372 -32.102802 4294967295
-75.739075 57.223412 -32.123894 4294967295
-75.737206 56.774616 -32.004509 4294967295
-75.728218 57.535347 -32.040493 4294967295
-75.727371 56.63456 -31.840593 4294967295
-75.446831 56.909313 -32.20499 4294967295
-75.43692 57.220131 -32.13493 4294967295
-75.42704 56.779556 -31.908819 4294967295
-75.421379 56.635078 -31.801773 4294967295
-75.292328 57.512188 -32.289474 4294967295
-75.28093 57.674393 -32.168694 4294967295
-75.137863 57.514107 -32.249882 4294967295
-75.13163 56.769169 -32.011314 4294967295
-75.126793 57.22509 -32.040451 4294967295
-75.125267 57.677544 -32.113636 4294967295
-75.121162 56.930271 -31.903404 4294967295
-75.103645 57.399494 -31.763941 4294967295
-74.839783 56.755177 -32.160343 4294967295
-74.827103 57.369427 -32.11694 4294967295
-74.818436 56.927353 -31.909435 4294967295
-74.817413 57.529785 -32.019978 4294967295
-74.809143 56.636066 -31.724686 4294967295
-74.65477 56.938438 -31.750786 4294967295
-74.513931 56.926189 -31.892834 4294967295
-74.51046 56.628906 -31.785433 4294967295
-74.49324 57.398579 -31.714123 4294967295
-74.490356 57.100655 -31.614422 4294967295
-74.352592 57.386055 -31.858601 4294967295
-74.069504 56.611076 -31.968447 4294967295
-74.059738 57.222553 -31.964388 4294967295
-73.898506 56.930096 -31.779299 4294967295
-73.754974 56.619732 -31.824018 4294967295
-73.728493 57.248226 -31.604549 4294967295
-73.718567 57.107677 -31.445822 4294967295
-73.611099 56.761158 -31.95553 4294967295
-73.598381 56.924294 -31.822433 4294967295
-73.571709 56.649776 -31.41814 4294967295
-73.444458 57.226208 -31.855463 4294967295
-73.427841 57.092316 -31.611843 4294967295
-73.427567 56.640926 -31.516811 4294967295
-73.426895 56.792156 -31.538702 4294967295
-73.420959 57.400288 -31.584545 4294967295
-73.26487 56.951603 -31.43881 4294967295
-73.259476 57.408745 -31.46113 4294967295
-73.132668 56.930931 -31.689404 4294967295
-73.123512 56.638813 -31.512009 4294967295
-73.122993 57.392181 -31.6572 4294967295
-72.964066 56.946243 -31.476192 4294967295
-72.950005 57.412018 -31.388512 4294967295
-72.829033 56.627296 -31.629175 4294967295
-72.80883 57.550747 -31.554855 4294967295
-72.805725 57.403233 -31.485264 4294967295
-72.66468 56.939465 -31.531885 4294967295
-72.502052 56.647358 -31.33659 4294967295
-72.497688 56.952969 -31.341946 4294967295
-72.486534 57.265263 -31.261845 4294967295
-72.342491 57.557598 -31.421745 4294967295
-72.208794 57.086555 -31.560183 4294967295
-72.060028 56.780945 -31.539814 4294967295
-72.045853 56.945316 -31.393013 4294967295
-72.034531 57.709808 -31.401741 4294967295
-71.903831 57.386471 -31.606632 4294967295
-71.903664 56.633251 -31.455053 4294967295
-71.895157 57.696243 -31.558683 4294967295
-71.876511 57.262318 -31.237215 4294967295
-71.75177 56.782623 -31.486088 4294967295
-71.733772 57.10136 -31.322744 4294967295
-71.732635 57.403919 -31.368345 4294967295
-71.731865 57.706093 -31.418547 4294967295
-71.574776 57.709816 -31.356096 4294967295
-71.440369 56.63644 -31.365204 4294967295
-71.42382 57.707554 -31.369631 4294967295
-71.421989 57.407822 -31.287577 4294967295
-71.291824 57.084103 -31.49732 4294967295
-71.133568 56.787262 -31.36195 4294967295
-71.115326 57.407768 -31.257286 4294967295
-71.110855 58.015209 -31.321085 4294967295
-70.979134 57.089809 -31.392435 4294967295
-70.807022 57.710846 -31.267025 4294967295
-70.676506 56.784271 -31.35251 4294967295
-70.662697 57.098907 -31.243979 4294967295
-70.661957 57.250431 -31.264566 4294967295
-69.345848 63.372482 -31.261396 4294967295
-86.707321 70.039696 -34.391708 4294967295
-86.63279 63.67786 -34.156162 4294967295
-86.62336 64.584145 -34.214138 4294967295
-86.620483 64.291634 -34.08836 4294967295
-86.61618 65.041275 -34.19952 4294967295
-86.614777 64.003494 -33.912563 4294967295
-86.613754 66.084618 -34.418629 4294967295
-86.612923 64.89798 -34.104492 4294967295
-86.611153 65.494972 -34.222923 4294967295
-86.610992 65.792213 -34.295025 4294967295
-86.610146 66.535873 -34.467022 4294967295
-86.60743 65.649544 -34.194519 4294967295
-86.600426 65.363861 -33.995865 4294967295
-86.590523 67.162292 -34.270096 4294967295
-86.589859 66.717979 -34.14608 4294967295
-86.58799 68.057083 -34.449684 4294967295
-86.586403 67.466103 -34.272133 4294967295
-86.584839 67.91404 -34.356613 4294967295
-86.583275 65.986145 -33.842522 4294967295
-86.58139 67.029083 -34.071304 4294967295
-86.578712 67.330566 -34.098831 4294967295
-86.571121 69.718002 -34.56303 4294967295
-86.569778 68.830193 -34.315155 4294967295
-86.569405 68.534019 -34.233688 4294967295
-86.568344 68.387383 -34.177692 4294967295
-86.567787 69.278778 -34.392155 4294967295
-86.564163 69.136681 -34.290737 4294967295
-86.556679 68.704285 -34.046524 4294967295
-86.556633 69.446526 -34.232738 4294967295
-86.55574 70.189949 -34.403839 4294967295
-86.555267 70.339127 -34.432785 4294967295
-86.553703 69.006325 -34.068817 4294967295
-86.548805 69.905396 -34.206688 4294967295
-86.548683 69.608788 -34.129761 4294967295
-86.546356 70.058083 -34.200909 4294967295
-86.479431 64.127815 -34.210934 4294967295
-86.474075 64.730522 -34.26593 4294967295
-86.458961 64.011513 -33.81316 4294967295
-86.448639 66.850899 -34.340694 4294967295
-86.448112 64.920647 -33.846313 4294967295
-86.447289 65.962112 -34.093052 4294967295
-86.427078 69.261841 -34.557999 4294967295
-86.384186 70.375282 -34.065445 4294967295
-86.381386 70.677078 -34.090805 4294967295
-86.296074 66.854164 -34.2981 4294967295
-86.295815 67.300018 -34.404987 4294967295
-86.295242 66.410004 -34.171944 4294967295
-86.291977 65.821068 -33.965931 4294967295
-86.287895 66.124901 -33.968765 4294967295
-86.286324 67.018784 -34.164574 4294967295
-86.286278 68.058167 -34.423992 4294967295
-86.285553 67.91095 -34.374153 4294967295
-86.280304 66.731644 -33.984692 4294967295
-86.28019 67.623016 -34.205872 4294967295
-86.27433 69.117332 -34.474953 4294967295
-86.26857 68.681915 -34.262714 4294967295
-86.26738 68.535484 -34.204647 4294967295
-86.260757 69.882668 -34.423275 4294967295
-86.259003 68.846687 -34.132473 4294967295
-86.252975 70.786423 -34.510033 4294967295
-86.250847 69.603012 -34.175598 4294967295
-86.250221 70.049385 -34.276085 4294967295
-86.24958 70.495674 -34.376427 4294967295
-86.249222 69.754265 -34.184361 4294967295
-86.178825 64.42382 -34.278755 4294967295
-86.17627 63.833408 -34.085621 4294967295
