# .PCD v0.7 - Point Cloud Data file format
VERSION 0.7
FIELDS x y z rgb
SIZE 4 4 4 4
TYPE F F F U
COUNT 1 1 1 1
WIDTH 1120
HEIGHT 1
VIEWPOINT 0 0 0 1 0 0 0
POINTS 1120
DATA ascii
-26.534668 58.170574 -22.962831 4294967295
-26.532881 58.79351 -23.037798 4294967295
-26.532816 57.393875 -22.84235 4294967295
-26.523645 57.865158 -22.847326 4294967295
-26.454184 55.797878 -23.146572 4294967295
-26.43675 56.42836 -23.119188 4294967295
-26.41777 57.837151 -23.189939 4294967295
-26.399637 57.068844 -22.963142 4294967295
-26.360151 58.333145 -22.878279 4294967295
-26.275459 56.428505 -23.099058 4294967295
-26.270388 56.119987 -23.022671 4294967295
-26.270102 56.742149 -23.107351 4294967295
-26.265341 58.610138 -23.335846 4294967295
-26.264666 58.144154 -23.266567 4294967295
-26.260088 55.969501 -22.933788 4294967295
-26.255344 57.060509 -23.0543 4294967295
-26.248083 57.841667 -23.115089 4294967295
-26.240984 55.667686 -22.765766 4294967295
-26.231356 57.694649 -22.984295 4294967295
-26.225044 58.941952 -23.116179 4294967295
-26.222116 56.921562 -22.815779 4294967295
-26.221836 56.299389 -22.727362 4294967295
-26.214022 57.392319 -22.827881 4294967295
-26.212952 58.326153 -22.950747 4294967295
-26.129847 55.798927 -23.094778 4294967295
-26.087524 57.374985 -23.035192 4294967295
-26.076418 57.069481 -22.919584 4294967295
-26.066195 58.007885 -22.982719 4294967295
-25.959553 57.51392 -23.253918 4294967295
-25.959377 56.425552 -23.101568 4294967295
-25.95327 56.8951 -23.126648 4294967295
-25.94927 57.985542 -23.251829 4294967295
-25.948385 57.208546 -23.138079 4294967295
-25.945185 55.965904 -22.944395 4294967295
-25.933395 55.660492 -22.824448 4294967295
-25.932905 56.749676 -22.972565 4294967295
-25.926638 57.841534 -23.083036 4294967295
-25.923708 58.931534 -23.215172 4294967295
-25.905464 55.518372 -22.621075 4294967295
-25.904026 58.319626 -23.000788 4294967295
-25.903507 58.164352 -22.975801 4294967295
-25.878714 57.71022 -22.749716 4294967295
-25.81546 55.639572 -23.08675 4294967295
-25.73819 56.455082 -22.692801 4294967295
-25.639763 56.268768 -23.059965 4294967295
-25.623789 58.45396 -23.258385 4294967295
-25.623171 55.65456 -22.866043 4294967295
-25.620314 58.922199 -23.30055 4294967295
-25.615808 56.747185 -22.969372 4294967295
-25.615274 57.836262 -23.116926 4294967295
-25.613554 56.592728 -22.933168 4294967295
-25.61166 55.971317 -22.834553 4294967295
-25.590849 57.693027 -22.937012 4294967295
-25.584831 58.162773 -22.962729 4294967295
-25.494032 55.327984 -23.011917 4294967295
-25.486164 56.887207 -23.17658 4294967295
-25.474625 56.426273 -23.03721 4294967295
-25.452394 57.370602 -23.022673 4294967295
-25.451164 57.215652 -22.993151 4294967295
-25.438246 57.533241 -22.952662 4294967295
-25.402332 58.95171 -22.914295 4294967295
-25.301615 57.054375 -23.028429 4294967295
-25.29023 58.926617 -23.213339 4294967295
-25.289068 57.371746 -22.990442 4294967295
-25.27537 57.689754 -22.945021 4294967295
-25.273205 56.290318 -22.737078 4294967295
-25.27306 58.313229 -23.016277 4294967295
-25.272621 57.224339 -22.862619 4294967295
-25.261063 58.008141 -22.895676 4294967295
-25.231712 58.801117 -22.813799 4294967295
-25.228752 58.647011 -22.773132 4294967295
-25.164062 55.642666 -22.968819 4294967295
-25.150961 57.360329 -23.121113 4294967295
-25.147715 57.050823 -23.057117 4294967295
-25.144611 56.430031 -22.950968 4294967295
-25.142078 55.341953 -22.783857 4294967295
-25.133604 55.190338 -22.707626 4294967295
-25.121233 56.752686 -22.843203 4294967295
-25.119522 55.508369 -22.659826 4294967295
-25.111437 58.469158 -23.016848 4294967295
-25.075556 57.242172 -22.613129 4294967295
-24.952284 55.978191 -22.667635 4294967295
-24.948986 55.668411 -22.603331 4294967295
-24.945864 56.603977 -22.712379 4294967295
-24.943495 58.783909 -22.998377 4294967295
-24.940439 57.85181 -22.849619 4294967295
-24.939302 57.229824 -22.756224 4294967295
-24.931746 58.323071 -22.858187 4294967295
-24.922518 56.459682 -22.540472 4294967295
-24.847952 55.795143 -22.994177 4294967295
-24.826956 55.338291 -22.7946 4294967295
-24.795815 55.975834 -22.680349 4294967295
-24.793039 57.533722 -22.877577 4294967295
-24.786955 55.512997 -22.558811 4294967295
-24.785616 56.759148 -22.722315 4294967295
-24.785191 58.160145 -22.913126 4294967295
-24.764284 56.925285 -22.606647 4294967295
-24.762196 57.393387 -22.657757 4294967295
-24.752907 58.643406 -22.770094 4294967295
-24.73035 58.81057 -22.646616 4294967295
-24.684084 56.729961 -23.087818 4294967295
-24.649494 58.458565 -23.102062 4294967295
-24.639315 58.930485 -23.101164 4294967295
-24.601706 58.794067 -22.838343 4294967295
-24.593807 57.241234 -22.572735 4294967295
-24.593727 58.175453 -22.701191 4294967295
-24.592995 57.708755 -22.632 4294967295
-24.59129 58.643711 -22.750008 4294967295
-24.58407 58.024616 -22.617712 4294967295
-24.525204 55.016983 -22.848419 4294967295
-24.521862 55.329857 -22.869951 4294967295
-24.501173 58.141022 -23.123798 4294967295
-24.495235 56.276505 -22.828117 4294967295
-24.493965 56.744072 -22.884401 4294967295
-24.481436 58.77335 -23.083187 4294967295
-24.478348 57.529964 -22.891676 4294967295
-24.477257 55.8181 -22.648424 4294967295
-24.477249 57.063553 -22.820217 4294967295
-24.476158 56.59708 -22.748795 4294967295
-24.463947 57.848423 -22.842337 4294967295
-24.431509 57.397469 -22.570036 4294967295
-24.345623 57.671494 -23.077799 4294967295
-24.325769 55.813343 -22.693264 4294967295
-24.315535 58.620247 -23.014027 4294967295
-24.315458 56.129688 -22.670202 4294967295
-24.277191 56.926846 -22.532658 4294967295
-24.270864 57.552895 -22.578053 4294967295
-24.268202 58.177101 -22.646877 4294967295
-24.268187 58.332817 -22.668249 4294967295
-24.2612 58.803459 -22.687937 4294967295
-24.194185 55.799107 -22.865215 4294967295
-24.190975 57.045826 -23.016243 4294967295
-24.186829 56.113953 -22.861101 4294967295
-24.183788 55.492683 -22.75589 4294967295
-24.182547 57.205585 -22.983847 4294967295
-24.173162 57.67712 -22.988213 4294967295
-24.172497 56.432198 -22.812428 4294967295
-24.171535 57.989189 -23.0207 4294967295
-24.170181 56.744667 -22.840528 4294967295
-24.16106 57.527466 -22.889481 4294967295
-24.160526 55.659424 -22.628683 4294967295
-24.158712 55.193073 -22.552727 4294967295
-24.146786 55.977428 -22.583799 4294967295
-24.139395 58.31657 -22.858309 4294967295
-24.111938 58.641773 -22.725851 4294967295
-24.111715 57.863316 -22.617195 4294967295
-24.060253 55.163437 -22.936026 4294967295
-24.055326 54.854412 -22.861723 4294967295
-23.977955 58.005367 -22.79682 4294967295
-23.966526 57.232449 -22.616783 4294967295
-23.934601 58.649963 -22.606123 4294967295
-23.890318 55.011692 -22.841446 4294967295
-23.875311 55.641502 -22.831524 4294967295
-23.863354 57.515289 -23.012339 4294967295
-23.859421 57.205914 -22.944481 4294967295
-23.856525 56.428928 -22.818979 4294967295
-23.855545 56.896465 -22.876974 4294967295
-23.853081 55.963467 -22.732784 4294967295
-23.851698 58.143642 -23.023756 4294967295
-23.844564 57.835884 -22.93553 4294967295
-23.843643 55.500748 -22.608408 4294967295
-23.841646 58.771244 -23.045389 4294967295
-23.823301 55.821892 -22.521694 4294967295
-23.811007 58.631042 -22.828957 4294967295
-23.797928 57.391762 -22.574369 4294967295
-23.786747 58.020302 -22.588882 4294967295
-23.773685 57.71524 -22.462879 4294967295
-23.702047 54.712624 -22.609196 4294967295
-23.698936 55.337059 -22.675058 4294967295
-23.687246 57.989635 -22.964556 4294967295
-23.672007 55.193916 -22.482386 4294967295
-23.658737 56.446415 -22.569323 4294967295
-23.655649 58.783836 -22.870714 4294967295
-23.655005 57.226994 -22.652626 4294967295
-23.58087 54.849583 -22.867918 4294967295
-23.577637 55.473854 -22.93294 4294967295
-23.565624 55.012375 -22.792511 4294967295
-23.536972 55.960186 -22.738958 4294967295
-23.529573 55.184921 -22.585018 4294967295
-23.52775 54.71843 -22.509232 4294967295
-23.527128 57.677746 -22.911707 4294967295
-23.52281 55.811157 -22.627657 4294967295
-23.512405 56.43914 -22.647186 4294967295
-23.499685 57.53553 -22.716181 4294967295
-23.499285 56.133877 -22.521109 4294967295
-23.499155 58.625816 -22.862497 4294967295
-23.496983 56.602314 -22.57069 4294967295
-23.483534 57.231922 -22.570908 4294967295
-23.48311 58.166676 -22.69655 4294967295
-23.471292 58.328308 -22.64296 4294967295
-23.470364 57.394138 -22.508713 4294967295
-23.466848 58.953529 -22.700302 4294967295
-23.441782 58.031418 -22.412926 4294967295
-23.432171 58.815254 -22.45892 4294967295
-23.387533 56.733009 -22.903622 4294967295
-23.380501 57.047806 -22.901789 4294967295
-23.369961 56.430019 -22.749525 4294967295
-23.364342 55.498142 -22.585638 4294967295
-23.339231 54.73077 -22.319538 4294967295
-23.329676 56.916691 -22.55838 4294967295
-23.246677 55.788956 -22.887442 4294967295
-23.235308 54.70409 -22.66596 4294967295
-23.231459 56.574741 -22.897926 4294967295
-23.222944 55.332886 -22.67317 4294967295
-23.211657 56.272751 -22.729929 4294967295
-23.208199 55.183979 -22.558487 4294967295
-23.206345 57.676888 -22.888525 4294967295
-23.202394 58.45734 -22.97028 4294967295
-23.183334 56.753609 -22.614817 4294967295
-23.177975 55.977184 -22.474085 4294967295
-23.176653 54.886963 -22.316101 4294967295
-23.176033 58.93766 -22.867615 4294967295
-23.171957 55.668373 -22.393259 4294967295
-23.165367 56.45063 -22.458418 4294967295
-23.143122 58.175331 -22.552717 4294967295
-23.117758 58.343735 -22.413668 4294967295
-23.114531 58.81282 -22.457352 4294967295
-23.085482 54.387062 -22.678593 4294967295
-23.053289 56.894234 -22.816759 4294967295
-23.03229 57.371643 -22.748161 4294967295
-23.016691 58.158062 -22.756367 4294967295
-23.007263 55.51392 -22.333864 4294967295
-23.003267 57.229973 -22.543533 4294967295
-22.994516 57.701653 -22.552309 4294967295
-22.986458 57.549782 -22.480068 4294967295
-22.911869 55.482922 -22.733171 4294967295
-22.907408 54.394463 -22.555662 4294967295
-22.88726 54.871151 -22.492582 4294967295
-22.877953 55.81039 -22.561918 4294967295
-22.87499 57.52541 -22.777884 4294967295
-22.872496 56.280384 -22.591511 4294967295
-22.869244 56.593533 -22.61367 4294967295
-22.867449 55.036133 -22.388956 4294967295
-22.862637 57.064087 -22.636 4294967295
-22.861757 57.999165 -22.758427 4294967295
-22.854406 55.198032 -22.328028 4294967295
-22.848427 57.382565 -22.589069 4294967295
-22.847301 55.357204 -22.304562 4294967295
-22.846846 57.694931 -22.621771 4294967295
-22.845749 56.916424 -22.508186 4294967295
-22.835644 58.323616 -22.636467 4294967295
-22.833323 58.168968 -22.6005 4294967295
-22.790276 58.657814 -22.393156 4294967295
-22.738152 55.955902 -22.702 4294967295
-22.723675 56.897453 -22.738752 4294967295
-22.722794 57.832428 -22.861065 4294967295
-22.689293 58.471981 -22.735447 4294967295
-22.599514 54.38723 -22.614733 4294967295
-22.590345 55.32626 -22.684933 4294967295
-22.586458 54.704815 -22.575256 4294967295
-22.573694 55.022331 -22.537619 4294967295
-22.563187 57.208527 -22.769817 4294967295
-22.562973 56.11808 -22.619371 4294967295
-22.559889 58.144691 -22.876858 4294967295
-22.553156 56.590168 -22.621572 4294967295
-22.549963 54.565632 -22.324442 4294967295
-22.547926 55.813499 -22.482153 4294967295
-22.536339 57.377304 -22.622387 4294967295
-22.527771 58.472092 -22.717638 4294967295
-22.518553 58.320858 -22.638414 4294967295
-22.514618 55.67321 -22.251429 4294967295
-22.512835 56.765259 -22.389435 4294967295
-22.505329 58.950657 -22.640524 4294967295
-22.485741 57.713589 -22.347013 4294967295
-22.447784 55.005802 -22.743351 4294967295
-22.425858 55.483334 -22.669577 4294967295
-22.404417 57.674541 -22.833017 4294967295
-22.370823 57.067581 -22.537088 4294967295
-22.368 58.00391 -22.647106 4294967295
-22.255903 54.396168 -22.449905 4294967295
-22.246054 55.959225 -22.600983 4294967295
-22.245718 55.336006 -22.513769 4294967295
-22.232756 55.030239 -22.389954 4294967295
-22.232243 57.056549 -22.663372 4294967295
-22.230955 56.278004 -22.548929 4294967295
-22.228279 54.252762 -22.255445 4294967295
-22.220837 55.191616 -22.336536 4294967295
-22.217503 56.907776 -22.549749 4294967295
-22.213194 58.935467 -22.799269 4294967295
-22.211205 57.534168 -22.595394 4294967295
-22.210783 56.599266 -22.46509 4294967295
-22.206707 55.50996 -22.29056 4294967295
-22.206608 54.730381 -22.183483 4294967295
-22.205523 55.666416 -22.304434 4294967295
-22.200714 58.162609 -22.614779 4294967295
-22.192974 57.854717 -22.523748 4294967295
-22.188484 58.324459 -22.559444 4294967295
-22.174107 56.77261 -22.256582 4294967295
-22.149588 58.655411 -22.358385 4294967295
-22.092432 54.708595 -22.462727 4294967295
-22.074678 57.989479 -22.798124 4294967295
-22.067493 54.56403 -22.285378 4294967295
-22.053213 55.194241 -22.281115 4294967295
-22.027967 56.453373 -22.293362 4294967295
-22.01219 57.396397 -22.322294 4294967295
-21.927361 55.177658 -22.486929 4294967295
-21.924936 55.646397 -22.535547 4294967295
-21.918379 57.519569 -22.749529 4294967295
-21.915052 54.403759 -22.303736 4294967295
-21.910219 56.588463 -22.57111 4294967295
-21.903572 55.500404 -22.380833 4294967295
-21.898748 57.684887 -22.648191 4294967295
-21.894796 57.375103 -22.581036 4294967295
-21.893911 57.219673 -22.554262 4294967295
-21.887819 56.910843 -22.473722 4294967295
-21.879679 58.940899 -22.699053 4294967295
-21.879044 56.291401 -22.333893 4294967295
-21.864784 58.636593 -22.563601 4294967295
-21.861223 58.014851 -22.456388 4294967295
-21.837828 58.805809 -22.416569 4294967295
-21.831173 58.185436 -22.290018 4294967295
-21.796494 54.072392 -22.512234 4294967295
-21.741804 54.720688 -22.256033 4294967295
-21.739841 55.96899 -22.413755 4294967295
-21.734184 58.1539 -22.675735 4294967295
-21.706699 58.47908 -22.546867 4294967295
-21.699612 56.923466 -22.290331 4294967295
-21.696648 57.080814 -22.293097 4294967295
-21.676109 57.714451 -22.250015 4294967295
-21.635344 54.383739 -22.539703 4294967295
-21.601519 57.049076 -22.689816 4294967295
-21.599606 57.673332 -22.762754 4294967295
-21.590055 55.963375 -22.469921 4294967295
-21.584366 57.83654 -22.689112 4294967295
-21.580389 54.72039 -22.239887 4294967295
-21.575253 55.346535 -22.292833 4294967295
-21.5739 53.943428 -22.093281 4294967295
-21.570745 58.154861 -22.646761 4294967295
-21.565729 57.222031 -22.488256 4294967295
-21.565668 58.780743 -22.700016 4294967295
-21.562376 56.911823 -22.424938 4294967295
-21.562069 56.132347 -22.316889 4294967295
-21.557253 58.940754 -22.668861 4294967295
-21.55197 58.475773 -22.572342 4294967295
-21.54192 57.545273 -22.382488 4294967295
-21.490017 54.376221 -22.62322 4294967295
-21.483959 54.690685 -22.627972 4294967295
-21.483929 53.911297 -22.52173 4294967295
-21.477789 54.225822 -22.525976 4294967295
-21.465551 55.010796 -22.555937 4294967295
-21.450783 55.641117 -22.548944 4294967295
-21.431828 54.090427 -22.218933 4294967295
-21.426517 54.560711 -22.249569 4294967295
-21.425566 57.99107 -22.710239 4294967295
-21.425203 55.341061 -22.347492 4294967295
-21.387159 56.762276 -22.301924 4294967295
-21.385277 56.451248 -22.247793 4294967295
-21.369495 57.706394 -22.319422 4294967295
-21.259905 56.434143 -22.455799 4294967295
-21.255159 57.839497 -22.617062 4294967295
-21.252953 57.216988 -22.518616 4294967295
-21.248783 57.530785 -22.535131 4294967295
-21.247862 56.751656 -22.423454 4294967295
-21.247133 55.972286 -22.312948 4294967295
-21.238745 58.782757 -22.642336 4294967295
-21.235531 58.628456 -22.601223 4294967295
-21.227352 56.91729 -22.317381 4294967295
-21.224684 58.166054 -22.470367 4294967295
-21.197456 58.023327 -22.280266 4294967295
-21.185965 58.496819 -22.27257 4294967295
-21.16078 54.222588 -22.529398 4294967295
-21.159334 55.002724 -22.62635 4294967295
-21.157425 53.912247 -22.466234 4294967295
-21.134659 54.39019 -22.388668 4294967295
-21.129255 56.887177 -22.694052 4294967295
-21.125711 55.329853 -22.46032 4294967295
-21.124008 55.954304 -22.534489 4294967295
-21.123213 54.863178 -22.381287 4294967295
-21.117695 56.269054 -22.537729 4294967295
-21.117163 56.425209 -22.555613 4294967295
-21.099749 58.771713 -22.765285 4294967295
-21.089319 54.09845 -22.06522 4294967295
-21.086578 55.19175 -22.196602 4294967295
-21.084581 55.660625 -22.247797 4294967295
-21.083294 55.50523 -22.218634 4294967295
-21.078726 54.727287 -22.084347 4294967295
-21.077694 56.599644 -22.332245 4294967295
-21.06896 57.539486 -22.405226 4294967295
-21.006905 53.595215 -22.475212 4294967295
-20.941854 54.403885 -22.178478 4294967295
-20.915884 56.131683 -22.250731 4294967295
-20.915533 56.755756 -22.333244 4294967295
-20.911087 58.940971 -22.602007 4294967295
-20.900805 58.166386 -22.432642 4294967295
-20.900402 56.60688 -22.218475 4294967295
-20.896044 58.324638 -22.424364 4294967295
-20.878098 58.021404 -22.271053 4294967295
-20.847313 54.373669 -22.576214 4294967295
-20.819479 55.477661 -22.552307 4294967295
-20.817579 53.607071 -22.286673 4294967295
-20.808392 55.638664 -22.504974 4294967295
-20.80794 54.23526 -22.311758 4294967295
-20.795908 55.176514 -22.364384 4294967295
-20.794035 53.773415 -22.162333 4294967295
-20.787848 57.051552 -22.568428 4294967295
-20.787071 56.428207 -22.47904 4294967295
-20.785643 57.520332 -22.618242 4294967295
-20.781519 56.274845 -22.423592 4294967295
-20.777269 57.680244 -22.587679 4294967295
-20.776602 54.717262 -22.181622 4294967295
-20.770321 55.03212 -22.185146 4294967295
-20.703844 58.339478 -22.218927 4294967295
-20.684614 54.217976 -22.53117 4294967295
-20.646412 54.702892 -22.358917 4294967295
-20.614939 55.341076 -22.249367 4294967295
-20.592607 55.819332 -22.175072 4294967295
-20.575853 58.167183 -22.388897 4294967295
-20.575846 58.479118 -22.43112 4294967295
-20.574753 56.763748 -22.191851 4294967295
-20.565775 58.01606 -22.305639 4294967295
-20.55002 58.647667 -22.293081 4294967295
-20.520037 53.907108 -22.453598 4294967295
-20.503172 53.602547 -22.307446 4294967295
-20.497478 54.696953 -22.420307 4294967295
-20.49102 54.543865 -22.359392 4294967295
-20.48348 55.327148 -22.418608 4294967295
-20.483425 56.574772 -22.587246 4294967295
-20.476389 54.238369 -22.226997 4294967295
-20.472359 55.176208 -22.328987 4294967295
-20.470341 54.397076 -22.210882 4294967295
-20.469749 53.773201 -22.122681 4294967295
-20.461592 55.02507 -22.241539 4294967295
-20.458111 54.870617 -22.198971 4294967295
-20.457151 57.210865 -22.509981 4294967295
-20.456192 58.614651 -22.694111 4294967295
-20.454796 55.964195 -22.326488 4294967295
-20.441492 56.906311 -22.371344 4294967295
-20.436457 55.816612 -22.19243 4294967295
-20.423819 57.850582 -22.389294 4294967295
-20.420296 57.384293 -22.304228 4294967295
-20.345778 54.068348 -22.380106 4294967295
-20.334036 55.009472 -22.434593 4294967295
-20.318964 55.952152 -22.468599 4294967295
-20.312635 56.111034 -22.450804 4294967295
-20.298761 57.365208 -22.534382 4294967295
-20.274582 56.440636 -22.259108 4294967295
-20.273697 58.936707 -22.591385 4294967295
-20.264744 54.88459 -21.987392 4294967295
-20.243328 57.703522 -22.235931 4294967295
-20.235958 57.082844 -22.106163 4294967295
-20.217211 58.808308 -22.223227 4294967295
-20.216246 58.496704 -22.175083 4294967295
-20.198975 53.905533 -22.433359 4294967295
-20.19301 54.06414 -22.417831 4294967295
-20.186049 53.287151 -22.269543 4294967295
-20.161415 53.609921 -22.160486 4294967295
-20.157576 56.731693 -22.558962 4294967295
-20.147291 55.956585 -22.390362 4294967295
-20.143789 54.397926 -22.157816 4294967295
-20.138762 55.336426 -22.253599 4294967295
-20.136757 54.713165 -22.156855 4294967295
-20.128281 54.248726 -22.04147 4294967295
-20.121496 57.684483 -22.464111 4294967295
-20.107174 55.038559 -22.017454 4294967295
-20.106405 56.287453 -22.18161 4294967295
-20.102701 55.664909 -22.074444 4294967295
-20.095055 57.541046 -22.280781 4294967295
-20.093494 56.449482 -22.123478 4294967295
-20.089802 58.011608 -22.311834 4294967295
-20.086279 58.481335 -22.353514 4294967295
-20.085918 55.828659 -21.992535 4294967295
-20.080814 56.92358 -22.108988 4294967295
-20.077934 58.797398 -22.344503 4294967295
-20.039972 53.280052 -22.348421 4294967295
-20.01248 54.696209 -22.36969 4294967295
-19.995205 55.328007 -22.348158 4294967295
-19.983391 57.049377 -22.507668 4294967295
-19.967073 57.525002 -22.47094 4294967295
-19.89716 58.182438 -22.126978 4294967295
-19.89131 58.809521 -22.175497 4294967295
-19.859545 55.160049 -22.469755 4294967295
-19.853125 53.446609 -22.198606 4294967295
-19.838263 56.573624 -22.529146 4294967295
-19.837353 54.545887 -22.24964 4294967295
-19.829031 53.769218 -22.093277 4294967295
-19.826796 56.110931 -22.395784 4294967295
-19.81951 55.958252 -22.330135 4294967295
-19.818396 54.242134 -22.091434 4294967295
-19.811586 54.869476 -22.134094 4294967295
-19.808517 58.615261 -22.620995 4294967295
-19.800776 57.527115 -22.42622 4294967295
-19.799959 56.903442 -22.336948 4294967295
-19.798227 58.152306 -22.494886 4294967295
-19.797924 56.280235 -22.240211 4294967295
-19.796999 55.344261 -22.10807 4294967295
-19.796799 57.060944 -22.338686 4294967295
-19.790926 57.687786 -22.387041 4294967295
-19.789488 54.410995 -21.935581 4294967295
-19.788504 57.220863 -22.309011 4294967295
-19.778713 58.941666 -22.480864 4294967295
-19.777428 57.382114 -22.262331 4294967295
-19.769714 55.512695 -21.962194 4294967295
-19.762096 57.857517 -22.231773 4294967295
-19.747892 56.771633 -21.997349 4294967295
-19.738157 58.493225 -22.169653 4294967295
-19.701694 54.222019 -22.350155 4294967295
-19.689558 54.851505 -22.360229 4294967295
-19.678617 55.636536 -22.398684 4294967295
-19.673706 55.482738 -22.347612 4294967295
-19.65147 55.02457 -22.148563 4294967295
-19.647104 56.587135 -22.332516 4294967295
-19.629593 56.751297 -22.246613 4294967295
-19.562 53.275913 -22.341541 4294967295
-19.531023 53.757465 -22.215656 4294967295
-19.528471 55.787106 -22.473717 4294967295
-19.519783 55.010887 -22.315496 4294967295
-19.517467 53.451157 -22.090822 4294967295
-19.515762 54.232353 -22.185698 4294967295
-19.511389 55.482792 -22.327429 4294967295
-19.510178 56.2635 -22.425262 4294967295
-19.500385 54.70739 -22.155043 4294967295
-19.494194 57.51902 -22.496098 4294967295
-19.488289 54.400532 -22.039124 4294967295
-19.486513 53.932938 -21.965109 4294967295
-19.480328 57.213501 -22.369471 4294967295
-19.479572 56.589672 -22.280693 4294967295
-19.479519 56.121506 -22.217218 4294967295
-19.471998 56.749237 -22.255543 4294967295
-19.470884 57.842072 -22.396049 4294967295
-19.470646 57.061981 -22.289391 4294967295
-19.470364 54.564571 -21.950811 4294967295
-19.462219 58.314281 -22.40633 4294967295
-19.459232 57.691551 -22.303968 4294967295
-19.430937 58.641403 -22.2577 4294967295
-19.42786 58.018578 -22.154776 4294967295
-19.410807 58.807201 -22.156038 4294967295
-19.37151 53.131794 -22.128494 4294967295
-19.349815 56.418739 -22.438108 4294967295
-19.342701 55.641769 -22.289621 4294967295
-19.318932 53.310452 -21.829147 4294967295
-19.317764 54.091782 -21.927301 4294967295
-19.312321 54.874897 -21.99938 4294967295
-19.31127 58.465111 -22.47674 4294967295
-19.286589 58.945091 -22.389584 4294967295
-19.279459 57.387794 -22.135902 4294967295
-19.276056 58.638073 -22.28344 4294967295
-19.23468 58.814114 -22.052637 4294967295
-19.228548 53.435535 -22.268414 4294967295
-19.2099 53.755749 -22.197023 4294967295
-19.200777 52.979099 -22.03635 4294967295
-19.198904 54.07272 -22.172184 4294967295
-19.196196 55.946758 -22.407982 4294967295
-19.192692 55.011982 -22.260555 4294967295
-19.189184 56.886158 -22.491421 4294967295
-19.182692 54.704243 -22.157684 4294967295
-19.182074 55.328888 -22.238028 4294967295
-19.174398 53.614971 -21.960011 4294967295
-19.173311 56.113232 -22.289852 4294967295
-19.161329 57.835354 -22.448166 4294967295
-19.149155 54.406754 -21.911633 4294967295
-19.145067 57.062698 -22.24424 4294967295
-19.137749 58.93885 -22.451906 4294967295
-19.129843 55.508465 -21.941429 4294967295
-19.12656 56.602955 -22.068668 4294967295
-19.125034 58.632889 -22.332632 4294967295
-19.120594 58.010712 -22.221588 4294967295
-19.114569 57.701363 -22.142933 4294967295
-19.113781 57.389503 -22.096104 4294967295
-19.020412 52.98658 -21.907059 4294967295
-19.014523 54.394512 -22.060486 4294967295
-19.011618 55.956924 -22.252977 4294967295
-18.998497 56.899433 -22.299355 4294967295
-18.990341 55.029766 -21.997709 4294967295
-18.985323 58.466236 -22.429396 4294967295
-18.983168 54.720619 -21.912111 4294967295
-18.961765 56.291866 -21.992346 4294967295
-18.891434 53.908958 -22.215963 4294967295
-18.887053 54.847427 -22.315378 4294967295
-18.87014 53.137432 -21.981796 4294967295
-18.864443 53.45219 -21.989258 4294967295
-18.863918 54.077019 -22.070105 4294967295
-18.862284 56.263233 -22.354153 4294967295
-18.849182 56.581379 -22.316727 4294967295
-18.848354 54.396107 -22.017744 4294967295
-18.845432 54.241222 -21.979019 4294967295
-18.843145 53.617508 -21.881109 4294967295
-18.838894 56.742195 -22.27536 4294967295
-18.83774 55.181541 -22.058407 4294967295
-18.832449 57.837742 -22.383219 4294967295
-18.828291 55.498058 -22.043123 4294967295
-18.826073 58.308949 -22.407541 4294967295
-18.824715 56.124237 -22.105442 4294967295
-18.821096 55.345123 -21.978512 4294967295
-18.803802 55.665222 -21.915686 4294967295
-18.800049 57.696899 -22.165918 4294967295
-18.799034 55.979736 -21.928782 4294967295
-18.79855 58.946407 -22.324736 4294967295
-18.793432 58.480591 -22.230772 4294967295
-18.793259 58.012341 -22.16675 4294967295
-18.7829 57.548809 -22.041014 4294967295
-18.773766 57.084572 -21.922659 4294967295
-18.751961 58.188049 -21.937538 4294967295
-18.751369 58.656841 -21.996941 4294967295
-18.729845 53.440151 -22.137831 4294967295
-18.720198 52.819653 -21.99544 4294967295
-18.661127 55.656364 -22.015675 4294967295
-18.653997 53.316357 -21.657539 4294967295
-18.652079 54.879475 -21.85594 4294967295
-18.638483 57.540546 -22.130461 4294967295
-18.635759 57.22953 -22.072014 4294967295
-18.608852 57.866756 -21.993156 4294967295
-18.585381 58.50259 -21.935108 4294967295
-18.561979 53.286198 -22.063921 4294967295
-18.557196 53.75671 -22.097929 4294967295
-18.555943 52.976421 -21.985458 4294967295
-18.539564 55.638054 -22.243031 4294967295
-18.526051 52.832829 -21.783722 4294967295
-18.518518 56.11591 -22.178755 4294967295
-18.518103 55.023045 -22.029444 4294967295
-18.514317 57.05455 -22.279161 4294967295
-18.514126 54.712448 -21.963451 4294967295
-18.509932 53.464592 -21.770216 4294967295
-18.503618 54.248436 -21.836981 4294967295
-18.50206 55.342522 -21.974432 4294967295
-18.500734 55.186924 -21.945442 4294967295
-18.498964 53.156765 -21.661926 4294967295
-18.498348 54.563168 -21.847095 4294967295
-18.498121 56.749763 -22.139391 4294967295
-18.497692 53.626068 -21.717203 4294967295
-18.484621 56.443626 -22.015877 4294967295
-18.482122 56.288589 -21.979816 4294967295
-18.47257 58.323048 -22.194698 4294967295
-18.468437 58.012726 -22.127802 4294967295
-18.46402 57.702496 -22.059187 4294967295
-18.448999 56.616104 -21.821629 4294967295
-18.447399 57.397892 -21.916845 4294967295
-18.440346 57.244961 -21.853266 4294967295
-18.439533 58.807236 -22.058065 4294967295
-18.42642 53.118496 -22.185318 4294967295
-18.408911 52.657398 -22.016705 4294967295
-18.379303 54.075607 -22.026682 4294967295
-18.377024 54.701275 -22.096779 4294967295
-18.367563 54.549248 -22.018719 4294967295
-18.351713 58.147484 -22.40502 4294967295
-18.318405 55.664391 -21.868828 4294967295
-18.315186 57.383968 -22.079983 4294967295
-18.30588 56.919731 -21.960979 4294967295
-18.276661 58.495312 -21.994333 4294967295
-18.224401 53.75988 -22.010559 4294967295
-18.214773 55.169636 -22.141087 4294967295
-18.211952 52.827877 -21.809776 4294967295
-18.200109 54.551365 -21.968939 4294967295
-18.199411 53.926823 -21.880909 4294967295
-18.198029 54.083641 -21.893536 4294967295
-18.194754 55.95937 -22.1252 4294967295
-18.191683 52.992653 -21.708557 4294967295
-18.185057 57.525238 -22.276182 4294967295
-18.182224 56.902 -22.175379 4294967295
-18.181276 54.872032 -21.897366 4294967295
-18.168407 56.283623 -22.008387 4294967295
-18.166706 56.128197 -21.97719 4294967295
-18.165705 53.316196 -21.593901 4294967295
-18.160997 57.224102 -22.089424 4294967295
-18.160234 55.506245 -21.854404 4294967295
-18.156227 58.943962 -22.290991 4294967295
-18.15143 56.603741 -21.948021 4294967295
-18.149673 55.823429 -21.832689 4294967295
-18.142628 58.325867 -22.125378 4294967295
-18.136189 57.860371 -22.023785 4294967295
-18.128721 57.395245 -21.915987 4294967295
-18.123062 58.022724 -21.965698 4294967295
-18.119972 57.71175 -21.905201 4294967295
-18.091816 52.96611 -22.065987 4294967295
-18.081972 54.219669 -22.17424 4294967295
-18.080097 54.37664 -22.183897 4294967295
-18.057562 54.854969 -22.111113 4294967295
-18.051149 56.575478 -22.302755 4294967295
-18.04072 53.456364 -21.821312 4294967295
-18.016342 55.185516 -21.905014 4294967295
-18.013165 58.154354 -22.283562 4294967295
-18.005604 58.001766 -22.217192 4294967295
-17.968302 56.769466 -21.825455 4294967295
-17.957918 57.086727 -21.804892 4294967295
-17.932945 53.589142 -22.151533 4294967295
-17.89135 55.637459 -22.173615 4294967295
-17.887478 52.514713 -21.731798 4294967295
-17.882147 56.578545 -22.243835 4294967295
-17.868162 57.209545 -22.243509 4294967295
-17.860674 56.119747 -22.052149 4294967295
-17.858356 55.80838 -21.996384 4294967295
-17.85573 54.403412 -21.792273 4294967295
-17.854752 55.34132 -21.91197 4294967295
-17.853903 54.091663 -21.739424 4294967295
-17.847399 54.875824 -21.805012 4294967295
-17.844185 57.532959 -22.141378 4294967295
-17.840937 53.315712 -21.556824 4294967295
-17.823404 57.855003 -22.05846 4294967295
-17.817913 58.482346 -22.109144 4294967295
-17.813841 57.703255 -21.980127 4294967295
-17.813169 56.922417 -21.871502 4294967295
-17.807636 58.799595 -22.089281 4294967295
-17.80617 58.175484 -21.996832 4294967295
-17.804483 57.395138 -21.882114 4294967295
-17.803391 56.301823 -21.729073 4294967295
-17.797232 58.335907 -21.964096 4294967295
-17.785055 58.654118 -21.93285 4294967295
-17.782444 52.646832 -22.078157 4294967295
-17.743113 53.75687 -21.988588 4294967295
-17.739658 52.820904 -21.84235 4294967295
-17.728054 54.700661 -22.023733 4294967295
-17.718679 53.454777 -21.800167 4294967295
-17.709576 53.146061 -21.703707 4294967295
-17.704353 55.023476 -21.923401 4294967295
-17.701832 56.899101 -22.159159 4294967295
-17.699492 52.52504 -21.559483 4294967295
-17.695627 52.995617 -21.599094 4294967295
-17.694742 55.965111 -21.99123 4294967295
-17.675699 54.098282 -21.62602 4294967295
-17.650581 58.172413 -22.019169 4294967295
-17.610754 52.962887 -22.045124 4294967295
-17.555809 55.32975 -22.029512 4294967295
-17.554504 53.299019 -21.749975 4294967295
-17.553198 54.705971 -21.930288 4294967295
-17.550922 54.550713 -21.895761 4294967295
-17.548994 53.613926 -21.758781 4294967295
-17.54627 56.427464 -22.11866 4294967295
-17.540949 57.679344 -22.253883 4294967295
-17.540192 52.523441 -21.559656 4294967295
-17.538538 55.024872 -21.884308 4294967295
-17.537823 55.650169 -21.963612 4294967295
-17.533899 55.495667 -21.919231 4294967295
-17.531733 58.308289 -22.282253 4294967295
-17.528069 53.779125 -21.65436 4294967295
-17.527519 57.216999 -22.110859 4294967295
-17.52239 58.625011 -22.268106 4294967295
-17.521914 56.750927 -22.014637 4294967295
-17.50136 57.072777 -21.933399 4294967295
-17.499403 56.604908 -21.858997 4294967295
-17.498684 58.948608 -22.168032 4294967295
-17.494045 55.982212 -21.743319 4294967295
-17.47891 57.395603 -21.840818 4294967295
-17.472412 58.17992 -21.906395 4294967295
-17.469952 56.930866 -21.724503 4294967295
-17.462366 58.49715 -21.888063 4294967295
-17.447319 58.816795 -21.839823 4294967295
-17.442898 53.433609 -22.056177 4294967295
-17.440283 53.903358 -22.103191 4294967295
-17.436047 52.655293 -21.910753 4294967295
-17.406845 52.354801 -21.694281 4294967295
-17.401785 56.10701 -22.165329 4294967295
-17.389311 52.831009 -21.65209 4294967295
-17.378521 54.242325 -21.775627 4294967295
-17.372923 53.150513 -21.595867 4294967295
-17.367874 56.590919 -22.025274 4294967295
-17.312229 57.710171 -21.838892 4294967295
-17.252907 55.007515 -22.081337 4294967295
-17.236179 53.139484 -21.730942 4294967295
-17.217405 57.991329 -22.265821 4294967295
-17.215666 53.304413 -21.629328 4294967295
-17.214344 56.430676 -22.038958 4294967295
-17.214218 54.711845 -21.808628 4294967295
-17.213924 55.962139 -21.973856 4294967295
-17.212982 57.212402 -22.135147 4294967295
-17.210352 54.557224 -21.764664 4294967295
-17.205467 55.653374 -21.881632 4294967295
-17.199598 57.530983 -22.097008 4294967295
-17.190317 58.628773 -22.187651 4294967295
-17.179943 56.915005 -21.896275 4294967295
-17.177988 55.196579 -21.65497 4294967295
-17.17453 55.510754 -21.676094 4294967295
-17.172375 57.699791 -21.955444 4294967295
-17.153246 58.802505 -21.987371 4294967295
-17.148272 58.492336 -21.915972 4294967295
-17.12335 53.899651 -22.112598 4294967295
-17.115412 52.965534 -21.940096 4294967295
-17.112715 54.060413 -22.070045 4294967295
-17.104628 54.688805 -22.105261 4294967295
-17.095022 53.442894 -21.881115 4294967295
-17.088827 52.663994 -21.739834 4294967295
-17.084473 55.166275 -22.047684 4294967295
-17.076696 52.356335 -21.625734 4294967295
-17.060373 53.144814 -21.632772 4294967295
-17.057707 53.771271 -21.700365 4294967295
-17.05702 56.740837 -22.092609 4294967295
-17.042044 56.435104 -21.961666 4294967295
-17.040859 55.02906 -21.766872 4294967295
-17.040678 58.779099 -22.266232 4294967295
-17.031723 53.625927 -21.524569 4294967295
-17.017023 57.852844 -22.000267 4294967295
-16.927029 54.07016 -21.912914 4294967295
-16.922428 55.634739 -22.093977 4294967295
-16.894745 56.27203 -22.012613 4294967295
-16.894463 56.115898 -21.990095 4294967295
-16.883663 53.463234 -21.571327 4294967295
-16.881689 55.340122 -21.809853 4294967295
-16.880386 54.246403 -21.656132 4294967295
-16.875959 58.780346 -22.2342 4294967295
-16.875364 57.218327 -22.022345 4294967295
-16.874729 57.062359 -21.997732 4294967295
-16.87472 55.186859 -21.747532 4294967295
-16.871918 54.719078 -21.668287 4294967295
-16.871401 56.907604 -21.95709 4294967295
-16.845911 57.544365 -21.888823 4294967295
-16.842201 57.702362 -21.887594 4294967295
-16.839773 58.016056 -21.914843 4294967295
-16.83144 52.323063 -22.062723 4294967295
-16.820787 58.493782 -21.864439 4294967295
-16.81888 52.796986 -22.050549 4294967295
-16.814634 52.486214 -21.983637 4294967295
-16.798176 53.743164 -22.052471 4294967295
-16.792233 53.433144 -21.975471 4294967295
-16.7899 54.059185 -22.044949 4294967295
-16.785707 54.998447 -22.14501 4294967295
-16.77523 54.221706 -21.97859 4294967295
-16.773907 54.378544 -21.991558 4294967295
-16.770529 55.786251 -22.158941 4294967295
-16.763304 53.132648 -21.761827 4294967295
-16.735573 52.987839 -21.576126 4294967295
-16.73469 53.613659 -21.654268 4294967295
-16.730871 55.960079 -21.944153 4294967295
-16.729462 52.677601 -21.498098 4294967295
-16.718952 57.840603 -22.123249 4294967295
-16.718811 56.278023 -21.914167 4294967295
-16.71541 57.998482 -22.123043 4294967295
-16.702312 58.317059 -22.086893 4294967295
-16.697081 54.724251 -21.576662 4294967295
-16.627752 53.746326 -21.986557 4294967295
-16.62114 52.654976 -21.801519 4294967295
-16.571827 57.364906 -22.133509 4294967295
-16.563801 56.743504 -22.002668 4294967295
-16.56114 56.588421 -21.966066 4294967295
-16.547945 55.500084 -21.742052 4294967295
-16.547743 56.281818 -21.844967 4294967295
-16.546246 57.064011 -21.94018 4294967295
-16.546082 57.689217 -22.022453 4294967295
-16.543955 58.159 -22.072264 4294967295
-16.528143 56.446903 -21.749537 4294967295
-16.512829 58.954914 -21.991772 4294967295
-16.506437 58.489033 -21.891447 4294967295
-16.499111 57.554462 -21.72311 4294967295
-16.490097 57.871304 -21.711296 4294967295
-16.47389 53.898762 -22.039873 4294967295
-16.472668 53.274139 -21.9494 4294967295
-16.469254 52.962952 -21.887533 4294967295
-16.454403 52.500076 -21.737068 4294967295
-16.450472 54.846424 -22.025951 4294967295
-16.441236 54.225208 -21.888006 4294967295
-16.437206 54.695854 -21.926552 4294967295
-16.434423 52.351879 -21.597809 4294967295
-16.433054 55.479122 -22.005989 4294967295
-16.42869 54.386883 -21.83448 4294967295
-16.424147 52.825245 -21.599377 4294967295
-16.420261 53.765091 -21.701275 4294967295
-16.412277 55.957142 -21.94533 4294967295
-16.409418 57.052399 -22.074003 4294967295
-16.397223 55.025784 -21.731291 4294967295
-16.397221 58.776756 -22.230501 4294967295
-16.381491 58.471622 -22.09581 4294967295
-16.366287 55.664745 -21.631306 4294967295
-16.362972 56.917099 -21.778158 4294967295
-16.346983 58.175079 -21.84992 4294967295
-16.288004 55.158852 -22.04924 4294967295
-16.273306 53.132877 -21.69191 4294967295
-16.248945 56.582653 -22.005344 4294967295
-16.24481 57.522205 -22.1056 4294967295
-16.244011 53.927029 -21.622599 4294967295
-16.240486 54.241291 -21.643356 4294967295
-16.210192 58.163254 -21.984089 4294967295
-16.210175 56.287304 -21.734488 4294967295
-16.209211 56.444092 -21.749588 4294967295
-16.200409 58.792992 -22.009392 4294967295
-16.199326 57.85564 -21.878281 4294967295
-16.180794 58.333195 -21.831095 4294967295
-16.179464 56.770157 -21.615288 4294967295
-16.178104 57.239925 -21.669649 4294967295
-16.175264 57.397591 -21.673653 4294967295
-16.165585 58.652966 -21.782778 4294967295
-16.13796 52.49593 -21.751114 4294967295
-16.124321 53.283344 -21.774473 4294967295
-16.12359 54.846966 -21.978014 4294967295
-16.11574 54.381371 -21.869297 4294967295
-16.11112 53.757938 -21.758858 4294967295
-16.096487 56.57814 -22.046503 4294967295
-16.093674 52.670437 -21.51021 4294967295
-16.090919 55.330074 -21.847408 4294967295
-16.082676 53.926289 -21.611612 4294967295
-16.080055 55.022079 -21.741673 4294967295
-16.078047 52.989723 -21.459471 4294967295
-16.070633 55.807987 -21.789951 4294967295
-16.070543 57.840206 -22.059526 4294967295
-16.06267 54.091152 -21.514219 4294967295
-16.061089 55.186668 -21.650444 4294967295
-16.037392 56.135399 -21.635242 4294967295
-16.015963 52.166447 -21.93042 4294967295
-16.011026 57.085575 -21.6043 4294967295
-15.974115 52.808887 -21.766611 4294967295
-15.972578 52.965881 -21.77832 4294967295
-15.951505 54.069202 -21.799446 4294967295
-15.936664 56.264305 -22.002691 4294967295
-15.912808 56.743893 -21.924349 4294967295
-15.908654 54.556553 -21.609043 4294967295
-15.89465 55.344612 -21.63035 4294967295
-15.870628 57.388313 -21.758776 4294967295
-15.866125 58.484882 -21.877586 4294967295
-15.858451 58.801144 -21.873888 4294967295
-15.855373 58.020775 -21.751936 4294967295
-15.828125 54.052464 -22.011955 4294967295
-15.823386 53.116451 -21.859488 4294967295
-15.82063 52.335751 -21.739428 4294967295
-15.810795 52.652519 -21.723015 4294967295
-15.802176 55.470371 -22.045921 4294967295
-15.794907 55.317219 -21.982374 4294967295
-15.793526 54.692482 -21.89122 4294967295
-15.790616 53.911919 -21.770281 4294967295
-15.787843 53.443928 -21.691652 4294967295
-15.784917 52.506664 -21.549793 4294967295
-15.783835 55.947334 -22.0002 4294967295
-15.781931 56.72971 -22.092728 4294967295
-15.778189 55.793488 -21.946207 4294967295
-15.775661 53.761806 -21.661432 4294967295
-15.769414 54.233631 -21.686941 4294967295
-15.765353 53.296852 -21.53841 4294967295
-15.764893 55.173866 -21.784897 4294967295
-15.757719 56.584202 -21.929464 4294967295
-15.756589 52.831123 -21.424456 4294967295
-15.753219 57.367863 -22.006725 4294967295
-15.750498 58.93206 -22.198128 4294967295
-15.746246 56.2766 -21.820421 4294967295
-15.744192 54.400742 -21.559177 4294967295
-15.741972 58.154568 -22.044268 4294967295
-15.71608 57.228313 -21.767395 4294967295
-15.714952 56.134041 -21.61544 4294967295
-15.70926 57.856907 -21.810276 4294967295
-15.661992 52.177429 -21.723492 4294967295
-15.617025 54.385506 -21.749569 4294967295
-15.614239 57.044617 -22.085787 4294967295
-15.610435 52.980511 -21.52401 4294967295
-15.597816 56.73933 -21.947803 4294967295
-15.59352 54.082619 -21.569845 4294967295
-15.532571 58.64534 -21.813269 4294967295
-15.516585 52.639278 -21.86834 4294967295
-15.497586 53.585281 -21.88118 4294967295
-15.495508 54.68058 -22.014101 4294967295
-15.492158 53.743908 -21.870043 4294967295
-15.490819 54.995243 -22.028028 4294967295
-15.468073 55.161369 -21.915228 4294967295
-15.460741 55.477253 -21.913645 4294967295
-15.459339 54.070431 -21.718811 4294967295
-15.455123 52.351387 -21.465843 4294967295
-15.447877 55.951935 -21.900326 4294967295
-15.445456 52.824711 -21.471319 4294967295
-15.439524 56.42469 -21.913483 4294967295
-15.434825 57.833843 -22.072418 4294967295
-15.434566 54.862991 -21.677059 4294967295
-15.42609 57.525154 -21.979727 4294967295
-15.418447 56.121239 -21.748331 4294967295
-15.417622 57.216274 -21.888592 4294967295
-15.414656 54.558613 -21.518684 4294967295
-15.41122 58.626312 -22.037525 4294967295
-15.40939 58.939812 -22.068226 4294967295
-15.408996 56.907394 -21.796518 4294967295
-15.384907 55.666622 -21.489256 4294967295
-15.383147 57.701019 -21.748495 4294967295
-15.373577 58.018188 -21.73381 4294967295
-15.372075 58.800842 -21.828629 4294967295
-15.366168 52.477657 -21.900654 4294967295
-15.333031 54.36768 -21.955008 4294967295
-15.303123 56.100388 -22.007574 4294967295
-15.296703 52.192852 -21.451786 4294967295
-15.286754 54.074398 -21.642256 4294967295
-15.280425 53.607708 -21.542957 4294967295
-15.237226 54.877655 -21.455568 4294967295
-15.236732 55.190819 -21.494135 4294967295
-15.202727 57.865559 -21.647207 4294967295
-15.201585 52.634514 -21.891394 4294967295
-15.199873 52.322445 -21.839941 4294967295
-15.191246 58.809406 -21.704264 4294967295
-15.189495 52.170219 -21.758453 4294967295
-15.151227 55.001137 -21.907213 4294967295
-15.148391 53.281887 -21.662783 4294967295
-15.139378 54.849815 -21.817154 4294967295
-15.138764 53.755173 -21.668579 4294967295
-15.134172 52.818356 -21.517368 4294967295
-15.128583 53.915855 -21.62969 4294967295
-15.120697 54.388493 -21.645676 4294967295
-15.118791 53.137596 -21.468754 4294967295
-15.112539 55.330551 -21.722204 4294967295
-15.105827 55.646297 -21.724348 4294967295
-15.096229 56.901779 -21.833834 4294967295
-15.090392 57.217175 -21.841093 4294967295
-15.086405 56.59333 -21.734947 4294967295
-15.083911 55.81226 -21.616806 4294967295
-15.083142 57.689617 -21.860785 4294967295
-15.082552 56.282177 -21.67099 4294967295
-15.081017 58.159733 -21.910454 4294967295
-15.07889 54.093132 -21.359505 4294967295
-15.075259 54.564178 -21.400429 4294967295
-15.068906 58.478054 -21.881008 4294967295
-15.06624 56.445812 -21.596254 4294967295
-15.064346 55.507816 -21.46088 4294967295
-15.060056 57.387226 -21.68433 4294967295
-15.050008 55.983521 -21.439133 4294967295
-15.019511 58.657265 -21.612837 4294967295
-15.001796 53.118576 -21.717855 4294967295
-14.995351 53.590508 -21.742285 4294967295
-14.9891 55.938995 -22.016163 4294967295
-14.98453 52.499798 -21.534082 4294967295
-14.942883 57.992245 -22.015074 4294967295
-14.94216 52.673443 -21.307053 4294967295
-14.908027 55.191933 -21.438944 4294967295
-14.897903 56.761177 -21.58683 4294967295
-14.865726 57.244968 -21.460964 4294967295
-14.848268 53.114548 -21.753033 4294967295
-14.84326 52.334362 -21.620335 4294967295
-14.832316 52.964622 -21.639225 4294967295
-14.828261 54.53064 -21.822445 4294967295
-14.81435 52.81546 -21.513645 4294967295
-14.812453 53.285679 -21.564659 4294967295
-14.807082 54.070236 -21.636776 4294967295
-14.80672 55.791119 -21.862206 4294967295
-14.799351 53.760521 -21.550268 4294967295
-14.798019 57.046059 -21.976854 4294967295
-14.796531 55.326271 -21.740707 4294967295
-14.796494 54.856964 -21.67844 4294967295
-14.791692 55.171906 -21.69179 4294967295
-14.788424 55.016853 -21.652027 4294967295
-14.785281 56.738941 -21.861208 4294967295
-14.782766 56.583645 -21.825861 4294967295
-14.76403 54.714275 -21.468306 4294967295
-14.761362 57.84449 -21.866434 4294967295
-14.755567 58.31633 -21.894657 4294967295
-14.750854 58.005669 -21.825823 4294967295
-14.74301 55.505779 -21.44912 4294967295
-14.742791 58.947803 -21.902849 4294967295
-14.731964 55.667065 -21.405371 4294967295
-14.71301 56.457932 -21.398264 4294967295
-14.711466 52.321617 -21.782307 4294967295
-14.70953 57.711506 -21.543482 4294967295
-14.69362 58.657654 -21.574804 4294967295
-14.65953 54.220131 -21.727716 4294967295
-14.628495 56.267056 -21.815626 4294967295
-14.626938 57.362591 -21.951204 4294967295
-14.598607 54.558701 -21.414068 4294967295
-14.565944 55.981411 -21.409912 4294967295
-14.530875 58.031738 -21.474487 4294967295
-14.527179 52.642857 -21.679661 4294967295
-14.518343 53.741623 -21.772892 4294967295
-14.518051 58.663639 -21.482517 4294967295
-14.503448 52.495934 -21.520864 4294967295
-14.499181 52.967152 -21.558039 4294967295
-14.493018 53.28265 -21.563513 4294967295
-14.480798 54.070137 -21.595747 4294967295
-14.477215 52.81955 -21.409515 4294967295
-14.476039 53.446114 -21.485371 4294967295
-14.474848 56.106602 -21.829723 4294967295
-14.473837 54.386017 -21.596577 4294967295
-14.461985 53.921463 -21.465605 4294967295
-14.458957 55.800613 -21.695978 4294967295
-14.458777 57.208641 -21.880831 4294967295
-14.45798 54.705677 -21.545652 4294967295
-14.455407 58.461349 -22.026403 4294967295
-14.452674 57.837021 -21.927935 4294967295
-14.451619 55.490837 -21.611973 4294967295
-14.44655 58.621796 -21.995558 4294967295
-14.439964 57.999187 -21.874691 4294967295
-14.43926 55.026627 -21.478079 4294967295
-14.437186 55.653542 -21.548681 4294967295
-14.432338 57.376888 -21.747742 4294967295
-14.429488 54.248074 -21.31786 4294967295
-14.422161 57.068501 -21.647253 4294967295
-14.422099 56.755569 -21.605572 4294967295
-14.417476 58.79158 -21.847191 4294967295
-14.41253 56.446789 -21.508596 4294967295
-14.404796 57.702183 -21.628908 4294967295
-14.398676 57.54845 -21.572668 4294967295
-14.378669 52.949703 -21.78541 4294967295
-14.352576 52.177818 -21.530479 4294967295
-14.348867 54.526417 -21.818739 4294967295
-14.343647 53.589855 -21.664507 4294967295
-14.337241 54.687756 -21.771845 4294967295
-14.325399 56.726391 -21.971409 4294967295
-14.317954 56.41684 -21.886898 4294967295
-14.303916 52.510353 -21.288984 4294967295
-14.278524 53.460091 -21.265434 4294967295
-14.265862 56.126652 -21.543091 4294967295
-14.213124 52.48114 -21.688955 4294967295
-14.188935 53.273327 -21.6518 4294967295
-14.17281 53.123394 -21.53759 4294967295
-14.166761 53.751907 -21.585077 4294967295
-14.166543 55.316784 -21.790194 4294967295
-14.164544 54.691772 -21.696056 4294967295
-14.152761 56.730728 -21.895937 4294967295
-14.149294 54.854691 -21.628237 4294967295
-14.142734 55.013966 -21.610825 4294967295
-14.135887 56.581703 -21.777464 4294967295
-14.130655 55.801605 -21.643963 4294967295
-14.125925 54.394966 -21.430748 4294967295
-14.125838 54.081905 -21.388948 4294967295
-14.113629 56.121975 -21.586498 4294967295
-14.10963 53.93206 -21.27426 4294967295
-14.108871 57.532452 -21.74461 4294967295
-14.100054 54.249207 -21.260015 4294967295
-14.086892 58.794128 -21.782223 4294967295
-14.083943 57.700115 -21.620731 4294967295
-14.082644 58.63961 -21.73698 4294967295
-14.081593 52.155411 -21.810484 4294967295
-14.076662 58.016392 -21.619785 4294967295
-14.072083 57.23587 -21.490067 4294967295
-14.070306 58.48877 -21.644838 4294967295
-14.068722 56.298058 -21.346727 4294967295
-14.065619 56.925652 -21.411308 4294967295
-14.063879 52.318924 -21.728466 4294967295
-14.054108 57.400417 -21.406498 4294967295
-14.019839 52.649548 -21.514532 4294967295
-13.996214 55.163395 -21.70775 4294967295
-13.986818 55.636852 -21.715206 4294967295
-13.963972 57.680923 -21.850962 4294967295
-13.95378 55.494507 -21.503258 4294967295
-13.864392 52.333191 -21.497812 4294967295
-13.851722 52.494789 -21.445126 4294967295
-13.838652 54.69154 -21.658203 4294967295
-13.833452 52.815239 -21.380676 4294967295
-13.830331 54.225468 -21.548227 4294967295
-13.826921 54.383415 -21.549118 4294967295
-13.822892 53.132652 -21.360838 4294967295
-13.818688 53.917202 -21.439642 4294967295
-13.804505 52.983501 -21.233831 4294967295
-13.80282 52.670952 -21.182812 4294967295
-13.802105 55.176533 -21.508698 4294967295
-13.797295 53.456245 -21.254009 4294967295
