# .PCD v0.7 - Point Cloud Data file format
VERSION 0.7
FIELDS x y z rgb
SIZE 4 4 4 4
TYPE F F F U
COUNT 1 1 1 1
WIDTH 1121
HEIGHT 1
VIEWPOINT 0 0 0 1 0 0 0
POINTS 1121
DATA ascii
-2.9610388 107.70596 -22.447983 4294967295
-2.9593589 111.14081 -22.007648 4294967295
-2.9529126 106.77067 -22.28657 4294967295
-2.9528675 106.45665 -22.246725 4294967295
-2.9522746 108.02723 -22.441622 4294967295
-2.9502985 107.08685 -22.312466 4294967295
-2.9385326 108.35268 -22.409168 4294967295
-2.9258773 108.67728 -22.382416 4294967295
-2.9244773 111.79936 -21.903908 4294967295
-2.9200938 105.2268 -21.916327 4294967295
-2.9197159 109.15347 -22.409508 4294967295
-2.9109666 105.54842 -21.908079 4294967295
-2.9108226 107.59062 -22.164869 4294967295
-2.8958809 106.97468 -22.00728 4294967295
-2.8921707 110.43285 -22.4235 4294967295
-2.8903437 109.96337 -22.354536 4294967295
-2.8549013 108.26549 -21.950895 4294967295
-2.8535788 111.40804 -22.340046 4294967295
-2.8494892 111.09748 -22.279022 4294967295
-2.8399901 110.79151 -22.189648 4294967295
-2.8333197 105.63822 -22.367605 4294967295
-2.812443 111.9147 -22.183918 4294967295
-2.7955475 110.67242 -21.936945 4294967295
-2.7661116 104.90729 -21.916512 4294967295
-2.7549641 109.31424 -22.412434 4294967295
-2.7293494 109.64991 -22.31793 4294967295
-2.7216482 106.20037 -21.842043 4294967295
-2.71453 110.91875 -22.398664 4294967295
-2.705976 110.61199 -22.314329 4294967295
-2.703934 110.14259 -22.244274 4294967295
-2.7029626 108.88681 -22.080837 4294967295
-2.7007205 107.63179 -21.910696 4294967295
-2.6862679 108.42945 -21.934036 4294967295
-2.6777151 110.32195 -22.126844 4294967295
-2.6720388 111.42634 -22.235683 4294967295
-2.6677947 111.90118 -22.272842 4294967295
-2.6587422 110.02385 -21.987951 4294967295
-2.6576383 111.75288 -22.199915 4294967295
-2.6486368 111.13226 -22.073645 4294967295
-2.6436338 110.82232 -22.007872 4294967295
-2.6341856 105.66964 -22.170654 4294967295
-2.6287644 106.30228 -22.221443 4294967295
-2.6243842 111.31019 -21.966536 4294967295
-2.6234877 107.56294 -22.352106 4294967295
-2.6227193 107.09248 -22.288746 4294967295
-2.6174374 104.89774 -21.984076 4294967295
-2.5917766 106.64668 -22.067554 4294967295
-2.5818024 108.53983 -22.252827 4294967295
-2.5807085 105.24159 -21.831505 4294967295
-2.5783978 109.79903 -22.393261 4294967295
-2.5767713 106.50185 -21.96928 4294967295
-2.5763133 107.91613 -22.144991 4294967295
-2.5755825 107.44547 -22.081808 4294967295
-2.564693 106.82599 -21.945694 4294967295
-2.556201 109.34661 -22.217897 4294967295
-2.5490723 108.25295 -22.04213 4294967295
-2.5388634 107.31864 -21.869991 4294967295
-2.5303633 111.56738 -22.359764 4294967295
-2.5134163 109.53974 -22.014029 4294967295
-2.4995558 105.17757 -22.25198 4294967295
-2.4650958 105.04825 -22.052155 4294967295
-2.4542046 105.99963 -22.113941 4294967295
-2.4440649 111.95592 -21.948421 4294967295
-2.4426689 105.53767 -21.994333 4294967295
-2.3908417 106.99408 -21.901667 4294967295
-2.3886166 110.13805 -22.285589 4294967295
-2.3853886 109.35538 -22.169882 4294967295
-2.3756917 108.42085 -22.000595 4294967295
-2.3752587 110.6206 -22.275177 4294967295
-2.3712027 110.30989 -22.21447 4294967295
-2.3703957 108.89664 -22.032282 4294967295
-2.3569484 108.5936 -21.922512 4294967295
-2.3558929 111.26543 -22.253191 4294967295
-2.3410501 109.5498 -21.9582 4294967295
-2.339853 110.02223 -22.01129 4294967295
-2.3322029 111.1286 -22.109793 4294967295
-2.3167655 105.66678 -22.200394 4294967295
-2.3135846 110.98738 -21.992857 4294967295
-2.3077738 104.88857 -22.054632 4294967295
-2.3054082 111.62294 -22.029297 4294967295
-2.2949631 107.09817 -22.264549 4294967295
-2.2900321 105.84551 -22.080694 4294967295
-2.2868202 105.37676 -22.004622 4294967295
-2.2727804 106.33086 -22.050011 4294967295
-2.2685459 111.81179 -21.856731 4294967295
-2.2677073 106.64922 -22.063089 4294967295
-2.2622161 107.43925 -22.133291 4294967295
-2.2570958 105.0864 -21.809978 4294967295
-2.2564971 108.54361 -22.241819 4294967295
-2.2550588 108.23064 -22.194796 4294967295
-2.2438233 109.65372 -22.314068 4294967295
-2.240469 110.28479 -22.375614 4294967295
-2.2289264 110.9228 -22.394478 4294967295
-2.2268531 106.21107 -21.790657 4294967295
-2.2245555 107.31312 -21.917109 4294967295
-2.2203832 107.63086 -21.934896 4294967295
-2.1871111 107.97269 -21.800936 4294967295
-2.1623402 110.50814 -21.988157 4294967295
-2.1614192 111.60888 -22.121716 4294967295
-2.1289206 105.37463 -22.024006 4294967295
-2.1177349 107.89735 -22.281855 4294967295
-2.1176071 111.48929 -21.873644 4294967295
-2.1098084 106.01859 -22.003483 4294967295
-2.1000881 107.59773 -22.150446 4294967295
-2.0662775 106.52543 -21.836008 4294967295
-2.0548835 105.74868 -21.677799 4294967295
-2.0534854 106.69304 -21.789143 4294967295
-2.0526066 108.73692 -22.041492 4294967295
-2.0524001 109.36561 -22.119446 4294967295
-2.0516183 110.93727 -22.312889 4294967295
-2.0467753 108.27032 -21.951849 4294967295
-2.0460188 110.62786 -22.244247 4294967295
-2.0439734 111.41503 -22.332344 4294967295
-2.0419724 110.00285 -22.144178 4294967295
-2.0383065 105.91931 -21.611208 4294967295
-2.0316255 110.16871 -22.110073 4294967295
-2.0238826 108.60366 -21.872168 4294967295
-2.0147698 111.91135 -22.239618 4294967295
-1.9919587 111.77381 -22.10117 4294967295
-1.9789479 110.84197 -21.914917 4294967295
-1.9678783 106.63196 -22.185061 4294967295
-1.9651259 108.20503 -22.36817 4294967295
-1.9627476 106.95035 -22.197863 4294967295
-1.9522641 107.90151 -22.261801 4294967295
-1.9492388 106.01861 -22.009096 4294967295
-1.942112 111.65938 -21.822021 4294967295
-1.9397916 108.85435 -22.31539 4294967295
-1.9295408 107.4489 -22.084385 4294967295
-1.9252806 106.35234 -21.923964 4294967295
-1.922003 107.76936 -22.084679 4294967295
-1.9051452 107.15459 -21.917995 4294967295
-1.8911051 111.56573 -22.397835 4294967295
-1.8841437 107.64336 -21.868029 4294967295
-1.8839704 106.85753 -21.768341 4294967295
-1.8685859 109.38518 -22.0044 4294967295
-1.8672996 109.70057 -22.037209 4294967295
-1.8415391 109.87939 -21.923038 4294967295
-1.8276347 110.83421 -21.969261 4294967295
-1.7516626 108.24889 -22.098906 4294967295
-1.7390821 108.10214 -22.013834 4294967295
-1.7189894 110.31892 -22.185814 4294967295
-1.7155484 107.02112 -21.753387 4294967295
-1.7076815 111.58546 -22.284964 4294967295
-1.7058017 108.75839 -21.919973 4294967295
-1.7048244 108.91639 -21.934641 4294967295
-1.7023017 110.80444 -22.15839 4294967295
-1.7013924 107.97604 -21.798351 4294967295
-1.69506 111.43913 -22.19973 4294967295
-1.6925998 109.86969 -21.989611 4294967295
-1.6914818 109.39908 -21.924587 4294967295
-1.6811213 111.92244 -22.186586 4294967295
-1.6792685 110.19526 -21.959883 4294967295
-1.6772782 109.56816 -21.870584 4294967295
-1.6517252 111.16171 -21.93535 4294967295
-1.6232507 111.81483 -21.866533 4294967295
-1.6210651 107.28149 -22.141859 4294967295
-1.6031866 108.3961 -22.18721 4294967295
-1.5931224 107.61868 -22.036377 4294967295
-1.5889611 108.56501 -22.133163 4294967295
-1.5577707 109.84817 -22.129238 4294967295
-1.5350163 110.9674 -22.149347 4294967295
-1.4172398 109.5172 -22.199621 4294967295
-1.4012908 108.90186 -22.038172 4294967295
-1.3814602 110.64728 -22.152372 4294967295
-1.379374 109.07724 -21.944397 4294967295
-1.3759317 110.49478 -22.104038 4294967295
-1.3653338 110.18934 -22.009741 4294967295
-1.3572321 109.4101 -21.869188 4294967295
-1.3539597 109.88448 -21.911413 4294967295
-1.346948 111.77672 -22.111729 4294967295
-1.3414558 111.93858 -22.103018 4294967295
-1.3384998 111.31236 -22.008856 4294967295
-1.3240381 111.63907 -21.97344 4294967295
-1.2614601 109.19901 -22.190981 4294967295
-1.2589122 108.57249 -22.098984 4294967295
-1.2583997 108.41574 -22.076626 4294967295
-1.2385854 110.00387 -22.171221 4294967295
-1.202379 109.71979 -21.944601 4294967295
-1.1787845 111.31172 -22.019712 4294967295
-1.1716799 110.68887 -21.90415 4294967295
-1.0773993 109.06139 -22.056021 4294967295
-1.0386397 109.87968 -21.954367 4294967295
-1.0220549 110.83691 -21.986937 4294967295
-1.0078346 110.21992 -21.834713 4294967295
-1.0076492 111.63519 -22.011063 4294967295
-1.0052987 111.00828 -21.920134 4294967295
-0.9923172 111.96267 -21.971321 4294967295
-0.89177948 109.71104 -22.011875 4294967295
-0.88524139 110.18814 -22.037228 4294967295
-0.85553479 111.62807 -22.061256 4294967295
-0.82348537 111.18349 -21.836975 4294967295
-0.79773211 110.89065 -21.664814 4294967295
-0.79725027 110.73374 -21.64263 4294967295
-0.71056789 111.45771 -22.128517 4294967295
-0.69476062 110.84216 -21.968428 4294967295
-0.69222921 111.94489 -22.093136 4294967295
-0.68793678 110.69065 -21.913614 4294967295
-0.66315168 111.65511 -21.9041 4294967295
-0.63058352 110.42415 -21.57893 4294967295
-0.62199563 111.8473 -21.711924 4294967295
-0.61237741 111.38348 -21.603344 4294967295
-0.50765538 111.3363 -21.897734 4294967295
-0.3149007 111.67805 -21.778757 4294967295
-17.874413 112.4892 -23.840717 4294967295
-17.32303 115.8376 -23.848892 4294967295
-17.206831 114.08043 -23.880823 4294967295
-17.048019 113.92477 -23.866661 4294967295
-17.008713 115.05536 -23.778385 4294967295
-16.585373 112.19688 -23.740633 4294967295
-16.530809 115.05725 -23.790693 4294967295
-16.508017 115.23618 -23.676647 4294967295
-16.41695 112.67409 -23.752846 4294967295
-16.396151 112.8505 -23.650703 4294967295
-16.395575 114.09835 -23.812876 4294967295
-16.382673 113.79941 -23.695305 4294967295
-16.38026 113.17808 -23.598269 4294967295
-16.189615 115.08118 -23.666121 4294967295
-16.097998 112.98731 -23.800434 4294967295
-16.070309 114.57386 -23.844112 4294967295
-16.069868 114.4184 -23.82085 4294967295
-16.068954 113.32782 -23.670788 4294967295
-16.06488 113.17589 -23.626131 4294967295
-16.051319 114.28098 -23.691008 4294967295
-16.045977 115.22192 -23.783579 4294967295
-15.77416 113.77309 -23.881483 4294967295
-15.773003 113.30649 -23.812763 4294967295
-15.763719 112.37991 -23.634394 4294967295
-15.750026 113.01719 -23.63661 4294967295
-15.703901 114.46664 -23.551762 4294967295
-15.626199 112.35912 -23.766653 4294967295
-15.61405 112.99477 -23.777971 4294967295
-15.5949 112.54561 -23.603832 4294967295
-15.588846 113.33144 -23.671532 4294967295
-15.578608 113.80945 -23.673433 4294967295
-15.461844 112.36449 -23.741547 4294967295
-15.438805 112.23092 -23.586079 4294967295
-15.433913 113.48357 -23.722433 4294967295
-15.408051 114.28899 -23.674227 4294967295
-15.400557 113.98442 -23.589134 4294967295
-15.388092 114.93279 -23.639948 4294967295
-15.262787 112.71561 -23.555038 4294967295
-15.248135 113.82206 -23.613714 4294967295
-15.243056 113.359 -23.522209 4294967295
-15.142476 112.52208 -23.76692 4294967295
-15.128925 113.00321 -23.749643 4294967295
-15.119774 112.38814 -23.613859 4294967295
-15.11298 113.79874 -23.759592 4294967295
-15.098143 114.74926 -23.796598 4294967295
-15.092371 113.35096 -23.577581 4294967295
-15.052327 114.17052 -23.447001 4294967295
-15.051776 114.32713 -23.464388 4294967295
-14.98458 112.36516 -23.759254 4294967295
-14.973249 112.06413 -23.652073 4294967295
-14.948864 112.71183 -23.592344 4294967295
-14.947224 114.11751 -23.768042 4294967295
-14.929818 114.91467 -23.769577 4294967295
-14.920346 113.67588 -23.549753 4294967295
-14.919178 114.76922 -23.68704 4294967295
-14.827026 112.05189 -23.733086 4294967295
-14.804853 112.2293 -23.624662 4294967295
-14.792629 112.86526 -23.635851 4294967295
-14.774841 114.44284 -23.738106 4294967295
-14.75809 114.14729 -23.599556 4294967295
-14.756281 114.61718 -23.650751 4294967295
-14.754985 113.214 -23.45804 4294967295
-14.748951 113.6881 -23.484684 4294967295
-14.677846 112.66645 -23.878979 4294967295
-14.671546 112.51657 -23.821833 4294967295
-14.630314 113.64869 -23.726265 4294967295
-14.614404 114.75641 -23.777767 4294967295
-14.564099 114.49394 -23.44459 4294967295
-14.490565 112.53791 -23.700989 4294967295
-14.484332 112.23185 -23.623743 4294967295
-14.470992 113.80513 -23.751846 4294967295
-14.466229 112.87354 -23.60095 4294967295
-14.462484 113.34533 -23.640881 4294967295
-14.449898 114.44992 -23.711723 4294967295
-14.429803 114.00148 -23.533579 4294967295
-14.429593 113.53343 -23.470709 4294967295
-14.410974 112.77094 -23.259954 4294967295
-14.399297 114.65579 -23.438929 4294967295
-14.397155 113.25277 -23.241495 4294967295
-14.384618 114.358 -23.312721 4294967295
-14.200461 112.04313 -23.814596 4294967295
-14.150455 112.55933 -23.587 4294967295
-14.138458 112.41478 -23.497103 4294967295
-14.108298 113.38055 -23.445896 4294967295
-14.10475 114.47673 -23.569067 4294967295
-14.10215 113.07426 -23.369289 4294967295
-14.101042 114.01206 -23.486059 4294967295
-14.090435 113.55403 -23.363155 4294967295
-14.088649 112.30651 -23.188545 4294967295
-14.073141 114.19545 -23.345312 4294967295
-14.041054 114.69537 -23.221451 4294967295
-13.938186 114.64027 -23.553389 4294967295
-13.926838 112.93382 -23.262197 4294967295
-13.905882 114.35965 -23.325926 4294967295
-13.903214 113.4252 -23.187393 4294967295
-13.834319 112.08926 -23.550743 4294967295
-13.817516 113.19809 -23.597389 4294967295
-13.807653 113.98811 -23.643032 4294967295
-13.793763 112.44034 -23.357939 4294967295
-13.783504 113.54324 -23.442345 4294967295
-13.781172 114.32613 -23.53142 4294967295
-13.771784 112.77377 -23.272249 4294967295
-13.745111 112.95564 -23.139002 4294967295
-13.734409 113.4346 -23.138865 4294967295
-13.637993 112.28101 -23.363728 4294967295
-13.63009 112.75706 -23.379725 4294967295
-13.578955 113.58727 -23.187899 4294967295
-13.477538 112.59464 -23.404076 4294967295
-13.468333 112.2911 -23.310204 4294967295
-13.463297 113.38912 -23.424639 4294967295
-13.462814 113.7019 -23.462826 4294967295
-13.452076 113.08759 -23.319187 4294967295
-13.440413 114.1921 -23.39555 4294967295
-13.430372 114.04568 -23.317369 4294967295
-13.419233 112.49422 -23.04847 4294967295
-13.414294 113.59262 -23.163525 4294967295
-13.380894 114.56245 -23.094543 4294967295
-13.318895 112.90654 -23.454863 4294967295
-13.301847 112.7667 -23.33655 4294967295
-13.27865 114.50706 -23.428621 4294967295
-13.257054 112.18455 -22.997561 4294967295
-13.246955 112.66299 -23.001051 4294967295
-13.144404 112.7651 -23.353468 4294967295
-13.141672 113.39246 -23.41964 4294967295
-13.135536 112.46116 -23.261724 4294967295
-13.134218 113.08724 -23.33602 4294967295
-13.133796 113.71241 -23.41543 4294967295
-13.120732 113.56881 -23.320126 4294967295
-13.106171 114.36391 -23.338997 4294967295
-13.096759 114.0606 -23.24416 4294967295
-13.002212 112.59276 -23.437231 4294967295
-12.967004 114.34458 -23.46068 4294967295
-12.965961 114.03322 -23.413836 4294967295
-12.915775 113.30033 -23.024471 4294967295
-12.811052 113.56057 -23.384073 4294967295
-12.805428 112.94108 -23.270197 4294967295
-12.80153 114.50696 -23.452269 4294967295
-12.798748 113.72861 -23.334217 4294967295
-12.782673 113.43158 -23.201513 4294967295
-12.763258 112.35612 -22.947479 4294967295
-12.734739 114.2591 -23.029921 4294967295
-12.729248 113.95178 -22.957664 4294967295
-12.68504 112.27933 -23.417118 4294967295
-12.646844 112.62803 -23.240044 4294967295
-12.637435 114.04315 -23.370193 4294967295
-12.634235 113.89001 -23.331524 4294967295
-12.628859 112.48885 -23.117006 4294967295
-12.593844 114.55398 -23.182861 4294967295
-12.575742 113.78996 -22.977465 4294967295
-12.466291 113.42967 -23.227764 4294967295
-12.465401 114.2118 -23.324755 4294967295
-12.462426 112.96454 -23.144499 4294967295
-12.445798 113.76185 -23.151875 4294967295
-12.440101 114.54872 -23.221504 4294967295
-12.433444 114.0863 -23.122349 4294967295
-12.401742 113.96045 -22.921385 4294967295
-12.32701 112.62938 -23.246498 4294967295
-12.32522 112.31853 -23.195511 4294967295
-12.272824 113.30607 -23.01992 4294967295
-12.122297 113.14142 -23.056601 4294967295
-12.119257 113.76959 -23.120914 4294967295
-12.111056 113.30844 -23.013155 4294967295
-12.110003 114.2474 -23.129545 4294967295
-12.105908 113.62602 -23.024715 4294967295
-12.10023 112.53693 -22.849663 4294967295
-12.081292 114.11862 -22.946129 4294967295
-12.067745 114.44436 -22.910007 4294967295
-12.010055 112.31539 -23.228819 4294967295
-11.988252 112.80487 -23.166304 4294967295
-11.942599 113.94256 -23.050108 4294967295
-11.796176 112.21039 -22.906321 4294967295
-11.79027 113.15417 -22.995138 4294967295
-11.783468 112.6915 -22.895491 4294967295
-11.767229 113.33241 -22.885048 4294967295
-11.751918 113.65975 -22.839106 4294967295
-11.74779 114.13288 -22.876875 4294967295
-11.723728 114.31232 -22.761032 4294967295
-11.679008 112.79609 -23.233541 4294967295
-11.677208 112.95409 -23.243721 4294967295
-11.668857 113.74352 -23.298271 4294967295
-11.639687 113.30226 -23.072277 4294967295
-11.62195 114.4136 -23.114519 4294967295
-11.518026 112.48505 -23.190538 4294967295
-11.470014 113.78117 -23.082237 4294967295
-11.459684 113.63461 -23.003572 4294967295
-11.450832 114.42492 -23.055349 4294967295
-11.450602 112.23553 -22.769096 4294967295
-11.445733 114.27341 -23.006222 4294967295
-11.432514 113.97323 -22.890896 4294967295
-11.409904 113.52541 -22.702187 4294967295
-11.355932 112.48766 -23.182074 4294967295
-11.339684 112.81562 -23.131128 4294967295
-11.324019 112.98672 -23.063148 4294967295
-11.30826 113.78349 -23.075991 4294967295
-11.30372 113.16225 -22.969049 4294967295
-11.273479 114.75494 -23.001968 4294967295
-11.231802 114.01255 -22.665354 4294967295
-11.151627 112.84261 -22.976711 4294967295
-11.141493 114.57243 -23.143248 4294967295
-11.138149 114.10648 -23.063461 4294967295
-11.126166 114.27428 -23.016344 4294967295
-11.125855 114.43097 -23.034918 4294967295
-11.125263 113.96233 -22.970608 4294967295
-11.12027 113.49781 -22.88151 4294967295
-11.115547 112.09418 -22.671907 4294967295
-11.115497 113.81518 -22.895304 4294967295
-11.112947 114.75609 -23.002928 4294967295
-11.013858 113.44781 -23.186779 4294967295
-11.00493 113.14348 -23.095974 4294967295
-10.99555 112.21385 -22.921347 4294967295
-10.994949 112.52724 -22.958607 4294967295
-10.981068 113.79156 -23.043102 4294967295
-10.978683 113.01175 -22.928122 4294967295
-10.913195 114.95115 -22.803886 4294967295
-10.907554 113.70464 -22.609587 4294967295
-10.793492 113.81822 -22.892279 4294967295
-10.778613 114.30167 -22.869698 4294967295
-10.769038 112.90237 -22.63315 4294967295
-10.763609 113.37698 -22.663624 4294967295
-10.761122 114.00531 -22.730919 4294967295
-10.73716 114.81054 -22.698017 4294967295
-10.713095 114.52042 -22.522345 4294967295
-10.707803 112.49771 -23.150679 4294967295
-10.671744 112.21845 -22.907957 4294967295
-10.661688 113.94857 -23.074816 4294967295
-10.650188 114.4287 -23.071245 4294967295
-10.649368 114.58589 -23.086941 4294967295
-10.637791 112.71947 -22.778521 4294967295
-10.637752 113.03246 -22.818903 4294967295
-10.637752 113.34539 -22.859497 4294967295
-10.579596 114.18269 -22.63508 4294967295
-10.459515 113.36302 -22.761744 4294967295
-10.45547 114.46221 -22.881117 4294967295
-10.427771 113.23627 -22.563795 4294967295
-10.427741 114.95801 -22.786825 4294967295
-10.405394 114.82277 -22.641508 4294967295
-10.400225 114.20149 -22.531414 4294967295
-10.345993 113.31996 -23.026009 4294967295
-10.3344 113.64372 -23.001762 4294967295
-10.317005 114.12946 -22.965374 4294967295
-10.307259 112.73025 -22.728437 4294967295
-10.303473 112.42073 -22.666719 4294967295
-10.298505 112.89492 -22.699795 4294967295
-10.294251 112.58583 -22.635458 4294967295
-10.283999 113.06498 -22.639009 4294967295
-10.281738 113.53669 -22.687214 4294967295
-10.26945 114.6439 -22.760494 4294967295
-10.11412 113.38773 -22.629169 4294967295
-10.105783 114.80439 -22.765055 4294967295
-10.105728 113.08246 -22.54179 4294967295
-10.104999 113.86593 -22.639078 4294967295
-10.092534 114.50387 -22.65061 4294967295
-10.074507 113.5814 -22.428391 4294967295
-10.045333 114.7051 -22.407551 4294967295
-10.043338 115.0202 -22.436974 4294967295
-10.029978 112.84793 -22.995998 4294967295
-10.024347 112.07076 -22.863371 4294967295
-10.011902 113.1777 -22.935764 4294967295
-10.006863 113.49537 -22.948183 4294967295
-9.9720583 113.84097 -22.79476 4294967295
-9.9698572 112.74729 -22.640707 4294967295
-9.969779 112.43425 -22.599751 4294967295
-9.957902 114.16733 -22.756395 4294967295
-9.8491993 112.24168 -22.803782 4294967295
-9.788826 112.6106 -22.508289 4294967295
-9.7798471 113.55847 -22.579826 4294967295
-9.778657 114.49899 -22.694683 4294967295
-9.7743654 114.97269 -22.731541 4294967295
-9.7712097 114.66257 -22.673496 4294967295
-9.7585258 113.42178 -22.440941 4294967295
-9.757884 112.95251 -22.376608 4294967295
-9.7379532 115.16377 -22.549252 4294967295
-9.7346926 114.07056 -22.389357 4294967295
-9.7133017 112.37638 -22.962606 4294967295
-9.6800232 113.34622 -22.899055 4294967295
-9.674263 112.88202 -22.80636 4294967295
-9.665658 113.82916 -22.879927 4294967295
-9.6457014 113.53474 -22.728592 4294967295
-9.6029434 114.51422 -22.612457 4294967295
-9.5672035 113.76463 -22.312712 4294967295
-9.4841442 114.63243 -22.866463 4294967295
-9.4526796 113.09608 -22.489691 4294967295
-9.4407282 112.48059 -22.342447 4294967295
-9.4344187 113.58293 -22.449068 4294967295
-9.4212065 114.8483 -22.5376 4294967295
-9.4158697 113.28689 -22.305691 4294967295
-9.4142256 114.0717 -22.397736 4294967295
-9.4049425 113.76706 -22.305773 4294967295
-9.3948917 115.34304 -22.452339 4294967295
-9.3906803 115.19038 -22.408751 4294967295
-9.3751812 115.04837 -22.302561 4294967295
-9.357439 112.25372 -22.752794 4294967295
-9.3517714 113.04169 -22.822435 4294967295
-9.3367004 113.21222 -22.759148 4294967295
-9.3166666 113.70055 -22.708788 4294967295
-9.3091135 114.49046 -22.767996 4294967295
-9.2998762 112.46325 -22.454046 4294967295
-9.293376 113.40902 -22.539339 4294967295
-9.2928638 112.62635 -22.435411 4294967295
-9.2704439 114.37013 -22.5336 4294967295
-9.2704029 112.96039 -22.3514 4294967295
-9.1159601 114.52195 -22.589817 4294967295
-9.1147337 112.8 -22.360764 4294967295
-9.1146488 114.67979 -22.602766 4294967295
-9.103569 115.31669 -22.622295 4294967295
-9.1018982 115.16164 -22.592855 4294967295
-9.0509901 114.26942 -22.190054 4294967295
-9.0149813 113.99741 -22.86076 4294967295
-9.0029383 113.3823 -22.713495 4294967295
-9.0023975 112.91301 -22.64994 4294967295
-8.9969196 112.29156 -22.538904 4294967295
-8.9902782 114.64677 -22.805052 4294967295
-8.9764528 112.15366 -22.405622 4294967295
-8.973568 113.87939 -22.611828 4294967295
-8.9363899 113.28725 -22.325676 4294967295
-8.9124403 113.62284 -22.233778 4294967295
-8.8991079 114.57552 -22.281351 4294967295
-8.895298 115.20589 -22.341105 4294967295
-8.8618002 112.89548 -22.762312 4294967295
-8.806181 113.41666 -22.516033 4294967295
-8.7999411 112.3257 -22.340303 4294967295
-8.7946005 113.74069 -22.492519 4294967295
-8.784174 112.81025 -22.313881 4294967295
-8.767909 114.23552 -22.405853 4294967295
-8.7585325 114.08756 -22.333952 4294967295
-8.7414675 112.0766 -22.885288 4294967295
-8.7372236 115.51778 -22.398119 4294967295
-8.735508 115.67609 -22.408842 4294967295
-8.7271643 115.21384 -22.302277 4294967295
-8.7252169 112.56116 -22.856239 4294967295
-8.7142277 115.06927 -22.210752 4294967295
-8.7099304 112.88834 -22.812351 4294967295
-8.6999884 112.27106 -22.676916 4294967295
-8.6832609 112.75624 -22.645267 4294967295
-8.6817551 113.69731 -22.757965 4294967295
-8.6720781 113.39304 -22.664333 4294967295
-8.6516027 113.5686 -22.571718 4294967295
-8.6429653 114.98634 -22.705648 4294967295
-8.635191 115.15025 -22.683008 4294967295
-8.6179647 114.06977 -22.44696 4294967295
-8.5992174 114.55729 -22.404236 4294967295
-8.559145 114.75143 -22.203735 4294967295
-8.5570135 115.85056 -22.333248 4294967295
-8.4868059 114.66985 -22.692099 4294967295
-8.4577122 113.13007 -22.330484 4294967295
-8.4456158 113.45465 -22.304285 4294967295
-8.4338341 115.50276 -22.501614 4294967295
-8.4261122 114.56978 -22.338182 4294967295
-8.4252195 114.10043 -22.272772 4294967295
-8.4192219 115.6732 -22.441435 4294967295
-8.4105701 114.89774 -22.293049 4294967295
-8.3640337 113.0694 -22.700815 4294967295
-8.3616028 113.22826 -22.707605 4294967295
-8.3506327 115.42419 -22.023996 4294967295
-8.3501911 112.7688 -22.584486 4294967295
-8.3318396 114.03893 -22.644859 4294967295
-8.31071 113.58846 -22.46837 4294967295
-8.3106441 112.49156 -22.326935 4294967295
-8.293395 113.4477 -22.353121 4294967295
-8.2877293 115.17667 -22.543663 4294967295
-8.2685337 114.25432 -22.317352 4294967295
-8.2589054 113.00914 -22.103197 4294967295
-8.1793318 112.77898 -22.530632 4294967295
-8.1605768 114.51965 -22.649261 4294967295
-8.1201887 114.7139 -22.447935 4294967295
-8.1115198 112.68419 -22.138508 4294967295
-8.104888 114.25793 -22.303612 4294967295
-8.1029863 114.10294 -22.273039 4294967295
-8.0862579 114.90224 -22.28203 4294967295
-8.0835266 113.65058 -22.105873 4294967295
-8.0801458 113.34009 -22.047024 4294967295
-8.0674591 115.39008 -22.239399 4294967295
-8.0603676 115.71027 -22.240808 4294967295
-8.0371027 115.88892 -22.133413 4294967295
-8.0100641 113.25777 -22.546118 4294967295
-7.9965291 116.24077 -21.9513 4294967295
-7.974813 112.34959 -22.232233 4294967295
-7.9665837 113.14088 -22.287836 4294967295
-7.9612188 114.7132 -22.459768 4294967295
-7.9414473 115.51524 -22.452156 4294967295
-7.9126911 116.01244 -22.355125 4294967295
-7.8896127 114.62293 -22.047556 4294967295
-7.8609014 116.21797 -22.091764 4294967295
-7.8480101 112.78976 -22.480499 4294967295
-7.7953401 115.03236 -22.47411 4294967295
-7.7618513 113.96603 -22.150146 4294967295
-7.759306 114.59556 -22.21673 4294967295
-7.7553554 114.44242 -22.175005 4294967295
-7.7523608 115.38593 -22.279377 4294967295
-7.7463684 114.92115 -22.186243 4294967295
-7.735002 115.55893 -22.204601 4294967295
-7.708591 112.61454 -22.578894 4294967295
-7.6778688 112.95593 -22.451303 4294967295
-7.6756687 115.77129 -21.900375 4294967295
-7.6753011 115.9285 -21.918499 4294967295
-7.6709476 116.24632 -21.934967 4294967295
-7.6505332 116.57931 -21.863655 4294967295
-7.637043 114.71754 -22.449533 4294967295
-7.6253548 112.37655 -22.084009 4294967295
-7.6169977 113.16824 -22.138956 4294967295
-7.6158857 113.48286 -22.173117 4294967295
-7.5924344 113.66117 -22.065163 4294967295
-7.5359783 115.12496 -21.937983 4294967295
-7.5342798 115.91084 -22.029314 4294967295
-7.518436 112.32861 -22.380224 4294967295
-7.4930182 112.66518 -22.281782 4294967295
-7.429985 114.44768 -22.159176 4294967295
-7.4215536 115.23956 -22.213724 4294967295
-7.4020371 115.10087 -22.087223 4294967295
-7.3844237 115.9015 -22.091736 4294967295
-7.3712702 116.54121 -22.100462 4294967295
-7.3658056 112.3221 -22.426691 4294967295
-7.3645878 115.60629 -21.943396 4294967295
-7.3558588 113.11486 -22.472942 4294967295
-7.3533273 116.40121 -21.982565 4294967295
-7.3517666 112.64832 -22.390398 4294967295
-7.3504529 113.90349 -22.543921 4294967295
-7.3462815 116.09406 -21.903942 4294967295
-7.3097539 116.756 -21.785307 4294967295
-7.3054991 114.41508 -22.359402 4294967295
-7.3028293 112.84949 -22.143948 4294967295
-7.2971506 115.20667 -22.414381 4294967295
-7.2944651 113.01392 -22.11849 4294967295
-7.2860222 114.58984 -22.273445 4294967295
-7.2827229 113.49512 -22.11483 4294967295
-7.2820568 113.65257 -22.131298 4294967295
-7.2729883 114.13139 -22.142202 4294967295
-7.2294335 115.58325 -22.085932 4294967295
-7.2050261 115.1353 -21.892769 4294967295
-7.1791143 113.75732 -22.468533 4294967295
-7.1512065 117.06857 -21.841053 4294967295
-7.1481609 112.21741 -22.09939 4294967295
-7.1019392 116.02357 -22.330017 4294967295
-7.0981455 115.39986 -22.229084 4294967295
-7.0961723 113.99005 -22.037607 4294967295
-7.0921426 115.09175 -22.15629 4294967295
-7.0873375 114.46877 -22.049831 4294967295
-7.077023 115.73316 -22.15443 4294967295
-7.0575905 116.69242 -22.1693 4294967295
-7.0562773 114.34043 -21.860865 4294967295
-7.0523205 113.10024 -22.575113 4294967295
-7.039453 115.92504 -21.970304 4294967295
-7.0383863 115.29842 -21.884148 4294967295
-7.0346251 116.40023 -22.004322 4294967295
-7.029057 113.27813 -22.46884 4294967295
-7.0015159 112.36227 -22.198856 4294967295
-7.0008674 116.90263 -21.881126 4294967295
-6.9825783 113.63404 -22.256575 4294967295
-6.9757729 117.24014 -21.784941 4294967295
-6.9673529 115.21612 -22.37458 4294967295
-6.9669538 112.86402 -22.07136 4294967295
-6.9664254 112.70763 -22.048416 4294967295
-6.9650388 113.49319 -22.141262 4294967295
-6.9446483 114.76663 -22.191122 4294967295
-6.901423 115.90467 -22.096981 4294967295
-6.8875237 112.63448 -22.495304 4294967295
-6.8198409 114.89114 -22.409037 4294967295
-6.7773676 113.36152 -21.978146 4294967295
-6.7644978 114.78528 -22.088951 4294967295
-6.7581029 114.32049 -21.994087 4294967295
-6.7352195 116.53805 -22.150928 4294967295
-6.7340417 115.59785 -22.024174 4294967295
-6.7092237 116.71927 -22.030111 4294967295
-6.7062664 116.40823 -21.973955 4294967295
-6.7051492 115.4677 -21.847496 4294967295
-6.7017074 112.50106 -22.341932 4294967295
-6.6992121 116.88556 -21.99592 4294967295
-6.6954193 113.29077 -22.4081 4294967295
-6.6913972 117.36364 -22.013763 4294967295
-6.6808305 112.83352 -22.268957 4294967295
-6.6782303 113.46317 -22.335064 4294967295
-6.6660972 113.00367 -22.209217 4294967295
-6.655674 113.6405 -22.232969 4294967295
-6.6405411 114.90906 -22.311411 4294967295
-6.6351871 117.73056 -21.749338 4294967295
-6.6288962 117.10854 -21.634956 4294967295
-6.6054025 113.21546 -21.900581 4294967295
-6.5956612 115.26414 -22.108559 4294967295
-6.5925307 114.63944 -22.011402 4294967295
-6.58635 114.01743 -21.897709 4294967295
-6.5590487 117.33771 -22.171051 4294967295
-6.5511003 112.8063 -22.439558 4294967295
-6.5373688 117.04429 -22.013641 4294967295
-6.533463 112.97902 -22.364208 4294967295
-6.5135407 113.78117 -22.356649 4294967295
-6.4932117 114.2702 -22.306839 4294967295
-6.4645796 113.9826 -22.111956 4294967295
-6.4235363 112.3069 -22.561413 4294967295
-6.4080491 115.28966 -21.966688 4294967295
-6.4068675 115.91844 -22.040474 4294967295
-6.4037399 114.66586 -21.863207 4294967295
-6.3956656 116.71342 -22.080141 4294967295
-6.3934617 115.617 -21.927927 4294967295
-6.3734512 117.20496 -22.020222 4294967295
-6.371295 112.66739 -22.319307 4294967295
-6.3645749 112.98711 -22.323069 4294967295
-6.3600183 116.43279 -21.84741 4294967295
-6.3586345 112.20818 -22.190849 4294967295
-6.347549 117.0723 -21.860216 4294967295
-6.3436322 113.79027 -22.310101 4294967295
-6.3432145 116.13446 -21.716497 4294967295
-6.3306303 118.03 -21.88908 4294967295
-6.3249025 113.49353 -22.168917 4294967295
-6.31248 117.73317 -21.750927 4294967295
-6.3099475 114.13464 -22.16828 4294967295
-6.3097844 115.3897 -22.327604 4294967295
-6.2936268 117.90796 -21.669117 4294967295
-6.2811828 114.00391 -21.992945 4294967295
-6.2759099 114.47949 -22.024576 4294967295
-6.2756171 114.79359 -22.063063 4294967295
-6.2719393 114.32619 -21.983107 4294967295
-6.2621946 115.11974 -22.030668 4294967295
-6.260747 118.2531 -21.531593 4294967295
-6.2524128 115.75644 -22.057995 4294967295
-6.2216945 114.99999 -21.792006 4294967295
-6.2156177 116.57525 -21.959572 4294967295
-6.2094884 117.99337 -22.106773 4294967295
-6.2070765 113.14175 -22.363556 4294967295
-6.202672 117.52901 -22.009911 4294967295
-6.1604528 112.39922 -22.012024 4294967295
-6.154531 118.35921 -21.850357 4294967295
-6.1497121 112.87963 -22.014172 4294967295
-6.1313128 118.22417 -21.705067 4294967295
-6.1271415 113.84157 -22.012602 4294967295
-6.0918989 116.22771 -22.122931 4294967295
-6.0811653 112.64071 -22.49415 4294967295
-6.0795455 115.76836 -21.996294 4294967295
-6.0787163 116.083 -22.031866 4294967295
-6.0739026 117.34286 -22.166067 4294967295
-6.0680804 116.56368 -22.034609 4294967295
-6.0633984 115.46933 -21.869211 4294967295
-6.0471673 112.82803 -22.33106 4294967295
-6.0451174 116.89897 -21.950909 4294967295
-6.0224371 116.44914 -21.768614 4294967295
-6.0195394 117.55077 -21.893183 4294967295
-6.0088892 116.77576 -21.735664 4294967295
-5.9981389 113.34277 -22.127058 4294967295
-5.9934669 117.88926 -21.792765 4294967295
-5.9859943 117.11117 -21.652357 4294967295
-5.9739118 114.14927 -22.096657 4294967295
-5.9649587 118.07313 -21.659208 4294967295
-5.9616232 114.00349 -22.010483 4294967295
-5.9607577 114.47508 -22.065857 4294967295
-5.9599504 113.69112 -21.961449 4294967295
-5.9573712 117.76617 -21.578266 4294967295
-5.9503608 114.95537 -22.069916 4294967295
-5.9490094 118.55932 -21.633383 4294967295
-5.9278808 115.60374 -22.028954 4294967295
-5.9240432 112.48138 -22.496498 4294967295
-5.914072 114.36063 -21.794502 4294967295
-5.9110522 118.90944 -21.468988 4294967295
-5.8813043 112.2058 -22.22665 4294967295
-5.8802671 115.17654 -21.712622 4294967295
-5.8735232 113.78149 -22.384739 4294967295
-5.8560176 115.82695 -21.662182 4294967295
-5.8543973 113.17123 -22.201925 4294967295
-5.8514938 115.98817 -21.657858 4294967295
-5.8387494 118.66925 -21.929567 4294967295
-5.8341804 118.04559 -21.824936 4294967295
-5.8242831 118.36893 -21.811722 4294967295
-5.8182487 113.67455 -22.067543 4294967295
-5.7943006 114.6379 -22.058788 4294967295
-5.7878227 115.27156 -22.10396 4294967295
-5.7543159 116.55796 -22.083857 4294967295
-5.7520242 115.61833 -21.951544 4294967295
-5.7451043 116.09562 -21.974358 4294967295
-5.7438903 112.65627 -22.415152 4294967295
-5.7435298 116.25404 -21.985895 4294967295
-5.7409525 115.15753 -21.832018 4294967295
-5.7393727 115.47298 -21.863541 4294967295
-5.7384758 117.51436 -22.118721 4294967295
-5.7304769 114.53903 -21.695669 4294967295
-5.7231059 117.21481 -21.996147 4294967295
-5.7198706 113.14836 -22.346102 4294967295
-5.7055202 112.84746 -22.229074 4294967295
-5.7018003 112.22314 -22.12915 4294967295
-5.6952705 115.82756 -21.666515 4294967295
-5.6918354 118.65691 -22.008139 4294967295
-5.6855793 118.03487 -21.894533 4294967295
-5.674089 117.73164 -21.792795 4294967295
-5.6692338 118.99227 -21.926737 4294967295
-5.6611371 115.24107 -22.290529 4294967295
-5.6579032 113.98871 -22.113295 4294967295
-5.6505585 118.5389 -21.766415 4294967295
-5.6488757 113.52602 -22.004854 4294967295
-5.6327133 114.16846 -21.998041 4294967295
-5.6228905 114.4913 -21.985287 4294967295
-5.6224265 115.59039 -22.122719 4294967295
-5.6181955 113.71065 -21.860111 4294967295
-5.5968513 119.37507 -21.577982 4294967295
-5.5607405 114.70483 -21.671637 4294967295
-5.5574908 117.69099 -22.034086 4294967295
-5.5552435 116.75117 -21.902092 4294967295
-5.5477009 118.32805 -22.061512 4294967295
-5.5449162 117.38877 -21.926643 4294967295
-5.541471 112.06644 -22.114864 4294967295
-5.5308318 118.81487 -22.030985 4294967295
-5.5243044 113.80793 -22.242542 4294967295
-5.4837303 113.05965 -21.925085 4294967295
-5.4732909 117.92687 -21.602352 4294967295
-5.4640698 119.50622 -21.752871 4294967295
-5.4513993 119.20412 -21.64492 4294967295
-5.4073949 116.73989 -21.975462 4294967295
-5.3995686 116.90414 -21.953503 4294967295
-5.3939619 117.6943 -22.023354 4294967295
-5.3897619 116.12814 -21.801039 4294967295
-5.3857069 115.18958 -21.659376 4294967295
-5.379425 116.2947 -21.765627 4294967295
-5.367435 117.40504 -21.84127 4294967295
-5.3618736 119.13734 -22.031252 4294967295
-5.3609805 115.99757 -21.626801 4294967295
-5.3475885 118.05172 -21.814875 4294967295
-5.3472486 114.451 -22.238619 4294967295
-5.3394527 113.67336 -22.097055 4294967295
-5.3269792 118.38515 -21.744438 4294967295
-5.3257799 115.09823 -22.203543 4294967295
-5.3248687 117.6018 -21.633196 4294967295
-5.3230653 114.00204 -22.049252 4294967295
-5.3201723 113.37672 -21.95388 4294967295
-5.320044 118.7058 -21.747259 4294967295
-5.3084245 114.95708 -22.090675 4294967295
-5.3029084 119.35023 -21.73542 4294967295
-5.2998247 114.17999 -21.944794 4294967295
-5.2991843 116.22115 -22.200933 4294967295
-5.2917609 112.6315 -22.585722 4294967295
-5.2875857 118.89349 -21.593388 4294967295
-5.2740369 119.0634 -21.540808 4294967295
-5.2732902 114.361 -21.822708 4294967295
-5.2551751 114.69148 -21.76568 4294967295
-5.2483096 115.48292 -21.828808 4294967295
-5.2469287 115.6412 -21.841391 4294967295
-5.2401271 112.99126 -22.349487 4294967295
-5.230135 112.3725 -22.216244 4294967295
-5.2285767 112.84465 -22.267767 4294967295
-5.2191563 115.3525 -21.652786 4294967295
-5.2184801 118.49375 -22.048618 4294967295
-5.2010708 117.88203 -21.875614 4294967295
-5.1939216 119.14489 -21.99712 4294967295
-5.1834426 116.48486 -21.601509 4294967295
-5.1393285 115.90713 -22.169729 4294967295
-5.1299267 114.97386 -21.999743 4294967295
-5.1084504 116.87735 -22.124434 4294967295
-5.103435 113.12733 -22.501341 4294967295
-5.1010413 112.18816 -22.36894 4294967295
-5.0868683 117.52528 -22.08893 4294967295
-5.0839329 117.05704 -22.013382 4294967295
-5.0803132 118.00234 -22.11377 4294967295
-5.079545 112.3641 -22.274069 4294967295
-5.0712128 115.49843 -21.745789 4294967295
-5.0646973 113.31882 -22.314421 4294967295
-5.0608959 116.29317 -21.790474 4294967295
-5.0535393 117.24223 -21.870941 4294967295
-5.0454578 118.977 -22.0473 4294967295
-5.0403175 112.55582 -22.084511 4294967295
-5.0394764 118.82563 -21.995398 4294967295
-5.0317664 117.89067 -21.834457 4294967295
-5.0285902 116.16579 -21.597858 4294967295
-5.0274963 118.20876 -21.851568 4294967295
-5.0260344 116.63943 -21.644108 4294967295
-5.0239463 119.15431 -21.952362 4294967295
-5.0127192 113.67927 -22.076765 4294967295
-5.0083637 118.38374 -21.769325 4294967295
-5.0035176 119.33065 -21.863211 4294967295
-5.0021353 117.76124 -21.656191 4294967295
-5.0017529 115.10186 -22.197718 4294967295
-4.9857864 114.64543 -22.052652 4294967295
-4.9850006 114.33215 -22.008562 4294967295
-4.9762678 114.026 -21.922037 4294967295
-4.9751897 116.06786 -22.175589 4294967295
-4.9493275 116.24858 -22.05751 4294967295
-4.9464169 115.93725 -22.002085 4294967295
-4.944808 112.81235 -22.476141 4294967295
-4.9221396 115.01717 -21.752794 4294967295
-4.919549 117.21806 -22.018282 4294967295
-4.9141259 115.80977 -21.809793 4294967295
-4.8899269 116.77435 -21.800371 4294967295
-4.8563385 112.73399 -21.984404 4294967295
-4.8362761 114.3219 -22.076807 4294967295
-4.8175921 117.9411 -21.554117 4294967295
-4.8037915 119.05389 -21.620213 4294967295
-4.7975893 114.67084 -21.91044 4294967295
-4.7959275 118.58989 -21.518389 4294967295
-4.7422571 116.91994 -21.894693 4294967295
-4.7406631 117.39254 -21.946012 4294967295
-4.7391624 115.50915 -21.698709 4294967295
-4.7375822 113.48203 -22.311724 4294967295
-4.7352295 116.14108 -21.75753 4294967295
-4.7332177 112.5442 -22.168951 4294967295
-4.728755 118.18879 -21.982254 4294967295
-4.727716 113.96166 -22.318945 4294967295
-4.7270408 118.66147 -22.032927 4294967295
-4.723711 117.72236 -21.895571 4294967295
-4.7209802 115.99703 -21.661642 4294967295
-4.7035804 118.99757 -21.947834 4294967295
-4.701324 116.64349 -21.636681 4294967295
-4.6989937 119.47301 -21.983212 4294967295
-4.6984324 112.41796 -21.963762 4294967295
-4.6839252 113.68695 -22.045938 4294967295
-4.680491 117.60542 -21.645359 4294967295
-4.6597834 118.56741 -21.65472 4294967295
-4.6581044 114.33817 -21.988173 4294967295
-4.6555548 118.41425 -21.612247 4294967295
-4.6488452 116.2306 -22.177979 4294967295
-4.646811 112.32217 -22.548317 4294967295
-4.6440945 118.11066 -21.511299 4294967295
-4.6338229 112.17673 -22.459333 4294967295
-4.6278291 119.22593 -21.564302 4294967295
-4.6211267 114.68557 -21.831171 4294967295
-4.6140289 112.82185 -22.43368 4294967295
-4.6092534 115.1675 -21.827765 4294967295
-4.6091771 113.45379 -22.487492 4294967295
-4.6014929 115.80281 -21.866184 4294967295
-4.56461 113.02264 -22.190777 4294967295
-4.54143 116.48611 -21.626263 4294967295
-4.5328488 118.06512 -21.779955 4294967295
-4.5288239 117.12621 -21.638931 4294967295
-4.5205884 114.78882 -22.175745 4294967295
-4.5150452 118.55302 -21.745039 4294967295
-4.5062737 113.85963 -21.980152 4294967295
-4.5029397 115.43275 -22.161575 4294967295
-4.4994335 114.49387 -22.023455 4294967295
-4.4968204 115.7523 -22.168873 4294967295
-4.4920864 115.12859 -22.06406 4294967295
-4.4549737 116.88964 -22.085863 4294967295
-4.4394584 116.27573 -21.923752 4294967295
-4.4376287 116.59151 -21.953861 4294967295
-4.4302664 112.215 -22.235485 4294967295
-4.4284863 114.71484 -21.666201 4294967295
-4.4081774 115.67591 -21.677809 4294967295
-4.4006448 117.72504 -21.896769 4294967295
-4.392231 117.26157 -21.792303 4294967295
-4.3903975 118.5199 -21.941916 4294967295
-4.389667 112.56476 -22.059658 4294967295
-4.3870449 112.8811 -22.085545 4294967295
-4.3809938 116.17207 -21.593111 4294967295
-4.3808665 117.90046 -21.811607 4294967295
-4.3725033 113.36504 -22.068039 4294967295
-4.360116 113.06197 -21.962444 4294967295
-4.3466425 118.71786 -21.729406 4294967295
-4.3365011 117.47017 -21.516115 4294967295
-4.3223109 119.36919 -21.679859 4294967295
-4.3179965 114.19889 -21.878162 4294967295
-4.3155065 118.27548 -21.504225 4294967295
-4.3149014 114.67286 -21.921461 4294967295
-4.3145065 114.04494 -21.839722 4294967295
-4.3045473 119.07156 -21.545658 4294967295
-4.2949886 115.79028 -21.955118 4294967295
-4.2939758 115.47707 -21.909925 4294967295
-4.293716 115.0061 -21.848814 4294967295
-4.291419 116.57877 -22.0357 4294967295
-4.2851772 116.11333 -21.942858 4294967295
-4.2811284 113.14702 -22.420292 4294967295
-4.2729831 112.21249 -22.257771 4294967295
-4.2716966 113.78314 -22.449812 4294967295
-4.2686191 116.75673 -21.934612 4294967295
-4.2598729 118.17827 -22.067347 4294967295
-4.2550731 113.95492 -22.381554 4294967295
-4.244081 115.36518 -21.625166 4294967295
-4.2366328 116.94318 -21.784784 4294967295
-4.2281332 119.15018 -22.018393 4294967295
-4.2278633 113.66525 -22.197502 4294967295
-4.2269807 116.48068 -21.673824 4294967295
-4.1893811 115.42677 -22.212275 4294967295
-4.1872444 114.64364 -22.101492 4294967295
-4.1800909 119.35236 -21.783484 4294967295
-4.139564 112.18904 -22.406481 4294967295
-4.097127 116.45295 -21.84268 4294967295
-4.0731344 115.68918 -21.616001 4294967295
-4.0718536 117.10453 -21.788353 4294967295
-4.071743 113.81867 -22.246078 4294967295
-4.0636654 114.13986 -22.243067 4294967295
-4.0534105 112.57874 -21.989925 4294967295
-4.052279 119.32205 -21.963217 4294967295
-4.048945 119.16809 -21.925663 4294967295
-4.0480714 118.85472 -21.881243 4294967295
-4.0406966 114.94546 -22.220856 4294967295
-4.0383086 118.54961 -21.789732 4294967295
-4.0359745 117.29466 -21.618139 4294967295
-4.0297222 114.64129 -22.122997 4294967295
-4.0262423 116.98927 -21.526751 4294967295
-4.0228825 114.49039 -22.066902 4294967295
-4.0156698 117.62771 -21.550365 4294967295
-4.0153193 118.2567 -21.628138 4294967295
-3.9871418 118.75443 -21.538588 4294967295
-3.9508736 112.21408 -22.262505 4294967295
-3.9471776 115.18677 -21.745676 4294967295
-3.9459372 112.53239 -22.276133 4294967295
-3.9440393 117.86016 -22.067156 4294967295
-3.9426804 115.81931 -21.801441 4294967295
-3.9412313 116.13485 -21.833553 4294967295
-3.923696 116.62217 -21.800421 4294967295
-3.9117601 116.47594 -21.717361 4294967295
-3.9050474 116.0106 -21.622149 4294967295
-3.9025023 113.19871 -22.125902 4294967295
-3.8981094 112.41737 -22.003292 4294967295
-3.8917079 117.28 -21.710714 4294967295
-3.8794451 117.76273 -21.705509 4294967295
-3.8495102 118.10473 -21.58692 4294967295
-3.8414021 115.60889 -22.100941 4294967295
-3.835155 115.45749 -22.048048 4294967295
-3.824779 119.38518 -21.615259 4294967295
-3.8228745 119.07259 -21.565395 4294967295
-3.8201902 112.18828 -22.425409 4294967295
-3.8082414 114.85338 -21.826263 4294967295
-3.8020384 113.14597 -22.448656 4294967295
-3.757551 118.19871 -21.975794 4294967295
-3.7575457 113.49928 -22.253405 4294967295
-3.7356236 118.84745 -21.939451 4294967295
-3.7320852 117.43661 -21.741856 4294967295
-3.730052 113.99474 -22.167803 4294967295
-3.7192976 114.47542 -22.170599 4294967295
-3.7188759 117.60591 -21.69194 4294967295
-3.7173469 119.17872 -21.88266 4294967295
-3.7145927 116.66679 -21.549992 4294967295
-3.7112536 116.98422 -21.572123 4294967295
-3.7096062 118.5574 -21.762257 4294967295
-3.7056255 112.91692 -21.899752 4294967295
-3.7051814 113.38858 -21.957014 4294967295
-3.6992941 117.78112 -21.60836 4294967295
-3.6937785 117.31462 -21.519554 4294967295
-3.6799047 119.05651 -21.665003 4294967295
-3.674165 118.7475 -21.594915 4294967295
-3.6687176 114.83482 -21.943287 4294967295
-3.6677752 115.62107 -22.037636 4294967295
-3.6673117 115.46442 -22.015327 4294967295
-3.6516404 112.19563 -22.388205 4294967295
-3.6514974 116.26411 -22.031172 4294967295
-3.6417911 116.90125 -22.059395 4294967295
-3.6401141 115.01759 -21.812147 4294967295
-3.6223614 112.84923 -22.313156 4294967295
-3.6124365 116.77096 -21.884619 4294967295
-3.6121819 116.45695 -21.843538 4294967295
-3.6092045 113.64582 -22.342999 4294967295
-3.6081214 115.98923 -21.762497 4294967295
-3.6013701 117.09531 -21.865953 4294967295
-3.5981007 113.49864 -22.264597 4294967295
-3.5760572 113.047 -22.088793 4294967295
-3.5738842 112.42065 -21.997911 4294967295
-3.5571928 117.92159 -21.732197 4294967295
-3.5557339 114.79253 -22.199989 4294967295
-3.534476 118.2569 -21.652088 4294967295
-3.5168896 115.45562 -22.074612 4294967295
-3.4886453 119.39986 -21.549444 4294967295
-3.4727542 117.38061 -22.080214 4294967295
-3.4624908 115.66175 -21.807711 4294967295
-3.417115 116.33144 -21.647989 4294967295
-3.3976941 118.86385 -21.863426 4294967295
-3.3976932 116.50626 -21.565493 4294967295
-3.3841326 112.91776 -21.909317 4294967295
-3.3831153 117.93435 -21.667459 4294967295
-3.3823035 118.24946 -21.702908 4294967295
-3.375962 113.86758 -21.985374 4294967295
-3.3751724 113.55408 -21.941523 4294967295
-3.3716464 115.12807 -22.121399 4294967295
-3.3679748 117.63387 -21.547953 4294967295
-3.3535903 119.062 -21.650955 4294967295
-3.3435361 118.44248 -21.518526 4294967295
-3.3419511 115.31179 -21.984911 4294967295
-3.3384888 119.39046 -21.611134 4294967295
-3.3373268 115.00172 -21.920874 4294967295
-3.3328786 113.1361 -22.529736 4294967295
-3.3258922 118.77328 -21.465311 4294967295
-3.3168848 113.62109 -22.505079 4294967295
-3.3109624 112.52737 -22.335175 4294967295
-3.3055582 115.65877 -21.833025 4294967295
-3.2984049 116.29378 -21.874767 4294967295
-3.290098 115.98701 -21.791344 4294967295
-3.2888775 116.61669 -21.864317 4294967295
-3.2768784 117.57045 -21.92025 4294967295
-3.2655978 117.42364 -21.841043 4294967295
-3.2640841 115.85332 -21.63456 4294967295
-3.2630036 113.51165 -22.201899 4294967295
-3.245899 112.42715 -21.973103 4294967295
-3.2451761 114.46973 -22.227123 4294967295
-3.223464 114.1749 -22.073298 4294967295
-3.210475 119.20328 -21.76936 4294967295
-3.2102091 117.31712 -21.52972 4294967295
-3.208092 114.81691 -22.071802 4294967295
-3.2080638 114.34566 -22.012154 4294967295
-3.2025802 115.45017 -22.12215 4294967295
-3.1973231 119.3727 -21.720028 4294967295
-3.190969 115.61769 -22.08094 4294967295
-3.1836245 112.18474 -22.475382 4294967295
-3.1560519 112.83677 -22.409796 4294967295
-3.1462846 112.37426 -22.299046 4294967295
-3.1434853 113.4758 -22.423044 4294967295
-3.1251607 113.02085 -22.267359 4294967295
-3.1163862 118.19923 -22.006277 4294967295
-3.1094606 113.81985 -22.283987 4294967295
-3.0879626 117.12519 -21.718061 4294967295
-3.0673568 118.08718 -21.72883 4294967295
-3.0656953 117.45992 -21.64073 4294967295
-3.0591621 117.6231 -21.626244 4294967295
-3.0572467 119.03962 -21.79475 4294967295
-3.0527494 114.34129 -22.045645 4294967295
-3.05214 118.57278 -21.708405 4294967295
-3.0462062 115.76089 -22.189676 4294967295
-3.0369577 119.37283 -21.727848 4294967295
-3.0209041 112.6579 -22.528614 4294967295
-3.0127707 114.69106 -21.875378 4294967295
-3.0125988 114.53407 -21.854645 4294967295
-3.0017717 112.20357 -22.368845 4294967295
-2.9785721 116.13605 -21.87429 4294967295
-2.9754946 113.32566 -22.369642 4294967295
-2.9604557 116.30956 -21.799025 4294967295
-2.9586077 116.46841 -21.809155 4294967295
-2.9545434 117.5722 -21.926613 4294967295
-2.9483275 117.26357 -21.854343 4294967295
-2.9418185 116.79797 -21.760696 4294967295
-2.9314663 112.42178 -22.019844 4294967295
-2.9249909 116.97045 -21.692209 4294967295
-2.9248652 113.52722 -22.123915 4294967295
-2.9242201 118.54297 -21.886454 4294967295
-2.921768 113.05866 -22.048231 4294967295
-2.9153259 112.59295 -21.954994 4294967295
-2.9141424 113.22245 -22.028049 4294967295
-2.9132318 114.00874 -22.122339 4294967295
-2.9089088 114.6409 -22.178909 4294967295
