# .PCD v0.7 - Point Cloud Data file format
VERSION 0.7
FIELDS x y z rgb
SIZE 4 4 4 4
TYPE F F F U
COUNT 1 1 1 1
WIDTH 1120
HEIGHT 1
VIEWPOINT 0 0 0 1 0 0 0
POINTS 1120
DATA ascii
-60.223583 31.463638 -26.163822 4294967295
-60.210258 31.315336 -26.002094 4294967295
-60.174229 25.15243 -26.123554 4294967295
-60.164043 25.767567 -26.127573 4294967295
-60.160873 25.002668 -25.961637 4294967295
-60.15818 25.309681 -25.987944 4294967295
-60.156609 26.075796 -26.105896 4294967295
-60.155766 25.616615 -26.017038 4294967295
-60.148193 27.149868 -26.208115 4294967295
-60.147942 26.537529 -26.098515 4294967295
-60.142868 27.610661 -26.234547 4294967295
-60.14257 26.385883 -26.017405 4294967295
-60.140163 28.223722 -26.31422 4294967295
-60.139103 27.917925 -26.250002 4294967295
-60.128368 26.849279 -25.954088 4294967295
-60.127174 28.839951 -26.289906 4294967295
-60.126705 28.687042 -26.258415 4294967295
-60.121738 27.310623 -25.967331 4294967295
-60.121296 26.238533 -25.775434 4294967295
-60.121124 25.932158 -25.720127 4294967295
-60.116978 30.067509 -26.400852 4294967295
-60.108093 27.774082 -25.909666 4294967295
-60.107201 29.611645 -26.221792 4294967295
-60.10659 28.540218 -26.028322 4294967295
-60.099648 27.470226 -25.770714 4294967295
-60.098751 28.0832 -25.868773 4294967295
-60.086136 29.159176 -25.928617 4294967295
-60.080288 29.467337 -25.923023 4294967295
-60.075592 31.306046 -26.196669 4294967295
-60.062725 31.004438 -26.013189 4294967295
-60.028328 24.841457 -26.149742 4294967295
-59.991734 26.841778 -26.12796 4294967295
-59.986168 28.680336 -26.392433 4294967295
-59.955441 29.302299 -26.189466 4294967295
-59.923363 29.159462 -25.839344 4294967295
-59.92004 30.691877 -26.07308 4294967295
-59.911575 31.154104 -26.067942 4294967295
-59.91151 30.082285 -25.880236 4294967295
-59.911175 31.001148 -26.037186 4294967295
-59.905968 31.462273 -26.064877 4294967295
-59.895359 31.312941 -25.931274 4294967295
-59.873852 24.83889 -26.142866 4294967295
-59.857048 25.91514 -26.160551 4294967295
-59.854233 26.069017 -26.158926 4294967295
-59.84882 25.304678 -25.970957 4294967295
-59.847004 25.458323 -25.979343 4294967295
-59.838799 26.838877 -26.137047 4294967295
-59.828716 26.688559 -26.008881 4294967295
-59.823418 28.068233 -26.195778 4294967295
-59.822842 26.230644 -25.869656 4294967295
-59.818386 27.150946 -25.985012 4294967295
-59.806438 29.145123 -26.211756 4294967295
-59.806202 29.604412 -26.289425 4294967295
-59.804436 27.767641 -25.951429 4294967295
-59.802273 28.993353 -26.143183 4294967295
-59.798737 28.688232 -26.054253 4294967295
-59.797371 30.678663 -26.387329 4294967295
-59.795979 27.463766 -25.812933 4294967295
-59.794365 27.004593 -25.716581 4294967295
-59.793739 29.91464 -26.217464 4294967295
-59.790577 28.843914 -25.998871 4294967295
-59.785473 30.223553 -26.187675 4294967295
-59.67944 25.765562 -25.895121 4294967295
-59.673199 27.605225 -26.152365 4294967295
-59.651562 28.224192 -26.041834 4294967295
-59.646492 26.540537 -25.697647 4294967295
-59.626804 28.691261 -25.873404 4294967295
-59.626141 29.610411 -26.02668 4294967295
-59.614155 29.767467 -25.933105 4294967295
-59.599533 30.997534 -25.999647 4294967295
-59.591423 31.459759 -25.998278 4294967295
-59.588142 30.848333 -25.858786 4294967295
-59.554634 25.295794 -26.106691 4294967295
-59.541565 25.605492 -26.029034 4294967295
-59.53653 26.372648 -26.111692 4294967295
-59.531864 25.761206 -25.958498 4294967295
-59.522823 24.997393 -25.734768 4294967295
-59.517788 26.071337 -25.870758 4294967295
-59.515564 26.684738 -25.95499 4294967295
-59.514881 27.910172 -26.161127 4294967295
-59.513897 27.297897 -26.044786 4294967295
-59.50573 27.147057 -25.93643 4294967295
-59.503754 26.841221 -25.863359 4294967295
-59.496849 27.455986 -25.900743 4294967295
-59.496159 28.375206 -26.053555 4294967295
-59.495533 28.834803 -26.127129 4294967295
-59.494267 28.528927 -26.061241 4294967295
-59.493809 27.763248 -25.923563 4294967295
-59.490513 29.142624 -26.130121 4294967295
-59.490196 29.755142 -26.233381 4294967295
-59.485729 29.450386 -26.135468 4294967295
-59.47953 28.686625 -25.940388 4294967295
-59.47876 28.227308 -25.8528 4294967295
-59.475746 30.831539 -26.275017 4294967295
-59.474606 31.138058 -26.316824 4294967295
-59.469902 30.221155 -26.110176 4294967295
-59.462917 30.070354 -26.013693 4294967295
-59.460758 29.611597 -25.912247 4294967295
-59.457733 30.684624 -26.068249 4294967295
-59.446804 29.922516 -25.82588 4294967295
-59.433147 31.458839 -25.9554 4294967295
-59.429192 31.307083 -25.889229 4294967295
-59.378269 25.298788 -25.8818 4294967295
-59.358265 25.150589 -25.655293 4294967295
-59.355885 25.457748 -25.684721 4294967295
-59.331451 26.383867 -25.600241 4294967295
-59.3274 28.836666 -25.985254 4294967295
-59.323711 29.297306 -26.028179 4294967295
-59.234936 25.293388 -25.987377 4294967295
-59.234116 25.753185 -26.058844 4294967295
-59.225922 25.448895 -25.924067 4294967295
-59.217812 24.837938 -25.736988 4294967295
-59.216908 25.910894 -25.913921 4294967295
-59.213074 27.29064 -26.114662 4294967295
-59.195629 27.755184 -26.020514 4294967295
-59.192646 27.602869 -25.964272 4294967295
-59.192043 26.683743 -25.798929 4294967295
-59.191692 26.990307 -25.848539 4294967295
-59.191429 25.611015 -25.606882 4294967295
-59.191273 26.224188 -25.711597 4294967295
-59.188957 28.216681 -26.033699 4294967295
-59.18531 27.145334 -25.811522 4294967295
-59.184185 29.749519 -26.251543 4294967295
-59.181984 28.525129 -26.017357 4294967295
-59.180416 26.380388 -25.629978 4294967295
-59.173874 28.833971 -25.989662 4294967295
-59.172794 26.842331 -25.633711 4294967295
-59.169827 29.294743 -26.029001 4294967295
-59.161438 30.369478 -26.131243 4294967295
-59.160847 31.135208 -26.25798 4294967295
-59.15881 31.442081 -26.290787 4294967295
-59.154114 30.678202 -26.111412 4294967295
-59.149029 29.607758 -25.875025 4294967295
-59.146919 29.914824 -25.907097 4294967295
-59.144478 30.221989 -25.935913 4294967295
-59.08754 25.442217 -26.078707 4294967295
-59.060604 27.747047 -26.208597 4294967295
-59.04892 25.911886 -25.774334 4294967295
-59.036213 28.673216 -26.125278 4294967295
-59.026661 29.288778 -26.136415 4294967295
-58.984928 30.680882 -25.960537 4294967295
-58.980999 30.835394 -25.948013 4294967295
-58.968708 31.299171 -25.905537 4294967295
-58.960735 31.455151 -25.852913 4294967295
-58.907562 24.986309 -25.740679 4294967295
-58.906998 26.059271 -25.920517 4294967295
-58.903137 25.907045 -25.855743 4294967295
-58.900227 25.294714 -25.72093 4294967295
-58.89904 24.8351 -25.629654 4294967295
-58.898407 26.521267 -25.914772 4294967295
-58.895256 27.90094 -26.121807 4294967295
-58.893555 27.288694 -25.999067 4294967295
-58.889309 26.830227 -25.877552 4294967295
-58.881859 28.670771 -26.121372 4294967295
-58.880554 27.445616 -25.896679 4294967295
-58.880238 28.977577 -26.158234 4294967295
-58.874477 28.51985 -26.021778 4294967295
-58.873444 27.754124 -25.87916 4294967295
-58.87125 28.214426 -25.93685 4294967295
-58.869259 28.827814 -26.023005 4294967295
-58.865574 30.054228 -26.198193 4294967295
-58.865456 30.207392 -26.223492 4294967295
-58.865082 29.594967 -26.113968 4294967295
-58.861252 29.289856 -26.023085 4294967295
-58.853935 29.44536 -25.977066 4294967295
-58.852657 30.671043 -26.176105 4294967295
-58.836987 29.910412 -25.888607 4294967295
-58.831146 31.444124 -26.095398 4294967295
-58.830929 30.83157 -25.987413 4294967295
-58.811169 31.14473 -25.844671 4294967295
-58.764385 26.360003 -26.085754 4294967295
-58.75647 25.442686 -25.848789 4294967295
-58.755188 26.822094 -26.074112 4294967295
-58.747913 27.13051 -26.055058 4294967295
-58.725796 29.128325 -26.180014 4294967295
-58.704285 26.989449 -25.597208 4294967295
-58.701012 31.127131 -26.278614 4294967295
-58.691116 28.219622 -25.678648 4294967295
-58.671867 30.524401 -25.885035 4294967295
-58.661587 30.374605 -25.757036 4294967295
-58.580254 24.832222 -25.523788 4294967295
-58.574875 27.746157 -25.972681 4294967295
-58.572426 26.827364 -25.790049 4294967295
-58.566635 26.675665 -25.706499 4294967295
-58.565247 29.127827 -26.115314 4294967295
-58.562313 26.523531 -25.637447 4294967295
-58.560863 25.603867 -25.464592 4294967295
-58.560642 27.597023 -25.805904 4294967295
-58.558483 28.823542 -25.995829 4294967295
-58.555832 28.211443 -25.864094 4294967295
-58.555336 28.671289 -25.938414 4294967295
-58.546448 26.987843 -25.560232 4294967295
-58.545963 30.206192 -26.109957 4294967295
-58.544861 27.448252 -25.623835 4294967295
-58.544655 29.440681 -25.965103 4294967295
-58.532166 31.129782 -26.132324 4294967295
-58.523769 29.753801 -25.812046 4294967295
-58.523327 30.82646 -25.992453 4294967295
-58.522793 30.520245 -25.934408 4294967295
-58.522194 30.98003 -26.007681 4294967295
-58.519951 28.988668 -25.642361 4294967295
-58.507309 31.291536 -25.913805 4294967295
-58.506638 30.065868 -25.695984 4294967295
-58.45578 25.588669 -25.947203 4294967295
-58.455345 24.822405 -25.811003 4294967295
-58.436005 25.287085 -25.699755 4294967295
-58.435425 25.900446 -25.799572 4294967295
-58.432545 26.054485 -25.797602 4294967295
-58.430347 28.200386 -26.145159 4294967295
-58.426247 25.749514 -25.682867 4294967295
-58.418869 25.138 -25.504671 4294967295
-58.405453 29.58663 -26.137556 4294967295
-58.396622 30.048988 -26.129763 4294967295
-58.395897 29.283268 -25.99086 4294967295
-58.395248 27.291039 -25.641647 4294967295
-58.381363 30.360355 -26.032484 4294967295
-58.37891 30.667545 -26.061087 4294967295
-58.374191 30.822319 -26.041027 4294967295
-58.352928 31.442392 -25.937479 4294967295
-58.347549 30.21826 -25.67371 4294967295
-58.27681 27.738056 -26.070757 4294967295
-58.271576 27.1266 -25.914062 4294967295
-58.247017 26.366756 -25.541252 4294967295
-58.243286 29.586689 -26.057739 4294967295
-58.242714 28.207739 -25.815182 4294967295
-58.23933 29.434732 -25.992626 4294967295
-58.238876 26.215544 -25.434956 4294967295
-58.238201 28.822144 -25.876226 4294967295
-58.23521 27.90336 -25.688847 4294967295
-58.229572 28.518219 -25.738878 4294967295
-58.226326 27.599272 -25.548985 4294967295
-58.224445 30.052376 -25.951942 4294967295
-58.220074 30.973051 -26.066996 4294967295
-58.214317 30.515373 -25.93158 4294967295
-58.210606 31.282667 -26.026808 4294967295
-58.210407 30.210192 -25.840569 4294967295
-58.197556 29.907822 -25.661875 4294967295
-58.182018 30.832693 -25.667528 4294967295
-58.180027 30.680071 -25.621666 4294967295
-58.17646 31.447704 -25.718348 4294967295
-58.136112 25.279591 -25.780432 4294967295
-58.133709 25.740114 -25.835823 4294967295
-58.130604 26.660593 -25.963232 4294967295
-58.126644 24.821896 -25.608742 4294967295
-58.122478 25.589659 -25.699503 4294967295
-58.12188 27.276001 -25.983034 4294967295
-58.120449 27.429649 -25.995314 4294967295
-58.11758 26.8174 -25.862034 4294967295
-58.105579 25.440563 -25.507658 4294967295
-58.104038 25.134165 -25.439898 4294967295
-58.101521 25.90172 -25.546848 4294967295
-58.097317 27.742771 -25.821436 4294967295
-58.092205 27.130995 -25.666149 4294967295
-58.090145 26.518175 -25.540752 4294967295
-58.065647 28.518579 -25.642986 4294967295
-58.060524 30.972439 -26.013578 4294967295
-58.054314 29.28862 -25.663588 4294967295
-58.049 29.596905 -25.664211 4294967295
-58.024811 31.137827 -25.69058 4294967295
-57.994247 24.967241 -25.84713 4294967295
-57.965427 27.733788 -26.038391 4294967295
-57.961136 26.20215 -25.733786 4294967295
-57.941784 25.286846 -25.386976 4294967295
-57.919415 29.126808 -25.825466 4294967295
-57.901241 29.745644 -25.75312 4294967295
-57.895088 30.514034 -25.824411 4294967295
-57.891582 29.595402 -25.63258 4294967295
-57.890171 31.435188 -25.933964 4294967295
-57.885742 30.363831 -25.706934 4294967295
-57.883797 30.211164 -25.661673 4294967295
-57.881634 31.28488 -25.824411 4294967295
-57.880379 30.978769 -25.759632 4294967295
-57.869328 31.135803 -25.678099 4294967295
-57.864697 30.830746 -25.580379 4294967295
-57.823711 26.654945 -25.97509 4294967295
-57.810619 26.811766 -25.873755 4294967295
-57.809631 25.432047 -25.627956 4294967295
-57.8092 26.198898 -25.754961 4294967295
-57.808205 24.972256 -25.535295 4294967295
-57.807289 25.279255 -25.578876 4294967295
-57.798061 27.428411 -25.856331 4294967295
-57.793247 27.276457 -25.783192 4294967295
-57.78857 26.357674 -25.580175 4294967295
-57.785378 26.971972 -25.654024 4294967295
-57.783733 25.131636 -25.322968 4294967295
-57.780426 29.579306 -26.051706 4294967295
-57.778126 27.894007 -25.740799 4294967295
-57.776005 28.20125 -25.772623 4294967295
-57.775692 25.900833 -25.375889 4294967295
-57.771782 28.662407 -25.810196 4294967295
-57.768066 27.130098 -25.511604 4294967295
-57.762589 28.971786 -25.773123 4294967295
-57.754333 28.360964 -25.587763 4294967295
-57.742134 29.284721 -25.626411 4294967295
-57.740704 28.825115 -25.533741 4294967295
-57.682999 25.269169 -25.869196 4294967295
-57.673588 24.964794 -25.725264 4294967295
-57.625538 27.430948 -25.677444 4294967295
-57.619965 30.498133 -26.147099 4294967295
-57.609379 29.582104 -25.887196 4294967295
-57.602367 29.124395 -25.740496 4294967295
-57.599312 31.117874 -26.051273 4294967295
-57.567181 30.975449 -25.713125 4294967295
-57.560009 30.824532 -25.617285 4294967295
-57.520355 25.1152 -25.760002 4294967295
-57.509216 25.271288 -25.678122 4294967295
-57.503326 26.192913 -25.778027 4294967295
-57.501846 25.579865 -25.658979 4294967295
-57.496311 27.574631 -25.945482 4294967295
-57.494202 25.73517 -25.610987 4294967295
-57.494015 26.962049 -25.818571 4294967295
-57.488384 28.036747 -25.947126 4294967295
-57.483391 28.191483 -25.924875 4294967295
-57.479534 28.499184 -25.939781 4294967295
-57.478603 26.352747 -25.564421 4294967295
-57.476795 26.659998 -25.599255 4294967295
-57.475327 27.120506 -25.663528 4294967295
-57.475307 29.113533 -26.003445 4294967295
-57.474876 24.819332 -25.266397 4294967295
-57.474731 26.813932 -25.605394 4294967295
-57.472691 29.420849 -26.030376 4294967295
-57.464676 28.963503 -25.874273 4294967295
-57.461952 27.430954 -25.586203 4294967295
-57.458832 30.191477 -26.026869 4294967295
-57.450409 29.887655 -25.892954 4294967295
-57.449162 27.89472 -25.540712 4294967295
-57.436199 30.811924 -25.912195 4294967295
-57.43227 30.65995 -25.848013 4294967295
-57.414833 31.432247 -25.809885 4294967295
-57.354584 24.961903 -25.621115 4294967295
-57.352108 25.882774 -25.754032 4294967295
-57.351318 26.649668 -25.87705 4294967295
-57.329861 27.115475 -25.747881 4294967295
-57.308308 25.433521 -25.251728 4294967295
-57.285454 28.661802 -25.579821 4294967295
-57.284412 28.968855 -25.622009 4294967295
-57.208748 24.957163 -25.701616 4294967295
-57.204777 25.111506 -25.689384 4294967295
-57.204742 25.724998 -25.793472 4294967295
-57.202168 25.418909 -25.716413 4294967295
-57.196629 26.49382 -25.845634 4294967295
-57.189934 26.035496 -25.702734 4294967295
-57.181839 27.877752 -25.937792 4294967295
-57.180275 26.19137 -25.635609 4294967295
-57.176369 24.811462 -25.36286 4294967295
-57.170799 27.114166 -25.700811 4294967295
-57.169422 27.574619 -25.765802 4294967295
-57.16571 29.108831 -25.990902 4294967295
-57.164883 27.422531 -25.695908 4294967295
-57.158566 25.583158 -25.321587 4294967295
-57.152058 28.039625 -25.676588 4294967295
-57.151737 28.193079 -25.699594 4294967295
-57.149967 26.813015 -25.447544 4294967295
-57.149693 29.880198 -25.966875 4294967295
-57.145947 27.274387 -25.487078 4294967295
-57.145573 29.421604 -25.8489 4294967295
-57.144184 28.962057 -25.757233 4294967295
-57.137196 28.504072 -25.611534 4294967295
-57.134163 30.345028 -25.895386 4294967295
-57.133972 28.811779 -25.632622 4294967295
-57.126728 30.807329 -25.901974 4294967295
-57.109341 31.273035 -25.812634 4294967295
-57.103046 30.661825 -25.647579 4294967295
-57.092834 31.431961 -25.679632 4294967295
-57.031075 25.420359 -25.553413 4294967295
-57.029934 25.727482 -25.594597 4294967295
-57.008751 26.500025 -25.521025 4294967295
-57.008194 28.647379 -25.880581 4294967295
-56.995613 26.196554 -25.34235 4294967295
-56.991222 30.492155 -26.029924 4294967295
-56.988922 26.658712 -25.356211 4294967295
-56.973049 29.424723 -25.672741 4294967295
-56.968391 28.198919 -25.419374 4294967295
-56.951878 30.198231 -25.599421 4294967295
-56.950951 31.425297 -25.798975 4294967295
-56.948055 29.739269 -25.484457 4294967295
-56.923431 30.974474 -25.456198 4294967295
-56.888226 26.028406 -25.766874 4294967295
-56.877834 24.957067 -25.48473 4294967295
-56.87117 25.112123 -25.446747 4294967295
-56.869194 26.800276 -25.714239 4294967295
-56.86425 26.187958 -25.56262 4294967295
-56.860432 27.109409 -25.682159 4294967295
-56.859909 26.649349 -25.599018 4294967295
-56.859592 28.643148 -25.934383 4294967295
-56.858997 25.268545 -25.355871 4294967295
-56.85783 25.882715 -25.448851 4294967295
-56.856052 29.104124 -25.978449 4294967295
-56.85358 27.418066 -25.66843 4294967295
-56.849026 26.345339 -25.442434 4294967295
-56.846428 29.413668 -25.938108 4294967295
-56.845715 25.73229 -25.306425 4294967295
-56.839073 28.955929 -25.789478 4294967295
-56.831974 27.730913 -25.513084 4294967295
-56.828579 28.192135 -25.558578 4294967295
-56.816463 30.802973 -25.884752 4294967295
-56.816452 29.882996 -25.728542 4294967295
-56.813122 29.577307 -25.644505 4294967295
-56.806377 30.346268 -25.709942 4294967295
-56.804348 29.273218 -25.508257 4294967295
-56.800327 31.268291 -25.808031 4294967295
-56.79987 28.81428 -25.38715 4294967295
-56.795021 30.503307 -25.626999 4294967295
-56.792316 29.737186 -25.470915 4294967295
-56.7901 30.198118 -25.527737 4294967295
-56.788769 31.11883 -25.671114 4294967295
-56.788536 31.425608 -25.720953 4294967295
-56.785419 30.966579 -25.612991 4294967295
-56.727493 26.180775 -25.73024 4294967295
-56.717636 25.416136 -25.505754 4294967295
-56.712261 27.105118 -25.740305 4294967295
-56.708042 24.80452 -25.309708 4294967295
-56.679939 28.494705 -25.664722 4294967295
-56.656292 30.495768 -25.776224 4294967295
-56.561687 25.106878 -25.4377 4294967295
-56.555363 25.722319 -25.481136 4294967295
-56.548996 28.331959 -25.861759 4294967295
-56.547791 24.956692 -25.27882 4294967295
-56.547417 26.951927 -25.612976 4294967295
-56.544418 26.492407 -25.506397 4294967295
-56.538132 25.419584 -25.264431 4294967295
-56.534626 28.029341 -25.672525 4294967295
-56.532692 26.034992 -25.316385 4294967295
-56.530674 29.564163 -25.894363 4294967295
-56.527363 28.951769 -25.758909 4294967295
-56.525681 28.492117 -25.664961 4294967295
-56.5214 26.651922 -25.312391 4294967295
-56.520786 27.572954 -25.462385 4294967295
-56.515522 27.113979 -25.334148 4294967295
-56.513531 28.802502 -25.600828 4294967295
-56.513397 29.876228 -25.781279 4294967295
-56.510365 30.183893 -25.804214 4294967295
-56.506855 27.423332 -25.303301 4294967295
-56.505959 29.418402 -25.632364 4294967295
-56.504108 29.11215 -25.562784 4294967295
-56.497993 30.954624 -25.815882 4294967295
-56.497665 30.494677 -25.734871 4294967295
-56.49649 30.341686 -25.697706 4294967295
-56.494747 31.415703 -25.862711 4294967295
-56.494251 30.035631 -25.624399 4294967295
-56.492504 31.109785 -25.789419 4294967295
-56.484371 30.805746 -25.659863 4294967295
-56.474556 30.655558 -25.540194 4294967295
-56.417328 24.948298 -25.506462 4294967295
-56.407951 26.638502 -25.702412 4294967295
-56.403893 25.565437 -25.482111 4294967295
-56.394703 25.107178 -25.316607 4294967295
-56.377819 26.032433 -25.311281 4294967295
-56.373302 27.108055 -25.449867 4294967295
-56.356068 28.187098 -25.467161 4294967295
-56.320988 30.806225 -25.573797 4294967295
-56.32021 31.420063 -25.670084 4294967295
-56.314747 31.268505 -25.59214 4294967295
-56.243347 26.178183 -25.526339 4294967295
-56.224415 26.336519 -25.372164 4294967295
-56.220978 26.644413 -25.391291 4294967295
-56.219288 26.491352 -25.349302 4294967295
-56.218971 28.639803 -25.708981 4294967295
-56.213177 27.874332 -25.524364 4294967295
-56.210293 27.414728 -25.419222 4294967295
-56.208633 27.26169 -25.377539 4294967295
-56.207657 26.80143 -25.290485 4294967295
-56.201637 27.110077 -25.28507 4294967295
-56.200073 27.571032 -25.34795 4294967295
-56.199905 28.185017 -25.449991 4294967295
-56.196568 27.725506 -25.340504 4294967295
-56.188591 30.183054 -25.679138 4294967295
-56.187542 28.802486 -25.436054 4294967295
-56.18681 29.263077 -25.506836 4294967295
-56.185677 30.490768 -25.703199 4294967295
-56.180592 28.344051 -25.292255 4294967295
-56.178654 30.646425 -25.662373 4294967295
-56.178574 29.419031 -25.454432 4294967295
-56.178249 29.879473 -25.529062 4294967295
-56.162102 31.418869 -25.634558 4294967295
-56.160919 30.805605 -25.519743 4294967295
-56.119671 25.247149 -25.661955 4294967295
-56.098022 25.405844 -25.48234 4294967295
-56.084728 24.794916 -25.252556 4294967295
-56.080612 26.791552 -25.549971 4294967295
-56.071251 25.719435 -25.279963 4294967295
-56.052761 26.184723 -25.18214 4294967295
-55.961426 24.784939 -25.546865 4294967295
-55.930794 25.866798 -25.437691 4294967295
-55.909218 29.0952 -25.776037 4294967295
-55.906013 29.556335 -25.823206 4294967295
-55.903934 28.636515 -25.648569 4294967295
-55.88953 27.412737 -25.305538 4294967295
-55.889286 28.180349 -25.43244 4294967295
-55.884766 29.716259 -25.648033 4294967295
-55.884026 30.33013 -25.744341 4294967295
-55.87912 28.029724 -25.310387 4294967295
-55.876476 30.946117 -25.776239 4294967295
-55.876022 28.337641 -25.332771 4294967295
-55.874321 31.40695 -25.833309 4294967295
-55.87421 30.486662 -25.677315 4294967295
-55.869629 29.874378 -25.530685 4294967295
-55.857563 30.79887 -25.57156 4294967295
-55.855846 31.259708 -25.632811 4294967295
-55.79213 24.939188 -25.431122 4294967295
-55.786724 26.168503 -25.586559 4294967295
-55.782589 26.476505 -25.599102 4294967295
-55.781021 25.555931 -25.429422 4294967295
-55.771549 27.40019 -25.649681 4294967295
-55.7715 25.404705 -25.313644 4294967295
-55.770489 25.09783 -25.25246 4294967295
-55.763721 26.020794 -25.343472 4294967295
-55.758007 28.784903 -25.753994 4294967295
-55.753658 27.25156 -25.454914 4294967295
-55.747494 28.020699 -25.525778 4294967295
-55.73679 26.64189 -25.192343 4294967295
-55.735851 28.637928 -25.519087 4294967295
-55.733891 30.479677 -25.810122 4294967295
-55.731567 29.253044 -25.581848 4294967295
-55.728596 29.867714 -25.656996 4294967295
-55.693836 29.571442 -25.277346 4294967295
-55.693676 30.339025 -25.404869 4294967295
-55.647526 25.241165 -25.574648 4294967295
-55.629356 26.780479 -25.66116 4294967295
-55.621521 25.707994 -25.4069 4294967295
-55.594753 29.091805 -25.721733 4294967295
-55.58633 29.554613 -25.7197 4294967295
-55.552101 31.406527 -25.706596 4294967295
-55.551544 31.099869 -25.649841 4294967295
-55.548134 30.947544 -25.591988 4294967295
-55.50803 24.774467 -25.637068 4294967295
-55.485374 25.547314 -25.552752 4294967295
-55.478634 25.702465 -25.515089 4294967295
-55.469032 26.318897 -25.527802 4294967295
-55.467422 26.626308 -25.564177 4294967295
-55.465252 25.091505 -25.286249 4294967295
-55.460003 28.009518 -25.726086 4294967295
-55.458466 25.86096 -25.351212 4294967295
-55.456673 26.782606 -25.488876 4294967295
-55.455433 27.089943 -25.52869 4294967295
-55.447788 25.402832 -25.17354 4294967295
-55.444862 27.399786 -25.48082 4294967295
-55.442673 28.16785 -25.58897 4294967295
-55.435986 28.630177 -25.603355 4294967295
-55.435463 26.941704 -25.315258 4294967295
-55.430908 29.092052 -25.632858 4294967295
-55.430862 29.398966 -25.683884 4294967295
-55.429379 29.706289 -25.721395 4294967295
-55.413357 28.943754 -25.442207 4294967295
-55.412193 28.483536 -25.354048 4294967295
-55.411129 30.018801 -25.601433 4294967295
-55.403164 30.174746 -25.552378 4294967295
-55.394131 31.558674 -25.699106 4294967295
-55.39394 29.25655 -25.311319 4294967295
-55.387138 30.640244 -25.479086 4294967295
-55.386307 29.565924 -25.291113 4294967295
-55.298588 26.166731 -25.35154 4294967295
-55.294285 27.856602 -25.594013 4294967295
-55.261288 28.326391 -25.361832 4294967295
-55.242161 30.941647 -25.619568 4294967295
-55.232296 31.558689 -25.629948 4294967295
-55.219028 30.335041 -25.300041 4294967295
-55.206062 31.413914 -25.35854 4294967295
-55.18866 24.771414 -25.537031 4294967295
-55.185551 25.079189 -25.559282 4294967295
-55.169117 26.464779 -25.636606 4294967295
-55.168114 26.158031 -25.575844 4294967295
-55.158794 24.93187 -25.283127 4294967295
-55.157787 25.699982 -25.402182 4294967295
-55.153576 27.082802 -25.593903 4294967295
-55.153053 25.393984 -25.306488 4294967295
-55.152534 26.929573 -25.558483 4294967295
-55.141239 27.393106 -25.529854 4294967295
-55.140652 25.85775 -25.267513 4294967295
-55.138332 28.775251 -25.733704 4294967295
-55.136734 27.854853 -25.564745 4294967295
-55.130882 26.628119 -25.304535 4294967295
-55.129673 28.317318 -25.575731 4294967295
-55.125469 29.392847 -25.716103 4294967295
-55.124798 27.243979 -25.350384 4294967295
-55.118656 30.008694 -25.755033 4294967295
-55.115192 30.470062 -25.79965 4294967295
-55.114555 28.935656 -25.537045 4294967295
-55.113461 29.856846 -25.680832 4294967295
-55.111492 28.629526 -25.457039 4294967295
-55.107613 29.091198 -25.497812 4294967295
-55.100468 30.167788 -25.610697 4294967295
-55.098309 28.172634 -25.256714 4294967295
-55.094959 31.090267 -25.713182 4294967295
-55.088417 30.785473 -25.600718 4294967295
-55.069347 31.559057 -25.550854 4294967295
-55.066299 30.63904 -25.368334 4294967295
-55.025635 25.691853 -25.610256 4294967295
-54.994194 25.085089 -25.214048 4294967295
-54.973003 26.165514 -25.195871 4294967295
-54.943314 29.705622 -25.508808 4294967295
-54.941891 31.547642 -25.803106 4294967295
-54.937588 28.018167 -25.173252 4294967295
-54.915688 31.09585 -25.481916 4294967295
-54.907448 30.330812 -25.276899 4294967295
-54.86404 24.923101 -25.415159 4294967295
-54.856716 26.15329 -25.551889 4294967295
-54.844776 24.773922 -25.210051 4294967295
-54.838017 25.236364 -25.223963 4294967295
-54.832924 27.08061 -25.484035 4294967295
-54.831287 25.852432 -25.263821 4294967295
-54.830425 26.313435 -25.33264 4294967295
-54.82568 26.775385 -25.36533 4294967295
-54.822189 27.851177 -25.512146 4294967295
-54.815758 28.313543 -25.529129 4294967295
-54.814491 29.234911 -25.670973 4294967295
-54.809582 28.775858 -25.54846 4294967295
-54.807575 27.240881 -25.273632 4294967295
-54.806797 26.626648 -25.163868 4294967295
-54.804234 30.005365 -25.703539 4294967295
-54.801456 28.471127 -25.421616 4294967295
-54.795498 27.397707 -25.186798 4294967295
-54.794559 28.165945 -25.306164 4294967295
-54.793884 30.31551 -25.65844 4294967295
-54.786476 29.550272 -25.461504 4294967295
-54.784946 30.932219 -25.677692 4294967295
-54.781097 31.240387 -25.693081 4294967295
-54.774796 31.549374 -25.685656 4294967295
-54.771564 29.708313 -25.348335 4294967295
-54.764336 29.864069 -25.306696 4294967295
-54.759712 30.479723 -25.366144 4294967295
-54.749519 30.790052 -25.322536 4294967295
-54.702904 25.075487 -25.378582 4294967295
-54.668201 25.544537 -25.132862 4294967295
-54.649105 28.467924 -25.44173 4294967295
-54.635498 27.857395 -25.213007 4294967295
-54.619152 29.244421 -25.291515 4294967295
-54.615391 30.013388 -25.384541 4294967295
-54.608284 30.169134 -25.344128 4294967295
-54.573627 31.562315 -25.252745 4294967295
-54.532459 24.769159 -25.179373 4294967295
-54.526276 25.999649 -25.326599 4294967295
-54.523975 27.075306 -25.484154 4294967295
-54.523891 25.692999 -25.253361 4294967295
-54.522549 26.307779 -25.343142 4294967295
-54.522278 25.232466 -25.161678 4294967295
-54.514908 26.924099 -25.37458 4294967295
-54.51347 28.920504 -25.693386 4294967295
-54.511707 26.771332 -25.319349 4294967295
-54.510147 26.464508 -25.253756 4294967295
-54.506237 27.387136 -25.370884 4294967295
-54.498611 28.617741 -25.504648 4294967295
-54.497292 27.543121 -25.313543 4294967295
-54.495579 28.157928 -25.399878 4294967295
-54.494202 27.851147 -25.336031 4294967295
-54.491478 29.847998 -25.64291 4294967295
-54.47963 28.776735 -25.35433 4294967295
-54.471195 29.393488 -25.378416 4294967295
-54.469116 30.161871 -25.4869 4294967295
-54.468937 28.318966 -25.178619 4294967295
-54.467632 28.472958 -25.192081 4294967295
-54.463829 30.777626 -25.540127 4294967295
-54.462395 29.703259 -25.348003 4294967295
-54.461563 29.089151 -25.238092 4294967295
-54.450726 31.088865 -25.46987 4294967295
-54.440575 31.552767 -25.452524 4294967295
-54.428146 31.249718 -25.286367 4294967295
-54.396816 25.069336 -25.405218 4294967295
-54.38512 25.840084 -25.424694 4294967295
-54.314186 29.698811 -25.406952 4294967295
-54.313534 30.620275 -25.554012 4294967295
-54.294601 30.165495 -25.302561 4294967295
-54.282799 30.937109 -25.321136 4294967295
-54.270535 31.555386 -25.309925 4294967295
-54.206913 28.300602 -25.613859 4294967295
-54.204151 25.075399 -25.052929 4294967295
-54.201908 26.151646 -25.210798 4294967295
-54.201557 28.762697 -25.640938 4294967295
-54.200592 25.537302 -25.096622 4294967295
-54.19836 27.535131 -25.407572 4294967295
-54.19463 25.231312 -24.990561 4294967295
-54.193195 26.461119 -25.181437 4294967295
-54.191578 27.383339 -25.319496 4294967295
-54.191559 27.076103 -25.268316 4294967295
-54.189754 26.922937 -25.226187 4294967295
-54.186878 27.845423 -25.352623 4294967295
-54.18232 29.996494 -25.667355 4294967295
-54.175201 29.077385 -25.448885 4294967295
-54.162842 30.463045 -25.564255 4294967295
-54.162453 28.46664 -25.229336 4294967295
-54.155258 29.236792 -25.29047 4294967295
-54.15432 29.54427 -25.3328 4294967295
-54.152622 31.233894 -25.597464 4294967295
-54.139771 31.545118 -25.529972 4294967295
-54.137329 30.931715 -25.405577 4294967295
-54.131069 30.165714 -25.220453 4294967295
-54.090847 24.755915 -25.382309 4294967295
-54.076221 25.988239 -25.451365 4294967295
-54.07526 24.913088 -25.264242 4294967295
-54.073143 25.835381 -25.397543 4294967295
-54.055973 26.761309 -25.392262 4294967295
-54.049881 27.991596 -25.539898 4294967295
-54.035587 29.531078 -25.662891 4294967295
-54.013969 28.308702 -25.260368 4294967295
-54.001221 30.155613 -25.448591 4294967295
-53.986046 30.467447 -25.359957 4294967295
-53.924355 25.677673 -25.424988 4294967295
-53.871746 28.30266 -25.374231 4294967295
-53.868828 27.07431 -25.143944 4294967295
-53.864662 27.536409 -25.182016 4294967295
-53.85928 27.845177 -25.183498 4294967295
-53.85928 28.920612 -25.361506 4294967295
-53.858501 30.763607 -25.65938 4294967295
-53.848057 28.155573 -25.131317 4294967295
-53.84552 28.46361 -25.158916 4294967295
-53.842342 29.539995 -25.307785 4294967295
-53.83913 29.080042 -25.202028 4294967295
-53.838081 30.309294 -25.395811 4294967295
-53.837601 29.848639 -25.315134 4294967295
-53.835976 30.617113 -25.427343 4294967295
-53.830009 30.158165 -25.296318 4294967295
-53.824768 30.467003 -25.299084 4294967295
-53.812298 31.085367 -25.286402 4294967295
-53.808334 30.933008 -25.224615 4294967295
-53.787548 31.554228 -25.135674 4294967295
-53.748505 25.065285 -25.128092 4294967295
-53.747898 24.911716 -25.09713 4294967295
-53.741138 25.528093 -25.136824 4294967295
-53.740982 26.296518 -25.262461 4294967295
-53.73336 25.991035 -25.141796 4294967295
-53.733086 27.374027 -25.367945 4294967295
-53.721771 26.762344 -25.162651 4294967295
-53.720535 26.608973 -25.125904 4294967295
-53.718727 25.84086 -24.982248 4294967295
-53.707691 26.458483 -24.982817 4294967295
-53.705341 28.917847 -25.367802 4294967295
-53.702358 29.533121 -25.442095 4294967295
-53.689297 27.53928 -24.992222 4294967295
-53.677982 28.1572 -24.99025 4294967295
-53.669514 31.232697 -25.420708 4294967295
-53.583721 25.526024 -25.111338 4294967295
-53.564419 25.684317 -24.960226 4294967295
-53.562962 24.915817 -24.819954 4294967295
-53.548454 29.06954 -25.372652 4294967295
-53.535 27.997677 -25.072128 4294967295
-53.534893 29.995213 -25.400946 4294967295
-53.532021 28.920609 -25.197159 4294967295
-53.53149 28.613413 -25.141562 4294967295
-53.531204 30.764303 -25.494049 4294967295
-53.523968 29.383923 -25.199715 4294967295
-53.519905 30.614233 -25.365507 4294967295
-53.512398 28.772497 -24.992506 4294967295
-53.509171 30.31028 -25.216778 4294967295
-53.506706 29.850035 -25.118147 4294967295
-53.494476 31.083101 -25.2094 4294967295
-53.492775 30.929987 -25.16852 4294967295
-53.477196 31.549608 -25.127731 4294967295
-53.4534 24.902876 -25.231943 4294967295
-53.442226 25.82757 -25.282093 4294967295
-53.438126 25.521172 -25.193968 4294967295
-53.43745 25.0602 -25.111765 4294967295
-53.419373 26.755257 -25.225719 4294967295
-53.419331 27.523581 -25.35203 4294967295
-53.417477 28.292217 -25.461838 4294967295
-53.416321 26.141218 -25.096483 4294967295
-53.412224 26.449657 -25.109802 4294967295
-53.410892 25.22003 -24.894812 4294967295
-53.408352 25.681921 -24.947708 4294967295
-53.405617 27.373526 -25.201654 4294967295
-53.394474 29.374022 -25.429457 4294967295
-53.3867 30.144341 -25.48527 4294967295
-53.385452 26.30253 -24.840246 4294967295
-53.383171 26.610647 -24.870188 4294967295
-53.382652 28.148127 -25.118984 4294967295
-53.381519 29.685066 -25.362059 4294967295
-53.372147 31.377514 -25.555279 4294967295
-53.366951 27.844936 -24.925158 4294967295
-53.342377 30.618816 -25.157408 4294967295
-53.274635 24.905556 -25.012144 4294967295
-53.272316 27.518934 -25.421473 4294967295
-53.247856 25.988113 -24.945719 4294967295
-53.24741 28.754793 -25.397367 4294967295
-53.239639 29.678747 -25.478485 4294967295
-53.199753 30.76622 -25.292971 4294967295
-53.194477 31.536049 -25.371532 4294967295
-53.190716 29.385756 -24.983034 4294967295
-53.181049 30.618353 -25.097654 4294967295
-53.135654 25.667816 -25.28134 4294967295
-53.121552 25.978573 -25.203835 4294967295
-53.108425 24.905386 -24.907537 4294967295
-53.108238 25.520527 -25.007069 4294967295
-53.108177 27.518799 -25.335279 4294967295
-53.105991 25.059723 -24.910757 4294967295
-53.105038 27.36595 -25.281477 4294967295
-53.104404 26.136438 -25.073429 4294967295
-53.101841 26.75198 -25.151337 4294967295
-53.097061 27.829086 -25.284925 4294967295
-53.088745 26.447773 -24.981829 4294967295
-53.086185 29.061354 -25.388441 4294967295
-53.081665 29.523561 -25.42325 4294967295
-53.078167 29.831841 -25.442072 4294967295
-53.077282 26.604387 -24.903076 4294967295
-53.075478 28.295998 -25.164883 4294967295
-53.074306 30.447449 -25.508112 4294967295
-53.071114 28.450903 -25.150574 4294967295
-53.069351 27.221493 -24.932241 4294967295
-53.067013 28.913143 -25.189222 4294967295
-53.065891 27.683678 -24.976749 4294967295
-53.05957 29.222652 -25.172255 4294967295
-53.053841 30.300062 -25.297222 4294967295
-53.051144 29.686182 -25.171635 4294967295
-53.047161 29.99474 -25.186068 4294967295
-53.045334 31.37818 -25.396933 4294967295
-53.040199 31.226183 -25.325134 4294967295
-53.036076 31.534779 -25.338261 4294967295
-52.976223 25.051327 -25.136999 4294967295
-52.969894 26.436235 -25.30699 4294967295
-52.942554 25.981699 -24.983534 4294967295
-52.942432 26.135496 -25.007683 4294967295
-52.930103 26.907343 -25.022356 4294967295
-52.911991 30.140009 -25.388655 4294967295
-52.899551 28.606697 -25.02355 4294967295
-52.889793 28.916925 -24.985722 4294967295
-52.857697 31.386211 -25.099312 4294967295
-52.857025 30.925276 -25.0175 4294967295
-52.820774 24.894995 -25.104967 4294967295
-52.80164 25.668173 -25.058119 4294967295
-52.794373 27.053587 -25.219513 4294967295
-52.793289 24.747314 -24.831173 4294967295
-52.792236 28.28363 -25.401995 4294967295
-52.790825 26.747036 -25.136993 4294967295
-52.783997 26.287462 -24.999594 4294967295
-52.783817 25.826155 -24.922249 4294967295
-52.783321 25.211027 -24.816803 4294967295
-52.776241 27.980595 -25.207056 4294967295
-52.775921 27.51952 -25.128477 4294967295
-52.773457 29.210829 -25.383617 4294967295
-52.773365 28.59617 -25.281946 4294967295
-52.767834 26.599005 -24.903976 4294967295
-52.755154 29.369768 -25.24354 4294967295
-52.75375 29.677546 -25.281315 4294967295
-52.751171 30.600275 -25.40929 4294967295
-52.750908 28.909863 -25.12952 4294967295
-52.749535 30.908051 -25.44492 4294967295
-52.743927 31.217066 -25.444708 4294967295
-52.743267 27.374258 -24.808172 4294967295
-52.742882 28.143333 -24.930891 4294967295
-52.738712 30.143061 -25.221169 4294967295
-52.720978 31.070633 -25.212347 4294967295
-52.707203 30.460026 -24.987085 4294967295
-52.706455 31.53631 -25.156889 4294967295
-52.655693 25.817139 -25.162659 4294967295
-52.616402 25.057177 -24.682173 4294967295
-52.60294 30.134851 -25.392464 4294967295
-52.591923 28.447218 -25.01609 4294967295
-52.582756 29.833477 -25.160248 4294967295
-52.575859 30.604076 -25.224031 4294967295
-52.570309 28.145519 -24.770884 4294967295
-52.504425 25.506107 -25.143478 4294967295
-52.502876 25.352701 -25.104342 4294967295
-52.496609 25.046556 -24.997593 4294967295
-52.493744 25.816128 -25.097679 4294967295
-52.490871 24.74021 -24.895575 4294967295
-52.475765 26.281755 -25.011425 4294967295
-52.471523 26.436575 -24.998438 4294967295
-52.466789 25.976307 -24.880316 4294967295
-52.465599 27.053169 -25.045845 4294967295
-52.464012 27.976091 -25.182596 4294967295
-52.455425 27.67087 -25.055029 4294967295
-52.451874 27.364243 -24.972742 4294967295
-52.451008 26.903065 -24.88942 4294967295
-52.449318 28.90247 -25.201431 4294967295
-52.448341 29.517574 -25.293278 4294967295
-52.440617 27.52096 -24.896654 4294967295
-52.439507 29.366417 -25.188704 4294967295
-52.435417 31.365454 -25.478909 4294967295
-52.430328 28.60026 -24.980345 4294967295
-52.429016 29.830631 -25.169861 4294967295
-52.421051 30.140438 -25.148588 4294967295
-52.417915 27.834572 -24.742832 4294967295
-52.416119 31.064194 -25.25519 4294967295
-52.413391 30.60392 -25.155191 4294967295
-52.408401 31.527699 -25.261282 4294967295
-52.400524 29.992794 -24.938911 4294967295
-52.390186 31.226034 -25.047318 4294967295
-52.324581 25.509171 -24.918074 4294967295
-52.320141 28.277981 -25.330746 4294967295
-52.30864 24.743469 -24.649136 4294967295
-52.299881 25.360989 -24.671125 4294967295
-52.265633 28.138931 -24.816515 4294967295
-52.252254 29.680754 -24.947958 4294967295
-52.249115 30.143017 -24.995188 4294967295
-52.23172 31.070929 -24.990009 4294967295
-52.183319 24.734232 -24.913916 4294967295
-52.17458 25.966755 -25.036579 4294967295
-52.161358 25.66222 -24.867868 4294967295
-52.159458 25.816504 -24.875977 4294967295
-52.156731 25.047831 -24.725925 4294967295
-52.155056 24.894316 -24.68577 4294967295
-52.147552 27.35758 -25.020546 4294967295
-52.143555 27.973751 -25.085194 4294967295
-52.141785 25.358984 -24.642262 4294967295
-52.139713 28.743582 -25.176329 4294967295
-52.139591 27.667231 -24.999474 4294967295
-52.133923 27.822515 -24.97385 4294967295
-52.133415 29.975155 -25.320732 4294967295
-52.133278 28.437834 -25.068514 4294967295
-52.128334 26.900982 -24.773092 4294967295
-52.117844 28.903431 -25.005659 4294967295
-52.112198 30.903761 -25.281469 4294967295
-52.110382 29.520664 -25.039339 4294967295
-52.106441 31.52034 -25.330328 4294967295
-52.106327 31.21299 -25.279116 4294967295
-52.104843 28.599421 -24.839083 4294967295
-52.102062 30.291927 -25.090399 4294967295
-52.100964 30.446009 -25.105677 4294967295
-52.09866 29.370241 -24.909288 4294967295
-52.091755 30.141233 -24.973051 4294967295
-52.061604 31.380779 -24.904165 4294967295
-52.011784 27.196283 -25.165834 4294967295
-52.006886 26.889963 -25.071913 4294967295
-51.994156 27.508356 -25.0585 4294967295
-51.98526 25.664423 -24.677896 4294967295
-51.981209 26.588665 -24.792313 4294967295
-51.978325 26.127735 -24.691221 4294967295
-51.962597 29.362309 -25.077576 4294967295
-51.949596 27.981514 -24.735693 4294967295
-51.937103 29.98484 -24.950254 4294967295
-51.931805 30.447803 -24.978172 4294967295
-51.927841 30.756578 -24.992941 4294967295
-51.860569 26.27 -25.04763 4294967295
-51.853416 24.887007 -24.758263 4294967295
-51.850853 25.810812 -24.885798 4294967295
-51.846584 27.196262 -25.073277 4294967295
-51.842701 26.428137 -24.913347 4294967295
-51.841873 27.505054 -25.08139 4294967295
-51.840099 25.197762 -24.689613 4294967295
-51.839645 27.044209 -24.986359 4294967295
-51.832752 26.122808 -24.774508 4294967295
-51.831326 29.353033 -25.287907 4294967295
-51.830627 29.045757 -25.231617 4294967295
-51.830399 27.661829 -25.004139 4294967295
-51.82098 27.818108 -24.945255 4294967295
-51.820869 29.509756 -25.219799 4294967295
-51.819485 30.586203 -25.382713 4294967295
-51.813522 30.434294 -25.304558 4294967295
-51.811596 28.43589 -24.961819 4294967295
-51.809753 28.744013 -24.995529 4294967295
-51.806854 29.821312 -25.145027 4294967295
-51.803131 26.899483 -24.635748 4294967295
-51.801769 28.130867 -24.824123 4294967295
-51.794022 31.516289 -25.306116 4294967295
-51.793518 29.209982 -24.925993 4294967295
-51.793011 29.671553 -24.996632 4294967295
-51.792122 30.286953 -25.088905 4294967295
-51.789921 29.980042 -25.019205 4294967295
-51.777199 30.752781 -25.031111 4294967295
-51.767139 30.909647 -24.966564 4294967295
-51.75494 31.221025 -24.90803 4294967295
-51.713337 25.650227 -25.015198 4294967295
-51.71254 25.035032 -24.907969 4294967295
-51.701733 26.883503 -25.112186 4294967295
-51.688568 27.809595 -25.145214 4294967295
-51.688305 28.117212 -25.192909 4294967295
-51.685326 26.733744 -24.941206 4294967295
-51.65398 26.279703 -24.587208 4294967295
-51.643002 31.205185 -25.290407 4294967295
-51.584831 24.718641 -25.099146 4294967295
-51.578568 25.181471 -25.11853 4294967295
-51.571415 25.490715 -25.10499 4294967295
-51.515553 27.965538 -25.009096 4294967295
-51.515427 27.350222 -24.907976 4294967295
-51.514984 29.503563 -25.253929 4294967295
-51.511436 26.427942 -24.722536 4294967295
-51.507347 27.660002 -24.886305 4294967295
-51.506432 28.583252 -25.028164 4294967295
-51.504742 30.429001 -25.312967 4294967295
-51.50396 26.583662 -24.681194 4294967295
-51.50383 29.814283 -25.204981 4294967295
-51.496429 28.893633 -24.989388 4294967295
-51.489155 29.357126 -24.999836 4294967295
-51.48629 29.665567 -25.024426 4294967295
-51.483185 30.127871 -25.071859 4294967295
-51.48008 31.51269 -25.269127 4294967295
-51.478611 31.051905 -25.181171 4294967295
-51.476559 31.206297 -25.187971 4294967295
-51.454853 30.905399 -24.945547 4294967295
-51.423603 25.178757 -25.117313 4294967295
-51.422676 24.871302 -25.059168 4294967295
-51.413433 24.71946 -24.952307 4294967295
-51.411415 25.489157 -25.059284 4294967295
-51.392605 25.031775 -24.817707 4294967295
-51.385624 26.110527 -24.930706 4294967295
-51.380653 25.957825 -24.861698 4294967295
-51.353771 28.2724 -24.99822 4294967295
-51.351662 27.042046 -24.779749 4294967295
-51.346737 28.581959 -24.98588 4294967295
-51.34557 26.735735 -24.675842 4294967295
-51.333286 30.585207 -25.191311 4294967295
-51.332592 27.508577 -24.685844 4294967295
-51.324387 27.356745 -24.588184 4294967295
-51.313763 30.283434 -24.968634 4294967295
-51.299667 29.826004 -24.769012 4294967295
-51.296169 31.519325 -25.012653 4294967295
-51.251167 25.487644 -25.011696 4294967295
-51.241009 26.259241 -25.046623 4294967295
-51.204533 29.191105 -25.198122 4294967295
-51.203842 25.344419 -24.568411 4294967295
-51.199543 25.961227 -24.630234 4294967295
-51.182533 27.042906 -24.654619 4294967295
-51.17453 27.968473 -24.733614 4294967295
-51.17387 30.276464 -25.101871 4294967295
-51.173416 30.430397 -25.12277 4294967295
-51.172935 29.661472 -24.993896 4294967295
-51.172585 29.046186 -24.891056 4294967295
-51.16885 28.431688 -24.758297 4294967295
-51.164433 31.048267 -25.143167 4294967295
-51.163307 31.356173 -25.183083 4294967295
-51.161198 30.126375 -24.965036 4294967295
-51.155685 30.743322 -25.016109 4294967295
-51.144215 31.515915 -25.039488 4294967295
-51.144154 30.592957 -24.889372 4294967295
-51.142525 29.824078 -24.750309 4294967295
-51.119617 31.215872 -24.772549 4294967295
-51.098747 25.022751 -24.958746 4294967295
-51.085064 25.949076 -24.987577 4294967295
-51.080338 26.104048 -24.970814 4294967295
-51.077461 26.412458 -24.995264 4294967295
-51.074455 25.643757 -24.844172 4294967295
-51.068207 27.491659 -25.088043 4294967295
-51.066319 25.337761 -24.722538 4294967295
-51.059456 27.801575 -25.060705 4294967295
-51.057632 27.186636 -24.944988 4294967295
-51.053097 25.494684 -24.630848 4294967295
-51.039146 26.729509 -24.707266 4294967295
-51.036041 26.576328 -24.654943 4294967295
-51.035236 28.115618 -24.897072 4294967295
-51.023636 29.811131 -25.06881 4294967295
-51.016392 29.197817 -24.90535 4294967295
-51.009621 27.660551 -24.596525 4294967295
-50.963081 31.521614 -24.809395 4294967295
-50.914776 24.872412 -24.678064 4294967295
-50.90617 27.490826 -25.025507 4294967295
-50.882694 29.34314 -25.117558 4294967295
-50.858109 30.888405 -25.150173 4294967295
-50.843395 28.738493 -24.672501 4294967295
-50.841152 30.27813 -24.901628 4294967295
-50.84071 31.508968 -25.096746 4294967295
-50.837051 29.817675 -24.790939 4294967295
-50.835773 31.356682 -25.028492 4294967295
-50.835217 31.049181 -24.973862 4294967295
-50.814701 30.593737 -24.718925 4294967295
-50.800671 24.8608 -25.037142 4294967295
-50.778061 25.173527 -24.888304 4294967295
-50.777584 25.635334 -24.958704 4294967295
-50.76733 25.945477 -24.91839 4294967295
-50.766651 26.253418 -24.962143 4294967295
-50.760204 26.408836 -24.930405 4294967295
-50.750347 26.872894 -24.918476 4294967295
-50.74815 27.950533 -25.073164 4294967295
-50.745819 25.488596 -24.654921 4294967295
-50.729816 28.570795 -25.011673 4294967295
-50.728348 27.647894 -24.849669 4294967295
-50.7225 28.265001 -24.897787 4294967295
-50.718441 29.189331 -25.011282 4294967295
-50.717556 27.034887 -24.655485 4294967295
-50.717545 27.804583 -24.779726 4294967295
-50.71656 27.189089 -24.671612 4294967295
-50.703796 29.039509 -24.857956 4294967295
-50.697342 29.656862 -24.900751 4294967295
-50.666985 29.973372 -24.684196 4294967295
-50.593136 24.869398 -24.576048 4294967295
-50.574387 29.029886 -25.082327 4294967295
-50.569126 26.568705 -24.638977 4294967295
-50.548733 30.114077 -25.031521 4294967295
-50.545017 27.498508 -24.576899 4294967295
-50.537544 31.040451 -25.082514 4294967295
-50.534161 28.425158 -24.630886 4294967295
-50.527977 31.197205 -25.023607 4294967295
-50.508957 31.356901 -24.882027 4294967295
-50.502644 30.743208 -24.727509 4294967295
-50.498425 30.43659 -24.640926 4294967295
-50.451309 25.633581 -24.815693 4294967295
-50.448711 25.788113 -24.817804 4294967295
-50.444576 25.327179 -24.707214 4294967295
-50.443619 24.865442 -24.62439 4294967295
-50.442146 26.097506 -24.810032 4294967295
-50.437908 25.174671 -24.6241 4294967295
-50.434719 26.868925 -24.86915 4294967295
-50.432114 27.639101 -24.970366 4294967295
-50.427387 27.178572 -24.854683 4294967295
-50.426785 26.562971 -24.750181 4294967295
-50.424805 26.255518 -24.683256 4294967295
-50.421024 27.795837 -24.898285 4294967295
-50.416843 29.181868 -25.084909 4294967295
-50.413338 28.105644 -24.880724 4294967295
-50.411198 28.414019 -24.911617 4294967295
-50.402138 29.339815 -24.981251 4294967295
-50.402035 29.032074 -24.93078 4294967295
-50.398926 29.648462 -25.002787 4294967295
-50.394688 31.034283 -25.188847 4294967295
-50.381516 29.961193 -24.90033 4294967295
-50.380478 30.423143 -24.965675 4294967295
-50.373569 31.19453 -25.029287 4294967295
-50.35434 30.276894 -24.71266 4294967295
-50.342743 31.511757 -24.80978 4294967295
-50.239559 30.724171 -25.138468 4294967295
-50.239372 28.261915 -24.740585 4294967295
-50.138245 25.474834 -24.764662 4294967295
-50.136505 26.245007 -24.873262 4294967295
-50.134457 25.321697 -24.706915 4294967295
-50.129112 25.78484 -24.734686 4294967295
-50.116032 26.711714 -24.769365 4294967295
-50.107788 27.637447 -24.846138 4294967295
-50.104378 26.406528 -24.618454 4294967295
-50.099476 26.86969 -24.650057 4294967295
-50.08873 27.334307 -24.630852 4294967295
-50.086887 27.796724 -24.689079 4294967295
-50.079403 28.876406 -24.797218 4294967295
-50.074394 28.569843 -24.704168 4294967295
-50.070045 30.264309 -24.938543 4294967295
-50.068928 31.341763 -25.101927 4294967295
-50.068062 29.957067 -24.871799 4294967295
-50.065048 28.418343 -24.598146 4294967295
-50.063416 29.342634 -24.732424 4294967295
-50.062462 29.034969 -24.674643 4294967295
-50.05806 30.88343 -24.933271 4294967295
-50.055805 29.498713 -24.691021 4294967295
-50.049225 30.57823 -24.807009 4294967295
-50.045288 29.809612 -24.649082 4294967295
