# .PCD v0.7 - Point Cloud Data file format
VERSION 0.7
FIELDS x y z rgb
SIZE 4 4 4 4
TYPE F F F U
COUNT 1 1 1 1
WIDTH 1144
HEIGHT 1
VIEWPOINT 0 0 0 1 0 0 0
POINTS 1144
DATA ascii
136.51021 9.4577427 -20.847696 4294967295
136.51691 9.7953215 -20.852955 4294967295
136.52614 8.7817688 -20.768391 4294967295
136.53101 9.1194134 -20.777889 4294967295
136.53488 12.496832 -20.978584 4294967295
136.53984 12.159029 -20.945967 4294967295
136.54718 11.821161 -20.907759 4294967295
136.55911 12.834211 -20.942768 4294967295
136.56398 1.3583567 -21.074913 4294967295
136.5647 2.0334384 -21.115204 4294967295
136.56731 1.6957357 -21.088139 4294967295
136.56781 2.7083731 -21.149784 4294967295
136.59715 1.0188441 -20.976208 4294967295
136.59818 3.0443707 -21.099571 4294967295
136.62994 14.522306 -20.881527 4294967295
136.6302 13.508877 -20.81798 4294967295
136.64362 14.184385 -20.828465 4294967295
136.65192 3.3792827 -20.994524 4294967295
136.67049 4.0536709 -20.992933 4294967295
136.68835 4.3905039 -20.972015 4294967295
136.69287 5.4032793 -21.024351 4294967295
136.71983 4.7267666 -20.91922 4294967295
136.72432 6.0773311 -20.992521 4294967295
136.73167 5.063951 -20.912376 4294967295
136.73634 7.765233 -21.069168 4294967295
136.7364 5.7391529 -20.943237 4294967295
136.74132 8.1027317 -21.078495 4294967295
136.74362 6.4142694 -20.968279 4294967295
136.76082 9.1151304 -21.095684 4294967295
136.77359 10.127783 -21.128693 4294967295
136.78847 8.7766609 -21.009953 4294967295
136.79102 7.0879588 -20.899162 4294967295
136.80501 12.153099 -21.180824 4294967295
136.82358 8.4378815 -20.9067 4294967295
136.82712 10.464218 -21.024225 4294967295
136.84033 1.3541329 -21.282867 4294967295
136.8573 10.801284 -20.974514 4294967295
136.8631 11.476664 -21.002838 4294967295
136.86613 11.138852 -20.974808 4294967295
136.8723 1.0147517 -21.187057 4294967295
136.87352 2.7023826 -21.28899 4294967295
136.8878 2.3640964 -21.234558 4294967295
136.89062 13.840443 -21.085123 4294967295
136.8916 2.0263333 -21.204723 4294967295
136.8927 13.164933 -21.038382 4294967295
136.89584 1.6885314 -21.17387 4294967295
136.90283 12.827041 -20.993681 4294967295
136.91481 12.489088 -20.944632 4294967295
136.9579 13.50194 -20.906656 4294967295
136.95914 3.0355537 -21.109514 4294967295
136.96678 4.0480452 -21.154434 4294967295
136.96823 4.3855877 -21.172014 4294967295
136.96849 3.372715 -21.108553 4294967295
136.96999 5.0607204 -21.209812 4294967295
136.97768 5.397995 -21.212753 4294967295
136.97932 3.7098207 -21.104137 4294967295
136.98798 5.7351732 -21.209585 4294967295
136.9991 6.0723438 -21.204498 4294967295
137.01308 4.7212067 -21.087965 4294967295
137.01811 6.4092302 -21.180933 4294967295
137.04224 8.4341774 -21.250219 4294967295
137.06091 8.0959549 -21.185583 4294967295
137.07642 7.4201002 -21.107367 4294967295
137.08635 7.0820618 -21.063173 4294967295
137.10266 7.7569237 -21.066912 4294967295
137.13898 12.483706 -21.275335 4294967295
137.14154 1.3484833 -21.432396 4294967295
137.14302 12.14597 -21.244938 4294967295
137.15771 11.470323 -21.168655 4294967295
137.16231 10.119317 -21.074158 4294967295
137.20187 2.6952162 -21.375111 4294967295
137.21124 1.0069315 -21.248482 4294967295
137.21486 3.0320833 -21.365723 4294967295
137.21841 13.833512 -21.173384 4294967295
137.22406 2.0189271 -21.281363 4294967295
137.22752 12.820135 -21.08923 4294967295
137.23013 13.495634 -21.125019 4294967295
137.24174 3.7058549 -21.344687 4294967295
137.25412 13.157566 -21.048014 4294967295
137.26093 14.170873 -21.09495 4294967295
137.26474 4.7174854 -21.353775 4294967295
137.27626 4.0417914 -21.285015 4294967295
137.28667 14.50846 -21.055721 4294967295
137.29451 6.4041204 -21.388863 4294967295
137.31026 3.3648987 -21.163626 4294967295
137.3264 5.0523939 -21.230591 4294967295
137.35619 5.7264552 -21.20285 4294967295
137.35828 5.3886986 -21.177029 4294967295
137.36687 8.0896149 -21.324532 4294967295
137.37546 8.4269819 -21.325378 4294967295
137.39841 7.4132571 -21.208921 4294967295
137.40331 7.0753937 -21.176546 4294967295
137.41437 7.7504148 -21.192606 4294967295
137.42352 9.4385824 -21.275919 4294967295
137.42932 10.789116 -21.34617 4294967295
137.43109 11.464383 -21.383924 4294967295
137.43951 9.7758512 -21.259493 4294967295
137.44022 9.1004362 -21.216032 4294967295
137.44705 10.113358 -21.262835 4294967295
137.46294 11.126088 -21.28857 4294967295
137.48845 2.0152342 -21.51697 4294967295
137.49042 1.3401129 -21.470469 4294967295
137.49957 2.3521357 -21.511932 4294967295
137.50067 12.813949 -21.305193 4294967295
137.5022 11.800764 -21.238783 4294967295
137.50453 1.0017722 -21.416616 4294967295
137.5083 12.47612 -21.266434 4294967295
137.51033 13.826943 -21.345507 4294967295
137.52307 1.6757989 -21.415194 4294967295
137.53453 2.687819 -21.451237 4294967295
137.54399 14.502077 -21.308779 4294967295
137.54718 13.488821 -21.238474 4294967295
137.55212 14.164272 -21.268841 4294967295
137.56743 5.0490437 -21.520943 4294967295
137.57288 13.150738 -21.157526 4294967295
137.57631 3.3608298 -21.395575 4294967295
137.59015 4.7104902 -21.446987 4294967295
137.59126 4.3728647 -21.423487 4294967295
137.5955 6.0605211 -21.518175 4294967295
137.60127 3.6972055 -21.358221 4294967295
137.60223 3.0219278 -21.314093 4294967295
137.6049 4.0346375 -21.370714 4294967295
137.62886 7.0719705 -21.50316 4294967295
137.64809 5.3832049 -21.3536 4294967295
137.64961 6.3960133 -21.412817 4294967295
137.66412 6.7330923 -21.399944 4294967295
137.67236 5.7198448 -21.317844 4294967295
137.68291 7.40769 -21.397921 4294967295
137.70146 8.4200077 -21.417496 4294967295
137.71638 10.445393 -21.508259 4294967295
137.72267 8.0816936 -21.34705 4294967295
137.73518 9.7696638 -21.422503 4294967295
137.76549 12.470241 -21.519346 4294967295
137.77525 10.781739 -21.391874 4294967295
137.77725 12.132401 -21.470938 4294967295
137.78496 9.092947 -21.264563 4294967295
137.78674 9.4306316 -21.281292 4294967295
137.78891 11.794528 -21.422812 4294967295
137.80296 1.6713114 -21.614384 4294967295
137.81593 1.3330746 -21.563261 4294967295
137.81903 2.6829329 -21.639685 4294967295
137.82278 2.0077224 -21.589125 4294967295
137.83115 13.820086 -21.449963 4294967295
137.83127 11.118286 -21.282166 4294967295
137.84319 14.495374 -21.463781 4294967295
137.84653 14.157643 -21.435024 4294967295
137.85599 3.693608 -21.616289 4294967295
137.87135 13.481926 -21.335266 4294967295
137.87288 4.7053905 -21.639677 4294967295
137.88976 4.0295401 -21.558502 4294967295
137.892 3.0167251 -21.490473 4294967295
137.89384 2.3414533 -21.444374 4294967295
137.89618 5.0419073 -21.606293 4294967295
137.92973 4.365273 -21.486252 4294967295
137.93213 6.7282286 -21.627096 4294967295
137.93671 5.3777537 -21.532747 4294967295
137.9437 6.3902302 -21.57925 4294967295
137.9846 7.7391424 -21.567585 4294967295
137.99088 8.7517433 -21.61573 4294967295
138.00037 7.4009933 -21.509914 4294967295
138.0063 9.7640944 -21.64259 4294967295
138.00861 9.0888357 -21.595356 4294967295
138.01019 9.4263973 -21.612591 4294967295
138.01447 7.06286 -21.456139 4294967295
138.0343 10.101009 -21.598272 4294967295
138.07159 10.775431 -21.553238 4294967295
138.09753 11.787903 -21.555603 4294967295
138.10094 11.112484 -21.505825 4294967295
138.11473 11.449904 -21.494604 4294967295
138.11627 13.475935 -21.616615 4294967295
138.1245 12.12512 -21.513729 4294967295
138.13095 0.98912412 -21.659554 4294967295
138.13286 13.138065 -21.557032 4294967295
138.13399 2.676456 -21.756987 4294967295
138.142 1.663527 -21.675589 4294967295
138.14261 2.0010026 -21.695137 4294967295
138.14714 13.813275 -21.565655 4294967295
138.15353 1.3253503 -21.627794 4294967295
138.17181 12.46209 -21.424429 4294967295
138.18288 3.6865287 -21.705925 4294967295
138.19569 4.0234528 -21.697004 4294967295
138.20345 14.15046 -21.455486 4294967295
138.20868 2.3349967 -21.562212 4294967295
138.21655 3.3473363 -21.606621 4294967295
138.22308 5.0348511 -21.695938 4294967295
138.22803 4.3595114 -21.642611 4294967295
138.22824 5.7097316 -21.725773 4294967295
138.22942 6.3847599 -21.764862 4294967295
138.24573 6.046586 -21.706011 4294967295
138.26236 7.0586438 -21.730028 4294967295
138.26982 4.6952267 -21.566252 4294967295
138.31418 7.3944263 -21.630371 4294967295
138.31999 6.7189636 -21.57501 4294967295
138.32071 8.407053 -21.677895 4294967295
138.32486 8.0693121 -21.647337 4294967295
138.33763 10.0946 -21.743118 4294967295
138.34181 9.0816708 -21.670637 4294967295
138.34998 8.7438068 -21.630701 4294967295
138.3502 7.7308578 -21.567421 4294967295
138.35468 9.4189453 -21.661621 4294967295
138.35521 10.431789 -21.723148 4294967295
138.36916 9.7562056 -21.648874 4294967295
138.38457 10.768766 -21.675739 4294967295
138.39005 11.106293 -21.683943 4294967295
138.39911 11.443757 -21.683794 4294967295
138.41537 1.321943 -21.868696 4294967295
138.4157 12.456411 -21.707951 4294967295
138.43826 1.9956007 -21.857285 4294967295
138.44548 2.6701651 -21.882303 4294967295
138.45258 13.806574 -21.705835 4294967295
138.46785 13.468729 -21.649426 4294967295
138.46793 12.117903 -21.565506 4294967295
138.47177 11.780112 -21.535683 4294967295
138.48186 14.143975 -21.658676 4294967295
138.48227 0.98058462 -21.692234 4294967295
138.49399 4.0177231 -21.853172 4294967295
138.50716 4.35462 -21.843403 4294967295
138.51205 14.48144 -21.609365 4294967295
138.52008 5.0290813 -21.85516 4294967295
138.52644 3.003531 -21.715019 4294967295
138.5421 3.6778982 -21.720394 4294967295
138.54929 3.3399718 -21.682772 4294967295
138.55142 4.690176 -21.76141 4294967295
138.55528 6.3777657 -21.856998 4294967295
138.57249 6.7146668 -21.837864 4294967295
138.5938 5.7011209 -21.725634 4294967295
138.59988 6.038476 -21.732424 4294967295
138.61896 9.4136248 -21.897121 4294967295
138.62302 7.3880281 -21.762281 4294967295
138.6364 7.0499487 -21.710268 4294967295
138.64079 8.7378645 -21.804626 4294967295
138.64265 8.0625944 -21.758472 4294967295
138.64668 10.425631 -21.895416 4294967295
138.66808 10.087538 -21.824842 4294967295
138.67397 9.0745296 -21.748409 4294967295
138.68201 10.762434 -21.834246 4294967295
138.68922 11.437501 -21.859344 4294967295
138.70972 9.7488756 -21.707178 4294967295
138.74474 1.3146844 -21.952375 4294967295
138.75008 1.6518507 -21.960848 4294967295
138.75897 14.137504 -21.864594 4294967295
138.7657 13.462136 -21.807152 4294967295
138.77916 1.9877353 -21.914261 4294967295
138.78275 2.3250384 -21.9268 4294967295
138.78554 12.111111 -21.677471 4294967295
138.78662 2.662329 -21.938721 4294967295
138.78749 3.6747429 -21.999376 4294967295
138.79129 0.97450417 -21.823381 4294967295
138.82047 12.786036 -21.638126 4294967295
138.82222 13.123752 -21.654974 4294967295
138.82399 13.799199 -21.692728 4294967295
138.82576 4.0104203 -21.931398 4294967295
138.83794 2.9972262 -21.840469 4294967295
138.85092 14.474436 -21.671957 4294967295
138.85158 5.6968737 -21.975927 4294967295
138.85915 4.346417 -21.874828 4294967295
138.87939 6.708374 -21.974096 4294967295
138.89694 6.032609 -21.891533 4294967295
138.90096 5.0197062 -21.819511 4294967295
138.9026 5.3572259 -21.836632 4294967295
138.90308 4.6820173 -21.793699 4294967295
138.93835 7.0438118 -21.858152 4294967295
138.94382 8.7315617 -21.949955 4294967295
138.95242 8.0561295 -21.888235 4294967295
138.97565 9.7434387 -21.938776 4294967295
138.97733 10.08099 -21.95578 4294967295
139.00122 9.4051657 -21.858492 4294967295
139.00835 9.0673332 -21.821114 4294967295
139.00989 11.430666 -21.963816 4294967295
139.01993 11.092855 -21.919668 4294967295
139.02946 10.755027 -21.876577 4294967295
139.0482 1.3088999 -22.096207 4294967295
139.05495 12.442754 -21.922016 4294967295
139.07227 12.780147 -21.902735 4294967295
139.07933 11.767032 -21.823662 4294967295
139.08243 12.104659 -21.837343 4294967295
139.08435 1.9818101 -22.054079 4294967295
139.0896 0.96904802 -21.979309 4294967295
139.09976 13.117448 -21.85988 4294967295
139.10611 2.3181243 -22.024557 4294967295
139.10976 2.6554327 -22.036983 4294967295
139.11868 3.6674583 -22.078957 4294967295
139.12167 4.0048008 -22.092909 4294967295
139.12943 1.6418254 -21.928726 4294967295
139.1416 5.3538427 -22.130196 4294967295
139.144 4.6787615 -22.082872 4294967295
139.16631 3.3276198 -21.947622 4294967295
139.17621 5.0148706 -22.029083 4294967295
139.17786 14.129766 -21.74147 4294967295
139.18524 4.339385 -21.966398 4294967295
139.19901 5.6889973 -22.018042 4294967295
139.20815 6.3637333 -22.038618 4294967295
139.22177 7.7134123 -22.090601 4294967295
139.22681 6.7005911 -22.016275 4294967295
139.22749 7.0381241 -22.035536 4294967295
139.25703 7.37467 -21.987974 4294967295
139.27867 8.7243328 -22.021404 4294967295
139.2948 8.3862534 -21.963135 4294967295
139.30862 9.0610809 -21.972885 4294967295
139.31142 11.086613 -22.091747 4294967295
139.32115 9.3983612 -21.964783 4294967295
139.35181 9.7352123 -21.914633 4294967295
139.35292 10.410492 -21.953846 4294967295
139.35461 10.748096 -21.9708 4294967295
139.36549 10.072538 -21.903824 4294967295
139.37331 1.3018844 -22.189764 4294967295
139.37904 11.760564 -21.976912 4294967295
139.38722 12.773378 -22.020607 4294967295
139.3912 2.3132458 -22.21089 4294967295
139.39503 1.6381202 -22.160299 4294967295
139.39618 0.96310782 -22.115911 4294967295
139.41264 12.097658 -21.91995 4294967295
139.41377 1.9745693 -22.137777 4294967295
139.41705 3.3242927 -22.21368 4294967295
139.42438 11.422042 -21.850937 4294967295
139.43718 13.44808 -21.946695 4294967295
139.45107 13.785627 -21.935442 4294967295
139.45937 14.460959 -21.95796 4294967295
139.46039 14.123246 -21.934681 4294967295
139.46089 5.0096292 -22.216547 4294967295
139.46851 13.109984 -21.853241 4294967295
139.47527 2.9838855 -22.057976 4294967295
139.48643 4.6710157 -22.136555 4294967295
139.50247 5.3453789 -22.141148 4294967295
139.50281 3.9951911 -22.056883 4294967295
139.5105 6.0201092 -22.16432 4294967295
139.54509 7.0314302 -22.146931 4294967295
139.55037 6.3561182 -22.092943 4294967295
139.56464 7.3683128 -22.122568 4294967295
139.57065 8.7183552 -22.192165 4294967295
139.57631 6.6927357 -22.053793 4294967295
139.57816 8.3805723 -22.153887 4294967295
139.5876 7.7051215 -22.09025 4294967295
139.59296 9.3928442 -22.182278 4294967295
139.6084 9.0548458 -22.125656 4294967295
139.62978 10.067068 -22.138874 4294967295
139.64497 11.079519 -22.166368 4294967295
139.6543 10.74172 -22.123919 4294967295
139.66423 12.091957 -22.184443 4294967295
139.66687 9.7285309 -22.032152 4294967295
139.67661 0.95868093 -22.312841 4294967295
139.68837 10.403326 -22.024136 4294967295
139.68927 11.416267 -22.084755 4294967295
139.69943 1.2948115 -22.280958 4294967295
139.70303 12.7666 -22.136433 4294967295
139.70952 2.6440425 -22.341042 4294967295
139.71526 3.3186157 -22.369507 4294967295
139.72078 11.753351 -22.03277 4294967295
139.72087 13.104005 -22.116043 4294967295
139.72163 13.441643 -22.135199 4294967295
139.72296 2.9807973 -22.330896 4294967295
139.72379 12.428644 -22.067579 4294967295
139.72766 1.9681687 -22.257376 4294967295
139.73846 14.454415 -22.158926 4294967295
139.74208 2.3048728 -22.244911 4294967295
139.7496 1.6294761 -22.185793 4294967295
139.76274 4.328722 -22.322296 4294967295
139.77332 13.778756 -22.036512 4294967295
139.78259 3.6528177 -22.234743 4294967295
139.78967 14.116309 -22.019567 4294967295
139.7921 3.9898765 -22.233568 4294967295
139.82175 7.0261884 -22.352888 4294967295
139.82562 5.0009503 -22.21871 4294967295
139.83087 4.6631823 -22.185682 4294967295
139.83804 5.337966 -22.210827 4294967295
139.8396 5.6754456 -22.228109 4294967295
139.84457 6.3503265 -22.258333 4294967295
139.86459 6.6871223 -22.232964 4294967295
139.89029 8.0364637 -22.257021 4294967295
139.90366 9.0487356 -22.288795 4294967295
139.9342 9.3854752 -22.239065 4294967295
139.94165 8.3724613 -22.15921 4294967295
139.95853 8.7095804 -22.141068 4294967295
139.95975 10.060018 -22.22179 4294967295
139.97012 10.734994 -22.239561 4294967295
139.97971 11.072399 -22.238293 4294967295
139.98129 9.7218647 -22.151075 4294967295
139.98341 1.2901299 -22.469448 4294967295
140.00305 12.42243 -22.267851 4294967295
140.00372 0.95154637 -22.401775 4294967295
140.00882 2.9757771 -22.515099 4294967295
140.01578 13.097479 -22.280207 4294967295
140.02635 13.772589 -22.297527 4294967295
140.04204 11.746498 -22.136023 4294967295
140.04587 11.408748 -22.106323 4294967295
140.05193 4.3233685 -22.49894 4294967295
140.05402 13.434654 -22.212725 4294967295
140.0584 12.0839 -22.119074 4294967295
140.061 2.2981963 -22.352879 4294967295
140.0701 12.7591 -22.13381 4294967295
140.07565 14.447429 -22.225409 4294967295
140.08069 14.109715 -22.192888 4294967295
140.08406 3.9844365 -22.403904 4294967295
140.10526 2.6333849 -22.271513 4294967295
140.10785 5.6707687 -22.453295 4294967295
140.11456 4.6580257 -22.375208 4294967295
140.12343 3.3075366 -22.27132 4294967295
140.13431 7.0196714 -22.475649 4294967295
140.1572 7.6938639 -22.464581 4294967295
140.16444 6.0060253 -22.343519 4294967295
140.17757 8.0307102 -22.438366 4294967295
140.18074 5.3302612 -22.264145 4294967295
140.19508 6.6799641 -22.314501 4294967295
140.21576 7.3543682 -22.30851 4294967295
140.21848 9.3796186 -22.427401 4294967295
140.22131 9.0419989 -22.399961 4294967295
140.24661 10.054007 -22.404215 4294967295
140.25002 10.72904 -22.43811 4294967295
140.2679 8.3654776 -22.250763 4294967295
140.27269 8.7029552 -22.260607 4294967295
140.27562 9.7157097 -22.316418 4294967295
140.28085 10.390783 -22.34609 4294967295
140.30273 11.403124 -22.358189 4294967295
140.31738 11.06522 -22.303507 4294967295
140.32767 0.94459611 -22.497988 4294967295
140.33153 12.077841 -22.333496 4294967295
140.34262 11.740016 -22.286991 4294967295
140.34459 1.9559565 -22.521498 4294967295
140.34503 2.6307955 -22.562145 4294967295
140.34641 14.103352 -22.424318 4294967295
140.36011 2.2925675 -22.506495 4294967295
105.92242 11.121361 -9.2657356 4294967295
105.92771 11.798836 -9.2953968 4294967295
105.93707 12.476238 -9.3141003 4294967295
105.93983 12.137398 -9.2846622 4294967295
105.94203 10.443239 -9.1687508 4294967295
105.94324 10.782046 -9.187458 4294967295
105.94344 12.814926 -9.3188591 4294967295
105.97652 11.458989 -9.1415462 4294967295
105.98248 13.153149 -9.2354279 4294967295
106.00799 13.491657 -9.1885529 4294967295
106.01 13.830498 -9.20508 4294967295
106.01873 1.3008459 -9.3426723 4294967295
106.0463 2.3152208 -9.3341713 4294967295
106.04745 14.168983 -9.1259613 4294967295
106.05254 1.9761181 -9.2953186 4294967295
106.05802 1.637042 -9.2585316 4294967295
106.06743 2.6526735 -9.2990723 4294967295
106.08882 2.9901698 -9.2632885 4294967295
106.12624 5.3594885 -9.3161259 4294967295
106.12754 4.3431177 -9.2467003 4294967295
106.13849 6.3751893 -9.3489799 4294967295
106.15237 7.0521164 -9.355444 4294967295
106.1568 7.3906946 -9.3654804 4294967295
106.16984 6.0350385 -9.2423992 4294967295
106.19641 9.0831146 -9.3684864 4294967295
106.20982 8.7438927 -9.310358 4294967295
106.2293 9.7596941 -9.3237152 4294967295
106.30305 10.774269 -9.1906986 4294967295
106.30491 11.45199 -9.2296638 4294967295
106.3387 13.484666 -9.2704239 4294967295
106.35365 14.162257 -9.2741089 4294967295
106.50066 6.7054396 -9.3675404 4294967295
106.55988 9.0749588 -9.3617783 4294967295
106.31088 15.517914 -9.4773216 4294967295
106.65612 14.833257 -9.4760647 4294967295
106.65923 15.510904 -9.5116386 4294967295
106.67184 15.172002 -9.4557095 4294967295
106.69376 16.188496 -9.4626217 4294967295
106.96711 16.181664 -9.698822 4294967295
106.99677 15.503944 -9.5751648 4294967295
107.00857 14.826148 -9.4995613 4294967295
107.01537 15.842733 -9.5471363 4294967295
107.27605 15.158448 -9.7732601 4294967295
107.31298 15.497073 -9.6960964 4294967295
107.32781 16.174706 -9.7001972 4294967295
107.35865 15.83577 -9.5954914 4294967295
107.59959 15.151548 -9.8743343 4294967295
107.6036 15.490315 -9.8855267 4294967295
107.64005 16.167818 -9.8317299 4294967295
107.6432 15.82898 -9.8013287 4294967295
107.6674 14.812265 -9.6706886 4294967295
107.90295 15.144761 -10.029402 4294967295
107.97303 15.82206 -9.8857403 4294967295
107.97522 16.1609 -9.9018116 4294967295
107.97818 14.805455 -9.8061848 4294967295
107.97943 15.483185 -9.8466911 4294967295
108.2466 16.154074 -10.142384 4294967295
108.25196 14.798917 -10.040415 4294967295
108.27873 15.137556 -9.9908028 4294967295
108.30678 15.476265 -9.9378147 4294967295
108.32397 15.815076 -9.9137707 4294967295
108.52899 15.131085 -10.287458 4294967295
108.53749 15.469772 -10.286673 4294967295
108.58644 14.791937 -10.112326 4294967295
108.62301 16.147091 -10.10239 4294967295
108.63058 15.808222 -10.06031 4294967295
108.88582 14.785211 -10.277803 4294967295
108.88706 15.801523 -10.340147 4294967295
108.90813 15.12386 -10.24024 4294967295
108.93099 15.462559 -10.201252 4294967295
109.13349 14.778871 -10.58057 4294967295
109.16592 15.794754 -10.559956 4294967295
109.16634 15.117345 -10.515116 4294967295
109.19935 15.455907 -10.449209 4294967295
109.20628 16.133385 -10.474518 4294967295
109.51421 15.787782 -10.595085 4294967295
109.51856 15.110274 -10.539764 4294967295
109.53876 16.126469 -10.551758 4294967295
109.5518 14.771276 -10.429659 4294967295
109.86359 15.103247 -10.583794 4294967295
109.88184 14.764327 -10.513559 4294967295
109.89065 15.780716 -10.555738 4294967295
109.89639 15.44188 -10.518658 4294967295
109.89887 16.119505 -10.555769 4294967295
110.08606 15.09695 -10.952362 4294967295
110.13438 14.75795 -10.802612 4294967295
110.16089 15.435246 -10.776102 4294967295
110.17004 15.773952 -10.773727 4294967295
110.20329 16.451412 -10.729424 4294967295
110.21319 16.112616 -10.681356 4294967295
110.40635 14.751431 -11.039736 4294967295
110.43998 15.089871 -10.972673 4294967295
110.51174 16.444513 -10.870338 4294967295
110.54776 16.105696 -10.753298 4294967295
110.76308 15.082975 -11.074572 4294967295
110.7823 14.744144 -11.002018 4294967295
110.81686 16.098886 -10.998093 4294967295
110.82564 16.437614 -10.996758 4294967295
110.82879 15.42135 -10.922989 4294967295
110.84162 15.760068 -10.91095 4294967295
111.05182 14.73765 -11.245228 4294967295
111.0634 15.076216 -11.236504 4294967295
111.08208 16.430737 -11.274525 4294967295
111.11824 15.414605 -11.113785 4294967295
111.40813 15.40786 -11.303181 4294967295
111.43362 16.423826 -11.301521 4294967295
111.45636 15.068895 -11.154491 4294967295
111.74527 16.078259 -11.411737 4294967295
111.76741 15.400794 -11.309998 4294967295
111.80068 15.739403 -11.244425 4294967295
112.05726 15.394054 -11.49925 4294967295
112.06831 15.732684 -11.492031 4294967295
112.07267 15.055285 -11.437033 4294967295
112.08463 16.410023 -11.492805 4294967295
112.09212 16.071316 -11.451347 4294967295
112.34143 15.387338 -11.703058 4294967295
112.35895 15.048614 -11.635418 4294967295
112.36019 15.72589 -11.675709 4294967295
112.38271 16.403133 -11.660242 4294967295
112.39525 16.064453 -11.605639 4294967295
112.6206 15.042091 -11.897932 4294967295
112.64335 15.380542 -11.860178 4294967295
112.72417 16.057543 -11.692327 4294967295
112.73473 15.718822 -11.642933 4294967295
112.76595 16.396202 -11.604839 4294967295
112.98015 15.373581 -11.926027 4294967295
113.03073 15.034663 -11.772186 4294967295
113.03503 15.711998 -11.804472 4294967295
113.06096 16.050617 -11.758497 4294967295
113.3131 16.043858 -12.04549 4294967295
113.32082 15.366602 -11.981886 4294967295
113.33652 15.027874 -11.919184 4294967295
113.35707 16.382427 -11.952541 4294967295
113.3618 15.705085 -11.896767 4294967295
113.58743 15.359976 -12.230652 4294967295
113.59745 15.021363 -12.182882 4294967295
113.62349 16.375561 -12.201939 4294967295
113.64252 16.036945 -12.130676 4294967295
113.9021 15.014583 -12.332403 4294967295
113.91559 15.353057 -12.319025 4294967295
113.96082 16.030056 -12.244843 4294967295
113.98888 15.691356 -12.150213 4294967295
114.24598 15.346125 -12.401627 4294967295
114.26352 15.684623 -12.3778 4294967295
114.29008 16.023144 -12.330544 4294967295
114.29195 15.007276 -12.260614 4294967295
114.33895 16.361717 -12.225424 4294967295
114.55448 15.000757 -12.519316 4294967295
114.56468 16.016346 -12.557924 4294967295
114.64277 16.354828 -12.377247 4294967295
114.84368 14.994076 -12.708563 4294967295
114.8922 15.332335 -12.60466 4294967295
114.91288 16.347965 -12.616148 4294967295
115.19112 14.987031 -12.747009 4294967295
115.20843 15.325474 -12.72394 4294967295
115.20865 16.341089 -12.78837 4294967295
115.24733 15.663883 -12.645077 4294967295
115.25887 16.002451 -12.636919 4294967295
115.51283 15.318671 -12.873703 4294967295
115.52781 15.995668 -12.87834 4294967295
115.53281 14.980019 -12.800499 4294967295
115.58568 16.334152 -12.750677 4294967295
115.80383 14.973453 -13.03618 4294967295
115.8317 15.650309 -13.007645 4294967295
115.85745 15.988758 -12.962952 4294967295
115.88056 15.311554 -12.860117 4294967295
115.89647 16.327259 -12.884066 4294967295
116.12373 14.96658 -13.145723 4294967295
116.12814 15.305035 -13.156 4294967295
116.13849 16.320429 -13.194267 4294967295
116.16862 15.981886 -13.09511 4294967295
116.17167 15.643353 -13.065649 4294967295
116.47757 15.975019 -13.232918 4294967295
116.49373 15.297927 -13.148144 4294967295
116.4975 14.959365 -13.116854 4294967295
116.75423 15.629793 -13.431751 4294967295
116.78246 15.968166 -13.380974 4294967295
116.78979 15.291168 -13.318985 4294967295
116.81735 16.306604 -13.313087 4294967295
117.05214 15.284579 -13.575895 4294967295
117.07794 15.622897 -13.53141 4294967295
117.12551 14.94569 -13.366377 4294967295
117.13768 16.299709 -13.421612 4294967295
117.16943 15.961125 -13.318676 4294967295
117.41868 14.93899 -13.544323 4294967295
117.4393 15.61586 -13.534773 4294967295
117.47147 16.292807 -13.495678 4294967295
117.72031 16.285978 -13.786762 4294967295
117.73805 15.947514 -13.719841 4294967295
117.77091 15.270423 -13.592789 4294967295
117.78308 14.931831 -13.540123 4294967295
118.02195 15.263898 -13.877918 4294967295
118.02959 14.925432 -13.836897 4294967295
118.04926 15.940644 -13.851437 4294967295
118.06576 15.602147 -13.787777 4294967295
118.07946 16.279047 -13.795973 4294967295
118.35406 14.918533 -13.934492 4294967295
118.374 15.595304 -13.926838 4294967295
118.42113 15.256617 -13.785294 4294967295
118.42133 16.272131 -13.849455 4294967295
118.72795 15.249805 -13.92807 4294967295
118.74041 15.588247 -13.917948 4294967295
118.76417 15.92669 -13.879097 4294967295
118.97266 15.243314 -14.228384 4294967295
119.00918 16.258396 -14.2003 4294967295
119.01678 14.904639 -14.094862 4294967295
119.08154 15.919807 -13.995024 4294967295
119.30856 15.236359 -14.296959 4294967295
119.31306 15.913132 -14.328585 4294967295
119.32793 16.251507 -14.312429 4294967295
119.34194 14.897735 -14.190815 4294967295
119.38747 15.574454 -14.118435 4294967295
119.60672 15.906311 -14.504183 4294967295
119.62452 15.2295 -14.416088 4294967295
119.65075 14.890934 -14.328196 4294967295
119.68398 15.567661 -14.287115 4294967295
119.69305 16.244566 -14.30718 4294967295
119.91017 15.561138 -14.633295 4294967295
119.9882 15.899272 -14.457567 4294967295
120.23067 15.554257 -14.740725 4294967295
120.26894 15.215724 -14.622662 4294967295
120.27268 14.87731 -14.591698 4294967295
120.27375 15.892472 -14.653488 4294967295
120.32328 16.230791 -14.549965 4294967295
120.55875 15.209006 -14.807562 4294967295
120.56776 14.870604 -14.76339 4294967295
120.57147 15.885644 -14.818449 4294967295
120.61913 15.547112 -14.676884 4294967295
120.86889 15.202187 -14.941069 4294967295
120.90427 15.540367 -14.87351 4294967295
120.90987 15.87871 -14.880898 4294967295
120.91445 14.863556 -14.80493 4294967295
120.94177 16.217035 -14.822054 4294967295
121.16438 15.195439 -15.111292 4294967295
121.19833 14.856926 -15.004496 4294967295
121.20167 16.210217 -15.081964 4294967295
121.21895 15.871854 -15.017078 4294967295
121.50102 15.188478 -15.178051 4294967295
121.5065 14.850134 -15.142832 4294967295
121.54158 16.2033 -15.140602 4294967295
121.54578 15.526596 -15.087181 4294967295
121.58015 15.864861 -15.022381 4294967295
121.81193 15.519935 -15.330809 4294967295
121.83808 15.181511 -15.243856 4294967295
121.8626 15.858075 -15.225273 4294967295
121.90031 16.19636 -15.152235 4294967295
122.18048 15.851196 -15.339239 4294967295
122.18713 15.512834 -15.301176 4294967295
122.19278 14.836083 -15.244175 4294967295
122.2277 16.189459 -15.242544 4294967295
122.43605 15.167988 -15.566002 4294967295
122.44254 15.506212 -15.571222 4294967295
122.45017 14.829634 -15.509281 4294967295
122.48693 15.844347 -15.481707 4294967295
122.50089 16.182634 -15.468269 4294967295
122.76173 15.837585 -15.703011 4294967295
122.76979 15.499308 -15.661489 4294967295
122.79313 15.160915 -15.581854 4294967295
122.80968 14.822498 -15.519165 4294967295
122.84772 16.175707 -15.509922 4294967295
123.08734 15.492437 -15.775997 4294967295
123.09788 14.815845 -15.706957 4294967295
123.13209 15.153937 -15.643127 4294967295
123.14366 15.830531 -15.657112 4294967295
123.41697 15.485523 -15.860415 4294967295
123.41977 15.147241 -15.832039 4294967295
123.44472 15.823702 -15.812748 4294967295
123.45245 16.161982 -15.814909 4294967295
123.4603 14.808688 -15.709818 4294967295
123.70971 15.140531 -16.01512 4294967295
123.75498 14.801991 -15.881262 4294967295
123.79272 15.478412 -15.830254 4294967295
124.0475 15.810038 -16.121986 4294967295
124.07117 16.148233 -16.084631 4294967295
124.07324 14.795134 -15.994007 4294967295
124.08292 15.471658 -16.01277 4294967295
124.32361 14.788742 -16.274904 4294967295
124.33888 16.141424 -16.322475 4294967295
124.35355 15.126762 -16.222094 4294967295
124.3828 15.464863 -16.170986 4294967295
124.39907 15.803068 -16.15206 4294967295
124.65555 15.45818 -16.396196 4294967295
124.67403 15.119888 -16.329124 4294967295
124.67459 14.78166 -16.306391 4294967295
124.67574 16.134512 -16.388922 4294967295
124.71556 15.796194 -16.269112 4294967295
124.98465 15.113068 -16.460484 4294967295
125.02234 16.127584 -16.431402 4294967295
125.033 15.451062 -16.362402 4294967295
125.27657 15.106353 -16.637852 4294967295
125.31109 16.120747 -16.616735 4294967295
125.34158 15.444232 -16.49888 4294967295
125.36928 15.782389 -16.451899 4294967295
125.59032 15.775797 -16.803904 4294967295
125.61776 14.761176 -16.672367 4294967295
125.62663 15.09931 -16.671865 4294967295
125.70975 16.452017 -16.552437 4294967295
125.8952 15.768962 -16.949022 4294967295
125.95064 15.092417 -16.770081 4294967295
125.96379 14.754125 -16.71645 4294967295
125.96759 16.106951 -16.792324 4294967295
125.97406 16.445141 -16.797728 4294967295
126.22269 16.10017 -17.059834 4294967295
126.24683 15.761988 -16.979239 4294967295
126.26613 15.085572 -16.889259 4294967295
126.27822 14.747297 -16.838245 4294967295
126.3118 15.423558 -16.798403 4294967295
126.31449 16.438244 -16.855696 4294967295
126.50491 14.74108 -17.175198 4294967295
126.51676 15.079091 -17.167425 4294967295
126.58546 15.755051 -17.041502 4294967295
126.59687 15.416832 -16.99226 4294967295
126.61012 16.093174 -17.00234 4294967295
126.64473 16.431349 -16.938763 4294967295
126.82976 15.410336 -17.313597 4294967295
126.83679 15.748378 -17.317638 4294967295
126.85072 14.734036 -17.219723 4294967295
126.88034 15.071976 -17.16847 4294967295
126.9018 16.086334 -17.179758 4294967295
126.96871 16.424458 -17.037228 4294967295
127.16714 15.065293 -17.357553 4294967295
127.21382 15.741325 -17.28595 4294967295
127.23606 14.726711 -17.16777 4294967295
127.25788 15.402987 -17.156963 4294967295
127.28818 16.417564 -17.1467 4294967295
127.51675 16.410715 -17.478065 4294967295
127.53384 15.396304 -17.372557 4294967295
127.57735 15.057906 -17.245066 4294967295
127.58336 15.734295 -17.272919 4294967295
127.80871 15.051544 -17.569258 4294967295
127.81857 15.727676 -17.587681 4294967295
127.83544 15.389512 -17.525293 4294967295
127.87953 16.065651 -17.460314 4294967295
128.13542 15.044634 -17.660635 4294967295
128.15839 16.396938 -17.689661 4294967295
128.19221 15.72063 -17.564854 4294967295
128.217 16.058735 -17.525732 4294967295
128.44641 16.052015 -17.853973 4294967295
128.5083 15.037458 -17.639812 4294967295
128.5163 15.375577 -17.641592 4294967295
128.54848 16.390015 -17.627045 4294967295
128.76244 15.03097 -17.90761 4294967295
128.78683 15.368925 -17.869577 4294967295
128.81985 15.706909 -17.810617 4294967295
128.84723 16.044981 -17.765387 4294967295
128.85974 16.383131 -17.756231 4294967295
129.10037 15.023997 -17.971769 4294967295
129.10114 16.376286 -18.054731 4294967295
129.10614 15.700139 -18.000179 4294967295
129.11752 16.038189 -17.993799 4294967295
129.12401 15.361972 -17.935667 4294967295
129.35092 15.01753 -18.247545 4294967295
129.3593 15.693474 -18.269657 4294967295
129.38268 15.355375 -18.191893 4294967295
129.39261 16.369413 -18.231447 4294967295
129.48445 16.031221 -17.987894 4294967295
129.75278 15.348274 -18.17827 4294967295
129.76408 15.68632 -18.172121 4294967295
129.77075 16.362494 -18.198383 4294967295
129.78572 16.024372 -18.140976 4294967295
129.9857 15.003828 -18.474989 4294967295
130.04568 15.679569 -18.372511 4294967295
130.06645 15.341431 -18.301231 4294967295
130.0961 16.355602 -18.293177 4294967295
130.12447 16.01745 -18.203527 4294967295
130.30832 14.996943 -18.576035 4294967295
130.34305 16.348763 -18.576965 4294967295
130.36078 15.334673 -18.470709 4294967295
130.36577 15.672693 -18.479874 4294967295
130.3688 16.010715 -18.493736 4294967295
130.67955 15.327806 -18.581181 4294967295
130.71545 16.341843 -18.558237 4294967295
130.95775 15.659096 -18.810328 4294967295
130.98221 16.334993 -18.793806 4294967295
131.04214 15.996887 -18.628563 4294967295
131.26665 15.314306 -18.923109 4294967295
131.27136 15.652243 -18.932949 4294967295
131.27544 14.976299 -18.880932 4294967295
131.30894 16.328104 -18.885002 4294967295
131.37354 15.989983 -18.708796 4294967295
131.6192 14.969288 -18.931221 4294967295
131.62267 15.64526 -18.965179 4294967295
131.64258 16.321207 -18.959719 4294967295
131.64529 15.983198 -18.932035 4294967295
131.87181 14.962826 -19.199902 4294967295
131.87558 15.976505 -19.254221 4294967295
131.89482 15.638545 -19.187078 4294967295
131.93274 16.314348 -19.138523 4294967295
132.17871 14.956038 -19.338293 4294967295
132.22046 15.969571 -19.301857 4294967295
132.22574 15.293698 -19.247011 4294967295
132.51152 15.962754 -19.478117 4294967295
132.53494 15.286879 -19.379978 4294967295
132.5388 15.624782 -19.391855 4294967295
132.84081 15.280074 -19.520855 4294967295
132.8423 15.617962 -19.538338 4294967295
132.89357 14.941851 -19.373922 4294967295
132.93347 16.293659 -19.363211 4294967295
133.17323 15.94895 -19.64049 4294967295
133.17761 14.935203 -19.566816 4294967295
133.20953 16.286812 -19.575119 4294967295
133.21471 15.272944 -19.49958 4294967295
133.22079 15.610888 -19.506203 4294967295
133.47087 15.266378 -19.758549 4294967295
133.51315 15.604107 -19.679104 4294967295
133.52742 14.928157 -19.603058 4294967295
133.54552 15.941957 -19.623257 4294967295
133.54633 16.279915 -19.642378 4294967295
133.78008 15.259563 -19.89113 4294967295
133.81482 15.935194 -19.850788 4294967295
133.85196 15.597166 -19.74161 4294967295
133.85953 16.273037 -19.76577 4294967295
134.11116 16.26622 -20.034966 4294967295
134.13634 15.928312 -19.954248 4294967295
134.13658 14.914612 -19.890491 4294967295
134.14978 15.252455 -19.880255 4294967295
134.15366 15.590357 -19.892139 4294967295
134.3988 15.245928 -20.155365 4294967295
134.45206 15.921441 -20.071384 4294967295
134.46529 14.907692 -19.976921 4294967295
134.48018 16.259291 -20.025864 4294967295
134.48718 15.583435 -19.967148 4294967295
134.72263 15.576861 -20.274183 4294967295
134.74858 15.238914 -20.191786 4294967295
134.75668 15.914598 -20.214697 4294967295
134.83452 16.252373 -20.051748 4294967295
135.05904 15.569929 -20.342279 4294967295
135.08757 14.89407 -20.232861 4294967295
135.10146 15.907666 -20.263132 4294967295
135.10397 15.231871 -20.215109 4294967295
135.39952 15.225121 -20.379787 4294967295
135.40056 16.238686 -20.440357 4294967295
135.40979 15.562946 -20.376574 4294967295
135.42561 14.887092 -20.297243 4294967295
135.44557 15.90073 -20.313278 4294967295
135.66252 14.880743 -20.599876 4294967295
135.67244 15.894074 -20.639526 4294967295
135.68515 16.231844 -20.630604 4294967295
135.72813 15.21821 -20.466387 4294967295
135.98978 15.211632 -20.710485 4294967295
136.0287 15.88711 -20.661011 4294967295
136.03038 16.224934 -20.678032 4294967295
136.03506 14.873551 -20.583042 4294967295
136.0536 15.549186 -20.581427 4294967295
136.26697 14.867237 -20.896729 4294967295
136.26987 15.204961 -20.910917 4294967295
136.32756 15.542484 -20.796461 4294967295
136.3439 16.218061 -20.800051 4294967295
136.57312 14.860458 -21.035717 4294967295
136.61826 15.197951 -20.950878 4294967295
136.64018 15.535639 -20.920443 4294967295
136.71013 16.211126 -20.798462 4294967295
136.95654 15.52878 -21.03561 4294967295
136.96461 14.853148 -20.974796 4294967295
136.9796 15.866503 -21.002645 4294967295
136.99023 16.204292 -20.998714 4294967295
137.25061 16.197485 -21.244841 4294967295
137.27124 15.184152 -21.133753 4294967295
137.28113 15.521891 -21.131575 4294967295
137.31444 15.859591 -21.074671 4294967295
137.55887 15.852905 -21.357821 4294967295
137.56956 16.190609 -21.353836 4294967295
137.60846 14.839397 -21.179211 4294967295
137.8813 16.183741 -21.479586 4294967295
137.93837 14.832468 -21.262754 4294967295
137.9437 15.50806 -21.292219 4294967295
138.17212 14.826154 -21.570295 4294967295
138.21689 15.50137 -21.507912 4294967295
138.22986 15.163555 -21.456741 4294967295
138.24614 15.839034 -21.460752 4294967295
138.4873 14.819324 -21.687843 4294967295
138.51329 15.156873 -21.64831 4294967295
138.51541 15.832291 -21.685274 4294967295
138.52721 16.169975 -21.678753 4294967295
138.57285 15.494361 -21.530779 4294967295
138.83342 15.150007 -21.754465 4294967295
138.83665 14.812271 -21.726053 4294967295
138.84564 15.825392 -21.767895 4294967295
138.87961 15.48754 -21.668097 4294967295
138.90356 16.163025 -21.654345 4294967295
139.17036 15.480782 -21.842482 4294967295
139.17514 15.818491 -21.852274 4294967295
139.18704 14.805214 -21.761959 4294967295
139.18764 16.156195 -21.844242 4294967295
139.20662 15.142869 -21.737509 4294967295
139.44516 16.149403 -22.09531 4294967295
139.46213 15.811706 -22.035208 4294967295
139.47041 14.798588 -21.95331 4294967295
139.49567 15.473893 -21.936626 4294967295
139.72174 14.792169 -22.21846 4294967295
139.80463 15.129353 -22.047649 4294967295
139.80804 15.467053 -22.060658 4294967295
139.83197 15.804699 -22.026236 4294967295
140.12453 16.135592 -22.216969 4294967295
140.14191 15.460128 -22.135004 4294967295
105.99104 14.847188 -9.3222485 4294967295
106.0105 15.86354 -9.3356857 4294967295
106.05205 15.185652 -9.1795101 4294967295
106.06728 15.524477 -9.1603546 4294967295
106.39515 14.839712 -9.2061481 4294967295
106.42144 16.19533 -9.2232304 4294967295
106.74091 15.849495 -9.3137264 4294967295
115.91553 -3.9621327 -13.403225 4278255360
115.98354 -3.2913446 -13.271378 4278255360
116.00825 -3.6316226 -13.186203 4278255360
116.01812 -2.9558692 -13.203976 4278255360
116.0478 -2.2816169 -13.170835 4278255360
116.21893 -3.96736 -13.553703 4278255360
116.24886 -3.2935405 -13.519926 4278255360
116.28557 -3.6347234 -13.404026 4278255360
116.2989 -2.9593697 -13.412937 4278255360
116.56958 -3.9765379 -13.582762 4278255360
116.01812 -2.9558692 -13.203976 4278255360
116.02708 -1.6034898 -13.267351 4278255360
116.0478 -2.2816169 -13.170835 4278255360
116.07591 -1.2687881 -13.163275 4278255360
116.2989 -2.9593697 -13.412937 4278255360
116.35004 -1.6103494 -13.367872 4278255360
116.02708 -1.6034898 -13.267351 4278255360
116.03516 0.087165803 -13.354588 4278255360
116.0535 -0.5905953 -13.264193 4278255360
116.07591 -1.2687881 -13.163275 4278255360
116.10622 -0.25594211 -13.150127 4278255360
116.35004 -1.6103494 -13.367872 4278255360
116.43829 0.074920699 -13.249113 4278255360
116.03516 0.087165803 -13.354588 4278255360
116.0535 -0.5905953 -13.264193 4278255360
116.09425 0.75980932 -13.245764 4278255360
116.10622 -0.25594211 -13.150127 4278255360
116.12618 0.41940999 -13.141973 4278255360
116.40909 0.41518 -13.345745 4278255360
116.43829 0.074920699 -13.249113 4278255360
116.70713 0.4099572 -13.510363 4278255360
116.12386 1.0962412 -13.191181 4278255360
116.41058 1.0916662 -13.385126 4278255360
116.75011 1.0837595 -13.443277 4278255360
116.03516 0.087165803 -13.354588 4278255360
116.09425 0.75980932 -13.245764 4278255360
116.12618 0.41940999 -13.141973 4278255360
116.40909 0.41518 -13.345745 4278255360
116.43829 0.074920699 -13.249113 4278255360
116.70713 0.4099572 -13.510363 4278255360
116.10751 1.4355791 -13.254862 4278255360
116.12386 1.0962412 -13.191181 4278255360
116.41058 1.0916662 -13.385126 4278255360
116.44459 1.7661653 -13.340933 4278255360
116.45986 1.4269052 -13.280121 4278255360
116.73367 1.4230709 -13.507059 4278255360
116.75011 1.0837595 -13.443277 4278255360
116.77636 1.758775 -13.419155 4278255360
116.78252 2.0967329 -13.424906 4278255360
117.08572 2.0910323 -13.576387 4278255360
117.09233 1.7523327 -13.537859 4278255360
117.37378 1.4097009 -13.723249 4278255360
117.41621 1.7454157 -13.636288 4278255360
117.41938 2.0835412 -13.649755 4278255360
117.69148 2.0796592 -13.880442 4278255360
117.70745 1.7404561 -13.818119 4278255360
116.92888 -4.3246593 -13.568283 4278255360
117.14898 -4.9989634 -13.888725 4278255360
117.20944 -4.6660872 -13.755562 4278255360
117.08572 2.0910323 -13.576387 4278255360
117.09233 1.7523327 -13.537859 4278255360
117.10405 2.7665918 -13.572599 4278255360
117.1407 2.4261756 -13.457159 4278255360
117.37058 2.7628806 -13.817682 4278255360
117.37378 1.4097009 -13.723249 4278255360
117.41242 2.4222519 -13.689137 4278255360
117.41621 1.7454157 -13.636288 4278255360
117.41938 2.0835412 -13.649755 4278255360
117.69148 2.0796592 -13.880442 4278255360
117.70745 1.7404561 -13.818119 4278255360
117.70811 2.4169478 -13.859541 4278255360
117.75031 2.7528441 -13.773348 4278255360
117.7596 3.0906432 -13.771172 4278255360
118.01561 2.4109664 -13.99962 4278255360
118.05919 3.0850537 -13.931585 4278255360
118.0695 2.7461884 -13.883766 4278255360
118.31482 2.7436578 -14.18219 4278255360
118.33581 2.4042578 -14.107218 4278255360
118.40839 3.076757 -13.965536 4278255360
118.66772 3.0733547 -14.228104 4278255360
119.02586 3.0645728 -14.239418 4278255360
118.08412 -6.030797 -14.210098 4278255360
118.1052 -5.6946325 -14.177933 4278255360
118.14598 -5.360158 -14.095522 4278255360
118.46718 -5.7050114 -14.178604 4278255360
118.4879 -5.3687072 -14.147421 4278255360
118.7888 -6.0498962 -14.260601 4278255360
118.79906 -5.712676 -14.256018 4278255360
119.0892 -6.0547066 -14.417967 4278255360
119.35605 -6.0564623 -14.660105 4278255360
119.68695 -6.0640526 -14.739832 4278255360
120.04646 -6.0742493 -14.747356 4278255360
118.01561 2.4109664 -13.99962 4278255360
118.05919 3.0850537 -13.931585 4278255360
118.0695 2.7461884 -13.883766 4278255360
118.07965 3.422241 -13.900934 4278255360
118.08604 3.7602129 -13.90624 4278255360
118.31482 2.7436578 -14.18219 4278255360
118.33581 2.4042578 -14.107218 4278255360
118.34486 3.4184413 -14.148804 4278255360
118.39939 4.0921259 -14.053059 4278255360
118.40462 3.7535713 -14.018202 4278255360
118.40839 3.076757 -13.965536 4278255360
118.66772 3.0733547 -14.228104 4278255360
118.69322 4.0867243 -14.227875 4278255360
118.73312 3.4081104 -14.083372 4278255360
118.96817 3.4059038 -14.407343 4278255360
118.99603 3.7426529 -14.358118 4278255360
119.0091 4.0802135 -14.346487 4278255360
119.02586 3.0645728 -14.239418 4278255360
119.28565 3.0611408 -14.500208 4278255360
119.30415 4.0747461 -14.517839 4278255360
119.34328 3.3962746 -14.37566 4278255360
119.60786 3.0543115 -14.602606 4278255360
119.61304 4.0685825 -14.653992 4278255360
119.63176 3.7294381 -14.585106 4278255360
119.64695 3.3904266 -14.525173 4278255360
119.92564 3.3858981 -14.737671 4278255360
119.93825 3.0470402 -14.684298 4278255360
119.98209 4.0594006 -14.637972 4278255360
120.01221 3.7196121 -14.540361 4278255360
119.04029 -6.388299 -14.520535 4278255360
119.05942 -6.7281532 -14.450525 4278255360
119.07272 -7.0675163 -14.3953 4278255360
119.0892 -6.0547066 -14.417967 4278255360
119.30034 -7.0653105 -14.73679 4278255360
119.33949 -6.7310023 -14.659109 4278255360
119.34649 -6.3936238 -14.662861 4278255360
119.35605 -6.0564623 -14.660105 4278255360
119.65821 -6.3994565 -14.791079 4278255360
119.67687 -6.7392235 -14.722403 4278255360
119.67695 -7.0772877 -14.700741 4278255360
119.68695 -6.0640526 -14.739832 4278255360
120.0117 -6.7472057 -14.792212 4278255360
120.02004 -7.086071 -14.749727 4278255360
120.04646 -6.0742493 -14.747356 4278255360
120.04657 -6.4123569 -14.725636 4278255360
120.25697 -7.0847759 -15.066624 4278255360
120.29054 -6.4119482 -15.024847 4278255360
120.32965 -6.7536077 -14.904747 4278255360
120.55035 -7.0888481 -15.240713 4278255360
120.57378 -6.7531099 -15.203119 4278255360
120.60242 -6.417799 -15.152414 4278255360
120.87688 -6.7581363 -15.352621 4278255360
120.89071 -6.421484 -15.339272 4278255360
120.91381 -7.0995588 -15.238314 4278255360
118.96817 3.4059038 -14.407343 4278255360
118.99603 3.7426529 -14.358118 4278255360
119.0091 4.0802135 -14.346487 4278255360
119.02586 3.0645728 -14.239418 4278255360
119.28565 3.0611408 -14.500208 4278255360
119.30415 4.0747461 -14.517839 4278255360
119.34328 3.3962746 -14.37566 4278255360
119.60786 3.0543115 -14.602606 4278255360
119.61304 4.0685825 -14.653992 4278255360
119.63176 3.7294381 -14.585106 4278255360
119.64695 3.3904266 -14.525173 4278255360
119.92564 3.3858981 -14.737671 4278255360
119.93825 3.0470402 -14.684298 4278255360
119.98209 4.0594006 -14.637972 4278255360
120.01221 3.7196121 -14.540361 4278255360
120.25073 3.7170918 -14.854202 4278255360
120.27303 3.3777418 -14.776443 4278255360
120.29814 4.0528779 -14.75606 4278255360
120.6013 4.0470018 -14.906563 4278255360
120.62168 3.3695173 -14.812273 4278255360
120.87234 3.7046013 -15.116245 4278255360
120.93748 4.0394697 -14.973803 4278255360
120.94923 3.3624074 -14.901348 4278255360
120.0117 -6.7472057 -14.792212 4278255360
120.02004 -7.086071 -14.749727 4278255360
120.04646 -6.0742493 -14.747356 4278255360
120.04657 -6.4123569 -14.725636 4278255360
120.25697 -7.0847759 -15.066624 4278255360
120.29054 -6.4119482 -15.024847 4278255360
120.32965 -6.7536077 -14.904747 4278255360
120.55035 -7.0888481 -15.240713 4278255360
120.57378 -6.7531099 -15.203119 4278255360
120.60242 -6.417799 -15.152414 4278255360
120.87688 -6.7581363 -15.352621 4278255360
120.89071 -6.421484 -15.339272 4278255360
120.91381 -7.0995588 -15.238314 4278255360
121.2733 -6.7718658 -15.267639 4278255360
121.27337 -6.4338503 -15.2889 4278255360
121.29941 -5.7601528 -15.266321 4278255360
121.523 -6.7719169 -15.55109 4278255360
121.55729 -6.0991802 -15.507935 4278255360
121.62057 -6.4429474 -15.327829 4278255360
121.62731 -5.7674656 -15.353764 4278255360
121.84197 -6.440505 -15.681978 4278255360
121.84519 -6.1028929 -15.695309 4278255360
121.94914 -5.7742343 -15.456429 4278255360
119.93825 3.0470402 -14.684298 4278255360
121.53124 2.6757085 -15.220118 4278255360
121.79519 2.6721046 -15.468374 4278255360
121.82419 3.0086281 -15.417126 4278255360
121.29941 -5.7601528 -15.266321 4278255360
121.55729 -6.0991802 -15.507935 4278255360
121.62731 -5.7674656 -15.353764 4278255360
121.94914 -5.7742343 -15.456429 4278255360
122.27296 -5.7811813 -15.554075 4278255360
122.60289 -5.7886724 -15.636515 4278255360
122.93523 -5.4583139 -15.734404 4278255360
121.53124 2.6757085 -15.220118 4278255360
121.79519 2.6721046 -15.468374 4278255360
121.82419 3.0086281 -15.417126 4278255360
122.13678 3.0023148 -15.543358 4278255360
122.45306 2.9958053 -15.660301 4278255360
122.76877 2.3131313 -15.735859 4278255360
122.82616 2.986232 -15.635477 4278255360
122.85269 2.6465993 -15.547888 4278255360
123.05357 2.6464634 -15.95249 4278255360
121.94914 -5.7742343 -15.456429 4278255360
122.27296 -5.7811813 -15.554075 4278255360
122.60289 -5.7886724 -15.636515 4278255360
122.93523 -5.4583139 -15.734404 4278255360
123.17484 -5.4579086 -16.041737 4278255360
123.23703 -5.8013716 -15.865591 4278255360
123.44316 -5.797894 -16.255787 4278255360
123.54175 -5.4686198 -16.032089 4278255360
123.57901 -5.1338177 -15.960819 4278255360
