# .PCD v0.7 - Point Cloud Data file format
VERSION 0.7
FIELDS x y z rgb
SIZE 4 4 4 4
TYPE F F F U
COUNT 1 1 1 1
WIDTH 1148
HEIGHT 1
VIEWPOINT 0 0 0 1 0 0 0
POINTS 1148
DATA ascii
69.208397 88.57209 -13.227778 4294967295
69.214363 91.180634 -13.486748 4294967295
69.215935 87.202423 -13.625285 4294967295
69.219574 92.974144 -13.661036 4294967295
69.227394 90.697601 -13.3915 4294967295
69.229195 91.838432 -13.507441 4294967295
69.23156 87.534401 -13.608525 4294967295
69.233322 86.395432 -13.48087 4294967295
69.235397 92.818222 -13.591444 4294967295
69.242271 90.052361 -13.272714 4294967295
69.256462 92.501701 -13.487099 4294967295
69.26207 89.012192 -13.664515 4294967295
69.268402 90.552155 -13.238705 4294967295
69.269997 89.829483 -13.725384 4294967295
69.275414 88.040833 -13.516068 4294967295
69.288727 92.189941 -13.345822 4294967295
69.289482 87.069527 -13.365186 4294967295
69.294075 86.582794 -13.297786 4294967295
69.29966 89.516335 -13.592737 4294967295
69.302032 90.819824 -13.724152 4294967295
69.30336 88.540886 -13.476102 4294967295
69.306961 87.728104 -13.37716 4294967295
69.310402 93.176804 -13.378791 4294967295
69.311493 92.126213 -13.832165 4294967295
69.326935 89.20208 -13.467959 4294967295
69.348236 87.41922 -13.206155 4294967295
69.39003 88.7397 -13.207597 4294967295
69.393349 91.347359 -13.475246 4294967295
69.432365 88.523811 -13.611839 4294967295
69.477295 87.565224 -13.359281 4294967295
69.482414 86.589996 -13.237937 4294967295
69.503906 92.698364 -13.250051 4294967295
69.513893 91.163345 -13.621589 4294967295
69.514267 88.883476 -13.376701 4294967295
69.51738 86.372543 -13.666101 4294967295
69.524452 91.493538 -13.621622 4294967295
69.558258 90.367897 -13.388398 4294967295
69.564789 86.880104 -13.562141 4294967295
69.56942 91.34996 -13.45607 4294967295
69.575394 90.700951 -13.366763 4294967295
69.585472 92.497032 -13.525016 4294967295
69.588402 92.172546 -13.480573 4294967295
69.594452 92.989571 -13.547655 4294967295
69.59481 91.035027 -13.337602 4294967295
69.599327 87.708313 -13.53538 4294967295
69.599915 88.359886 -13.603035 4294967295
69.600349 91.689026 -13.388994 4294967295
69.611008 89.015778 -13.636107 4294967295
69.612358 89.993225 -13.736038 4294967295
69.616493 88.041039 -13.513645 4294967295
69.623085 87.392311 -13.422333 4294967295
69.625847 92.677475 -13.409453 4294967295
69.626862 90.324966 -13.723085 4294967295
69.641098 89.516823 -13.589234 4294967295
69.641541 89.19133 -13.552961 4294967295
69.652702 88.544533 -13.446605 4294967295
69.660446 87.081741 -13.264466 4294967295
69.66304 88.711685 -13.429972 4294967295
69.666954 90.66761 -13.625887 4294967295
69.668648 91.970963 -13.759478 4294967295
69.678879 91.649719 -13.691019 4294967295
69.691673 86.768547 -13.126762 4294967295
69.695282 86.863945 -13.692691 4294967295
69.700462 89.704567 -13.411173 4294967295
69.702324 87.261665 -13.143929 4294967295
69.713844 87.592232 -13.140817 4294967295
69.745079 87.698257 -13.615782 4294967295
69.756592 88.19146 -13.630075 4294967295
69.757042 90.217094 -13.277106 4294967295
69.762863 89.49659 -13.74859 4294967295
69.783798 89.830986 -13.714493 4294967295
69.836502 91.880417 -13.189644 4294967295
69.836754 91.318878 -13.696844 4294967295
69.879074 87.194992 -13.682574 4294967295
69.887489 87.593529 -13.129749 4294967295
69.889534 92.970108 -13.697215 4294967295
69.89222 88.084312 -13.166414 4294967295
69.903145 87.693245 -13.655612 4294967295
69.909073 91.675591 -13.493818 4294967295
69.911423 92.491028 -13.573082 4294967295
69.91198 86.88266 -13.539597 4294967295
69.914749 86.395218 -13.478303 4294967295
69.916122 90.21241 -13.314053 4294967295
69.922119 91.518288 -13.433518 4294967295
69.92807 90.543312 -13.309553 4294967295
69.929436 92.010147 -13.46166 4294967295
69.943344 88.198219 -13.575626 4294967295
69.950401 89.829514 -13.726314 4294967295
69.954361 89.342682 -13.661138 4294967295
69.963196 89.183517 -13.614706 4294967295
69.965271 90.161423 -13.712226 4294967295
69.971466 87.558266 -13.413591 4294967295
69.975845 91.052437 -13.204643 4294967295
69.987366 90.98494 -13.726565 4294967295
69.993576 86.589806 -13.236496 4294967295
69.997482 87.894676 -13.362851 4294967295
70.001434 92.693016 -13.294522 4294967295
70.013771 87.41259 -13.257094 4294967295
70.023033 89.53421 -13.452836 4294967295
70.03006 91.817421 -13.673233 4294967295
70.030823 89.700363 -13.444633 4294967295
70.032066 88.397614 -13.301358 4294967295
70.041664 87.09803 -13.130588 4294967295
70.048981 86.869148 -13.648654 4294967295
70.054985 90.68792 -13.46959 4294967295
70.056732 92.806099 -13.689921 4294967295
70.0784 87.043877 -13.5694 4294967295
70.098206 89.076736 -13.153571 4294967295
70.105782 92.990334 -13.54621 4294967295
70.106239 90.057854 -13.231566 4294967295
70.173981 88.7117 -13.42935 4294967295
70.200684 93.194664 -13.251879 4294967295
70.210861 91.333443 -13.586496 4294967295
70.211952 90.845245 -13.530746 4294967295
70.219978 91.174446 -13.53918 4294967295
70.225151 92.642601 -13.678665 4294967295
70.227776 90.526146 -13.444027 4294967295
70.252769 92.165886 -13.535866 4294967295
70.260689 86.560051 -13.477584 4294967295
70.265259 86.887634 -13.497376 4294967295
70.276756 93.153709 -13.561479 4294967295
70.286903 92.343529 -13.441239 4294967295
70.288231 92.832878 -13.489045 4294967295
70.294716 89.342667 -13.66148 4294967295
70.29808 91.696579 -13.334972 4294967295
70.30619 87.718658 -13.449968 4294967295
70.30732 89.022179 -13.585361 4294967295
70.318642 87.397919 -13.374323 4294967295
70.333725 91.87484 -13.235358 4294967295
70.339539 88.546829 -13.427475 4294967295
70.359367 91.161385 -13.640586 4294967295
70.361626 91.650963 -13.685335 4294967295
70.362015 90.022301 -13.510229 4294967295
70.363968 91.489098 -13.660254 4294967295
70.375458 92.471252 -13.726862 4294967295
70.381447 88.238205 -13.255185 4294967295
70.401314 89.875854 -13.36392 4294967295
70.408112 92.974037 -13.671923 4294967295
70.414276 89.555389 -13.286604 4294967295
70.414986 87.600029 -13.075536 4294967295
70.427055 88.745865 -13.157698 4294967295
70.461037 89.737885 -13.150585 4294967295
70.477844 90.396896 -13.165042 4294967295
70.485901 91.052261 -13.208174 4294967295
70.490761 91.380295 -13.227042 4294967295
70.50547 90.011086 -13.598227 4294967295
70.515701 86.919861 -13.234365 4294967295
70.528893 88.880501 -13.399782 4294967295
70.534966 88.068321 -13.292922 4294967295
70.550392 91.007401 -13.555293 4294967295
70.5522 88.238327 -13.253819 4294967295
70.556107 87.099129 -13.119267 4294967295
70.561172 87.753098 -13.172213 4294967295
70.565361 92.805656 -13.697408 4294967295
70.5784 90.693428 -13.428734 4294967295
70.60276 87.374863 -13.559339 4294967295
70.608192 92.49839 -13.522322 4294967295
70.628128 90.551468 -13.248388 4294967295
70.639854 86.738228 -13.368294 4294967295
70.666512 89.192787 -13.541663 4294967295
70.672211 91.385109 -13.190875 4294967295
70.680183 91.877518 -13.216913 4294967295
70.683205 88.873878 -13.452228 4294967295
70.69577 88.064369 -13.324165 4294967295
70.709137 92.215973 -13.156833 4294967295
70.710663 90.351585 -13.518723 4294967295
70.712845 89.863739 -13.459451 4294967295
70.716133 91.33136 -13.60507 4294967295
70.718674 89.540306 -13.405588 4294967295
70.721443 87.259987 -13.15312 4294967295
70.732193 92.478539 -13.674126 4294967295
70.735985 91.82856 -13.592216 4294967295
70.737282 90.199844 -13.41419 4294967295
70.742256 91.505409 -13.536918 4294967295
70.750755 88.738792 -13.213605 4294967295
70.756737 92.163292 -13.559032 4294967295
70.774101 87.212326 -13.538458 4294967295
70.785629 89.731171 -13.203717 4294967295
70.795891 86.40654 -13.380244 4294967295
70.812653 92.839195 -13.445497 4294967295
70.827095 93.008423 -13.415623 4294967295
70.831757 87.724434 -13.401875 4294967295
70.838135 91.709305 -13.240421 4294967295
70.849998 90.664406 -13.654917 4294967295
70.864799 86.760056 -13.189416 4294967295
70.878021 88.395103 -13.319963 4294967295
70.883194 89.537895 -13.424703 4294967295
70.884544 91.33065 -13.611389 4294967295
70.885582 90.353569 -13.503765 4294967295
70.885582 92.381721 -13.154655 4294967295
70.893921 91.008797 -13.545978 4294967295
70.897469 88.729027 -13.29108 4294967295
70.9011 87.915619 -13.192293 4294967295
70.914993 89.062202 -13.268506 4294967295
70.929741 88.579315 -13.1681 4294967295
70.929794 90.209183 -13.34173 4294967295
70.930954 89.88372 -13.303196 4294967295
70.934502 92.329559 -13.552217 4294967295
70.942596 89.725594 -13.247721 4294967295
71.006042 86.911217 -13.302063 4294967295
71.009048 93.013611 -13.377948 4294967295
71.016487 90.89769 -13.127647 4294967295
71.041893 92.864845 -13.253162 4294967295
71.052719 86.766983 -13.13203 4294967295
71.057938 87.747055 -13.219237 4294967295
71.059547 92.147308 -13.683054 4294967295
71.061134 88.237312 -13.260943 4294967295
71.064522 91.66069 -13.614692 4294967295
71.088959 86.713089 -13.570443 4294967295
71.093498 87.109406 -13.033416 4294967295
71.093857 90.69548 -13.414607 4294967295
71.106674 91.515724 -13.459557 4294967295
71.110428 91.843239 -13.482049 4294967295
71.134842 87.871948 -13.542088 4294967295
71.140976 89.411224 -13.12154 4294967295
71.164749 91.051407 -13.217653 4294967295
71.168343 91.378967 -13.240654 4294967295
71.207825 92.047913 -13.181141 4294967295
71.216637 87.41626 -13.222723 4294967295
71.226807 88.235336 -13.276384 4294967295
71.232925 89.867592 -13.430108 4294967295
71.238106 91.988045 -13.638949 4294967295
71.238152 89.380859 -13.360936 4294967295
71.249443 92.718002 -13.114676 4294967295
71.25219 90.853432 -13.471414 4294967295
71.255684 88.573143 -13.216788 4294967295
71.260262 90.367928 -13.392943 4294967295
71.266853 91.511482 -13.492999 4294967295
71.268829 91.838242 -13.521271 4294967295
71.271393 87.601433 -13.061202 4294967295
71.284111 93.148415 -13.610324 4294967295
71.30323 86.893524 -13.444254 4294967295
71.309593 88.921356 -13.075434 4294967295
71.309746 87.222015 -13.457727 4294967295
71.3134 89.738113 -13.149914 4294967295
71.314751 89.575645 -13.12811 4294967295
71.321091 90.556473 -13.211658 4294967295
71.334076 92.518127 -13.37773 4294967295
71.339241 92.194336 -13.326137 4294967295
71.34507 93.011864 -13.393961 4294967295
71.34816 91.220009 -13.192768 4294967295
71.34864 87.726593 -13.382839 4294967295
71.353485 91.385307 -13.192755 4294967295
71.383141 89.20739 -13.426545 4294967295
71.383705 88.881683 -13.389962 4294967295
71.390419 91.328751 -13.628513 4294967295
71.446396 91.026535 -13.411168 4294967295
71.461098 88.587456 -13.102632 4294967295
71.492706 90.720047 -13.225335 4294967295
71.511444 90.075729 -13.094707 4294967295
71.52697 88.38163 -13.426415 4294967295
71.530907 92.855675 -13.326538 4294967295
71.532852 92.041359 -13.233343 4294967295
71.541222 86.431503 -13.171518 4294967295
71.548409 91.884956 -13.165231 4294967295
71.553757 92.702499 -13.234632 4294967295
71.568657 89.213631 -13.377297 4294967295
71.586777 88.569077 -13.248755 4294967295
71.598282 93.047852 -13.124146 4294967295
71.612114 87.764244 -13.079263 4294967295
71.625076 92.65995 -13.557954 4294967295
71.627831 91.194267 -13.392727 4294967295
71.627884 92.009247 -13.479383 4294967295
71.63829 89.405418 -13.167617 4294967295
71.644669 87.219498 -13.476665 4294967295
71.645859 90.712837 -13.281867 4294967295
71.646156 89.897804 -13.194078 4294967295
71.648399 89.083496 -13.099898 4294967295
71.666443 87.391228 -13.423059 4294967295
71.681305 86.745277 -13.305174 4294967295
71.694183 93.17878 -13.384847 4294967295
71.704048 91.063438 -13.126945 4294967295
71.706619 91.390656 -13.153301 4294967295
71.719246 91.722153 -13.146877 4294967295
71.721542 87.902458 -13.295607 4294967295
71.721596 90.021271 -13.521089 4294967295
71.739876 88.887955 -13.340034 4294967295
71.742668 88.074051 -13.244118 4294967295
71.74472 90.356873 -13.480473 4294967295
71.750755 91.337234 -13.564951 4294967295
71.755592 86.938026 -13.080446 4294967295
71.775696 92.398605 -13.032395 4294967295
71.783043 92.817711 -13.616014 4294967295
71.789146 88.745155 -13.162154 4294967295
71.821602 91.693283 -13.368958 4294967295
71.826576 90.228065 -13.196505 4294967295
71.872269 90.899475 -13.117149 4294967295
71.886261 89.529999 -13.487809 4294967295
71.889412 88.390373 -13.356074 4294967295
71.911209 92.22065 -13.129278 4294967295
71.921478 87.262184 -13.130153 4294967295
71.927628 91.014099 -13.509365 4294967295
71.93116 88.081322 -13.185448 4294967295
71.931938 88.733788 -13.252356 4294967295
71.938858 87.106102 -13.056189 4294967295
71.94091 87.596115 -13.101614 4294967295
71.944656 90.369255 -13.384551 4294967295
71.955063 92.565643 -13.021229 4294967295
71.966774 92.733795 -13.000446 4294967295
71.973709 90.055321 -13.255269 4294967295
71.978714 89.405197 -13.169558 4294967295
71.986115 89.245186 -13.128097 4294967295
71.998459 90.554802 -13.226829 4294967295
72.013855 92.191765 -13.350316 4294967295
72.014519 91.702927 -13.296064 4294967295
72.018631 89.910942 -13.091718 4294967295
72.028023 87.888397 -13.407602 4294967295
72.031464 92.688431 -13.345085 4294967295
72.039566 88.056076 -13.387403 4294967295
72.054848 93.18766 -13.321086 4294967295
72.058578 88.71582 -13.394987 4294967295
72.064377 91.561012 -13.116487 4294967295
72.093079 88.40387 -13.248063 4294967295
72.101807 91.993675 -13.601428 4294967295
72.106049 89.061325 -13.27532 4294967295
72.11219 89.879013 -13.342127 4294967295
72.114975 89.391075 -13.280995 4294967295
72.130341 90.049591 -13.300444 4294967295
72.130356 92.494835 -13.560658 4294967295
72.131203 91.354164 -13.436464 4294967295
72.139374 93.061081 -13.02879 4294967295
72.155479 90.712257 -13.288148 4294967295
72.228256 93.026009 -13.294539 4294967295
72.23069 88.879478 -13.407015 4294967295
72.231819 92.864479 -13.265605 4294967295
72.23233 87.902039 -13.297582 4294967295
72.246162 90.026901 -13.478178 4294967295
72.251205 89.213928 -13.375066 4294967295
72.251236 91.894241 -13.098339 4294967295
72.253197 91.568855 -13.057243 4294967295
72.259041 89.543205 -13.384295 4294967295
72.263275 88.403709 -13.249077 4294967295
72.266922 89.709488 -13.376029 4294967295
72.295525 92.402496 -13.006484 4294967295
72.297768 91.678642 -13.484001 4294967295
72.299461 92.331398 -13.547888 4294967295
72.310814 88.096886 -13.059886 4294967295
72.318695 92.176598 -13.468088 4294967295
72.323593 90.711319 -13.296033 4294967295
72.328766 91.039597 -13.313927 4294967295
72.332466 89.410446 -13.128376 4294967295
72.347809 90.884537 -13.234739 4294967295
72.357399 90.399315 -13.151514 4294967295
72.366264 91.218452 -13.209492 4294967295
72.374855 90.243492 -13.077449 4294967295
72.421043 88.398483 -13.290487 4294967295
72.442459 90.526733 -13.446472 4294967295
72.462212 88.904449 -13.208891 4294967295
72.49305 91.852295 -13.421049 4294967295
72.53746 89.913986 -13.068736 4294967295
72.565308 91.393646 -13.134514 4294967295
72.566322 92.535782 -13.252689 4294967295
72.578178 89.208168 -13.420651 4294967295
72.586807 89.374741 -13.410008 4294967295
72.607399 89.709305 -13.377896 4294967295
72.639801 93.056671 -13.066331 4294967295
72.664513 92.831055 -13.522167 4294967295
72.681778 91.370926 -13.310129 4294967295
72.682396 92.186516 -13.394848 4294967295
72.732689 90.903023 -13.093024 4294967295
72.739525 91.232147 -13.10557 4294967295
72.757858 91.729263 -13.09818 4294967295
72.774727 90.523201 -13.475014 4294967295
72.815643 89.398727 -13.221075 4294967295
72.816101 90.866577 -13.375664 4294967295
72.816177 89.725113 -13.254038 4294967295
72.81665 89.236046 -13.200479 4294967295
72.897102 92.205429 -13.251988 4294967295
72.906082 93.02478 -13.309599 4294967295
72.914833 92.865433 -13.263925 4294967295
72.91909 92.541031 -13.21545 4294967295
72.928642 91.076859 -13.028419 4294967295
72.960022 90.529411 -13.427317 4294967295
72.998924 92.339378 -13.492066 4294967295
73.00779 89.73381 -13.185996 4294967295
73.008461 89.407867 -13.14915 4294967295
73.032158 90.72258 -13.211165 4294967295
73.066742 91.389549 -13.168571 4294967295
73.082542 90.417305 -13.013373 4294967295
73.151085 89.885666 -13.29177 4294967295
73.153328 92.894676 -13.044436 4294967295
73.162392 92.173439 -13.497815 4294967295
73.182877 90.225021 -13.223612 4294967295
73.204926 93.079994 -12.894841 4294967295
73.206398 91.376617 -13.268869 4294967295
73.231178 91.876419 -13.240756 4294967295
73.243599 92.534172 -13.269934 4294967295
73.246658 91.719826 -13.173369 4294967295
73.261833 90.094582 -12.950889 4294967295
73.281219 92.060745 -13.096301 4294967295
73.309265 91.583069 -12.953596 4294967295
73.31221 92.726608 -13.065451 4294967295
73.31649 90.698982 -13.395275 4294967295
73.3246 90.376183 -13.334427 4294967295
73.325699 91.263573 -12.865768 4294967295
73.354881 91.367409 -13.34054 4294967295
73.366943 91.698692 -13.336235 4294967295
73.37944 93.081787 -12.882779 4294967295
73.386986 91.054634 -13.202162 4294967295
73.421234 93.026695 -13.299479 4294967295
73.430481 90.583313 -13.009604 4294967295
73.448425 90.91716 -12.98632 4294967295
73.516006 92.08802 -12.889341 4294967295
73.578613 91.226639 -13.151917 4294967295
73.623848 91.571976 -13.04055 4294967295
73.659798 92.729546 -13.045844 4294967295
73.675552 92.409843 -12.960321 4294967295
73.698647 91.205528 -13.315409 4294967295
73.704765 91.769257 -12.796699 4294967295
73.735596 92.199852 -13.300172 4294967295
73.761139 92.700127 -13.269779 4294967295
73.790405 91.733513 -13.071433 4294967295
73.852455 92.086121 -12.905989 4294967295
73.866669 91.367638 -13.34133 4294967295
73.871674 91.441208 -12.774683 4294967295
73.885361 92.916313 -12.886562 4294967295
73.897324 92.522469 -13.363782 4294967295
73.943214 92.705132 -13.233247 4294967295
73.981964 92.06881 -13.039114 4294967295
74.005928 91.589226 -12.909928 4294967295
74.011101 91.754639 -12.910598 4294967295
74.019073 92.410957 -12.954222 4294967295
74.078522 92.92601 -12.814683 4294967295
74.083527 92.202888 -13.279354 4294967295
74.106621 91.723106 -13.153064 4294967295
74.148331 92.067078 -13.053419 4294967295
74.264786 92.207474 -13.24559 4294967295
74.3106 92.390045 -13.115547 4294967295
38.708855 93.324509 -16.903385 4294967295
38.765408 93.587997 -17.369061 4294967295
38.806004 93.769737 -17.228628 4294967295
38.95517 93.760902 -17.296085 4294967295
38.984238 93.615738 -17.164587 4294967295
39.042698 93.967407 -16.972715 4294967295
39.138458 93.930435 -17.248569 4294967295
39.156765 94.421402 -17.231497 4294967295
39.206959 93.484955 -16.927328 4294967295
39.229763 93.65741 -16.85656 4294967295
39.318176 93.295815 -17.124714 4294967295
39.345295 94.433334 -17.145756 4294967295
39.356144 94.118095 -17.067348 4294967295
39.377945 93.969063 -16.964392 4294967295
39.380089 93.809669 -16.937944 4294967295
39.407032 94.626495 -16.923532 4294967295
39.539661 93.485214 -16.929037 4294967295
39.593071 94.15538 -16.793692 4294967295
39.607334 94.644615 -16.792498 4294967295
39.619858 94.008873 -16.671427 4294967295
39.630508 93.693245 -16.593809 4294967295
39.689964 93.316437 -16.974245 4294967295
39.692116 93.799118 -17.020138 4294967295
39.732754 94.944199 -16.988838 4294967295
39.769268 94.481842 -16.792746 4294967295
39.85331 94.278099 -17.095304 4294967295
39.891094 95.582222 -17.093285 4294967295
39.918404 93.830589 -16.788462 4294967295
39.93079 93.515869 -16.704227 4294967295
39.964119 95.13942 -16.755722 4294967295
39.966148 94.176811 -16.639345 4294967295
39.984108 94.828781 -16.641987 4294967295
39.990231 95.313904 -16.672485 4294967295
40.032413 94.12442 -17.028767 4294967295
40.058815 95.101555 -17.03483 4294967295
40.092453 93.674103 -16.741772 4294967295
40.129272 93.372009 -16.562862 4294967295
40.174236 95.805344 -16.659782 4294967295
40.215828 93.33065 -16.873426 4294967295
40.25835 95.922157 -16.997818 4294967295
40.284798 94.812088 -16.768953 4294967295
40.288071 94.331955 -16.702057 4294967295
40.290005 96.581429 -16.947544 4294967295
40.304234 95.30423 -16.747908 4294967295
40.30534 94.019714 -16.599033 4294967295
40.321556 93.546181 -16.481987 4294967295
40.332523 95.640533 -16.67452 4294967295
40.343891 96.289185 -16.702806 4294967295
40.374081 93.647675 -16.942106 4294967295
40.39431 94.139946 -16.918039 4294967295
40.420666 95.117302 -16.924456 4294967295
40.446072 93.524483 -16.645508 4294967295
40.525921 95.333687 -16.535395 4294967295
40.5401 96.466019 -16.60705 4294967295
40.621841 96.420746 -16.93573 4294967295
40.623005 93.369339 -16.588083 4294967295
40.623653 94.333618 -16.693964 4294967295
40.627621 94.175041 -16.660563 4294967295
40.646255 96.112595 -16.805298 4294967295
40.652145 95.473167 -16.7103 4294967295
40.655163 96.920509 -16.861174 4294967295
40.666077 97.408287 -16.873192 4294967295
40.671692 94.037376 -16.472174 4294967295
40.683712 95.971947 -16.64253 4294967295
40.6954 95.817505 -16.579308 4294967295
40.700581 96.302322 -16.613476 4294967295
40.702335 95.178398 -16.48024 4294967295
40.707508 97.109428 -16.677034 4294967295
40.710777 94.53997 -16.375338 4294967295
40.753788 93.350967 -16.727057 4294967295
40.76997 93.841278 -16.718758 4294967295
40.784187 97.061165 -17.02492 4294967295
40.787914 95.296432 -16.811987 4294967295
40.815502 94.829041 -16.651327 4294967295
40.855385 94.689308 -16.4793 4294967295
40.883774 95.507881 -16.460028 4294967295
40.921543 95.849411 -16.350382 4294967295
40.92894 96.496368 -16.394096 4294967295
40.965698 94.177948 -16.643167 4294967295
40.97237 97.233757 -16.960367 4294967295
40.975937 96.111259 -16.820292 4294967295
40.995907 97.085838 -16.851583 4294967295
40.998669 96.60537 -16.786804 4294967295
41.001381 94.357262 -16.523611 4294967295
41.014648 95.97123 -16.653 4294967295
41.022404 95.653961 -16.58699 4294967295
41.03458 94.696091 -16.431686 4294967295
41.035545 98.071251 -16.807093 4294967295
41.037598 97.751038 -16.763084 4294967295
41.053238 93.902077 -16.269424 4294967295
41.062599 96.478951 -16.522287 4294967295
41.062958 95.514732 -16.412558 4294967295
41.063839 96.801056 -16.553616 4294967295
41.066055 97.445099 -16.617292 4294967295
41.075611 95.199921 -16.327642 4294967295
41.087723 97.938995 -16.587933 4294967295
41.110058 95.291061 -16.855982 4294967295
41.13731 94.823448 -16.696865 4294967295
41.152699 93.706612 -16.511223 4294967295
41.15506 93.547119 -16.484076 4294967295
41.187305 94.046036 -16.413996 4294967295
41.227386 97.44252 -16.638693 4294967295
41.238171 96.162483 -16.452765 4294967295
41.257935 97.298302 -16.503016 4294967295
41.26469 98.427116 -16.603346 4294967295
41.270206 93.359978 -16.665077 4294967295
41.290237 94.173759 -16.678186 4294967295
41.291878 98.281227 -16.480629 4294967295
41.293575 97.799866 -16.419931 4294967295
41.294128 93.854401 -16.627129 4294967295
41.298702 93.53537 -16.573431 4294967295
41.30685 93.700294 -16.56012 4294967295
41.331367 97.569611 -16.898745 4294967295
41.335918 95.96534 -16.700859 4294967295
41.33633 94.358475 -16.518831 4294967295
41.347065 94.042595 -16.441427 4294967295
41.359173 94.691879 -16.46702 4294967295
41.360157 97.103142 -16.733891 4294967295
41.366066 98.71312 -16.891516 4294967295
41.372116 96.306023 -16.597668 4294967295
41.387688 95.028336 -16.393377 4294967295
41.390396 95.833542 -16.473209 4294967295
41.391769 97.763023 -16.684443 4294967295
41.416687 98.580162 -16.678806 4294967295
41.459034 96.513191 -16.281321 4294967295
41.474689 94.504608 -16.646538 4294967295
41.520439 93.242393 -16.326283 4294967295
41.561604 95.353867 -16.402613 4294967295
41.564682 96.802322 -16.553156 4294967295
41.56926 94.232368 -16.246851 4294967295
41.573826 98.093132 -16.662306 4294967295
41.592949 97.621284 -16.534723 4294967295
41.623783 95.869118 -16.217741 4294967295
41.624718 96.030434 -16.232199 4294967295
41.627171 96.514183 -16.276915 4294967295
41.628883 93.373322 -16.568962 4294967295
41.630039 98.284477 -16.464375 4294967295
41.631779 97.481483 -16.36747 4294967295
41.633183 97.160645 -16.325991 4294967295
41.644772 95.952858 -16.796446 4294967295
41.670193 94.680565 -16.554583 4294967295
41.676987 94.201874 -16.47438 4294967295
41.691666 96.620621 -16.68852 4294967295
41.692604 95.17453 -16.522614 4294967295
41.694462 93.889404 -16.371178 4294967295
41.695721 95.336914 -16.52869 4294967295
41.701168 94.53598 -16.41758 4294967295
41.701771 97.429611 -16.739861 4294967295
41.707123 97.111061 -16.68326 4294967295
41.719204 95.670815 -16.474573 4294967295
41.725178 93.744492 -16.235153 4294967295
41.726574 98.246605 -16.734806 4294967295
41.728294 99.051094 -16.818331 4294967295
41.734787 96.322136 -16.486889 4294967295
41.735661 96.804886 -16.537636 4294967295
41.737404 96.162758 -16.458801 4294967295
41.764912 94.890877 -16.208843 4294967295
41.767784 93.84127 -16.730415 4294967295
41.773205 98.432747 -16.57386 4294967295
41.776089 95.861687 -16.274197 4294967295
41.776665 97.79155 -16.488449 4294967295
41.77795 99.399857 -16.663822 4294967295
41.786983 94.333313 -16.710823 4294967295
41.787399 98.601257 -16.537405 4294967295
41.810604 97.005829 -16.26796 4294967295
41.883057 97.759239 -16.720816 4294967295
41.907795 98.737045 -16.734102 4294967295
41.921303 98.422935 -16.646263 4294967295
41.926117 94.56649 -16.195017 4294967295
41.964462 98.124855 -16.444733 4294967295
41.96611 99.894348 -16.636707 4294967295
41.970009 94.34198 -16.64892 4294967295
41.977276 93.702797 -16.548979 4294967295
41.986912 97.011208 -16.232403 4294967295
41.988457 95.476692 -16.704367 4294967295
41.989468 96.120079 -16.772564 4294967295
41.994389 99.588409 -16.49227 4294967295
42.011826 98.954742 -16.353291 4294967295
42.01305 99.116241 -16.366631 4294967295
42.0369 93.411911 -16.284344 4294967295
42.038391 94.699081 -16.422878 4294967295
42.047642 95.668617 -16.495586 4294967295
42.067078 95.03566 -16.348986 4294967295
42.068115 96.804893 -16.543304 4294967295
42.070717 96.323944 -16.479271 4294967295
42.091278 96.013252 -16.364431 4294967295
42.091602 97.460594 -16.525423 4294967295
42.10424 97.94976 -16.531075 4294967295
42.112503 96.989418 -16.391275 4294967295
42.161343 94.033417 -16.519361 4294967295
42.165966 98.626511 -16.366756 4294967295
42.172897 96.772102 -16.781404 4294967295
42.178349 99.759087 -16.445524 4294967295
42.193649 95.33638 -16.539833 4294967295
42.231853 93.26564 -16.159208 4294967295
42.232693 98.893837 -16.786718 4294967295
42.243931 93.593544 -16.149025 4294967295
42.245602 98.257881 -16.665283 4294967295
42.276447 95.058121 -16.18679 4294967295
42.297691 98.446945 -16.483995 4294967295
42.300274 97.000916 -16.311905 4294967295
42.302788 97.806435 -16.392401 4294967295
42.306267 99.255653 -16.541264 4294967295
42.31427 99.420845 -16.528671 4294967295
42.314491 98.777718 -16.455751 4294967295
42.31826 97.332245 -16.279121 4294967295
42.321671 99.907333 -16.554409 4294967295
42.324627 97.174797 -16.236727 4294967295
42.332245 93.714157 -16.468225 4294967295
42.341251 95.165794 -16.595909 4294967295
42.363174 94.051689 -16.385946 4294967295
42.365582 95.982414 -16.59292 4294967295
42.367542 93.410667 -16.297152 4294967295
42.382294 94.704842 -16.384884 4294967295
42.396389 95.516273 -16.421059 4294967295
42.396564 94.551437 -16.312271 4294967295
42.404999 97.771927 -16.640339 4294967295
42.407387 94.235367 -16.234831 4294967295
42.411297 94.398247 -16.237898 4294967295
42.419582 96.975815 -16.494522 4294967295
42.425167 93.601074 -16.094709 4294967295
42.430748 97.464211 -16.505869 4294967295
42.430969 96.499443 -16.396929 4294967295
42.437752 99.236679 -16.677216 4294967295
42.449821 99.886406 -16.703127 4294967295
42.458496 99.569626 -16.633957 4294967295
42.462715 95.711983 -16.185431 4294967295
42.463436 98.607529 -16.507013 4294967295
42.48674 98.298531 -16.381901 4294967295
42.536694 99.130013 -16.281061 4294967295
42.586391 98.423271 -16.65745 4294967295
42.595627 95.372658 -16.279987 4294967295
42.603237 95.698357 -16.286947 4294967295
42.63369 98.770569 -16.512857 4294967295
42.638817 99.095009 -16.529299 4294967295
42.648182 97.169937 -16.277409 4294967295
42.649727 94.831612 -16.657185 4294967295
42.663017 94.516968 -16.570446 4294967295
42.663254 93.713142 -16.479525 4294967295
42.670494 99.594849 -16.462383 4294967295
42.677212 94.041924 -16.462248 4294967295
42.681957 97.992462 -16.238489 4294967295
42.694691 95.015808 -16.503565 4294967295
42.695122 94.69442 -16.4659 4294967295
42.701141 95.983963 -16.586954 4294967295
42.701553 95.501801 -16.531374 4294967295
42.709869 99.938225 -16.348082 4294967295
42.721046 93.581947 -16.240873 4294967295
42.741882 95.683777 -16.39547 4294967295
42.743546 96.649605 -16.497158 4294967295
42.751183 98.744095 -16.702032 4294967295
42.754883 94.242828 -16.183754 4294967295
42.759678 96.497337 -16.417599 4294967295
42.772148 97.147316 -16.442032 4294967295
42.78923 94.421471 -16.070642 4294967295
42.809124 97.327934 -16.31896 4294967295
42.809418 97.971535 -16.389879 4294967295
42.825336 98.623566 -16.401173 4294967295
42.831429 98.305138 -16.341921 4294967295
42.874313 97.113098 -16.689486 4294967295
42.896069 93.747139 -16.228521 4294967295
42.928936 99.393578 -16.733221 4294967295
42.941048 99.721794 -16.723059 4294967295
42.950539 95.866821 -16.25493 4294967295
42.961739 96.0336 -16.230228 4294967295
42.972454 95.71743 -16.153366 4294967295
42.97908 99.903503 -16.596149 4294967295
42.987648 97.977974 -16.347525 4294967295
43.000103 94.519142 -16.558737 4294967295
43.01738 95.975311 -16.654846 4294967295
43.017822 94.689125 -16.509224 4294967295
43.030407 96.464546 -16.659203 4294967295
43.032959 93.41021 -16.307583 4294967295
43.037128 93.734062 -16.327694 4294967295
43.038219 99.614265 -16.334852 4294967295
43.04126 95.666237 -16.527924 4294967295
43.046024 95.025414 -16.437794 4294967295
43.046146 99.135902 -16.250635 4294967295
43.049435 94.222946 -16.334806 4294967295
43.051224 96.957977 -16.6339 4294967295
43.064213 95.356583 -16.404509 4294967295
43.075138 97.292343 -16.578833 4294967295
43.089336 98.586472 -16.668688 4294967295
43.092041 96.175438 -16.388512 4294967295
43.101349 99.075417 -16.67692 4294967295
43.106117 93.930321 -16.082855 4294967295
43.112923 95.221115 -16.200979 4294967295
43.115105 96.670227 -16.354664 4294967295
43.121899 98.925781 -16.580715 4294967295
43.124435 94.100655 -16.031084 4294967295
43.128391 99.894264 -16.663937 4294967295
43.14138 97.649467 -16.362604 4294967295
43.143356 96.846092 -16.265093 4294967295
43.155048 96.369568 -16.166565 4294967295
43.161926 98.464912 -16.374372 4294967295
43.168854 95.324341 -16.642124 4294967295
43.175907 93.55899 -16.41741 4294967295
43.17865 99.278397 -16.40069 4294967295
43.191059 98.158844 -16.227467 4294967295
43.232307 96.483353 -16.526617 4294967295
43.261864 94.568375 -16.19825 4294967295
43.27692 98.276375 -16.554783 4294967295
43.288692 96.19136 -16.276125 4294967295
43.330383 99.109627 -16.441418 4294967295
43.331516 97.662209 -16.275177 4294967295
43.331787 99.59301 -16.490036 4294967295
43.333511 99.91568 -16.519463 4294967295
43.343575 93.720383 -16.433111 4294967295
43.347111 93.561348 -16.401676 4294967295
43.350143 94.849625 -16.534027 4294967295
43.355484 94.369873 -16.459772 4294967295
43.362499 94.051781 -16.397133 4294967295
43.371784 98.649391 -16.230001 4294967295
43.37619 95.023964 -16.453009 4294967295
43.377686 98.974442 -16.243559 4294967295
43.39854 93.265778 -16.170134 4294967295
43.4016 96.002342 -16.464333 4294967295
43.407681 96.809799 -16.531143 4294967295
43.411121 97.133308 -16.554026 4294967295
43.412998 96.330055 -16.456985 4294967295
43.418415 97.458878 -16.562277 4294967295
43.422348 94.565224 -16.22357 4294967295
43.429783 95.373589 -16.285259 4294967295
43.439285 94.734894 -16.177168 4294967295
43.462589 95.551605 -16.178551 4294967295
43.465881 95.714249 -16.184034 4294967295
43.474609 93.465424 -15.898883 4294967295
43.482903 98.297775 -16.407175 4294967295
43.483242 96.688919 -16.226 4294967295
43.491611 97.658859 -16.302135 4294967295
43.504684 98.470413 -16.342403 4294967295
43.523956 98.96357 -16.323158 4294967295
43.527939 98.000168 -16.2001 4294967295
43.556099 93.904747 -16.278482 4294967295
43.561047 93.424561 -16.205734 4294967295
43.594601 95.694496 -16.330109 4294967295
43.627934 95.068176 -16.13158 4294967295
43.630569 96.517899 -16.283459 4294967295
43.633942 96.197838 -16.234682 4294967295
43.64571 96.847733 -16.261955 4294967295
43.652805 99.104156 -16.486748 4294967295
43.653996 99.58744 -16.53616 4294967295
43.658768 98.302917 -16.374235 4294967295
43.673817 97.828247 -16.263165 4294967295
43.678028 98.796036 -16.355072 4294967295
43.686333 94.368721 -16.472458 4294967295
43.688004 97.352997 -16.155357 4294967295
43.699539 98.16391 -16.201502 4294967295
43.701996 95.985329 -16.592773 4294967295
43.723866 98.659874 -16.163145 4294967295
43.723991 95.835991 -16.491373 4294967295
43.733631 95.519279 -16.418859 4294967295
43.746304 93.916794 -16.190981 4294967295
43.770237 94.894661 -16.208065 4294967295
43.77079 94.251198 -16.134037 4294967295
43.775017 96.828087 -16.405695 4294967295
43.788025 98.443863 -16.536098 4294967295
43.793472 99.572853 -16.641228 4294967295
43.793831 97.320763 -16.388266 4294967295
43.795612 95.068733 -16.129793 4294967295
43.802273 95.394089 -16.14049 4294967295
43.824043 97.497749 -16.291681 4294967295
43.835911 97.18219 -16.210722 4294967295
43.850494 93.88488 -16.429747 4294967295
43.880402 95.026382 -16.442192 4294967295
43.88377 99.139259 -16.245018 4294967295
43.886723 94.225197 -16.328365 4294967295
43.897381 93.426056 -16.198088 4294967295
43.905266 98.989944 -16.145542 4294967295
43.910778 94.881195 -16.30909 4294967295
43.930706 96.500633 -16.413313 4294967295
43.931702 95.21386 -16.265753 4294967295
43.942051 97.954643 -16.532036 4294967295
43.947327 94.417221 -16.11665 4294967295
43.98111 98.619179 -16.455969 4294967295
43.982708 96.36705 -16.198307 4294967295
43.988739 97.335899 -16.283308 4294967295
43.991787 95.727951 -16.091984 4294967295
43.998035 98.145531 -16.337952 4294967295
44.001293 96.215843 -16.109907 4294967295
44.018322 99.604813 -16.422855 4294967295
44.018875 97.834793 -16.223076 4294967295
44.038063 93.573761 -16.316427 4294967295
44.0415 98.490768 -16.209276 4294967295
44.046413 94.221642 -16.356686 4294967295
44.048058 94.383385 -16.368422 4294967295
44.057907 93.261978 -16.205339 4294967295
44.058369 93.90593 -16.275473 4294967295
44.06234 99.306862 -16.220234 4294967295
44.065552 95.5187 -16.427952 4294967295
44.07473 96.32795 -16.483034 4294967295
44.080322 95.04364 -16.318142 4294967295
44.09462 96.016571 -16.371819 4294967295
44.101334 97.307327 -16.490133 4294967295
44.111774 99.977745 -16.104939 4294967295
44.122658 97.801361 -16.463327 4294967295
44.129456 96.678543 -16.311838 4294967295
44.129768 99.896706 -16.669895 4294967295
44.137241 93.46315 -15.922868 4294967295
44.143887 94.593544 -16.023556 4294967295
44.145073 97.49147 -16.342571 4294967295
44.157257 95.244408 -16.044847 4294967295
44.159176 94.762405 -15.983644 4294967295
44.172314 94.125084 -15.861979 4294967295
44.174957 97.02446 -16.175558 4294967295
44.188683 94.691818 -16.504774 4294967295
44.1973 99.289841 -16.34259 4294967295
44.207352 99.778145 -16.35845 4294967295
44.247658 98.834152 -16.098167 4294967295
44.295723 94.263931 -16.045996 4294967295
44.315166 94.595894 -16.008406 4294967295
44.322842 96.531723 -16.195009 4294967295
44.323963 99.10743 -16.478155 4294967295
44.327545 98.626587 -16.410744 4294967295
44.328415 96.856598 -16.209867 4294967295
44.335381 98.147972 -16.327242 4294967295
44.336849 94.445999 -15.908416 4294967295
44.34079 97.667984 -16.252903 4294967295
44.344131 97.347824 -16.204342 4294967295
44.348343 98.959679 -16.368053 4294967295
44.354229 99.445694 -16.399689 4294967295
44.364906 98.485718 -16.251562 4294967295
44.384613 99.301208 -16.266903 4294967295
44.390533 94.549026 -16.355745 4294967295
44.395321 95.516983 -16.445395 4294967295
44.396465 94.069267 -16.279449 4294967295
44.402756 93.428673 -16.183834 4294967295
44.409126 95.685066 -16.41119 4294967295
44.410278 99.959084 -16.241764 4294967295
44.417587 96.011307 -16.41515 4294967295
44.417797 95.045845 -16.306608 4294967295
44.434502 95.215416 -16.261457 4294967295
44.44249 97.311737 -16.464712 4294967295
44.467171 96.681023 -16.299671 4294967295
44.467331 97.485832 -16.388847 4294967295
44.46899 97.969513 -16.436453 4294967295
44.473221 95.396416 -16.133139 4294967295
44.500832 93.639366 -15.831141 4294967295
44.501118 97.020828 -16.207373 4294967295
44.582127 94.722763 -16.281677 4294967295
44.62397 96.514961 -16.321249 4294967295
44.625042 96.032639 -16.263338 4294967295
44.626163 99.50296 -16.004622 4294967295
44.656898 98.785713 -16.44832 4294967295
44.657459 98.14222 -16.374416 4294967295
44.660847 95.890297 -16.110268 4294967295
44.673374 97.345825 -16.224615 4294967295
44.682873 99.604469 -16.4401 4294967295
44.686565 99.767426 -16.444113 4294967295
44.698891 98.003349 -16.200159 4294967295
44.715595 97.851234 -16.119186 4294967295
44.720512 97.048691 -16.010843 4294967295
44.735504 95.198761 -16.387852 4294967295
44.73735 99.151009 -16.180777 4294967295
44.741531 93.592285 -16.185616 4294967295
44.744747 94.237801 -16.245302 4294967295
44.75568 99.32193 -16.129597 4294967295
44.7598 99.00209 -16.078138 4294967295
44.765839 95.375374 -16.291426 4294967295
44.769302 95.860054 -16.332207 4294967295
44.772175 94.412781 -16.159828 4294967295
44.772373 94.734856 -16.194977 4294967295
44.772869 96.988541 -16.444384 4294967295
44.778019 96.508415 -16.371132 4294967295
44.792759 96.033218 -16.261728 4294967295
44.801952 96.842888 -16.316813 4294967295
44.809212 97.651535 -16.379185 4294967295
44.812065 97.97496 -16.404322 4294967295
44.817524 98.460732 -16.437569 4294967295
44.822475 96.370697 -16.185595 4294967295
44.825592 96.694321 -16.209751 4294967295
44.827072 95.568047 -16.078495 4294967295
44.847775 93.323891 -15.748988 4294967295
44.889187 98.66011 -16.185474 4294967295
44.893913 99.628708 -16.275351 4294967295
44.901756 99.793968 -16.263756 4294967295
44.921192 93.522064 -15.490044 4294967295
44.956886 96.192909 -16.291624 4294967295
44.971313 93.785179 -15.968054 4294967295
44.991604 95.083839 -16.035238 4294967295
44.994995 97.017799 -16.237839 4294967295
44.99826 94.120956 -15.90243 4294967295
45.012634 97.993111 -16.279079 4294967295
45.013378 97.349495 -16.204515 4294967295
45.016014 95.579559 -15.997149 4294967295
45.022217 96.871094 -16.11739 4294967295
45.045677 99.942764 -16.369999 4294967295
45.061253 99.468208 -16.257551 4294967295
45.064846 98.826065 -16.172255 4294967295
45.071918 94.717499 -16.326916 4294967295
45.074837 94.558022 -16.297993 4294967295
45.081154 98.512718 -16.074972 4294967295
45.090256 95.209824 -16.311724 4294967295
45.099411 96.019402 -16.366966 4294967295
45.100048 94.248909 -16.167219 4294967295
45.100975 93.367348 -15.425617 4294967295
45.105469 93.929649 -16.110931 4294967295
45.107456 99.171066 -16.04775 4294967295
45.116215 97.476837 -16.46516 4294967295
45.133492 96.198112 -16.256674 4294967295
45.139736 94.913246 -16.089647 4294967295
45.15015 97.816734 -16.373386 4294967295
45.153721 95.886612 -16.14468 4294967295
45.16 98.465881 -16.408075 4294967295
45.17263 99.116547 -16.432312 4294967295
45.175053 93.320572 -15.777216 4294967295
45.178745 93.805717 -15.81718 4294967295
45.206623 99.617844 -16.358299 4294967295
45.21648 98.173988 -16.159788 4294967295
45.263691 95.535263 -16.324545 4294967295
45.277195 96.991051 -16.435171 4294967295
45.309349 96.524933 -16.260527 4294967295
45.324169 95.727524 -16.115149 4294967295
45.328781 97.50116 -16.295115 4294967295
45.340492 95.2528 -15.999968 4294967295
45.342117 96.058914 -16.083567 4294967295
45.343887 97.348114 -16.220415 4294967295
45.346394 98.476524 -16.336529 4294967295
45.34882 98.155807 -16.291546 4294967295
45.349659 96.707016 -16.12698 4294967295
45.35355 99.929283 -16.470997 4294967295
45.360264 94.45752 -15.835911 4294967295
45.374237 93.659042 -15.693628 4294967295
45.376049 99.297462 -16.314775 4294967295
45.376369 97.687332 -16.134228 4294967295
45.378456 93.500031 -15.659815 4294967295
45.380264 99.621758 -16.334797 4294967295
45.381439 94.951653 -15.810142 4294967295
45.381733 98.978477 -16.257559 4294967295
45.382397 98.334702 -16.183327 4294967295
45.429878 95.856987 -16.364674 4294967295
45.431255 98.038551 -15.963882 4294967295
45.433178 94.892723 -16.244709 4294967295
45.445751 93.856323 -15.442675 4294967295
45.455208 96.836075 -16.377127 4294967295
45.46254 99.182938 -15.971933 4294967295
45.472954 99.51075 -15.968698 4294967295
45.473721 97.972717 -16.433096 4294967295
45.480179 94.594681 -16.032314 4294967295
45.506496 96.379807 -16.130768 4294967295
45.507195 95.413826 -16.020536 4294967295
45.523453 97.193901 -16.156769 4294967295
45.528778 98.807045 -16.316078 4294967295
45.534096 97.038437 -16.098888 4294967295
45.534676 95.105782 -15.881461 4294967295
45.545135 94.144424 -15.734516 4294967295
45.559906 93.507309 -15.607244 4294967295
45.602348 99.973953 -16.165491 4294967295
45.653263 97.174576 -16.297825 4294967295
45.663189 97.823868 -16.332289 4294967295
45.679394 98.154495 -16.307365 4294967295
45.684204 95.741257 -16.020422 4294967295
45.686203 94.292435 -15.851516 4294967295
45.690372 98.482384 -16.302044 4294967295
45.69556 97.035721 -16.121258 4294967295
45.702637 98.972015 -16.309832 4294967295
45.703575 98.650452 -16.270468 4294967295
45.703674 95.429108 -15.91151 4294967295
45.706295 99.13501 -16.314034 4294967295
45.710968 96.39946 -15.991759 4294967295
45.713516 93.339417 -15.641375 4294967295
45.715927 97.690689 -16.116594 4294967295
45.721615 98.821129 -16.220749 4294967295
45.733391 93.510559 -15.584731 4294967295
45.738003 93.83522 -15.603323 4294967295
45.752888 99.804276 -16.211056 4294967295
45.754501 99.483017 -16.169151 4294967295
45.761108 94.169258 -15.552508 4294967295
45.768734 95.698845 -16.331133 4294967295
45.77948 95.221321 -16.23711 4294967295
45.796909 96.357475 -16.29723 4294967295
45.814816 94.595169 -16.032976 4294967295
45.838573 97.345428 -16.248629 4294967295
45.839607 95.413231 -16.029688 4294967295
45.846725 96.061218 -16.074709 4294967295
45.872105 94.946579 -15.854095 4294967295
45.890194 99.305389 -16.270292 4294967295
45.89661 95.925911 -15.869843 4294967295
45.902534 96.251228 -15.883517 4294967295
45.903111 98.02372 -16.078545 4294967295
45.90836 94.481606 -15.664411 4294967295
45.934711 97.557068 -15.906384 4294967295
45.940033 97.237587 -15.850595 4294967295
45.949703 97.887238 -15.886075 4294967295
45.962475 94.907524 -16.142836 4294967295
45.966454 98.218391 -15.859197 4294967295
46.003712 96.700432 -16.185551 4294967295
46.008495 96.219719 -16.113899 4294967295
46.023712 96.549774 -16.092773 4294967295
46.028854 95.102524 -15.912225 4294967295
46.032078 98.003807 -16.222715 4294967295
46.047913 98.978577 -16.270937 4294967295
46.060143 93.829231 -15.651629 4294967295
46.060421 99.146332 -16.242052 4294967295
46.066124 93.993423 -15.647157 4294967295
46.077141 99.638512 -16.233231 4294967295
46.082642 96.902687 -15.908031 4294967295
46.101799 97.557266 -15.908025 4294967295
46.103432 94.334663 -15.54332 4294967295
46.103554 97.880463 -15.937303 4294967295
46.10397 99.814049 -16.150784 4294967295
46.105396 98.525948 -16.002098 4294967295
46.111687 93.53273 -15.422717 4294967295
46.132809 98.379372 -15.881599 4294967295
46.133537 93.704941 -15.358817 4294967295
46.15583 94.759964 -16.027922 4294967295
46.158081 95.244377 -16.07325 4294967295
46.159893 97.017075 -16.263508 4294967295
46.162262 98.467659 -16.415804 4294967295
46.163528 100.00732 -15.945887 4294967295
46.186157 95.742073 -16.021988 4294967295
46.194752 97.679596 -16.204807 4294967295
46.195766 94.941414 -15.896454 4294967295
46.198181 94.620377 -15.851582 4294967295
46.2248 95.439674 -15.841621 4294967295
46.229553 99.630936 -16.289619 4294967295
46.240025 96.253242 -15.874291 4294967295
46.260319 94.168327 -15.565356 4294967295
46.332371 95.731483 -16.101477 4294967295
46.335594 98.793327 -16.429613 4294967295
46.344429 96.704239 -16.163872 4294967295
46.344891 97.831978 -16.287489 4294967295
46.367092 98.004753 -16.222477 4294967295
46.367592 96.071831 -16.005714 4294967295
46.367657 95.427361 -15.933823 4294967295
46.381413 97.529015 -16.115274 4294967295
46.387115 93.503281 -15.646073 4294967295
46.390354 97.694817 -16.099777 4294967295
46.398838 94.476303 -15.709796 4294967295
46.398972 98.343781 -16.139231 4294967295
46.406147 96.414032 -15.89749 4294967295
46.41605 97.063774 -15.93216 4294967295
46.418365 99.159615 -16.15633 4294967295
46.435993 97.235344 -15.875577 4294967295
46.438442 94.818794 -15.597639 4294967295
46.439354 93.206947 -15.414956 4294967295
46.444702 93.854599 -15.466685 4294967295
46.452618 94.019821 -15.455032 4294967295
46.458759 99.664619 -16.059229 4294967295
46.463509 99.989441 -16.077318 4294967295
46.48069 98.225876 -15.816136 4294967295
46.49958 99.525375 -15.8889 4294967295
46.502388 93.399689 -15.197272 4294967295
46.505123 95.090088 -16.010189 4294967295
46.510353 95.414993 -16.026484 4294967295
46.540234 94.946831 -15.86122 4294967295
46.552395 97.20903 -16.06654 4294967295
46.555565 96.566162 -15.983088 4294967295
46.570919 98.829926 -16.176445 4294967295
46.582726 95.290833 -15.738425 4294967295
46.613396 96.273758 -15.731425 4294967295
46.616161 97.725868 -15.882319 4294967295
46.621994 93.537186 -15.394692 4294967295
46.633968 98.379944 -15.887523 4294967295
46.67178 99.689545 -15.889731 4294967295
46.676212 93.402985 -15.174302 4294967295
46.678223 95.737747 -16.060953 4294967295
46.700573 99.293503 -16.371332 4294967295
46.711571 97.205078 -16.097719 4294967295
46.721436 98.499168 -16.204115 4294967295
46.722488 99.466293 -16.30755 4294967295
46.726978 97.69651 -16.093975 4294967295
46.727116 94.956963 -15.789113 4294967295
46.728271 95.441086 -15.838516 4294967295
46.732094 98.182571 -16.128609 4294967295
46.736202 97.540215 -16.041689 4294967295
46.738777 96.252335 -15.88887 4294967295
46.742775 95.287308 -15.766524 4294967295
46.751686 99.159691 -16.16297 4294967295
46.759022 98.680206 -16.081936 4294967295
46.762623 93.846413 -15.531293 4294967295
46.767117 96.58934 -15.819025 4294967295
46.772633 93.367668 -15.440187 4294967295
46.774773 94.49749 -15.55763 4294967295
46.787231 94.181274 -15.475328 4294967295
46.797962 99.667847 -16.04422 4294967295
46.806908 98.383232 -15.867658 4294967295
46.82214 100.00316 -15.98992 4294967295
46.826069 97.909721 -15.742533 4294967295
46.850964 93.729393 -15.183846 4294967295
46.858509 95.2612 -15.959731 4294967295
46.86974 96.233826 -16.02528 4294967295
46.870987 96.879005 -16.092218 4294967295
46.876797 95.754005 -15.945292 4294967295
46.907745 93.835388 -15.615146 4294967295
46.92905 97.3927 -15.929668 4294967295
46.946815 94.822495 -15.577024 4294967295
46.976486 98.223534 -15.842522 4294967295
46.995949 96.374008 -16.197037 4294967295
47.009075 98.88562 -15.792787 4294967295
47.016037 95.900978 -16.068632 4294967295
47.038654 94.139656 -15.787611 4294967295
47.039253 99.86908 -15.787854 4294967295
47.041706 96.88105 -16.08045 4294967295
47.050129 97.20771 -16.08489 4294967295
47.056183 95.59922 -15.883446 4294967295
47.060799 98.824615 -16.224066 4294967295
47.061161 93.344849 -15.614311 4294967295
47.062111 98.180809 -16.147655 4294967295
47.064156 96.248024 -15.925364 4294967295
47.066742 97.538666 -16.058863 4294967295
47.070465 96.573624 -15.937666 4294967295
47.071716 99.152657 -16.21924 4294967295
47.072418 94.640282 -15.71563 4294967295
47.080006 98.51252 -16.116863 4294967295
47.086754 95.131203 -15.715974 4294967295
47.086979 97.710411 -16.00148 4294967295
47.090206 99.645905 -16.204123 4294967295
47.09885 93.524872 -15.491904 4294967295
47.114841 94.822975 -15.575636 4294967295
47.117142 99.82148 -16.121838 4294967295
47.124031 94.988892 -15.55934 4294967295
47.136368 94.350037 -15.441794 4294967295
47.160538 93.232979 -15.226417 4294967295
47.162498 96.051636 -16.164949 4294967295
47.172318 99.528633 -15.880882 4294967295
47.17527 95.413643 -16.045925 4294967295
47.192493 93.894272 -15.179126 4294967295
47.201591 100.02798 -15.825692 4294967295
47.21484 95.756172 -15.934593 4294967295
