# .PCD v0.7 - Point Cloud Data file format
VERSION 0.7
FIELDS x y z rgb
SIZE 4 4 4 4
TYPE F F F U
COUNT 1 1 1 1
WIDTH 1120
HEIGHT 1
VIEWPOINT 0 0 0 1 0 0 0
POINTS 1120
DATA ascii
-35.67907 113.02234 -27.41905 4294967295
-35.678444 112.86929 -27.392105 4294967295
-35.674297 114.41222 -27.586475 4294967295
-35.668068 115.03492 -27.631294 4294967295
-35.655098 113.20523 -27.268951 4294967295
-35.647255 113.52246 -27.257343 4294967295
-35.617432 109.83388 -27.658592 4294967295
-35.603951 109.23454 -27.472055 4294967295
-35.593506 110.93842 -27.643404 4294967295
-35.588249 111.40593 -27.672834 4294967295
-35.58419 109.41142 -27.352375 4294967295
-35.584091 112.33334 -27.777319 4294967295
-35.579426 111.26267 -27.587034 4294967295
-35.577599 110.18827 -27.417059 4294967295
-35.575665 112.03598 -27.671991 4294967295
-35.568752 112.50553 -27.689493 4294967295
-35.568035 112.96762 -27.751534 4294967295
-35.564384 110.04999 -27.299658 4294967295
-35.558132 109.13409 -27.120186 4294967295
-35.546402 110.37887 -27.215199 4294967295
-35.5452 112.2263 -27.475481 4294967295
-35.539532 109.61751 -27.053715 4294967295
-35.537792 111.6199 -27.332642 4294967295
-35.536678 110.54421 -27.167732 4294967295
-35.535328 111.77667 -27.337337 4294967295
-35.530621 115.0118 -27.773878 4294967295
-35.525578 114.86428 -27.715265 4294967295
-35.525509 113.48046 -27.51322 4294967295
-35.516861 113.33716 -27.428707 4294967295
-35.483143 114.60888 -27.365753 4294967295
-35.479977 114.7666 -27.365408 4294967295
-35.431797 110.63731 -27.566542 4294967295
-35.408226 113.27946 -27.777893 4294967295
-35.380211 112.08292 -27.397966 4294967295
-35.373302 115.16694 -27.79599 4294967295
-35.372086 112.55415 -27.406868 4294967295
-35.356857 113.80313 -27.476719 4294967295
-35.354267 112.72943 -27.301468 4294967295
-35.353577 113.65331 -27.430813 4294967295
-35.319523 114.31016 -27.276224 4294967295
-35.314789 114.4698 -27.264685 4294967295
-35.309696 109.21319 -27.6171 4294967295
-35.306183 109.06348 -27.569582 4294967295
-35.297565 110.3038 -27.686773 4294967295
-35.284286 111.08829 -27.703465 4294967295
-35.275116 111.71423 -27.727249 4294967295
-35.270332 109.56664 -27.379856 4294967295
-35.269993 109.87472 -27.422176 4294967295
-35.262211 110.49917 -27.455936 4294967295
-35.255104 111.89185 -27.606333 4294967295
-35.25317 112.81682 -27.726635 4294967295
-35.245628 112.21076 -27.58322 4294967295
-35.240215 112.67863 -27.611551 4294967295
-35.238338 110.98884 -27.352089 4294967295
-35.237083 114.37378 -27.83502 4294967295
-35.235874 110.68402 -27.289686 4294967295
-35.232651 109.76448 -27.132311 4294967295
-35.231499 110.07363 -27.168827 4294967295
-35.216064 114.24568 -27.662277 4294967295
-35.215538 112.0929 -27.345421 4294967295
-35.2118 113.17426 -27.475233 4294967295
-35.200798 112.57213 -27.307028 4294967295
-35.184113 115.05374 -27.545444 4294967295
-35.1749 113.37269 -27.23349 4294967295
-35.142109 109.68771 -27.61014 4294967295
-35.118412 110.94587 -27.619492 4294967295
-35.106983 109.26703 -27.291935 4294967295
-35.077503 111.45571 -27.39415 4294967295
-35.06831 109.00399 -26.970644 4294967295
-35.066605 111.31476 -27.293884 4294967295
-35.060757 114.39833 -27.699001 4294967295
-35.057426 111.78728 -27.29537 4294967295
-35.056995 114.71047 -27.716816 4294967295
-35.034256 113.19987 -27.330969 4294967295
-35.031357 113.81881 -27.399633 4294967295
-35.026394 112.90156 -27.230097 4294967295
-35.024899 113.9805 -27.375858 4294967295
-35.017941 113.52731 -27.259123 4294967295
-35.015377 114.2998 -27.352543 4294967295
-35.009636 115.07608 -27.423269 4294967295
-34.989975 114.94631 -27.260521 4294967295
-34.988911 109.22266 -27.572166 4294967295
-34.945126 110.04277 -27.371328 4294967295
-34.940666 112.2017 -27.652119 4294967295
-34.931629 109.44291 -27.185646 4294967295
-34.931293 110.98217 -27.40663 4294967295
-34.922703 111.60775 -27.434664 4294967295
-34.922352 111.91586 -27.47683 4294967295
-34.922176 111.30065 -27.386242 4294967295
-34.920372 110.68726 -27.284033 4294967295
-34.917686 112.38293 -27.510529 4294967295
-34.917252 110.22921 -27.194767 4294967295
-34.913506 113.15706 -27.592331 4294967295
-34.911236 111.7752 -27.375208 4294967295
-34.909519 109.6225 -27.050192 4294967295
-34.905956 109.93453 -27.069468 4294967295
-34.905819 111.47386 -27.291893 4294967295
-34.895916 113.02437 -27.444565 4294967295
-34.889175 113.8017 -27.508127 4294967295
-34.887547 114.11134 -27.541164 4294967295
-34.886383 113.49739 -27.443577 4294967295
-34.867992 114.59663 -27.468714 4294967295
-34.865768 114.90703 -27.497509 4294967295
-34.859039 114.45367 -27.382586 4294967295
-34.812313 109.09222 -27.412199 4294967295
-34.807114 110.17522 -27.531368 4294967295
-34.806393 110.02222 -27.503895 4294967295
-34.782242 111.12744 -27.488062 4294967295
-34.748989 112.08994 -27.385155 4294967295
-34.729069 113.19085 -27.399517 4294967295
-34.691719 114.62091 -27.334494 4294967295
-34.681942 114.32498 -27.220285 4294967295
-34.651596 109.25108 -27.410406 4294967295
-34.646454 110.33409 -27.529922 4294967295
-34.639366 111.1116 -27.590969 4294967295
-34.636684 109.72998 -27.371258 4294967295
-34.630596 109.89093 -27.350271 4294967295
-34.627644 110.66379 -27.440771 4294967295
-34.614777 112.52518 -27.616779 4294967295
-34.59882 112.23646 -27.458809 4294967295
-34.593071 111.62773 -27.328777 4294967295
-34.592766 110.85852 -27.215115 4294967295
-34.592461 110.08916 -27.101408 4294967295
-34.590309 111.7849 -27.33144 4294967295
-34.59026 111.32323 -27.264206 4294967295
-34.584019 113.02344 -27.465082 4294967295
-34.582745 109.48451 -26.94309 4294967295
-34.578789 112.41415 -27.338747 4294967295
-34.578014 112.10726 -27.288652 4294967295
-34.573944 113.49712 -27.460371 4294967295
-34.571381 114.57718 -27.598152 4294967295
-34.566307 114.27564 -27.517544 4294967295
-34.561672 111.51083 -27.083309 4294967295
-34.548969 113.68105 -27.305227 4294967295
-34.547729 113.22079 -27.229519 4294967295
-34.542549 115.07381 -27.46023 4294967295
-34.539433 112.76888 -27.103676 4294967295
-34.529167 114.93624 -27.342894 4294967295
-34.519352 113.87065 -27.117125 4294967295
-34.462902 111.44296 -27.499828 4294967295
-34.456924 113.14232 -27.702335 4294967295
-34.456223 110.68135 -27.341042 4294967295
-34.449482 109.14975 -27.070349 4294967295
-34.447704 111.76862 -27.436527 4294967295
-34.426579 114.71706 -27.709774 4294967295
-34.406956 111.35482 -27.080576 4294967295
-34.329937 109.41515 -27.383436 4294967295
-34.308434 110.36349 -27.364653 4294967295
-34.293568 111.45819 -27.41518 4294967295
-34.29232 110.99792 -27.339581 4294967295
-34.289528 109.15372 -27.05257 4294967295
-34.282108 109.93217 -27.111372 4294967295
-34.281345 114.54986 -27.773579 4294967295
-34.281338 114.70367 -27.795784 4294967295
-34.278778 109.01204 -26.95413 4294967295
-34.278725 113.63004 -27.621588 4294967295
-34.277924 113.01556 -27.526943 4294967295
-34.275284 113.17258 -27.5305 4294967295
-34.272682 111.9445 -27.33404 4294967295
-34.271358 112.40781 -27.391443 4294967295
-34.270523 113.94759 -27.608042 4294967295
-34.266582 111.33593 -27.201813 4294967295
-34.265656 110.56718 -27.083899 4294967295
-34.263931 112.26269 -27.316595 4294967295
-34.261963 114.41946 -27.614185 4294967295
-34.258507 110.88348 -27.077803 4294967295
-34.253185 111.19766 -27.084642 4294967295
-34.244129 112.90191 -27.26543 4294967295
-34.241428 114.13648 -27.42436 4294967295
-34.23035 114.91935 -27.457186 4294967295
-34.22765 115.2304 -27.482584 4294967295
-34.191162 114.35102 -27.090839 4294967295
-34.184383 109.86431 -27.533857 4294967295
-34.180676 115.1336 -27.127945 4294967295
-34.174652 109.25992 -27.376083 4294967295
-34.146667 111.13925 -27.445078 4294967295
-34.129517 111.92889 -27.435017 4294967295
-34.117695 110.40328 -27.129017 4294967295
-34.08062 113.21823 -27.26734 4294967295
-34.070522 113.84608 -27.284954 4294967295
-34.043076 114.49491 -27.179993 4294967295
-34.00481 110.04494 -27.399368 4294967295
-34.002815 109.12359 -27.25193 4294967295
-33.996643 111.13181 -27.497271 4294967295
-33.990112 110.52374 -27.36231 4294967295
-33.990025 111.44733 -27.494993 4294967295
-33.982399 112.68739 -27.618902 4294967295
-33.981651 110.22564 -27.258137 4294967295
-33.976059 109.61618 -27.12973 4294967295
-33.973022 113.46786 -27.663792 4294967295
-33.964947 111.93849 -27.384699 4294967295
-33.96254 110.86366 -27.212147 4294967295
-33.954613 109.33276 -26.933851 4294967295
-33.953617 109.796 -26.993536 4294967295
-33.951298 112.10848 -27.310612 4294967295
-33.948158 112.57401 -27.355131 4294967295
-33.945358 113.34695 -27.446465 4294967295
-33.941284 114.89073 -27.639849 4294967295
-33.940868 113.19838 -27.392584 4294967295
-33.939606 112.89201 -27.339251 4294967295
-33.937927 111.35431 -27.105135 4294967295
-33.932327 115.05544 -27.598883 4294967295
-33.927845 111.67411 -27.078449 4294967295
-33.91901 113.8402 -27.327284 4294967295
-33.915543 112.30459 -27.080572 4294967295
-33.911106 114.46544 -27.360422 4294967295
-33.9034 114.32076 -27.283861 4294967295
-33.902893 114.78322 -27.346928 4294967295
-33.86657 109.40833 -27.445742 4294967295
-33.816517 111.77517 -27.426157 4294967295
-33.799454 114.25779 -27.661097 4294967295
-33.798916 111.48787 -27.257769 4294967295
-33.77404 113.82652 -27.415611 4294967295
-33.773003 113.51987 -27.363918 4294967295
-33.768116 114.60323 -27.484896 4294967295
-33.752937 112.46578 -27.067188 4294967295
-33.689754 109.12365 -27.264896 4294967295
-33.684616 110.05332 -27.361904 4294967295
-33.673592 110.8358 -27.395313 4294967295
-33.67046 111.30125 -27.439835 4294967295
-33.667656 111.15058 -27.397926 4294967295
-33.667515 112.22822 -27.552208 4294967295
-33.666191 110.38248 -27.276709 4294967295
-33.647541 109.94195 -27.078947 4294967295
-33.643963 110.56213 -27.142563 4294967295
-33.642544 114.10458 -27.642765 4294967295
-33.641342 111.64312 -27.279467 4294967295
-33.638184 113.34026 -27.50128 4294967295
-33.634262 114.8839 -27.69544 4294967295
-33.631348 109.65242 -26.920647 4294967295
-33.626751 113.96954 -27.509624 4294967295
-33.62373 113.51136 -27.421856 4294967295
-33.622032 112.43565 -27.254648 4294967295
-33.62056 111.8214 -27.155552 4294967295
-33.619576 115.20938 -27.636578 4294967295
-33.611542 112.75597 -27.225292 4294967295
-33.587227 114.47868 -27.298433 4294967295
-33.571686 115.11327 -27.277992 4294967295
-33.570461 113.26661 -27.00312 4294967295
-33.517193 109.60391 -27.225471 4294967295
-33.512775 111.45663 -27.460482 4294967295
-33.509396 111.92238 -27.503244 4294967295
-33.487507 112.5638 -27.438303 4294967295
-33.485985 109.1774 -26.939795 4294967295
-33.482437 112.10787 -27.336229 4294967295
-33.475708 110.57565 -27.06728 4294967295
-33.466854 114.58939 -27.581465 4294967295
-33.457886 113.83044 -27.407768 4294967295
-33.446857 111.84146 -27.0422 4294967295
-33.43343 112.31931 -27.014517 4294967295
-33.428268 113.24963 -27.111355 4294967295
-33.426792 113.40541 -27.123154 4294967295
-33.422852 114.18017 -27.206352 4294967295
-33.415062 114.95949 -27.262562 4294967295
-33.374771 109.27984 -27.28689 4294967295
-33.373283 109.43552 -27.298595 4294967295
-33.372463 109.74443 -27.337151 4294967295
-33.357666 108.99123 -27.122671 4294967295
-33.340355 110.08917 -27.156454 4294967295
-33.335949 111.17233 -27.280659 4294967295
-33.334366 111.02016 -27.247417 4294967295
-33.326569 111.6452 -27.281404 4294967295
-33.325764 110.41399 -27.098509 4294967295
-33.319641 113.50095 -27.498631 4294967295
-33.315559 110.73383 -27.071323 4294967295
-33.313782 110.2737 -26.99239 4294967295
-33.309704 112.58887 -27.296169 4294967295
-33.304741 113.21065 -27.350006 4294967295
-33.3041 112.28743 -27.212614 4294967295
-33.299873 112.75442 -27.249466 4294967295
-33.299305 114.1409 -27.444788 4294967295
-33.298691 111.36954 -27.041788 4294967295
-33.290962 113.68891 -27.319933 4294967295
-33.276802 112.01126 -26.977081 4294967295
-33.276691 114.32184 -27.308617 4294967295
-33.269905 113.86791 -27.194653 4294967295
-33.261528 114.64796 -27.246735 4294967295
-33.230675 114.53083 -27.008596 4294967295
-33.177094 109.48061 -27.027897 4294967295
-33.160305 109.80788 -26.954741 4294967295
-33.153374 110.58621 -27.016972 4294967295
-33.151749 111.97452 -27.204882 4294967295
-33.104992 114.95602 -27.298519 4294967295
-33.094593 113.27393 -26.982389 4294967295
-33.080967 113.4441 -26.909264 4294967295
-33.03175 109.1597 -27.069122 4294967295
-33.025444 111.32339 -27.334764 4294967295
-33.025238 110.70757 -27.244884 4294967295
-33.016296 109.48536 -27.005451 4294967295
-33.013039 110.87563 -27.181824 4294967295
-33.005077 110.42262 -27.059858 4294967295
-33.004105 112.27219 -27.318491 4294967295
-33.003471 113.19688 -27.446733 4294967295
-32.99889 113.97211 -27.525286 4294967295
-32.99596 111.51153 -27.151062 4294967295
-32.99192 111.05401 -27.056515 4294967295
-32.988434 114.13849 -27.474443 4294967295
-32.981564 111.83633 -27.09483 4294967295
-32.978027 109.99122 -26.804592 4294967295
-32.977104 112.61179 -27.174294 4294967295
-32.97377 111.99945 -27.06254 4294967295
-32.972874 112.77078 -27.166883 4294967295
-32.971935 110.15231 -26.784176 4294967295
-32.970818 111.23244 -26.931313 4294967295
-32.96447 109.69835 -26.665649 4294967295
-32.962769 109.85445 -26.675907 4294967295
-32.951893 114.33591 -27.241631 4294967295
-32.949287 113.72283 -27.135006 4294967295
-32.943966 113.57507 -27.075747 4294967295
-32.942764 115.11691 -27.288506 4294967295
-32.941277 112.19136 -26.85787 4294967295
-32.93858 113.88956 -27.082409 4294967295
-32.937248 112.5043 -26.874001 4294967295
-32.933147 113.12555 -26.933903 4294967295
-32.932064 114.66759 -27.147543 4294967295
-32.925652 114.98336 -27.147041 4294967295
-32.873466 110.08595 -27.196857 4294967295
-32.825123 113.06855 -27.279858 4294967295
-32.820492 113.38203 -27.291796 4294967295
-32.810852 111.39039 -26.937313 4294967295
-32.786674 112.80545 -26.967834 4294967295
-32.768276 114.52215 -27.082829 4294967295
-32.760433 114.06918 -26.961908 4294967295
-32.737106 115.17569 -26.954208 4294967295
-32.729591 109.60936 -27.225964 4294967295
-32.713604 109.3193 -27.070551 4294967295
-32.708775 109.78702 -27.103201 4294967295
-32.707432 111.02102 -27.270548 4294967295
-32.704544 111.94849 -27.382929 4294967295
-32.696133 110.10955 -27.059416 4294967295
-32.694328 112.26838 -27.356012 4294967295
-32.683296 111.51095 -27.168907 4294967295
-32.679073 109.97484 -26.918638 4294967295
-32.67643 112.44323 -27.25363 4294967295
-32.662521 114.15383 -27.399752 4294967295
-32.66235 110.76455 -26.912733 4294967295
-32.658676 113.38824 -27.262653 4294967295
-32.656464 113.69892 -27.291399 4294967295
-32.655262 111.23505 -26.929705 4294967295
-32.653675 112.77787 -27.139551 4294967295
-32.651978 109.54308 -26.663778 4294967295
-32.644718 111.40132 -26.878473 4294967295
-32.634624 112.18365 -26.918722 4294967295
-32.631905 113.1115 -27.032328 4294967295
-32.631371 114.8069 -27.27149 4294967295
-32.615646 114.05521 -27.051813 4294967295
-32.61528 114.67197 -27.137585 4294967295
-32.61179 115.13834 -27.17955 4294967295
-32.606518 114.3742 -27.03252 4294967295
-32.597294 113.92276 -26.90213 4294967295
-32.532516 109.03856 -26.863312 4294967295
-32.527946 111.20136 -27.1406 4294967295
-32.520058 113.82925 -27.46085 4294967295
-32.50079 109.38261 -26.68708 4294967295
-32.499664 113.08301 -27.20904 4294967295
-32.499123 112.00504 -27.050823 4294967295
-32.497028 114.78053 -27.433355 4294967295
-32.493702 109.8532 -26.704082 4294967295
-32.492424 110.47137 -26.783556 4294967295
-32.482449 112.94904 -27.067465 4294967295
-32.469387 110.80602 -26.667728 4294967295
-32.46529 111.42749 -26.727613 4294967295
-32.367718 110.1267 -26.96834 4294967295
-32.360378 109.98087 -26.895378 4294967295
-32.355927 113.53014 -27.37166 4294967295
-32.351128 111.37864 -27.029758 4294967295
-32.344776 110.76936 -26.897518 4294967295
-32.341743 111.69767 -27.008825 4294967295
-32.341061 112.62311 -27.136408 4294967295
-32.341057 113.85569 -27.312702 4294967295
-32.339424 109.69621 -26.705957 4294967295
-32.329826 109.3986 -26.595274 4294967295
-32.329372 112.9449 -27.099512 4294967295
-32.326317 110.63624 -26.747488 4294967295
-32.326218 113.25678 -27.121744 4294967295
-32.318512 112.18688 -26.914001 4294967295
-32.312904 114.35105 -27.18383 4294967295
-32.310238 112.81306 -26.944866 4294967295
-32.309433 114.97147 -27.247934 4294967295
-32.306698 112.50887 -26.87624 4294967295
-32.306133 112.04703 -26.806149 4294967295
-32.302799 113.13001 -26.937429 4294967295
-32.298744 115.13824 -27.195953 4294967295
-32.298611 113.44319 -26.952517 4294967295
-32.293957 113.75693 -26.964382 4294967295
-32.293308 114.06595 -27.00399 4294967295
-32.285583 114.69157 -27.03867 4294967295
-32.250996 109.00282 -27.097595 4294967295
-32.215012 110.58457 -27.068895 4294967295
-32.189159 112.00122 -27.088318 4294967295
-32.16404 109.87142 -26.605913 4294967295
-32.162392 110.33598 -26.66066 4294967295
-32.153576 111.27129 -26.731941 4294967295
-32.140034 114.37025 -27.079016 4294967295
-32.133045 112.37432 -26.744225 4294967295
-32.122231 115.16191 -27.066076 4294967295
-32.065388 109.34348 -26.948395 4294967295
-32.047775 109.20904 -26.804672 4294967295
-32.04681 111.36833 -27.106316 4294967295
-32.046745 112.6012 -27.281958 4294967295
-32.046108 109.82764 -26.881279 4294967295
-32.042885 111.52695 -27.101217 4294967295
-32.039131 111.06883 -27.009237 4294967295
-32.035175 109.53156 -26.761665 4294967295
-32.034088 110.14957 -26.842274 4294967295
-32.030865 111.84898 -27.062244 4294967295
-32.028172 110.77299 -26.889496 4294967295
-32.028046 113.08514 -27.218859 4294967295
-32.013153 112.17765 -26.98395 4294967295
-32.01289 109.71082 -26.629732 4294967295
-32.009388 110.64014 -26.737724 4294967295
-32.003262 113.57635 -27.113783 4294967295
-32.002445 114.34785 -27.218193 4294967295
-31.999849 113.42621 -27.068226 4294967295
-31.997705 110.96185 -26.701078 4294967295
-31.98958 114.6712 -27.173428 4294967295
-31.98863 110.35519 -26.550261 4294967295
-31.98704 115.13651 -27.221899 4294967295
-31.982265 113.90917 -27.01288 4294967295
-31.980175 112.52406 -26.800283 4294967295
-31.969765 114.54044 -27.014656 4294967295
-31.966696 112.84808 -26.751259 4294967295
-31.961697 114.85826 -27.002995 4294967295
-31.958502 113.32022 -26.760761 4294967295
-31.883276 110.45123 -26.934103 4294967295
-31.881443 111.53241 -27.07547 4294967295
-31.8776 111.84508 -27.092981 4294967295
-31.871004 109.23138 -26.673382 4294967295
-31.854246 109.86713 -26.645863 4294967295
-31.851183 113.72514 -27.174833 4294967295
-31.83897 112.96866 -26.980694 4294967295
-31.829168 114.8298 -27.177073 4294967295
-31.812199 114.07903 -26.950197 4294967295
-31.729305 109.52296 -26.828131 4294967295
-31.72883 109.83189 -26.868856 4294967295
-31.728502 110.44902 -26.954542 4294967295
-31.715199 113.23878 -27.258614 4294967295
-31.711042 109.38914 -26.680391 4294967295
-31.708639 110.93407 -26.883787 4294967295
-31.705456 110.32082 -26.773914 4294967295
-31.702749 111.24915 -26.887224 4294967295
-31.699459 112.79463 -27.084414 4294967295
-31.698795 111.40784 -26.881994 4294967295
-31.693001 111.72285 -26.886089 4294967295
-31.689356 112.18961 -26.92697 4294967295
-31.685478 110.8061 -26.702377 4294967295
-31.676872 114.8247 -27.214706 4294967295
-31.675238 114.36423 -27.137556 4294967295
-31.664011 112.68137 -26.818539 4294967295
-31.660683 115.15204 -27.147324 4294967295
-31.658104 113.76762 -26.931795 4294967295
-31.65662 112.07295 -26.679722 4294967295
-31.643322 112.55099 -26.654203 4294967295
-31.642147 113.16933 -26.734079 4294967295
-31.638317 114.56173 -26.905611 4294967295
-31.632549 114.26008 -26.82198 4294967295
-31.629313 114.72651 -26.865667 4294967295
-31.625456 114.11416 -26.751198 4294967295
-31.570881 111.37505 -27.08724 4294967295
-31.543667 110.17221 -26.724499 4294967295
-31.539694 109.55962 -26.609264 4294967295
-31.528595 110.49768 -26.664885 4294967295
-31.526115 113.89301 -27.131147 4294967295
-31.52356 111.27464 -26.740166 4294967295
-31.50318 113.30295 -26.885809 4294967295
-31.492792 113.62342 -26.85841 4294967295
-31.473587 113.79998 -26.748514 4294967295
-31.420012 109.20973 -26.827126 4294967295
-31.400396 109.54005 -26.736475 4294967295
-31.399363 110.00394 -26.795258 4294967295
-31.396852 110.77789 -26.887827 4294967295
-31.392052 113.25021 -27.206032 4294967295
-31.387899 109.3997 -26.628765 4294967295
-31.386547 112.94827 -27.124418 4294967295
-31.386471 110.32689 -26.750742 4294967295
-31.380253 112.49299 -27.015429 4294967295
-31.380104 112.33897 -26.99247 4294967295
-31.376963 111.10883 -26.795315 4294967295
-31.376299 113.11425 -27.076099 4294967295
-31.374035 111.42063 -26.819139 4294967295
-31.371729 111.88593 -26.869188 4294967295
-31.370266 113.58373 -27.100576 4294967295
-31.355272 114.98862 -27.195255 4294967295
-31.352638 114.22092 -27.067514 4294967295
-31.350092 112.83607 -26.852551 4294967295
-31.34602 114.38282 -27.0441 4294967295
-31.335777 115.1657 -27.083607 4294967295
-31.33317 114.70622 -26.999918 4294967295
-31.32769 113.94158 -26.852644 4294967295
-31.323221 112.24987 -26.580494 4294967295
-31.310871 113.49835 -26.671494 4294967295
-31.255301 109.06423 -26.757792 4294967295
-31.246012 110.61698 -26.91358 4294967295
-31.245083 109.69261 -26.775583 4294967295
-31.203077 114.52093 -27.167925 4294967295
-31.20252 110.82021 -26.637728 4294967295
-31.202034 111.59213 -26.744114 4294967295
-31.19582 111.29063 -26.657681 4294967295
-31.179106 111.77247 -26.609097 4294967295
-31.177671 110.53954 -26.423681 4294967295
-31.163465 113.33322 -26.721466 4294967295
-31.154057 113.80692 -26.722891 4294967295
-31.059095 111.73064 -26.868086 4294967295
-31.057732 112.50335 -26.968344 4294967295
-31.052017 113.12675 -27.016956 4294967295
-31.04809 110.35458 -26.595552 4294967295
-31.042381 110.8239 -26.622324 4294967295
-31.040672 110.05423 -26.500986 4294967295
-31.039347 111.59879 -26.711208 4294967295
-31.038637 111.13672 -26.640587 4294967295
-31.032724 111.91486 -26.709806 4294967295
-31.031515 109.13827 -26.306747 4294967295
-31.026175 112.23089 -26.708895 4294967295
-31.026157 110.68782 -26.489502 4294967295
-31.018152 115.01649 -27.048563 4294967295
-31.012278 112.40104 -26.635868 4294967295
-31.011738 113.9444 -26.851379 4294967295
-31.010462 114.25436 -26.886494 4294967295
-31.010191 114.40892 -26.906561 4294967295
-31.007486 111.01752 -26.405756 4294967295
-31.007059 113.6413 -26.775599 4294967295
-31.000511 113.03172 -26.643179 4294967295
-30.997133 113.80705 -26.729715 4294967295
-30.99099 114.89405 -26.841181 4294967295
-30.977249 114.75584 -26.725435 4294967295
-30.973179 114.14341 -26.609945 4294967295
-30.943853 109.67878 -26.874128 4294967295
-30.937513 110.14857 -26.896578 4294967295
-30.92127 109.24098 -26.654278 4294967295
-30.915617 109.55585 -26.659517 4294967295
-30.897549 108.95852 -26.448524 4294967295
-30.870783 109.45119 -26.331612 4294967295
-30.756929 111.1007 -26.87294 4294967295
-30.723953 111.4464 -26.692139 4294967295
-30.723696 109.28588 -26.383823 4294967295
-30.72172 110.36862 -26.523678 4294967295
-30.719589 111.297 -26.640533 4294967295
-30.71921 114.07431 -27.031845 4294967295
-30.714895 111.91956 -26.696133 4294967295
-30.714867 110.83932 -26.542683 4294967295
-30.711058 113.31249 -26.866978 4294967295
-30.708628 114.70348 -27.047319 4294967295
-30.703384 109.46272 -26.267336 4294967295
-30.70097 112.24398 -26.645098 4294967295
-30.699512 110.54778 -26.39431 4294967295
-30.697477 112.55659 -26.665094 4294967295
-30.692354 115.18513 -27.002207 4294967295
-30.690739 113.95297 -26.816202 4294967295
-30.689243 114.41752 -26.871664 4294967295
-30.687738 112.87634 -26.642576 4294967295
-30.684875 111.02734 -26.360319 4294967295
-30.684307 113.49751 -26.706766 4294967295
-30.674896 113.81697 -26.686478 4294967295
-30.642313 115.0893 -26.639839 4294967295
-30.629786 109.21638 -26.819473 4294967295
-30.609684 109.85575 -26.77026 4294967295
-30.598288 109.40543 -26.627119 4294967295
-30.587379 112.65761 -27.012226 4294967295
-30.58131 112.20176 -26.905386 4294967295
-30.573824 111.7474 -26.788898 4294967295
-30.570148 109.59086 -26.457634 4294967295
-30.564034 115.15195 -27.203276 4294967295
-30.560446 115.00194 -27.157059 4294967295
-30.55855 112.99902 -26.86002 4294967295
-30.554489 110.68883 -26.50433 4294967295
-30.547859 110.23309 -26.393597 4294967295
-30.515726 113.35665 -26.612751 4294967295
-30.493431 114.61704 -26.63625 4294967295
-30.434538 110.0303 -26.674978 4294967295
-30.427891 111.27222 -26.80471 4294967295
-30.416039 113.59968 -27.051991 4294967295
-30.404423 111.45288 -26.667309 4294967295
-30.398932 111.92206 -26.69562 4294967295
-30.392889 112.39186 -26.720177 4294967295
-30.3916 110.84984 -26.492832 4294967295
-30.386557 110.70109 -26.436749 4294967295
-30.386438 112.09051 -26.632698 4294967295
-30.386372 113.17084 -26.785223 4294967295
-30.386116 109.46629 -26.258787 4294967295
-30.385269 110.23933 -26.362392 4294967295
-30.380686 113.79455 -26.834055 4294967295
-30.373489 115.19135 -26.98184 4294967295
-30.371143 114.577 -26.878567 4294967295
-30.370657 114.88612 -26.918949 4294967295
-30.365158 111.0338 -26.335243 4294967295
-30.364637 111.18879 -26.353577 4294967295
-30.362703 113.35223 -26.646521 4294967295
-30.362562 114.12402 -26.754826 4294967295
-30.352476 113.98132 -26.664566 4294967295
-30.319252 109.05853 -26.832972 4294967295
-30.308577 109.37885 -26.804295 4294967295
-30.304968 110.15431 -26.889029 4294967295
-30.304831 109.84589 -26.844423 4294967295
-30.27816 111.4185 -26.882067 4294967295
-30.2768 111.7286 -26.916512 4294967295
-30.276503 111.11177 -26.827162 4294967295
-30.271065 112.35217 -26.964981 4294967295
-30.270588 112.50697 -26.983585 4294967295
-30.250549 108.97944 -26.345457 4294967295
-30.249918 109.28896 -26.384882 4294967295
-30.249281 113.45684 -26.970247 4294967295
-30.241425 110.07035 -26.436588 4294967295
-30.240812 111.30605 -26.60722 4294967295
-30.209307 112.73083 -26.590382 4294967295
-30.136408 110.78445 -26.904173 4294967295
-30.127586 110.63996 -26.82268 4294967295
-30.12727 109.55999 -26.667788 4294967295
-30.125923 109.09839 -26.593191 4294967295
-30.104237 112.82632 -26.970201 4294967295
-30.101908 109.89666 -26.539865 4294967295
-30.095179 114.07078 -27.083418 4294967295
-30.079535 111.31091 -26.58499 4294967295
-30.079414 112.70018 -26.780563 4294967295
-30.073544 111.78073 -26.609949 4294967295
-30.072716 110.54654 -26.429722 4294967295
-30.061707 112.41154 -26.617201 4294967295
-30.061214 113.95549 -26.832064 4294967295
-30.059095 114.42085 -26.883177 4294967295
-30.0569 113.03442 -26.671997 4294967295
-30.053549 110.25892 -26.256393 4294967295
-30.044956 114.90009 -26.853052 4294967295
-30.042046 115.05778 -26.855202 4294967295
-30.041693 112.12534 -26.438231 4294967295
-30.039265 113.36323 -26.596422 4294967295
-30.034025 114.60408 -26.735559 4294967295
-30.028755 113.68398 -26.569036 4294967295
-30.024107 114.3068 -26.624905 4294967295
-29.97963 109.85844 -26.781063 4294967295
-29.968307 109.71655 -26.682791 4294967295
-29.967714 111.10621 -26.875027 4294967295
-29.966719 109.10082 -26.584827 4294967295
-29.960976 110.03334 -26.676899 4294967295
-29.956057 108.95807 -26.490988 4294967295
-29.939167 113.29852 -26.987478 4294967295
-29.934889 109.29003 -26.391644 4294967295
-29.931738 110.21999 -26.50127 4294967295
-29.927578 111.45969 -26.647675 4294967295
-29.924129 110.84602 -26.537146 4294967295
-29.918201 113.01374 -26.802408 4294967295
-29.912941 110.54961 -26.417971 4294967295
-29.890821 113.81664 -26.726654 4294967295
-29.885723 114.28552 -26.757647 4294967295
-29.883375 111.81799 -26.392902 4294967295
-29.845482 114.79495 -26.551584 4294967295
-29.818571 110.48032 -26.847239 4294967295
-29.75769 109.92989 -26.349661 4294967295
-29.752525 109.62664 -26.271238 4294967295
-29.75115 113.4883 -26.80682 4294967295
-29.749933 111.32838 -26.49358 4294967295
-29.744726 112.56941 -26.632822 4294967295
-29.743702 109.48183 -26.189936 4294967295
-29.739365 112.11226 -26.531332 4294967295
-29.734816 110.88188 -26.326288 4294967295
-29.734442 114.89641 -26.890295 4294967295
-29.733095 111.50159 -26.401899 4294967295
-29.732374 113.35529 -26.658548 4294967295
-29.725193 112.90026 -26.544807 4294967295
-29.723785 114.13694 -26.709621 4294967295
-29.719879 111.9797 -26.378239 4294967295
-29.717106 115.07076 -26.79533 4294967295
-29.709764 113.6898 -26.549833 4294967295
-29.703442 114.46902 -26.61618 4294967295
-29.673302 110.00448 -26.867327 4294967295
-29.662022 109.5538 -26.726099 4294967295
-29.654255 109.40792 -26.652052 4294967295
-29.639517 110.35037 -26.683521 4294967295
-29.638742 110.50561 -26.700083 4294967295
-29.632948 112.20989 -26.900543 4294967295
-29.629709 111.90486 -26.835238 4294967295
-29.629427 109.89829 -26.550287 4294967295
-29.623026 109.28759 -26.420076 4294967295
-29.621803 113.14838 -26.95616 4294967295
-29.609661 111.00096 -26.569727 4294967295
-29.59551 109.78104 -26.300241 4294967295
-29.590687 111.63972 -26.529184 4294967295
-29.573301 114.4383 -26.804121 4294967295
-29.554382 113.84241 -26.589855 4294967295
-29.550333 114.92778 -26.715006 4294967295
-29.538471 113.39722 -26.417543 4294967295
-29.505266 110.32536 -26.843134 4294967295
-29.452986 113.62487 -26.948755 4294967295
-29.452171 112.69975 -26.81282 4294967295
-29.445168 113.01636 -26.809298 4294967295
-29.430944 113.80427 -26.822552 4294967295
-29.419834 111.65514 -26.443378 4294967295
-29.417532 114.7457 -26.862997 4294967295
-29.411144 114.59868 -26.798389 4294967295
-29.408884 113.36617 -26.609217 4294967295
-29.392099 114.31171 -26.627068 4294967295
-29.385094 113.54755 -26.471264 4294967295
-29.382174 114.01419 -26.516945 4294967295
-29.368713 114.95617 -26.55714 4294967295
-29.35878 109.23337 -26.768091 4294967295
-29.348774 109.08985 -26.679241 4294967295
-29.332151 109.72554 -26.65472 4294967295
-29.309988 110.36746 -26.593058 4294967295
-29.308535 113.61077 -27.039703 4294967295
-29.304325 109.44701 -26.424589 4294967295
-29.302198 110.99371 -26.627794 4294967295
-29.301537 110.06787 -26.492884 4294967295
-29.301537 113.00137 -26.90591 4294967295
-29.299601 112.54048 -26.827742 4294967295
-29.291237 112.39548 -26.749954 4294967295
-29.284424 111.93992 -26.639071 4294967295
-29.281296 112.71542 -26.726786 4294967295
-29.276995 110.71265 -26.4153 4294967295
-29.276476 111.1766 -26.477064 4294967295
-29.273378 113.34188 -26.760666 4294967295
-29.271904 115.19578 -27.011513 4294967295
-29.270702 109.94714 -26.264343 4294967295
-29.26613 110.26115 -26.277197 4294967295
-29.265114 114.12314 -26.813934 4294967295
-29.264366 113.81524 -26.765471 4294967295
-29.256847 112.27958 -26.4977 4294967295
-29.211157 114.49351 -26.495892 4294967295
-29.201651 115.12219 -26.519167 4294967295
-29.166349 110.50718 -26.711353 4294967295
-29.086151 111.83139 -26.348392 4294967295
-29.048311 115.118 -26.551521 4294967295
-29.008709 109.58131 -26.583847 4294967295
-29.000137 109.12724 -26.461412 4294967295
-28.999578 110.51788 -26.653095 4294967295
-28.996176 111.91128 -26.825697 4294967295
-28.990648 110.06433 -26.528271 4294967295
-28.984644 110.99759 -26.618414 4294967295
-28.979496 109.30406 -26.34515 4294967295
-28.977293 110.38786 -26.482449 4294967295
-28.975897 112.24265 -26.73362 4294967295
-28.975319 111.31675 -26.599524 4294967295
-28.973675 113.48024 -26.892368 4294967295
-28.964033 111.79257 -26.589249 4294967295
-28.961029 111.64145 -26.54748 4294967295
-28.960909 109.94228 -26.307798 4294967295
-28.959269 112.72446 -26.68766 4294967295
-28.953571 114.58362 -26.909986 4294967295
-28.953041 113.96671 -26.819677 4294967295
-28.945786 111.19489 -26.380489 4294967295
-28.941145 111.509 -26.39292 4294967295
-28.939314 113.36459 -26.641203 4294967295
-28.934752 115.22262 -26.87112 4294967295
-28.934742 110.89803 -26.263258 4294967295
-28.928305 113.68588 -26.611086 4294967295
-28.926689 114.92308 -26.773903 4294967295
-28.924923 112.14499 -26.371397 4294967295
-28.922132 114.77388 -26.721785 4294967295
-28.914423 114.31937 -26.605215 4294967295
-28.908052 113.09083 -26.389002 4294967295
-28.895712 113.8772 -26.41514 4294967295
-28.846252 111.13148 -26.771576 4294967295
-28.803631 114.26693 -26.921009 4294967295
-28.78599 110.27072 -26.239382 4294967295
-28.785889 112.58832 -26.564196 4294967295
-28.770914 113.99519 -26.659557 4294967295
-28.75794 114.62767 -26.659828 4294967295
-28.748302 113.71181 -26.46545 4294967295
-28.735115 114.19019 -26.442621 4294967295
-28.728996 114.8151 -26.488604 4294967295
-28.694475 110.66248 -26.748526 4294967295
-28.68854 109.43336 -26.535576 4294967295
-28.68804 110.36065 -26.662321 4294967295
-28.687756 109.89761 -26.5954 4294967295
-28.672426 110.84107 -26.623369 4294967295
-28.664829 112.39379 -26.789507 4294967295
-28.661928 111.47042 -26.640162 4294967295
-28.656895 113.02029 -26.823347 4294967295
-28.653112 111.1712 -26.538105 4294967295
-28.650068 112.25578 -26.669569 4294967295
-28.649298 113.18321 -26.794455 4294967295
-28.648798 115.03636 -27.051046 4294967295
-28.648712 114.72775 -27.007168 4294967295
-28.645304 112.87884 -26.724533 4294967295
-28.644535 109.79002 -26.285833 4294967295
-28.643486 110.25475 -26.343903 4294967295
-28.643076 111.80016 -26.558001 4294967295
-28.642187 113.65443 -26.812128 4294967295
-28.631853 113.35721 -26.70001 4294967295
-28.6278 113.5162 -26.694704 4294967295
-28.627155 111.35426 -26.386955 4294967295
-28.624323 111.04833 -26.324715 4294967295
-28.623346 114.29337 -26.773411 4294967295
-28.618732 112.59958 -26.504316 4294967295
-28.53134 109.27898 -26.520039 4294967295
-28.477003 109.4921 -26.180367 4294967295
-28.472101 109.18822 -26.104399 4294967295
-28.46944 110.42768 -26.260132 4294967295
-28.468853 111.51008 -26.407906 4294967295
-28.458214 114.61146 -26.770357 4294967295
-28.458212 111.98537 -26.402187 4294967295
-28.401464 114.83035 -26.415071 4294967295
-28.379898 109.58182 -26.607771 4294967295
-28.363045 109.7545 -26.517548 4294967295
-28.356249 110.37984 -26.559029 4294967295
-28.355419 110.99866 -26.640093 4294967295
-28.354343 109.14581 -26.373171 4294967295
-28.342918 110.70335 -26.513849 4294967295
-28.342701 109.46741 -26.33919 4294967295
-28.339109 114.41416 -27.00783 4294967295
-28.338226 114.26077 -26.980349 4294967295
-28.338036 112.71684 -26.762779 4294967295
-28.333851 112.25813 -26.670105 4294967295
-28.32872 111.33689 -26.506205 4294967295
-28.327818 113.03712 -26.738277 4294967295
-28.327562 110.2565 -26.34697 4294967295
-28.320982 110.57274 -26.3466 4294967295
-28.30999 111.82103 -26.446869 4294967295
-28.30789 109.35032 -26.086424 4294967295
-28.306023 112.44346 -26.50713 4294967295
-28.288294 113.39024 -26.519382 4294967295
-28.286913 111.2282 -26.207121 4294967295
-28.286772 114.93672 -26.725676 4294967295
-28.285601 115.09251 -26.739536 4294967295
-28.260445 113.73048 -26.377962 4294967295
-28.259842 114.04023 -26.417267 4294967295
-28.182884 109.93389 -26.393387 4294967295
-28.167173 112.7322 -26.678644 4294967295
-28.139767 114.15308 -26.691759 4294967295
-28.132959 111.68837 -26.300632 4294967295
-28.103085 113.26709 -26.31912 4294967295
-28.092468 114.5154 -26.421879 4294967295
-28.08577 115.14112 -26.464056 4294967295
-28.08399 113.90672 -26.279226 4294967295
-28.060852 109.12346 -26.524658 4294967295
-28.057547 110.20851 -26.654085 4294967295
-28.038744 111.61929 -26.724201 4294967295
-28.034302 109.92461 -26.457088 4294967295
-28.028982 110.54848 -26.508369 4294967295
-28.019541 114.42052 -26.98604 4294967295
-28.014494 113.49963 -26.823112 4294967295
-28.011925 109.33043 -26.222557 4294967295
-28.007675 112.5804 -26.648409 4294967295
-28.007168 110.72672 -26.385693 4294967295
-28.000967 111.04256 -26.387918 4294967295
-27.99963 113.05279 -26.660046 4294967295
-27.990585 114.76205 -26.837879 4294967295
-27.988615 112.75602 -26.544012 4294967295
-27.988337 110.12881 -26.174646 4294967295
-27.986265 113.99461 -26.701328 4294967295
-27.983171 112.29846 -26.443178 4294967295
-27.980145 109.67378 -26.055557 4294967295
-27.97966 109.82893 -26.073978 4294967295
-27.97945 114.15675 -26.677891 4294967295
-27.966265 112.00797 -26.288153 4294967295
-27.959425 114.64278 -26.610365 4294967295
-27.864626 109.47437 -26.316544 4294967295
-27.863169 111.94855 -26.652514 4294967295
-27.857573 111.1821 -26.507597 4294967295
-27.838604 115.21968 -26.943687 4294967295
-27.836393 109.96848 -26.194908 4294967295
-27.820196 111.68661 -26.325642 4294967295
-27.816807 113.39043 -26.540867 4294967295
-27.809597 114.7891 -26.687597 4294967295
-27.805933 112.47517 -26.339512 4294967295
-27.798157 112.79292 -26.331392 4294967295
-27.73287 109.60164 -26.512831 4294967295
-27.725698 111.46356 -26.724506 4294967295
-27.717455 111.93604 -26.734894 4294967295
-27.717184 109.77302 -26.430992 4294967295
-27.709494 110.24496 -26.445045 4294967295
-27.707371 109.47439 -26.323103 4294967295
-27.700445 110.87297 -26.471741 4294967295
-27.699389 110.10129 -26.356848 4294967295
-27.698195 110.41172 -26.392149 4294967295
-27.697144 112.57635 -26.687347 4294967295
-27.68928 112.89404 -26.678688 4294967295
-27.681982 112.28403 -26.544291 4294967295
-27.681723 113.05692 -26.650471 4294967295
-27.680332 109.96719 -26.209616 4294967295
-27.676397 113.83535 -26.723242 4294967295
-27.668118 114.46258 -26.754984 4294967295
-27.659056 113.54565 -26.565868 4294967295
-27.65671 114.16637 -26.636717 4294967295
-27.653677 110.76908 -26.141876 4294967295
-27.633982 112.18221 -26.206411 4294967295
-27.632479 114.81168 -26.563414 4294967295
-27.62948 113.73316 -26.39262 4294967295
-27.613562 113.28708 -26.222996 4294967295
-27.584743 115.17467 -26.292212 4294967295
-27.560989 110.69923 -26.573881 4294967295
-27.548178 109.32187 -26.295414 4294967295
-27.543503 113.34498 -26.825327 4294967295
-27.514154 111.67747 -26.395111 4294967295
-27.510275 115.08138 -26.843884 4294967295
-27.496248 111.23315 -26.212578 4294967295
-27.479027 112.79816 -26.315018 4294967295
-27.402353 109.30968 -26.377289 4294967295
-27.400324 109.93018 -26.450182 4294967295
-27.395187 111.01765 -26.567289 4294967295
-27.384764 111.49261 -26.563467 4294967295
-27.380972 112.57848 -26.689381 4294967295
-27.37912 109.79829 -26.289289 4294967295
-27.375507 110.88438 -26.416458 4294967295
-27.37289 114.13244 -26.851688 4294967295
-27.372684 109.49592 -26.203882 4294967295
-27.363834 110.12392 -26.231987 4294967295
-27.360744 112.13705 -26.491901 4294967295
-27.354326 111.98949 -26.428207 4294967295
-27.353397 111.83592 -26.400557 4294967295
-27.350988 111.22014 -26.298506 4294967295
-27.350868 114.46604 -26.750202 4294967295
-27.350159 110.44789 -26.185257 4294967295
-27.346733 114.31615 -26.701527 4294967295
-27.338335 110.30595 -26.086012 4294967295
-27.337456 111.38945 -26.23118 4294967295
-27.335007 112.93821 -26.430647 4294967295
-27.334255 113.7119 -26.533443 4294967295
-27.331179 113.40618 -26.470148 4294967295
-27.330738 113.25209 -26.445709 4294967295
-27.324512 114.80463 -26.620295 4294967295
-27.318502 113.57482 -26.408474 4294967295
-27.30916 113.89439 -26.390247 4294967295
-27.302319 115.13869 -26.517714 4294967295
-27.237215 110.24565 -26.461515 4294967295
-27.212965 111.19931 -26.431704 4294967295
-27.203604 109.19913 -26.090225 4294967295
-27.20344 114.9187 -26.885885 4294967295
-27.172766 112.17069 -26.297348 4294967295
-27.163637 113.26304 -26.388268 4294967295
-27.12372 114.54432 -26.298946 4294967295
-27.090183 109.15257 -26.384575 4294967295
-27.074228 111.17931 -26.559877 4294967295
-27.065813 110.26083 -26.375652 4294967295
-27.062675 111.65555 -26.548796 4294967295
-27.061718 113.35658 -26.779152 4294967295
-27.058693 111.04151 -26.436649 4294967295
-27.053135 110.58366 -26.335684 4294967295
-27.049229 113.98849 -26.783455 4294967295
-27.048676 112.28909 -26.543226 4294967295
-27.044573 113.06641 -26.623936 4294967295
-27.043139 109.04774 -26.054909 4294967295
-27.042421 112.60508 -26.545326 4294967295
-27.041618 110.90532 -26.303335 4294967295
-27.040535 109.51456 -26.102463 4294967295
-27.034805 109.83002 -26.108009 4294967295
-27.022518 113.55445 -26.544165 4294967295
-27.022457 109.99789 -26.048689 4294967295
-27.018135 112.47708 -26.364853 4294967295
-27.017738 112.94135 -26.426819 4294967295
-27.016237 112.7884 -26.395477 4294967295
-27.016212 111.86065 -26.26618 4294967295
-27.007568 114.65306 -26.596933 4294967295
-27.002737 113.88553 -26.457769 4294967295
-27.001102 113.2689 -26.360991 4294967295
-27.000387 114.97023 -26.592978 4294967295
-27.000128 114.19762 -26.483721 4294967295
-26.99264 112.19565 -26.154932 4294967295
-26.987688 113.7476 -26.337786 4294967295
-26.972624 114.84673 -26.389858 4294967295
-26.962824 114.39377 -26.26119 4294967295
-26.885542 111.83176 -26.447279 4294967295
-26.882036 114.92681 -26.854271 4294967295
-26.859224 111.08701 -26.167744 4294967295
-26.84318 113.42428 -26.385544 4294967295
-26.840157 110.79813 -26.000076 4294967295
-26.813076 115.15858 -26.425455 4294967295
-26.795897 114.24986 -26.184229 4294967295
-26.776854 109.76971 -26.491995 4294967295
-26.745821 110.11198 -26.33246 4294967295
-26.736444 109.65798 -26.206758 4294967295
-26.734777 113.06141 -26.66865 4294967295
-26.733555 109.35168 -26.144901 4294967295
-26.724583 112.29963 -26.494747 4294967295
-26.719471 109.98538 -26.138988 4294967295
-26.716824 110.76162 -26.229212 4294967295
-26.716003 109.21552 -26.008829 4294967295
-26.708334 111.23476 -26.238306 4294967295
-26.702682 111.70486 -26.265921 4294967295
-26.700066 115.10915 -26.721502 4294967295
-26.697222 113.41186 -26.466688 4294967295
-26.692928 112.17944 -26.266768 4294967295
-26.69212 110.94283 -26.08951 4294967295
-26.689363 112.80195 -26.329493 4294967295
-26.68647 114.81519 -26.589916 4294967295
-26.675676 113.28091 -26.304688 4294967295
-26.674212 114.21039 -26.42407 4294967295
-26.671991 114.36748 -26.431074 4294967295
-26.670631 112.51308 -26.164316 4294967295
-26.665222 113.7564 -26.300991 4294967295
-26.656532 113.61132 -26.222824 4294967295
-26.648005 114.70343 -26.317661 4294967295
-26.57832 110.58681 -26.337353 4294967295
-26.569239 113.99799 -26.750517 4294967295
-26.569183 111.98839 -26.471123 4294967295
-26.549271 109.84431 -26.040674 4294967295
-26.538403 110.32005 -26.03434 4294967295
-26.537333 114.18785 -26.564297 4294967295
-26.514889 111.89252 -26.096039 4294967295
-26.508923 114.37395 -26.400827 4294967295
-26.494406 112.8431 -26.091558 4294967295
-26.489975 112.69321 -26.041224 4294967295
-26.477043 115.1827 -26.300699 4294967295
-26.436937 110.41517 -26.426481 4294967295
-26.424225 109.65534 -26.236483 4294967295
-26.417337 111.20936 -26.406322 4294967295
-26.408697 109.36233 -26.092527 4294967295
-26.406891 113.53996 -26.6602 4294967295
-26.404585 114.00624 -26.709547 4294967295
-26.400328 113.08335 -26.553188 4294967295
-26.392181 110.30815 -26.113934 4294967295
-26.389774 112.01235 -26.334398 4294967295
-26.389673 111.54844 -26.269356 4294967295
-26.383299 110.00813 -26.013208 4294967295
-26.379818 110.16656 -26.012045 4294967295
-26.37892 114.34379 -26.585651 4294967295
-26.376665 112.49058 -26.313553 4294967295
-26.373995 112.80283 -26.339117 4294967295
-26.372335 110.7935 -26.049276 4294967295
-26.356781 113.28566 -26.291594 4294967295
-26.352509 113.44502 -26.285284 4294967295
-26.344652 112.21592 -26.062506 4294967295
-26.341463 115.00388 -26.428066 4294967295
-26.337069 115.16341 -26.420975 4294967295
-26.336775 112.3792 -26.032755 4294967295
-26.334352 113.92905 -26.231667 4294967295
-26.333197 114.85841 -26.352911 4294967295
-26.331833 114.55058 -26.301132 4294967295
-26.330996 114.24213 -26.252775 4294967295
-26.291389 109.16545 -26.338215 4294967295
-26.279327 110.87941 -26.495777 4294967295
-26.248198 110.6033 -26.250784 4294967295
-26.246084 109.832 -26.129789 4294967295
-26.22348 114.65104 -26.647802 4294967295
-26.216829 110.48199 -26.025652 4294967295
-26.194929 111.74342 -26.055132 4294967295
-26.117872 109.3371 -26.261555 4294967295
-26.115078 110.57751 -26.41489 4294967295
-26.108116 111.04892 -26.434059 4294967295
-26.107973 110.27571 -26.325975 4294967295
-26.100613 112.13952 -26.535406 4294967295
-26.092588 109.67314 -26.140497 4294967295
-26.079954 111.6978 -26.337261 4294967295
-26.078928 109.53278 -26.030493 4294967295
-26.075531 112.01193 -26.351446 4294967295
-26.075256 113.24952 -26.52107 4294967295
-26.074652 112.32224 -26.388609 4294967295
-26.065212 112.79649 -26.391735 4294967295
-26.062122 113.57317 -26.478834 4294967295
-26.061783 114.50137 -26.60515 4294967295
-26.061655 114.34689 -26.582909 4294967295
-26.060768 111.25426 -26.148619 4294967295
-26.059271 115.12262 -26.67453 4294967295
-26.05801 113.88699 -26.495039 4294967295
-26.051172 112.65704 -26.279339 4294967295
-26.044523 114.98437 -26.557629 4294967295
-26.041327 113.75063 -26.365547 4294967295
-26.03091 114.07143 -26.340933 4294967295
-26.006603 113.47921 -26.097759 4294967295
-25.963211 109.95301 -26.371584 4294967295
-25.943933 110.90156 -26.375326 4294967295
-53.657253 120.11322 -29.924183 4294967295
-53.615978 116.28748 -30.356012 4294967295
-53.593483 115.86755 -30.076855 4294967295
-53.569801 118.03096 -30.212543 4294967295
-53.566277 118.94743 -30.330738 4294967295
-53.561588 115.46202 -29.71233 4294967295
-53.527988 120.37605 -30.20892 4294967295
-53.523994 120.07896 -30.122683 4294967295
-53.491634 121.04324 -29.979612 4294967295
-53.471428 121.38039 -29.84663 4294967295
-53.441738 116.31932 -30.181841 4294967295
-53.434704 115.72295 -30.01815 4294967295
-53.433865 115.42048 -29.960514 4294967295
-53.427563 116.18983 -30.028564 4294967295
-53.417267 118.33205 -30.285437 4294967295
-53.415237 116.51308 -29.967012 4294967295
-53.407543 116.82906 -29.947424 4294967295
-53.404331 117.13795 -29.968372 4294967295
-53.402431 117.59663 -30.02622 4294967295
-53.394733 115.63375 -29.631317 4294967295
-53.392242 118.22044 -30.03405 4294967295
-53.390911 119.43735 -30.222021 4294967295
-53.388817 120.65512 -30.402973 4294967295
-53.38546 117.92756 -29.922697 4294967295
-53.383602 119.14554 -30.105934 4294967295
-53.380577 119.75781 -30.178545 4294967295
-53.379642 120.36659 -30.270086 4294967295
-53.373058 118.70698 -29.935545 4294967295
-53.372913 119.31473 -30.034266 4294967295
-53.357296 121.16238 -30.193007 4294967295
-53.349239 120.26453 -29.970196 4294967295
-53.344482 120.57607 -29.977194 4294967295
-53.344143 121.33592 -30.099129 4294967295
-53.340427 120.88648 -29.990559 4294967295
-53.27174 117.10366 -30.171791 4294967295
-53.263569 117.87591 -30.222868 4294967295
-53.255661 117.43295 -30.07658 4294967295
-53.2458 118.05618 -30.087482 4294967295
-53.241379 118.82257 -30.17243 4294967295
-53.238518 116.24471 -29.721935 4294967295
-53.237129 115.79095 -29.634411 4294967295
-53.215584 120.83833 -30.264219 4294967295
-53.214886 118.56145 -29.883411 4294967295
-53.204727 119.7931 -29.991556 4294967295
-53.197433 119.04536 -29.800844 4294967295
-53.170444 121.52002 -29.957012 4294967295
-53.123615 116.94226 -30.209536 4294967295
-53.114731 115.74108 -29.929914 4294967295
-53.10775 117.87858 -30.216299 4294967295
-53.105145 115.45216 -29.793617 4294967295
-53.090149 116.08347 -29.758362 4294967295
-53.081875 118.52744 -30.083067 4294967295
-53.081573 116.55287 -29.755966 4294967295
-53.079979 116.70735 -29.766567 4294967295
-53.079281 117.46822 -29.885054 4294967295
-53.078255 115.34205 -29.526346 4294967295
-53.07682 115.64834 -29.563379 4294967295
-53.076397 118.08051 -29.9589 4294967295
-53.076252 115.95325 -29.608198 4294967295
-53.074463 117.32391 -29.816729 4294967295
-53.068581 116.42133 -29.613958 4294967295
-53.065243 118.40218 -29.908356 4294967295
-53.063293 117.79754 -29.790979 4294967295
-53.062771 119.77325 -30.110598 4294967295
-53.056004 118.72086 -29.875071 4294967295
-53.052155 119.33475 -29.940208 4294967295
-53.051277 117.66469 -29.657812 4294967295
-53.047398 118.2788 -29.722733 4294967295
-53.046406 119.04018 -29.838549 4294967295
-53.037212 120.72614 -30.030188 4294967295
-53.034927 119.97034 -29.884918 4294967295
-53.034565 121.03424 -30.056271 4294967295
