# .PCD v0.7 - Point Cloud Data file format
VERSION 0.7
FIELDS x y z rgb
SIZE 4 4 4 4
TYPE F F F U
COUNT 1 1 1 1
WIDTH 1120
HEIGHT 1
VIEWPOINT 0 0 0 1 0 0 0
POINTS 1120
DATA ascii
-59.219036 70.158165 -27.404779 4294967295
-59.161163 64.883995 -27.464296 4294967295
-59.14716 65.506432 -27.430939 4294967295
-59.145588 67.489281 -27.758739 4294967295
-59.119846 66.90358 -27.397614 4294967295
-59.112934 67.367378 -27.408245 4294967295
-59.109241 69.199837 -27.688488 4294967295
-59.109039 67.828377 -27.448843 4294967295
-59.105747 68.59362 -27.548227 4294967295
-59.096298 66.620323 -27.110998 4294967295
-59.093948 69.062141 -27.510399 4294967295
-59.088192 69.524925 -27.532515 4294967295
-59.085175 68.918129 -27.396936 4294967295
-59.08461 70.290367 -27.628994 4294967295
-59.083939 68.766861 -27.358274 4294967295
-59.081657 70.598015 -27.652473 4294967295
-59.080387 70.903992 -27.692684 4294967295
-59.078075 70.144379 -27.537792 4294967295
-59.062405 69.854805 -27.329538 4294967295
-58.992512 64.590874 -27.269014 4294967295
-58.987057 66.273132 -27.505308 4294967295
-58.986919 67.035416 -27.635849 4294967295
-58.985268 64.902359 -27.250036 4294967295
-58.974979 65.369148 -27.22735 4294967295
-58.966587 65.834297 -27.22341 4294967295
-58.9664 67.969048 -27.59095 4294967295
-58.962498 69.191864 -27.763245 4294967295
-58.954628 67.522751 -27.395273 4294967295
-58.951401 67.373283 -27.336956 4294967295
-58.949707 66.917358 -27.24102 4294967295
-58.946926 70.425774 -27.819996 4294967295
-58.943287 68.143257 -27.388535 4294967295
-58.940434 68.450874 -27.413054 4294967295
-58.933598 66.016792 -26.923094 4294967295
-58.902584 70.621666 -27.407778 4294967295
-58.896904 70.322327 -27.298853 4294967295
-58.846172 65.192871 -27.453402 4294967295
-58.844505 65.804245 -27.54233 4294967295
-58.844044 65.34726 -27.458696 4294967295
-58.82386 67.5 -27.628162 4294967295
-58.820812 66.130676 -27.360949 4294967295
-58.820381 66.43605 -27.40941 4294967295
-58.819077 68.418907 -27.738928 4294967295
-58.799667 64.624008 -26.888338 4294967295
-58.784019 70.585892 -27.761421 4294967295
-58.780361 66.625198 -27.040455 4294967295
-58.779278 69.218857 -27.477703 4294967295
-58.776779 68.611389 -27.347677 4294967295
-58.77541 66.934891 -27.04427 4294967295
-58.774796 68.155777 -27.249073 4294967295
-58.772789 69.529976 -27.466328 4294967295
-58.771793 70.293068 -27.588156 4294967295
-58.768421 69.991516 -27.502199 4294967295
-58.767391 67.400009 -27.044178 4294967295
-58.763603 67.708656 -27.059504 4294967295
-58.759735 69.695015 -27.363838 4294967295
-58.758492 69.086273 -27.246191 4294967295
-58.750523 69.856392 -27.299269 4294967295
-58.69191 65.496902 -27.506445 4294967295
-58.690144 65.193512 -27.43639 4294967295
-58.680706 65.811943 -27.448647 4294967295
-58.67905 64.593246 -27.221756 4294967295
-58.676308 65.053314 -27.273684 4294967295
-58.666725 67.806694 -27.652916 4294967295
-58.663673 67.504669 -27.570248 4294967295
-58.656887 66.291031 -27.292892 4294967295
-58.650711 65.991547 -27.179379 4294967295
-58.647907 69.958054 -27.835642 4294967295
-58.646881 67.215271 -27.352198 4294967295
-58.640457 65.695648 -27.025658 4294967295
-58.640186 68.441353 -27.496716 4294967295
-58.634609 68.751534 -27.494425 4294967295
-58.632618 70.734734 -27.816544 4294967295
-58.631821 66.618965 -27.098568 4294967295
-58.63036 67.077988 -27.163115 4294967295
-58.629074 66.468903 -27.045145 4294967295
-58.606461 69.388252 -27.322456 4294967295
-58.588284 70.62571 -27.353918 4294967295
-58.509281 65.216217 -27.175493 4294967295
-58.499561 65.835182 -27.185108 4294967295
-58.492264 67.977142 -27.481287 4294967295
-58.485916 67.830582 -27.392641 4294967295
-58.475681 68.450134 -27.397181 4294967295
-58.461815 70.902588 -27.68112 4294967295
-58.459129 70.752808 -27.62854 4294967295
-58.458794 66.787704 -26.942125 4294967295
-58.447456 69.239395 -27.251297 4294967295
-58.446831 69.087463 -27.218897 4294967295
-58.437885 70.621101 -27.393724 4294967295
-58.431515 70.322319 -27.278645 4294967295
-58.3806 66.107468 -27.58523 4294967295
-58.366486 64.899895 -27.236814 4294967295
-58.365593 65.815971 -27.385592 4294967295
-58.361805 65.209167 -27.243448 4294967295
-58.34972 67.660423 -27.544844 4294967295
-58.347797 67.50972 -27.499784 4294967295
-58.343533 67.208656 -27.40551 4294967295
-58.333866 66.607346 -27.205763 4294967295
-58.333794 64.623428 -26.863604 4294967295
-58.333366 67.980576 -27.437035 4294967295
-58.331802 68.287018 -27.474182 4294967295
-58.329762 65.390244 -26.955412 4294967295
-58.32967 65.085045 -26.901957 4294967295
-58.328094 66.91774 -27.201675 4294967295
-58.325592 68.140327 -27.387064 4294967295
-58.32093 69.669472 -27.603683 4294967295
-58.318462 65.705612 -26.897137 4294967295
-58.313049 66.015762 -26.896595 4294967295
-58.31213 68.610481 -27.333868 4294967295
-58.31208 66.321915 -26.939615 4294967295
-58.311771 69.220825 -27.43527 4294967295
-58.302483 67.093773 -26.976835 4294967295
-58.300095 69.9944 -27.452036 4294967295
-58.293873 70.305359 -27.443514 4294967295
-58.292038 68.476814 -27.110746 4294967295
-58.286369 69.550056 -27.238867 4294967295
-58.216557 65.810318 -27.437853 4294967295
-58.195229 65.981979 -27.255423 4294967295
-58.175076 66.45787 -27.136944 4294967295
-58.173737 69.052094 -27.569336 4294967295
-58.156773 70.897652 -27.717749 4294967295
-58.140465 67.71035 -27.008263 4294967295
-58.139606 68.016357 -27.052319 4294967295
-58.137272 70.611732 -27.474895 4294967295
-58.125534 69.860504 -27.229259 4294967295
-58.070099 65.802376 -27.515141 4294967295
-58.067055 64.737251 -27.302204 4294967295
-58.061779 64.894455 -27.276882 4294967295
-58.059799 66.421661 -27.519342 4294967295
-58.046024 65.671288 -27.254034 4294967295
-58.043636 66.893852 -27.440155 4294967295
-58.042511 67.504921 -27.533831 4294967295
-58.040321 65.523766 -27.172209 4294967295
-58.036533 65.069267 -27.05665 4294967295
-58.034569 67.969734 -27.534851 4294967295
-58.034157 66.597366 -27.295332 4294967295
-58.029594 68.889221 -27.643297 4294967295
-58.028549 69.499985 -27.737684 4294967295
-58.027096 66.298584 -27.174086 4294967295
-58.026882 66.146172 -27.145809 4294967295
-58.023472 68.742516 -27.55743 4294967295
-58.021805 65.387558 -26.965282 4294967295
-58.019897 67.068024 -27.234758 4294967295
-58.011589 69.973495 -27.650782 4294967295
-58.010826 67.381477 -27.198627 4294967295
-58.00404 68.150581 -27.263292 4294967295
-58.002094 69.067627 -27.40132 4294967295
-58.001125 70.288452 -27.601097 4294967295
-57.999607 68.307266 -27.246248 4294967295
-57.999279 69.222801 -27.400045 4294967295
-57.997761 68.614105 -27.280561 4294967295
-57.991184 67.704727 -27.059383 4294967295
-57.98526 70.761177 -27.524927 4294967295
-57.972294 70.468735 -27.346275 4294967295
-57.954235 70.638733 -27.196413 4294967295
-57.925381 64.725204 -27.42618 4294967295
-57.904217 66.116837 -27.455399 4294967295
-57.870564 68.28286 -27.493767 4294967295
-57.866982 67.523499 -27.328268 4294967295
-57.865772 64.62458 -26.819557 4294967295
-57.854141 70.890358 -27.777979 4294967295
-57.833683 69.537682 -27.344057 4294967295
-57.826511 69.849579 -27.326571 4294967295
-57.82626 68.018784 -27.010494 4294967295
-57.760452 64.733467 -27.323786 4294967295
-57.758007 65.498482 -27.430613 4294967295
-57.753651 66.112541 -27.49272 4294967295
-57.740398 67.039658 -27.520645 4294967295
-57.740349 65.819267 -27.311356 4294967295
-57.736465 67.195755 -27.508575 4294967295
-57.736187 65.36515 -27.192574 4294967295
-57.735443 65.060547 -27.133108 4294967295
-57.728401 68.423203 -27.639034 4294967295
-57.72551 67.663345 -27.480509 4294967295
-57.720795 66.447105 -27.225922 4294967295
-57.719936 68.736061 -27.609056 4294967295
-57.719402 66.60096 -27.238522 4294967295
-57.711227 66.913536 -27.211355 4294967295
-57.708572 69.814102 -27.681347 4294967295
-57.708191 69.966927 -27.703722 4294967295
-57.707001 66.306854 -27.065874 4294967295
-57.705654 67.834129 -27.313898 4294967295
-57.704052 70.733101 -27.793951 4294967295
-57.70314 65.699646 -26.923901 4294967295
-57.701771 70.887733 -27.797863 4294967295
-57.699623 67.381897 -27.177055 4294967295
-57.699017 66.771957 -27.066723 4294967295
-57.698917 70.585609 -27.718088 4294967295
-57.697517 66.010002 -26.921541 4294967295
-57.69389 68.912941 -27.382412 4294967295
-57.692558 69.371796 -27.447771 4294967295
-57.686714 68.309364 -27.208393 4294967295
-57.685463 69.225952 -27.352829 4294967295
-57.681767 69.687065 -27.39525 4294967295
-57.664345 70.466377 -27.356726 4294967295
-57.660221 68.639214 -27.003551 4294967295
-57.599648 65.806206 -27.444572 4294967295
-57.58551 66.123917 -27.359758 4294967295
-57.582031 64.600739 -27.065245 4294967295
-57.564232 65.379616 -27.023218 4294967295
-57.543327 67.993134 -27.264133 4294967295
-57.539722 70.89444 -27.724203 4294967295
-57.53878 70.43795 -27.636961 4294967295
-57.537365 67.082848 -27.049944 4294967295
-57.506626 70.773865 -27.377987 4294967295
-57.504059 69.860924 -27.196804 4294967295
-57.439556 65.810333 -27.389923 4294967295
-57.439095 64.742447 -27.203115 4294967295
-57.435894 65.355751 -27.276377 4294967295
-57.434845 66.729942 -27.500576 4294967295
-57.429409 66.124512 -27.343914 4294967295
-57.423317 64.908806 -27.076681 4294967295
-57.422157 66.283562 -27.299908 4294967295
-57.421379 64.605125 -27.005812 4294967295
-57.420456 66.590286 -27.335522 4294967295
-57.402199 68.437737 -27.471554 4294967295
-57.401653 67.827988 -27.362186 4294967295
-57.400913 66.913055 -27.198803 4294967295
-57.39893 68.135635 -27.387907 4294967295
-57.396324 68.748276 -27.466854 4294967295
-57.392269 65.546722 -26.880831 4294967295
-57.386673 66.009789 -26.904942 4294967295
-57.386578 69.062454 -27.424809 4294967295
-57.386433 67.078758 -27.084967 4294967295
-57.385033 67.385315 -27.123541 4294967295
-57.382225 68.913956 -27.356752 4294967295
-57.376385 70.444862 -27.560549 4294967295
-57.375259 67.546852 -27.055164 4294967295
-57.37471 70.598976 -27.570358 4294967295
-57.370102 68.314796 -27.135548 4294967295
-57.365768 68.624054 -27.145803 4294967295
-57.365238 68.013985 -27.036509 4294967295
-57.360687 69.239258 -27.200865 4294967295
-57.359234 69.698418 -27.264908 4294967295
-57.355095 70.0075 -27.277 4294967295
-57.348 70.31942 -27.260559 4294967295
-57.244682 66.303139 -27.0784 4294967295
-57.229958 65.094345 -26.72823 4294967295
-57.225735 69.372765 -27.415836 4294967295
-57.223415 65.405586 -26.717216 4294967295
-57.200584 70.617065 -27.381538 4294967295
-57.127865 65.50576 -27.311514 4294967295
-57.109627 67.505806 -27.473707 4294967295
-57.108223 65.980942 -27.200527 4294967295
-57.104118 65.068451 -27.005177 4294967295
-57.104065 66.747818 -27.290434 4294967295
-57.100159 68.277267 -27.512476 4294967295
-57.09613 68.128395 -27.447824 4294967295
-57.094051 65.688057 -27.012295 4294967295
-57.092995 64.619873 -26.820156 4294967295
-57.090374 66.302055 -27.08087 4294967295
-57.086514 68.442375 -27.407309 4294967295
-57.079407 68.754097 -27.390936 4294967295
-57.078667 66.92321 -27.07221 4294967295
-57.076782 67.840851 -27.20994 4294967295
-57.075264 66.162743 -26.909565 4294967295
-57.074032 67.995995 -27.209454 4294967295
-57.071129 64.791489 -26.635839 4294967295
-57.071003 66.62468 -26.946552 4294967295
-57.068817 69.831978 -27.470821 4294967295
-57.064056 69.531311 -27.373211 4294967295
-57.063519 67.700256 -27.056494 4294967295
-57.062824 70.60038 -27.542988 4294967295
-57.060402 69.382141 -27.312132 4294967295
-57.060398 70.45015 -27.49375 4294967295
-57.060295 67.24511 -26.947565 4294967295
-57.059013 69.078217 -27.246874 4294967295
-57.05579 69.996826 -27.371662 4294967295
-57.035931 70.320824 -27.232782 4294967295
-56.963451 64.902817 -27.11264 4294967295
-56.950851 65.677208 -27.121508 4294967295
-56.944454 66.90416 -27.267664 4294967295
-56.943657 67.210144 -27.311871 4294967295
-56.929535 69.81694 -27.617144 4294967295
-56.924694 69.058685 -27.441164 4294967295
-56.922367 65.091064 -26.744385 4294967295
-56.895851 66.642097 -26.749626 4294967295
-56.887089 70.619881 -27.339954 4294967295
-56.80542 66.431618 -27.338501 4294967295
-56.799221 67.658051 -27.486345 4294967295
-56.794346 65.983398 -27.154812 4294967295
-56.794121 65.83091 -27.126741 4294967295
-56.792126 64.916336 -26.952135 4294967295
-56.784157 66.297745 -27.109127 4294967295
-56.77951 66.149139 -27.038748 4294967295
-56.778233 65.539345 -26.92284 4294967295
-56.773472 68.444489 -27.369522 4294967295
-56.769268 67.379799 -27.148014 4294967295
-56.767174 66.770897 -27.02434 4294967295
-56.766121 67.077248 -27.066092 4294967295
-56.764351 68.910706 -27.359957 4294967295
-56.760239 69.982666 -27.501816 4294967295
-56.75972 65.402664 -26.719721 4294967295
-56.757648 68.000999 -27.140476 4294967295
-56.754726 67.240158 -26.982992 4294967295
-56.753193 67.852356 -27.07197 4294967295
-56.752274 70.600433 -27.529173 4294967295
-56.751282 69.533279 -27.338533 4294967295
-56.739269 70.307587 -27.353128 4294967295
-56.738674 66.643471 -26.72575 4294967295
-56.736256 69.85257 -27.246674 4294967295
-56.734272 68.785782 -27.046442 4294967295
-56.727192 70.776855 -27.315325 4294967295
-56.724541 69.252853 -27.031082 4294967295
-56.714123 69.720627 -27.009165 4294967295
-56.712025 70.180649 -27.066816 4294967295
-56.655518 65.205353 -27.175827 4294967295
-56.638813 64.761551 -26.938641 4294967295
-56.634647 68.124153 -27.468077 4294967295
-56.624115 66.759796 -27.134789 4294967295
-56.61956 67.52726 -27.220695 4294967295
-56.618309 66.917648 -27.105259 4294967295
-56.618305 68.902107 -27.441433 4294967295
-56.61145 65.396217 -26.780937 4294967295
-56.606201 66.317451 -26.886166 4294967295
-56.599762 69.224457 -27.316259 4294967295
-56.590843 68.774727 -27.153601 4294967295
-56.587585 68.319633 -27.044931 4294967295
-56.58231 67.713516 -26.891087 4294967295
-56.560284 70.024521 -27.069023 4294967295
-56.467358 66.608147 -27.088554 4294967295
-56.465618 67.220497 -27.17536 4294967295
-56.464489 65.083069 -26.802713 4294967295
-56.461201 66.308105 -26.978239 4294967295
-56.457386 66.158699 -26.916056 4294967295
-56.457062 64.93663 -26.706089 4294967295
-56.456547 67.686699 -27.166502 4294967295
-56.456165 65.548645 -26.801027 4294967295
-56.455799 64.784882 -26.66818 4294967295
-56.451313 68.149475 -27.194199 4294967295
-56.449585 65.401527 -26.712463 4294967295
-56.441395 65.867088 -26.712046 4294967295
-56.438526 65.716759 -26.658873 4294967295
-56.437771 68.925209 -27.194469 4294967295
-56.435692 69.537773 -27.27796 4294967295
-56.435371 66.941956 -26.835703 4294967295
-56.430729 66.487686 -26.713902 4294967295
-56.428211 70.7658 -27.413336 4294967295
-56.427322 68.782112 -27.069185 4294967295
-56.427204 67.865852 -26.913021 4294967295
-56.424274 69.243004 -27.117689 4294967295
-56.423481 68.480186 -26.980942 4294967295
-56.423431 70.312439 -27.290413 4294967295
-56.418621 70.011642 -27.193037 4294967295
-56.406647 69.870148 -27.053288 4294967295
-56.336857 66.127998 -27.240475 4294967295
-56.333752 65.672577 -27.133535 4294967295
-56.321629 64.766449 -26.863401 4294967295
-56.312275 66.913132 -27.135971 4294967295
-56.305378 65.391579 -26.812267 4294967295
-56.293697 67.235085 -27.011131 4294967295
-56.290115 68.307335 -27.157734 4294967295
-56.283375 68.771553 -27.171139 4294967295
-56.281986 66.634377 -26.79664 4294967295
-56.277794 67.554787 -26.911699 4294967295
-56.252274 69.410973 -26.979103 4294967295
-56.233807 70.802711 -27.035988 4294967295
-56.188248 66.27459 -27.323076 4294967295
-56.166687 68.125664 -27.427944 4294967295
-56.140072 66.011093 -26.814898 4294967295
-56.13913 69.219292 -27.347179 4294967295
-56.138428 65.706886 -26.747732 4294967295
-56.138084 70.136047 -27.4918 4294967295
-56.137054 67.236008 -26.992596 4294967295
-56.128227 68.77124 -27.166668 4294967295
-56.126232 66.175964 -26.709509 4294967295
-56.121586 70.456726 -27.387072 4294967295
-56.120403 67.861916 -26.93792 4294967295
-56.116585 66.795746 -26.721252 4294967295
-56.115837 69.851463 -27.229654 4294967295
-56.114922 68.936096 -27.066425 4294967295
-56.109966 69.551514 -27.122545 4294967295
-56.106651 68.48539 -26.910765 4294967295
-56.104824 67.570282 -26.738787 4294967295
-56.103184 70.626656 -27.238625 4294967295
-56.099472 69.713936 -27.048923 4294967295
-56.023624 65.671555 -27.125383 4294967295
-56.018505 65.217667 -26.999714 4294967295
-56.016193 67.205208 -27.312492 4294967295
-56.011982 67.972321 -27.40134 4294967295
-56.004414 68.437119 -27.406975 4294967295
-55.997471 65.541306 -26.852266 4294967295
-55.996483 69.207565 -27.460619 4294967295
-55.992809 66.462128 -26.962721 4294967295
-55.991089 69.059853 -27.383968 4294967295
-55.990959 69.517906 -27.459894 4294967295
-55.989197 64.631294 -26.619415 4294967295
-55.985676 70.285912 -27.538525 4294967295
-55.978016 65.099434 -26.590973 4294967295
-55.968258 67.553268 -26.910854 4294967295
-55.956837 68.785683 -27.008886 4294967295
-55.864326 65.063545 -26.978676 4294967295
-55.854336 66.447113 -27.115871 4294967295
-55.850323 66.908859 -27.155174 4294967295
-55.837021 67.684303 -27.15826 4294967295
-55.835655 65.240807 -26.733896 4294967295
-55.812202 66.331009 -26.692759 4294967295
-55.809559 68.014351 -26.950727 4294967295
-55.807724 69.848885 -27.241825 4294967295
-55.807472 70.459846 -27.342192 4294967295
-55.781124 70.178963 -27.042553 4294967295
-55.77935 70.027855 -27.000145 4294967295
-55.714115 64.60041 -26.943827 4294967295
-55.707676 65.981018 -27.114386 4294967295
-55.703545 65.373428 -26.972752 4294967295
-55.702587 65.832626 -27.040819 4294967295
-55.698673 66.141571 -27.055359 4294967295
-55.695141 68.282906 -27.381479 4294967295
-55.688725 67.219612 -27.141468 4294967295
-55.68853 67.067024 -27.113955 4294967295
-55.686337 65.082413 -26.759396 4294967295
-55.678387 69.519485 -27.429186 4294967295
-55.676575 69.368477 -27.386492 4294967295
-55.676373 66.772133 -26.948229 4294967295
-55.674129 67.996307 -27.132524 4294967295
-55.673672 68.607643 -27.230885 4294967295
-55.659355 66.939857 -26.813786 4294967295
-55.656147 68.92897 -27.117411 4294967295
-55.654976 67.707817 -26.901033 4294967295
-55.649399 66.337105 -26.617348 4294967295
-55.644249 70.619797 -27.287807 4294967295
-55.640297 69.707161 -27.096697 4294967295
-55.633442 69.102371 -26.929567 4294967295
-55.619427 69.267937 -26.823473 4294967295
-55.540443 66.296539 -27.047953 4294967295
-55.536736 67.674629 -27.243912 4294967295
-55.522495 65.394958 -26.725473 4294967295
-55.521351 67.229935 -27.022627 4294967295
-55.519054 70.286354 -27.513626 4294967295
-55.518482 65.551254 -26.713476 4294967295
-55.511372 70.751434 -27.518393 4294967295
-55.503178 68.621109 -27.082829 4294967295
-55.49905 68.31926 -26.99284 4294967295
-55.406601 64.596931 -26.961784 4294967295
-55.391171 65.679756 -26.996603 4294967295
-55.386089 65.072731 -26.846476 4294967295
-55.385681 65.378777 -26.893902 4294967295
-55.382153 66.298759 -27.014587 4294967295
-55.379513 67.06501 -27.117943 4294967295
-55.378269 68.746223 -27.387903 4294967295
-55.375858 67.526535 -27.160545 4294967295
-55.375553 66.762894 -27.029631 4294967295
-55.372467 66.918381 -27.026375 4294967295
-55.364883 69.216438 -27.339382 4294967295
-55.364639 66.161034 -26.824936 4294967295
-55.363781 69.828217 -27.43144 4294967295
-55.362865 68.45462 -27.192532 4294967295
-55.356213 65.556725 -26.643471 4294967295
-55.34874 70.147423 -27.341877 4294967295
-55.34721 70.454224 -27.378735 4294967295
-55.33609 70.617241 -27.300264 4294967295
-55.331161 69.552612 -27.075012 4294967295
-55.324787 68.947227 -26.912941 4294967295
-55.316105 68.649384 -26.780453 4294967295
-55.217445 67.223389 -27.075079 4294967295
-55.216637 65.237091 -26.73484 4294967295
-55.202915 67.847366 -27.041674 4294967295
-55.201553 70.750504 -27.514587 4294967295
-55.199238 66.01638 -26.700268 4294967295
-55.193932 69.077652 -27.162355 4294967295
-55.191002 68.31636 -27.007126 4294967295
-55.187611 69.541656 -27.180025 4294967295
-55.183216 67.711952 -26.832115 4294967295
-55.178837 66.951408 -26.663227 4294967295
-55.170204 69.863083 -27.068665 4294967295
-55.167358 69.407295 -26.965401 4294967295
-55.166218 70.172295 -27.082602 4294967295
-55.084736 65.675377 -27.025194 4294967295
-55.076817 66.140625 -27.028036 4294967295
-55.071846 64.616142 -26.726049 4294967295
-55.070957 65.228477 -26.820047 4294967295
-55.069592 66.452484 -27.01178 4294967295
-55.065521 66.914474 -27.050491 4294967295
-55.063198 64.929199 -26.696575 4294967295
-55.049736 69.983727 -27.414124 4294967295
-55.049614 70.441917 -27.489553 4294967295
-55.048969 70.595192 -27.509054 4294967295
-55.044918 66.626633 -26.807373 4294967295
-55.040863 67.547325 -26.922909 4294967295
-55.036541 69.690323 -27.240189 4294967295
-55.035004 68.775078 -27.07266 4294967295
-55.034237 69.386902 -27.167677 4294967295
-55.031128 68.167274 -26.934406 4294967295
-55.030128 69.085052 -27.078341 4294967295
-55.025471 70.769646 -27.315763 4294967295
-55.008827 68.339951 -26.752155 4294967295
-55.005501 70.177017 -27.027725 4294967295
-55.002972 69.873718 -26.953077 4294967295
-54.92635 64.913231 -26.863897 4294967295
-54.921585 64.611412 -26.768503 4294967295
-54.906223 65.235924 -26.72772 4294967295
-54.901585 67.380081 -27.04195 4294967295
-54.897797 69.064095 -27.287317 4294967295
-54.897125 65.549438 -26.694149 4294967295
-54.893467 68.151291 -27.094053 4294967295
-54.886814 66.016968 -26.674852 4294967295
-54.8862 68.768959 -27.128527 4294967295
-54.874702 70.307068 -27.276684 4294967295
-54.870335 67.101578 -26.700348 4294967295
-54.862057 69.554703 -27.031704 4294967295
-54.858738 67.570435 -26.669115 4294967295
-54.858696 68.334961 -26.796349 4294967295
-54.856655 69.253937 -26.930494 4294967295
-54.84338 68.654366 -26.705057 4294967295
-54.779999 64.905251 -26.942368 4294967295
-54.777958 64.601181 -26.872425 4294967295
-54.771057 67.205322 -27.241701 4294967295
-54.766907 65.986336 -26.999329 4294967295
-54.763634 65.377617 -26.866991 4294967295
-54.761654 67.519096 -27.20545 4294967295
-54.756691 68.13459 -27.261295 4294967295
-54.754868 65.079155 -26.734629 4294967295
-54.751827 64.775826 -26.655384 4294967295
-54.749992 65.542015 -26.76589 4294967295
-54.747452 66.30867 -26.869822 4294967295
-54.742981 65.700867 -26.726328 4294967295
-54.73951 67.385605 -26.97456 4294967295
-54.738972 67.080353 -26.918587 4294967295
-54.732204 70.600563 -27.441662 4294967295
-54.726292 67.855736 -26.928425 4294967295
-54.715736 68.476486 -26.932472 4294967295
-54.715 68.62999 -26.951118 4294967295
-54.714523 69.241753 -27.048603 4294967295
-54.714096 70.464462 -27.248405 4294967295
-54.711349 66.798431 -26.611376 4294967295
-54.710217 68.939949 -26.957727 4294967295
-54.694202 70.024269 -26.9876 4294967295
-54.693752 69.719002 -26.932505 4294967295
-54.693081 68.343689 -26.696911 4294967295
-54.68845 70.18235 -26.959782 4294967295
-54.666008 70.814331 -26.853683 4294967295
-54.589348 67.686409 -27.068768 4294967295
-54.587658 66.617836 -26.874952 4294967295
-54.585133 68.454224 -27.15699 4294967295
-54.581551 69.374168 -27.27648 4294967295
-54.573837 66.170891 -26.670614 4294967295
-54.568996 69.843826 -27.23666 4294967295
-54.561554 67.251976 -26.735212 4294967295
-54.535172 70.638687 -27.051058 4294967295
-54.467312 65.823235 -27.066607 4294967295
-54.463009 64.603691 -26.823362 4294967295
-54.459576 66.135506 -27.046 4294967295
-54.452583 65.224052 -26.828796 4294967295
-54.449436 66.908447 -27.079489 4294967295
-54.449371 66.755653 -27.05344 4294967295
-54.448364 67.062218 -27.095007 4294967295
-54.438232 66.459442 -26.899746 4294967295
-54.43795 65.542175 -26.744518 4294967295
-54.434639 64.780121 -26.586685 4294967295
-54.432816 69.062439 -27.281826 4294967295
-54.429104 67.690331 -27.01886 4294967295
-54.427227 65.092255 -26.569122 4294967295
-54.424423 68.764313 -27.153545 4294967295
-54.422894 67.237099 -26.88525 4294967295
-54.421535 69.378113 -27.228512 4294967295
-54.420326 68.156586 -27.014069 4294967295
-54.408344 68.32 -26.928902 4294967295
-54.394852 70.777466 -27.210938 4294967295
-54.392738 69.862511 -27.039015 4294967295
-54.386963 70.326248 -27.061975 4294967295
-54.384365 68.494064 -26.733015 4294967295
-54.384098 68.035492 -26.654243 4294967295
-54.383141 68.953896 -26.797966 4294967295
-54.380325 69.720863 -26.89909 4294967295
-54.37965 68.651161 -26.714914 4294967295
-54.364902 69.276009 -26.680529 4294967295
-54.361202 70.502609 -26.849747 4294967295
-54.282551 65.388748 -26.714415 4294967295
-54.277565 68.145187 -27.125639 4294967295
-54.269482 66.317467 -26.746468 4294967295
-54.258606 66.02076 -26.595417 4294967295
-54.247749 70.464111 -27.231756 4294967295
-54.240372 67.719009 -26.706905 4294967295
-54.235519 69.252426 -26.916172 4294967295
-54.228947 68.799568 -26.779505 4294967295
-54.15062 64.604012 -26.798832 4294967295
-54.12904 64.774757 -26.625751 4294967295
-54.123867 66.308723 -26.831984 4294967295
-54.11887 65.701118 -26.684555 4294967295
-54.117943 64.936928 -26.549095 4294967295
-54.117668 65.396164 -26.622746 4294967295
-54.114792 68.151337 -27.052933 4294967295
-54.111507 66.930984 -26.819876 4294967295
-54.11076 66.472794 -26.736874 4294967295
-54.110424 67.543594 -26.911369 4294967295
-54.107487 66.169632 -26.656034 4294967295
-54.105774 66.629997 -26.716423 4294967295
-54.094948 67.404053 -26.743773 4294967295
-54.094589 69.697777 -27.120827 4294967295
-54.093033 68.781982 -26.954449 4294967295
-54.092796 69.546539 -27.079029 4294967295
-54.08947 67.102844 -26.642696 4294967295
-54.087791 67.716148 -26.728773 4294967295
-54.08112 68.33374 -26.768913 4294967295
-54.080765 69.09864 -26.892471 4294967295
-54.07214 70.176567 -26.990725 4294967295
-54.071369 69.412827 -26.856871 4294967295
-54.066639 68.040489 -26.585161 4294967295
-54.065407 70.641281 -27.00491 4294967295
-54.061584 69.880318 -26.843069 4294967295
-53.977814 65.535667 -26.786539 4294967295
-53.946114 67.397964 -26.799932 4294967295
-53.93412 70.160606 -27.145817 4294967295
-53.883858 70.817734 -26.786619 4294967295
-53.826153 65.685013 -26.841705 4294967295
-53.820026 65.384171 -26.735018 4294967295
-53.816185 65.999268 -26.801128 4294967295
-53.81258 65.084335 -26.616236 4294967295
-53.79829 68.920044 -27.118092 4294967295
-53.79668 66.780586 -26.749203 4294967295
-53.796017 65.557137 -26.540623 4294967295
-53.791004 67.244324 -26.773222 4294967295
-53.790001 68.009918 -26.890547 4294967295
-53.786987 67.70665 -26.812391 4294967295
-53.781567 66.334389 -26.534979 4294967295
-53.780159 67.406609 -26.699308 4294967295
-53.779942 69.853539 -27.102074 4294967295
-53.778458 68.631699 -26.886187 4294967295
-53.77718 66.185043 -26.469538 4294967295
-53.776489 65.879524 -26.412542 4294967295
-53.775631 68.481247 -26.835039 4294967295
-53.772316 66.954323 -26.55164 4294967295
-53.770905 67.567558 -26.639971 4294967295
-53.76825 70.169777 -27.045763 4294967295
-53.767788 69.558632 -26.940397 4294967295
-53.766659 70.782669 -27.132307 4294967295
-53.761543 69.411278 -26.857986 4294967295
-53.761017 69.105873 -26.802614 4294967295
-53.756523 67.885994 -26.559055 4294967295
-53.753139 69.2658 -26.755861 4294967295
-53.7519 70.490318 -26.946877 4294967295
-53.749786 70.033485 -26.851688 4294967295
-53.744259 68.81472 -26.59878 4294967295
-53.732147 69.743385 -26.639866 4294967295
-53.669056 65.379974 -26.771339 4294967295
-53.666016 64.77047 -26.642427 4294967295
-53.661549 66.91584 -26.955566 4294967295
-53.647034 66.622253 -26.772528 4294967295
-53.620983 65.572876 -26.357683 4294967295
-53.531387 64.59993 -26.802555 4294967295
-53.499073 66.462509 -26.811213 4294967295
-53.495216 68.148163 -27.053707 4294967295
-53.489288 68.459129 -27.05019 4294967295
-53.487217 66.013443 -26.627445 4294967295
-53.483582 64.945061 -26.417488 4294967295
-53.483501 65.710464 -26.543097 4294967295
-53.482964 69.076256 -27.093538 4294967295
-53.481709 67.701027 -26.855028 4294967295
-53.481522 66.936302 -26.72711 4294967295
-53.48053 67.396103 -26.793829 4294967295
-53.474823 66.329887 -26.565086 4294967295
-53.473831 66.789818 -26.63183 4294967295
-53.473011 69.23793 -27.028177 4294967295
-53.467045 68.631462 -26.872961 4294967295
-53.466164 67.255386 -26.637766 4294967295
-53.459042 69.861954 -27.001955 4294967295
-53.458786 68.332726 -26.747318 4294967295
-53.458549 70.626846 -27.123587 4294967295
-53.454544 70.324684 -27.036716 4294967295
-53.452938 67.572746 -26.567833 4294967295
-53.44516 68.956566 -26.724239 4294967295
-53.440582 69.725464 -26.808762 4294967295
-53.440216 69.419861 -26.754957 4294967295
-53.440018 68.042976 -26.525974 4294967295
-53.434715 70.8013 -26.931992 4294967295
-53.418156 70.051414 -26.655184 4294967295
-53.41486 69.595329 -26.549446 4294967295
-53.369606 65.369537 -26.866503 4294967295
-53.359764 64.612549 -26.650942 4294967295
-53.354534 65.075912 -26.679089 4294967295
-53.316631 65.260094 -26.359781 4294967295
-53.311687 64.804771 -26.239098 4294967295
-53.304855 68.942902 -26.858131 4294967295
-53.301418 65.578873 -26.271978 4294967295
-53.28207 68.809853 -26.626015 4294967295
-53.250004 70.827454 -26.662613 4294967295
-53.208088 65.833008 -26.882595 4294967295
-53.173424 65.249443 -26.467474 4294967295
-53.170361 66.935593 -26.716866 4294967295
-53.165623 66.327423 -26.573158 4294967295
-53.163422 65.716957 -26.452394 4294967295
-53.162025 68.778549 -26.943491 4294967295
-53.160648 68.320862 -26.855501 4294967295
-53.160454 65.4132 -26.37505 4294967295
-53.15947 67.709915 -26.744099 4294967295
-53.157642 67.864487 -26.75271 4294967295
-53.15202 69.857903 -27.02902 4294967295
-53.147751 68.179016 -26.713434 4294967295
-53.142254 66.806252 -26.436895 4294967295
-53.140736 66.195107 -26.322319 4294967295
-53.135868 69.413338 -26.807217 4294967295
-53.132874 69.262985 -26.754921 4294967295
-53.127968 67.430717 -26.408211 4294967295
-53.126572 70.798241 -26.949518 4294967295
-53.123138 70.189507 -26.817747 4294967295
-53.12117 69.579292 -26.699238 4294967295
-53.042191 66.300186 -26.859266 4294967295
-53.034729 64.775917 -26.540123 4294967295
-53.033775 66.154182 -26.758015 4294967295
-53.024502 67.691963 -26.92568 4294967295
-53.01561 65.097672 -26.417469 4294967295
-53.014961 67.853104 -26.864529 4294967295
-53.012234 67.396431 -26.764416 4294967295
-53.004402 67.250053 -26.668446 4294967295
-53.003067 66.026627 -26.455059 4294967295
-52.989933 65.578102 -26.260708 4294967295
-52.981232 66.810387 -26.383396 4294967295
-52.97488 69.570824 -26.778828 4294967295
-52.960705 68.818085 -26.52495 4294967295
-52.951767 70.509346 -26.720825 4294967295
-52.893864 65.68174 -26.819073 4294967295
-52.875385 65.237732 -26.576841 4294967295
-52.857048 69.078552 -27.039463 4294967295
-52.841553 64.959015 -26.22113 4294967295
-52.840214 67.869156 -26.686714 4294967295
-52.838089 67.105659 -26.541895 4294967295
-52.837543 66.1875 -26.386148 4294967295
-52.837162 66.494057 -26.432972 4294967295
-52.835945 65.576256 -26.271122 4294967295
-52.832108 68.33522 -26.688959 4294967295
-52.827648 67.726822 -26.54822 4294967295
-52.827431 70.481194 -26.99836 4294967295
-52.821011 69.416031 -26.764713 4294967295
-52.818836 66.815636 -26.317896 4294967295
-52.814751 69.880562 -26.783613 4294967295
-52.814625 70.798561 -26.933125 4294967295
-52.813854 68.810143 -26.599697 4294967295
-52.807964 70.039574 -26.747538 4294967295
-52.804024 69.737007 -26.661768 4294967295
-52.80365 69.278198 -26.583059 4294967295
-52.802418 70.197502 -26.722635 4294967295
-52.738438 65.069008 -26.714975 4294967295
-52.715004 64.781799 -26.453691 4294967295
-52.71088 67.38739 -26.843327 4294967295
-52.708851 64.633629 -26.373117 4294967295
-52.702507 65.863792 -26.516932 4294967295
-52.701424 66.017792 -26.532299 4294967295
-52.698204 65.254829 -26.377716 4294967295
-52.696247 66.634453 -26.586084 4294967295
-52.690784 68.475624 -26.838062 4294967295
-52.680195 69.096809 -26.843111 4294967295
-52.67841 68.792336 -26.776882 4294967295
-52.675804 69.712631 -26.903929 4294967295
-52.532772 67.252953 -26.611242 4294967295
-52.519157 66.345604 -26.338478 4294967295
-52.510109 67.578278 -26.457846 4294967295
-52.509285 68.956764 -26.676071 4294967295
-52.509251 67.885231 -26.50029 4294967295
-52.500256 70.49498 -26.845562 4294967295
-52.500145 67.739845 -26.393433 4294967295
-52.499447 69.424484 -26.662933 4294967295
-52.495369 68.203293 -26.425781 4294967295
-52.493877 68.357689 -26.437456 4294967295
-52.490292 68.820114 -26.480471 4294967295
-52.483631 70.815819 -26.746485 4294967295
-52.48032 70.359642 -26.641594 4294967295
-52.477917 70.055641 -26.569914 4294967295
-52.471134 70.67392 -26.609299 4294967295
-52.421112 65.379173 -26.700377 4294967295
-52.414093 64.619308 -26.51218 4294967295
-52.407227 64.931091 -26.500746 4294967295
-52.395412 65.5532 -26.495012 4294967295
-52.387722 64.79364 -26.300762 4294967295
-52.380959 67.09626 -26.615929 4294967295
-52.375717 68.784348 -26.84433 4294967295
-52.374107 68.938759 -26.854954 4294967295
-52.372753 65.112091 -26.216684 4294967295
-52.370342 67.258255 -26.545853 4294967295
-52.369274 66.340363 -26.385984 4294967295
-52.368969 66.187462 -26.358187 4294967295
-52.358871 70.023132 -26.893644 4294967295
-52.355904 66.657768 -26.316227 4294967295
-52.343857 70.189384 -26.784193 4294967295
-52.342049 67.435188 -26.317345 4294967295
-52.337627 67.898399 -26.352867 4294967295
-52.327122 69.591812 -26.534231 4294967295
-52.265728 65.990814 -26.797791 4294967295
-52.260628 66.454193 -26.827175 4294967295
-52.248947 66.769989 -26.772739 4294967295
-52.230556 66.632164 -26.583286 4294967295
-52.223892 65.56562 -26.348515 4294967295
-52.19651 69.722717 -26.779039 4294967295
-52.178505 69.891525 -26.643131 4294967295
-52.175167 70.812836 -26.763281 4294967295
-52.174732 69.435539 -26.534422 4294967295
-52.174507 68.976379 -26.457376 4294967295
-52.156311 70.523415 -26.544863 4294967295
-52.111313 65.989388 -26.803782 4294967295
-52.105728 65.228455 -26.629013 4294967295
-52.103638 64.770737 -26.535372 4294967295
-52.103336 66.455147 -26.807529 4294967295
-52.099438 64.927254 -26.522863 4294967295
-52.099426 66.764511 -26.822613 4294967295
-52.096458 65.848434 -26.64624 4294967295
-52.0811 67.085899 -26.709068 4294967295
-52.076725 66.17083 -26.520109 4294967295
-52.072063 69.236244 -26.978018 4294967295
-52.066643 68.934875 -26.879766 4294967295
-52.061874 67.408173 -26.587496 4294967295
-52.061264 69.704651 -26.956594 4294967295
-52.061104 68.021233 -26.680532 4294967295
-52.059971 68.481438 -26.745378 4294967295
-52.058876 70.012749 -26.985241 4294967295
-52.055664 67.719627 -26.582054 4294967295
-52.052231 66.344116 -26.32655 4294967295
-52.051704 65.425285 -26.171833 4294967295
-52.043663 68.648468 -26.624891 4294967295
-52.040287 67.579422 -26.419935 4294967295
-52.035198 70.186539 -26.799112 4294967295
-52.020115 69.587402 -26.564766 4294967295
-52.011433 70.360504 -26.612221 4294967295
-51.935818 66.617607 -26.722008 4294967295
-51.932781 64.935532 -26.420414 4294967295
-51.92894 66.470161 -26.63582 4294967295
-51.898212 65.882637 -26.262398 4294967295
-51.889091 66.962547 -26.355968 4294967295
-51.794521 66.146088 -26.770288 4294967295
-51.794022 65.380913 -26.641201 4294967295
-51.786205 65.693497 -26.621643 4294967295
-51.784077 66.460846 -26.727358 4294967295
-51.781704 66.003426 -26.631504 4294967295
-51.780926 66.616547 -26.724276 4294967295
-51.780594 65.085388 -26.472034 4294967295
-51.779461 67.383209 -26.83585 4294967295
-51.768745 67.239052 -26.715773 4294967295
-51.766727 66.934494 -26.648035 4294967295
-51.750206 69.244774 -26.875046 4294967295
-51.74958 64.956985 -26.171495 4294967295
-51.741238 69.864731 -26.895046 4294967295
-51.740749 70.78331 -27.040077 4294967295
-51.739067 69.10128 -26.751244 4294967295
-51.732609 67.575478 -26.444723 4294967295
-51.731812 70.3321 -26.886103 4294967295
-51.728088 68.345078 -26.529188 4294967295
-51.725323 68.806839 -26.579418 4294967295
-51.714977 69.581352 -26.612164 4294967295
-51.7131 68.204597 -26.371197 4294967295
-51.708885 70.199089 -26.657738 4294967295
-51.70866 70.505486 -26.705538 4294967295
-51.706554 67.750496 -26.238293 4294967295
-51.688931 70.063385 -26.455736 4294967295
-51.607182 64.639313 -26.235754 4294967295
-51.596786 67.864716 -26.666639 4294967295
-51.592762 68.939842 -26.805195 4294967295
-51.584469 66.649612 -26.358292 4294967295
-51.58218 66.345055 -26.288208 4294967295
-51.576294 67.269173 -26.385468 4294967295
-51.573345 67.118416 -26.334436 4294967295
-51.547966 68.824936 -26.383501 4294967295
-51.540405 69.137779 -26.366354 4294967295
-51.534504 69.602417 -26.38876 4294967295
-51.530571 69.452621 -26.329025 4294967295
-51.488125 64.762909 -26.580956 4294967295
-51.462555 65.08963 -26.404505 4294967295
-51.453358 65.250198 -26.348019 4294967295
-51.447365 64.641975 -26.19544 4294967295
-51.444302 66.4832 -26.466953 4294967295
-51.443329 66.790367 -26.508102 4294967295
-51.437309 68.939316 -26.802948 4294967295
-51.434452 67.716728 -26.578848 4294967295
-51.434181 67.410622 -26.526703 4294967295
-51.433907 68.48288 -26.698322 4294967295
-51.432705 66.339455 -26.339531 4294967295
-51.432266 69.709045 -26.882641 4294967295
-51.430843 70.169464 -26.94458 4294967295
-51.4296 66.188759 -26.287182 4294967295
-51.429581 65.57576 -26.187462 4294967295
-51.421448 67.114784 -26.364395 4294967295
-51.4198 69.107368 -26.673082 4294967295
-51.418549 67.270401 -26.36363 4294967295
-51.416901 66.658844 -26.249537 4294967295
-51.416431 67.578575 -26.394669 4294967295
-51.410954 68.808632 -26.545168 4294967295
-51.403957 69.274071 -26.557938 4294967295
-51.403351 70.346497 -26.726561 4294967295
-51.397377 69.586029 -26.549498 4294967295
-51.396122 70.046547 -26.612972 4294967295
-51.371059 70.52784 -26.466146 4294967295
-51.360065 70.843826 -26.418716 4294967295
-51.310944 66.158165 -26.610477 4294967295
-51.286808 67.096931 -26.546585 4294967295
-51.280865 67.867699 -26.618319 4294967295
-51.225136 70.825256 -26.5987 4294967295
-51.22036 69.450768 -26.333132 4294967295
-51.158028 64.776596 -26.407413 4294967295
-51.155746 66.463608 -26.660339 4294967295
-51.148617 65.550217 -26.448654 4294967295
-51.143055 64.941681 -26.300371 4294967295
-51.142479 67.087112 -26.642778 4294967295
-51.142067 65.248978 -26.341331 4294967295
-51.140614 66.169518 -26.477467 4294967295
-51.14053 66.629181 -26.551189 4294967295
-51.139179 67.549309 -26.688152 4294967295
-51.134068 68.625496 -26.816757 4294967295
-51.132809 67.860901 -26.681692 4294967295
-51.125053 66.028862 -26.315662 4294967295
-51.123543 67.25589 -26.500917 4294967295
-51.120564 68.943169 -26.747549 4294967295
-51.111435 69.410332 -26.741604 4294967295
-51.107365 68.494873 -26.55699 4294967295
-51.106861 65.736946 -26.105816 4294967295
-51.103848 66.812378 -26.253067 4294967295
-51.101212 68.806427 -26.552465 4294967295
-51.098595 69.574463 -26.653437 4294967295
-51.090286 70.194191 -26.679544 4294967295
-51.09016 68.04969 -26.331177 4294967295
-51.087341 68.358513 -26.356003 4294967295
-51.083729 70.506165 -26.67145 4294967295
-51.068409 70.059959 -26.462336 4294967295
-51.067539 69.141418 -26.305815 4294967295
-51.062893 70.830658 -26.537802 4294967295
-51.06028 69.913765 -26.366026 4294967295
-51.059807 69.760956 -26.337059 4294967295
-51.024647 64.758415 -26.599741 4294967295
-51.008564 65.383957 -26.557558 4294967295
-50.962151 64.654312 -26.025675 4294967295
-50.950432 67.57621 -26.393948 4294967295
-50.941212 66.204277 -26.089794 4294967295
-50.929951 68.665924 -26.3876 4294967295
-50.914696 69.445 -26.377613 4294967295
-50.849705 64.61972 -26.402119 4294967295
-50.849403 65.386154 -26.52331 4294967295
-50.837704 64.935677 -26.346426 4294967295
-50.832806 65.859093 -26.452093 4294967295
-50.831596 66.013298 -26.46624 4294967295
-50.831223 65.247337 -26.339146 4294967295
-50.82848 67.08831 -26.61223 4294967295
-50.826515 66.783516 -26.545509 4294967295
-50.817947 68.628716 -26.767397 4294967295
-50.814823 65.566933 -26.244883 4294967295
-50.81105 66.489609 -26.360443 4294967295
-50.809742 69.401337 -26.819199 4294967295
-50.806553 68.025566 -26.568605 4294967295
-50.805882 66.953568 -26.389414 4294967295
-50.802853 69.71347 -26.808344 4294967295
-50.79916 67.418808 -26.404814 4294967295
-50.79707 66.654221 -26.262663 4294967295
-50.795658 70.179024 -26.819523 4294967295
-50.795277 69.873093 -26.766727 4294967295
-50.790829 69.264267 -26.628811 4294967295
-50.781284 68.812759 -26.470999 4294967295
-50.780193 67.740974 -26.288132 4294967295
-50.779724 68.201141 -26.358309 4294967295
-50.775612 70.808922 -26.742941 4294967295
-50.760887 68.983208 -26.317068 4294967295
-50.75177 70.370094 -26.45997 4294967295
-50.746349 70.068321 -26.36301 4294967295
-50.73378 70.692131 -26.351957 4294967295
-50.699379 64.614891 -26.44556 4294967295
-50.689686 65.082275 -26.434942 4294967295
-50.664776 66.174919 -26.390228 4294967295
-50.664474 66.481667 -26.437073 4294967295
-50.659645 67.711411 -26.592663 4294967295
-50.653889 67.256485 -26.468161 4294967295
-50.637997 68.495445 -26.527006 4294967295
-50.637577 69.108597 -26.622227 4294967295
-50.628075 69.576225 -26.613321 4294967295
-50.62611 68.045639 -26.348913 4294967295
-50.617455 68.665886 -26.372166 4294967295
-50.615734 70.046349 -26.579609 4294967295
-50.532284 65.236267 -26.441355 4294967295
-50.53204 65.849457 -26.538067 4294967295
-50.526566 66.926384 -26.663172 4294967295
-50.518673 66.166634 -26.470806 4294967295
-50.50983 66.786751 -26.492474 4294967295
-50.506588 67.402321 -26.562975 4294967295
-50.506298 65.103447 -26.189819 4294967295
-50.504559 65.718086 -26.273491 4294967295
-50.499382 65.415558 -26.178877 4294967295
-50.497135 68.022972 -26.579304 4294967295
-50.496323 67.717201 -26.522825 4294967295
-50.494556 68.484734 -26.63088 4294967295
-50.491554 69.712654 -26.802166 4294967295
-50.481075 69.262039 -26.636736 4294967295
-50.476772 68.806038 -26.525152 4294967295
-50.476707 66.353638 -26.129311 4294967295
-50.475323 68.96048 -26.53721 4294967295
-50.4748 70.339615 -26.754803 4294967295
-50.473106 68.349388 -26.419111 4294967295
-50.459953 67.133881 -26.106714 4294967295
-50.453419 69.132172 -26.370893 4294967295
-50.453041 70.817932 -26.639143 4294967295
-50.449524 67.909088 -26.139277 4294967295
-50.449291 70.055138 -26.483049 4294967295
-50.447304 68.677475 -26.243458 4294967295
-50.443546 69.906815 -26.408264 4294967295
-50.442795 70.673607 -26.525143 4294967295
-50.424103 70.229988 -26.288151 4294967295
-50.376812 64.77562 -26.366014 4294967295
-50.328472 69.718544 -26.734619 4294967295
-50.325291 66.809532 -26.238234 4294967295
-50.323265 65.584389 -26.023062 4294967295
-50.319065 65.89447 -26.035875 4294967295
-50.211014 66.315735 -26.521711 4294967295
-50.200687 67.396782 -26.604496 4294967295
-50.199989 67.703804 -26.647709 4294967295
-50.196121 64.794426 -26.145706 4294967295
-50.195038 66.175232 -26.358229 4294967295
-50.192787 69.088524 -26.806828 4294967295
-50.190254 65.105728 -26.144053 4294967295
-50.190235 64.645638 -26.069883 4294967295
-50.18343 65.417801 -26.134079 4294967295
-50.181267 69.710922 -26.805288 4294967295
-50.177731 66.955643 -26.331131 4294967295
-50.176495 66.496704 -26.246458 4294967295
-50.175495 69.562637 -26.730577 4294967295
-50.175297 68.796783 -26.605721 4294967295
-50.169941 70.639557 -26.854713 4294967295
-50.168018 67.576736 -26.345383 4294967295
-50.167965 68.956139 -26.566689 4294967295
-50.167171 66.657532 -26.190098 4294967295
-50.167007 65.737511 -26.040714 4294967295
-50.163464 68.040344 -26.379749 4294967295
-50.159306 70.342361 -26.713156 4294967295
-50.157322 68.505264 -26.400351 4294967295
-50.153111 68.202179 -26.314505 4294967295
-50.148148 67.286301 -26.123495 4294967295
-50.138992 70.053291 -26.487602 4294967295
-50.13261 69.445641 -26.33366 4294967295
-50.130325 69.907417 -26.387718 4294967295
-50.127338 70.829498 -26.509594 4294967295
-50.122238 70.220856 -26.3668 4294967295
-50.116501 70.532326 -26.366268 4294967295
-50.085129 64.605675 -26.506365 4294967295
-50.049835 67.085831 -26.594261 4294967295
-50.04689 65.555367 -26.322527 4294967295
-50.027946 68.329659 -26.601435 4294967295
-50.01749 69.257736 -26.65847 4294967295
-50.002831 70.495811 -26.728273 4294967295
-49.985794 67.291069 -26.063833 4294967295
-49.981411 69.747887 -26.419783 4294967295
-49.973087 69.141716 -26.249205 4294967295
-49.871243 67.410362 -26.442533 4294967295
-49.870762 66.950844 -26.364616 4294967295
-49.868622 65.879189 -26.173887 4294967295
-49.862587 68.337112 -26.515217 4294967295
-49.861584 66.804909 -26.260632 4294967295
-49.858948 67.267029 -26.311619 4294967295
-49.855354 66.349831 -26.132936 4294967295
-49.853523 68.957687 -26.535173 4294967295
-49.852966 67.885162 -26.358263 4294967295
-49.847946 69.268867 -26.536119 4294967295
-49.846012 68.657387 -26.421068 4294967295
-49.841633 66.667557 -26.063454 4294967295
-49.840839 70.347557 -26.646713 4294967295
-49.840649 67.588562 -26.202559 4294967295
-49.83337 70.660393 -26.6313 4294967295
-49.828262 70.818008 -26.61174 4294967295
-49.824738 69.901489 -26.433846 4294967295
-49.823776 68.21579 -26.155075 4294967295
-49.818325 69.753624 -26.35383 4294967295
-49.803902 70.072449 -26.278368 4294967295
-49.803146 69.459763 -26.173464 4294967295
-49.75959 64.61525 -26.378092 4294967295
-49.758743 65.535774 -26.518206 4294967295
-49.757816 65.076591 -26.436518 4294967295
-49.753742 64.926437 -26.376757 4294967295
-49.749714 66.462585 -26.587669 4294967295
-49.741825 66.775436 -26.568691 4294967295
-49.736855 65.246254 -26.280119 4294967295
-49.711311 67.719803 -26.452744 4294967295
-49.707165 68.029778 -26.466095 4294967295
-49.706215 68.796928 -26.580654 4294967295
-49.697128 66.044357 -26.060066 4294967295
-49.694874 70.645233 -26.777357 4294967295
-49.686916 69.579353 -26.536955 4294967295
-49.674904 69.129547 -26.359701 4294967295
-49.647503 70.532455 -26.344408 4294967295
-49.642666 70.383263 -26.278145 4294967295
-49.598637 65.845177 -26.526573 4294967295
-49.585732 65.548668 -26.366339 4294967295
-49.542816 67.576279 -26.315784 4294967295
-49.542515 70.029083 -26.705608 4294967295
-49.534294 70.342514 -26.683908 4294967295
-49.532597 69.730949 -26.571236 4294967295
-49.525558 70.809662 -26.682289 4294967295
-49.520229 68.974808 -26.342176 4294967295
-49.519279 68.668922 -26.284935 4294967295
-49.518883 68.20919 -26.207905 4294967295
-49.516495 69.284561 -26.359112 4294967295
-49.496281 70.681427 -26.405905 4294967295
-49.494762 70.222778 -26.319244 4294967295
-49.439911 64.926895 -26.350895 4294967295
-49.43578 64.776718 -26.290854 4294967295
-49.433228 65.698814 -26.416042 4294967295
-49.424282 65.245728 -26.265589 4294967295
-49.420357 66.93557 -26.50152 4294967295
-49.414379 66.173676 -26.327566 4294967295
-49.413189 67.401245 -26.513435 4294967295
-49.411961 66.788963 -26.404844 4294967295
-49.406849 66.486343 -26.311905 4294967295
-49.403564 68.941879 -26.675745 4294967295
-49.39806 68.333328 -26.530487 4294967295
-49.388222 69.261154 -26.592949 4294967295
-49.383717 67.885086 -26.333755 4294967295
-49.368862 66.669952 -26.009972 4294967295
-49.368122 67.28421 -26.10174 4294967295
-49.347462 68.221413 -26.071346 4294967295
-49.342583 68.532219 -26.078491 4294967295
-49.286343 65.844559 -26.513851 4294967295
-49.282803 66.307274 -26.556963 4294967295
-49.25845 68.166313 -26.641863 4294967295
-49.248882 68.787247 -26.657743 4294967295
-49.228989 70.489647 -26.756336 4294967295
-49.225483 66.199142 -26.040939 4294967295
-49.210495 68.972244 -26.353254 4294967295
-49.205814 69.74279 -26.435493 4294967295
-49.202374 68.518845 -26.210194 4294967295
-49.194229 69.90583 -26.360708 4294967295
-49.192993 70.213531 -26.399052 4294967295
-49.133411 65.228363 -26.437418 4294967295
-49.122765 66.00338 -26.468594 4294967295
-49.119682 65.085602 -26.295441 4294967295
-49.104527 64.637001 -26.092281 4294967295
-49.09901 66.942223 -26.412102 4294967295
-49.098972 65.715248 -26.216068 4294967295
-49.093105 65.87323 -26.190338 4294967295
-49.083977 66.494034 -26.210068 4294967295
-49.083813 67.567802 -26.379902 4294967295
-49.081451 66.802826 -26.237391 4294967295
