# .PCD v0.7 - Point Cloud Data file format
VERSION 0.7
FIELDS x y z rgb
SIZE 4 4 4 4
TYPE F F F U
COUNT 1 1 1 1
WIDTH 1123
HEIGHT 1
VIEWPOINT 0 0 0 1 0 0 0
POINTS 1123
DATA ascii
-9.4866276 91.531784 -22.62348 4294967295
-9.4859848 90.749519 -22.518787 4294967295
-9.4797077 92.78907 -22.746853 4294967295
-9.4662323 87.832054 -22.935478 4294967295
-9.4491911 88.156944 -22.881405 4294967295
-9.4357014 90.513214 -23.109692 4294967295
-9.4191027 90.83812 -23.058102 4294967295
-9.4164314 91.778587 -23.16448 4294967295
-9.407939 87.090172 -22.511127 4294967295
-9.394496 92.733284 -23.164114 4294967295
-9.3869753 92.113159 -23.041672 4294967295
-9.3737812 89.462448 -22.625042 4294967295
-9.3700914 89.934685 -22.665234 4294967295
-9.359705 91.507355 -22.809774 4294967295
-9.3517475 90.417519 -22.624208 4294967295
-9.3471327 91.203529 -22.699694 4294967295
-9.337286 91.367256 -22.66534 4294967295
-9.3355665 92.93364 -22.85788 4294967295
-9.3332672 86.4049 -22.90564 4294967295
-9.3238735 88.132339 -23.075785 4294967295
-9.320282 87.039719 -22.914524 4294967295
-9.3191233 88.448532 -23.089872 4294967295
-9.3160591 86.886169 -22.870937 4294967295
-9.3095474 87.516579 -22.915676 4294967295
-9.3050308 87.98912 -22.951262 4294967295
-9.2982473 92.491821 -22.590532 4294967295
-9.2879877 89.409225 -23.038658 4294967295
-9.2846909 86.751335 -22.677006 4294967295
-9.2724724 90.20256 -23.053736 4294967295
-9.2675381 88.641418 -22.824478 4294967295
-9.2643957 87.861099 -22.706064 4294967295
-9.2641392 87.70475 -22.684437 4294967295
-9.2511482 89.748505 -22.875134 4294967295
-9.2495403 90.688484 -22.987394 4294967295
-9.2461872 90.534447 -22.948648 4294967295
-9.2461281 86.151596 -22.382563 4294967295
-9.2353487 88.820709 -22.666475 4294967295
-9.2351904 88.351196 -22.60498 4294967295
-9.2296867 91.798164 -23.018864 4294967295
-9.2252321 92.896545 -23.135508 4294967295
-9.2085009 92.439629 -22.982407 4294967295
-9.206645 89.310738 -22.568199 4294967295
-9.1948481 90.101967 -22.60393 4294967295
-9.192894 92.294701 -22.875881 4294967295
-9.1921997 91.199654 -22.730679 4294967295
-9.1668768 89.965492 -22.428907 4294967295
-9.125062 88.628807 -22.923918 4294967295
-9.0974855 89.117798 -22.832037 4294967295
-9.0719213 88.353203 -22.58975 4294967295
-9.0514717 90.246315 -22.71903 4294967295
-9.0245171 92.613762 -22.872862 4294967295
-9.0098362 92.311584 -22.751404 4294967295
-9.002533 87.507027 -22.992081 4294967295
-9.000104 87.665176 -22.998844 4294967295
-8.9793758 92.490639 -22.603327 4294967295
-8.9784622 91.708397 -22.497324 4294967295
-8.9575729 86.599022 -22.622721 4294967295
-8.9541855 86.914459 -22.644388 4294967295
-8.9466982 89.111031 -22.885578 4294967295
-8.9456253 89.424774 -22.920002 4294967295
-8.9429045 89.896172 -22.965498 4294967295
-8.9396572 87.863823 -22.685274 4294967295
-8.9384584 91.463974 -23.142622 4294967295
-8.9357443 88.336174 -22.724216 4294967295
-8.9319496 87.24295 -22.561972 4294967295
-8.9290285 90.37558 -22.949432 4294967295
-8.9268389 91.003067 -23.018021 4294967295
-8.9227562 87.405891 -22.531399 4294967295
-8.9135036 91.638657 -23.025108 4294967295
-8.9078922 92.112175 -23.054647 4294967295
-8.9076509 92.894615 -23.154116 4294967295
-8.899579 88.048386 -22.484186 4294967295
-8.8964615 90.08596 -22.729361 4294967295
-8.8903761 91.968567 -22.937855 4294967295
-8.8895502 88.681793 -22.509571 4294967295
-8.8848057 90.720512 -22.745747 4294967295
-8.8832169 88.529655 -22.45442 4294967295
-8.881793 89.313629 -22.547497 4294967295
-8.8620405 90.267242 -22.559584 4294967295
-8.8541565 92.777817 -22.838903 4294967295
-8.841362 90.908516 -22.526207 4294967295
-8.8315439 87.201401 -22.893522 4294967295
-8.8298931 92.326118 -22.644548 4294967295
-8.8085423 88.93885 -22.988508 4294967295
-8.8035889 88.159859 -22.860386 4294967295
-8.6840067 91.219528 -22.58452 4294967295
-8.682169 87.037277 -22.934418 4294967295
-8.6681843 86.733871 -22.817097 4294967295
-8.6532078 92.494797 -22.576195 4294967295
-8.6502562 87.685379 -22.839331 4294967295
-8.6499519 87.529068 -22.817497 4294967295
-8.649684 92.34079 -22.536621 4294967295
-8.6438389 86.437447 -22.642706 4294967295
-8.6320372 86.602089 -22.597883 4294967295
-8.6234941 88.173622 -22.752466 4294967295
-8.6123428 90.059807 -22.932928 4294967295
-8.611105 87.869141 -22.643942 4294967295
-8.609333 89.905449 -22.896215 4294967295
-8.5999031 91.633705 -23.065933 4294967295
-8.594265 90.385788 -22.873747 4294967295
-8.5925217 88.978142 -22.682764 4294967295
-8.5917511 88.665543 -22.638206 4294967295
-8.5912418 88.039558 -22.554752 4294967295
-8.5850668 88.513657 -22.581251 4294967295
-8.5766888 89.772194 -22.696413 4294967295
-8.574914 90.869308 -22.827724 4294967295
-8.574295 91.808884 -22.945206 4294967295
-8.5666752 91.501411 -22.862991 4294967295
-8.5658522 92.284592 -22.959198 4294967295
-8.5485039 88.38266 -22.35981 4294967295
-8.5423422 92.614937 -22.870173 4294967295
-8.5415401 90.736832 -22.623943 4294967295
-8.5324697 89.333801 -22.392565 4294967295
-8.5129919 92.793159 -22.728895 4294967295
-8.5054455 91.389359 -22.505993 4294967295
-8.4700384 87.229401 -22.670486 4294967295
-8.4599371 88.801987 -22.816427 4294967295
-8.4366188 89.288078 -22.748695 4294967295
-8.4290047 92.110962 -23.069326 4294967295
-8.4257641 89.452332 -22.709187 4294967295
-8.4233227 86.321693 -22.29265 4294967295
-8.4220676 86.165886 -22.265579 4294967295
-8.4179487 87.578583 -22.4244 4294967295
-8.3816347 88.387085 -22.32556 4294967295
-8.380415 90.58078 -22.601009 4294967295
-8.3768749 90.270103 -22.541265 4294967295
-8.362669 91.846382 -22.664677 4294967295
-8.3483028 91.54364 -22.545471 4294967295
-8.3338757 86.586411 -22.723833 4294967295
-8.31462 91.724785 -22.38059 4294967295
-8.3084459 86.447166 -22.564049 4294967295
-8.3075552 92.356567 -22.422384 4294967295
-8.3023691 87.077721 -22.611259 4294967295
-8.3012447 87.391678 -22.64537 4294967295
-8.2741289 87.880234 -22.556929 4294967295
-8.2727814 88.037781 -22.569674 4294967295
-8.268712 86.787552 -22.38616 4294967295
-8.2685709 90.545952 -22.868719 4294967295
-8.2677488 90.076889 -22.803823 4294967295
-8.2589922 91.022461 -22.876547 4294967295
-8.2532625 86.954788 -22.321482 4294967295
-8.2427378 89.938141 -22.646446 4294967295
-8.2423286 88.842148 -22.503227 4294967295
-8.2417507 88.529289 -22.459766 4294967295
-8.2396917 90.723251 -22.730402 4294967295
-8.234827 92.135811 -22.884865 4294967295
-8.2294292 88.224586 -22.351835 4294967295
-8.2196255 90.894272 -22.64044 4294967295
-8.2087917 89.022369 -22.339302 4294967295
-8.2072487 90.276688 -22.491983 4294967295
-8.2027321 89.496651 -22.366484 4294967295
-8.2009735 89.341225 -22.336685 4294967295
-8.1805201 92.801956 -22.667522 4294967295
-8.1717234 90.458755 -22.317204 4294967295
-8.1612997 91.249634 -22.360731 4294967295
-8.1556129 91.410423 -22.349676 4294967295
-8.1542921 92.038055 -22.422997 4294967295
-8.1054115 89.921722 -22.774122 4294967295
-8.0738964 87.280998 -22.25915 4294967295
-8.071414 89.162735 -22.487186 4294967295
-8.0292187 89.662521 -22.316343 4294967295
-8.0251245 90.448822 -22.394581 4294967295
-8.0072432 91.088348 -22.377142 4294967295
-8.001729 87.220261 -22.743786 4294967295
-7.9921784 88.322853 -22.832294 4294967295
-7.979394 92.675339 -22.425888 4294967295
-7.9750614 87.081947 -22.577663 4294967295
-7.9618759 89.1269 -22.766998 4294967295
-7.9599156 87.875473 -22.595348 4294967295
-7.9580388 88.033394 -22.605194 4294967295
-7.9566593 89.443733 -22.778675 4294967295
-7.9517665 88.664207 -22.651331 4294967295
-7.9498539 86.31588 -22.339008 4294967295
-7.9414077 88.514824 -22.574516 4294967295
-7.9373994 91.02314 -22.874365 4294967295
-7.9363098 89.6147 -22.687426 4294967295
-7.9348507 88.989281 -22.598982 4294967295
-7.9291549 87.583427 -22.386707 4294967295
-7.9252 89.935783 -22.666861 4294967295
-7.9247184 90.092728 -22.684336 4294967295
-7.9238925 87.430374 -22.33777 4294967295
-7.8836999 90.905151 -22.560484 4294967295
-7.8781672 90.439163 -22.469864 4294967295
-7.8572421 91.394157 -22.476093 4294967295
-7.8511701 86.430489 -22.698029 4294967295
-7.84936 92.026497 -22.513441 4294967295
-7.8458271 91.715744 -22.453884 4294967295
-7.8430467 86.9058 -22.713932 4294967295
-7.8135381 92.836029 -22.418102 4294967295
-7.8119736 86.77037 -22.52393 4294967295
-7.7818999 90.393379 -22.821962 4294967295
-7.7640185 86.646332 -22.241608 4294967295
-7.7584949 91.506233 -22.834766 4294967295
-7.749651 90.886223 -22.70607 4294967295
-7.7260633 92.469337 -22.778193 4294967295
-7.7203312 92.160309 -22.706697 4294967295
-7.7198925 88.557289 -22.241829 4294967295
-7.7118306 92.792969 -22.740656 4294967295
-7.7088046 89.191917 -22.2617 4294967295
-7.7028656 90.136353 -22.349934 4294967295
-7.6940594 92.022789 -22.543112 4294967295
-7.6826849 87.845184 -22.835754 4294967295
-7.6710052 86.756989 -22.631334 4294967295
-7.667037 91.102196 -22.274864 4294967295
-7.6594639 86.294899 -22.508015 4294967295
-7.6554737 92.364243 -22.372583 4294967295
-7.64188 88.343216 -22.673302 4294967295
-7.6385441 88.658768 -22.69528 4294967295
-7.6259317 87.414352 -22.465658 4294967295
-7.6252084 87.72818 -22.501911 4294967295
-7.6240301 90.234993 -22.816971 4294967295
-7.6076355 88.210312 -22.46629 4294967295
-7.5955534 86.965034 -22.239489 4294967295
-7.5945058 89.942703 -22.615704 4294967295
-7.5940676 89.003098 -22.492737 4294967295
-7.5919914 86.497261 -22.159702 4294967295
-7.5913634 90.10157 -22.618649 4294967295
-7.5842714 87.286194 -22.218117 4294967295
-7.5842242 89.323334 -22.479218 4294967295
-7.5801535 92.771973 -22.898951 4294967295
-7.5622711 91.062195 -22.580484 4294967295
-7.5473318 90.602875 -22.438704 4294967295
-7.5408998 91.704216 -22.544277 4294967295
-7.5348768 91.551895 -22.491333 4294967295
-7.533411 86.584732 -22.73683 4294967295
-7.5300908 92.025375 -22.525505 4294967295
-7.5253797 90.931961 -22.35914 4294967295
-7.5084877 91.414223 -22.327291 4294967295
-7.4852309 87.087387 -22.53441 4294967295
-7.4843097 89.593987 -22.850704 4294967295
-7.4278622 88.066856 -22.342232 4294967295
-7.4178243 91.363991 -22.709322 4294967295
-7.3979416 92.631393 -22.761625 4294967295
-7.3912725 90.756393 -22.484364 4294967295
-7.3892541 89.504196 -22.312658 4294967295
-7.3802819 89.823967 -22.303955 4294967295
-7.3799353 92.801186 -22.683645 4294967295
-7.3325615 87.081947 -22.577986 4294967295
-7.3298707 88.023659 -22.683786 4294967295
-7.3262076 86.302895 -22.442989 4294967295
-7.3054619 89.606918 -22.751646 4294967295
-7.3043194 87.571251 -22.484476 4294967295
-7.2980981 90.238579 -22.791843 4294967295
-7.288384 88.522301 -22.518208 4294967295
-7.2809811 87.430519 -22.337349 4294967295
-7.2801247 86.96093 -22.272429 4294967295
-7.2749906 89.941658 -22.625988 4294967295
-7.2747483 87.904945 -22.363672 4294967295
-7.262732 88.383377 -22.358517 4294967295
-7.2547269 92.77549 -22.876915 4294967295
-7.2526102 89.017265 -22.383755 4294967295
-7.2518392 88.861092 -22.359478 4294967295
-7.2491984 91.683167 -22.706423 4294967295
-7.2488613 92.466553 -22.804901 4294967295
-7.2443504 91.060043 -22.599787 4294967295
-7.236639 89.498589 -22.357086 4294967295
-7.2259736 91.543243 -22.560036 4294967295
-7.22543 91.856972 -22.597216 4294967295
-7.2251549 90.760391 -22.455221 4294967295
-7.2216196 89.195641 -22.235191 4294967295
-7.2209473 92.643524 -22.673166 4294967295
-7.2193971 92.174675 -22.60454 4294967295
-7.2159872 90.140038 -22.325037 4294967295
-7.1962018 90.624283 -22.277637 4294967295
-7.1495142 89.133827 -22.717211 4294967295
-7.1472192 86.628616 -22.38368 4294967295
-7.1348677 88.830734 -22.597498 4294967295
-7.1222663 90.406097 -22.729616 4294967295
-7.1205344 89.31073 -22.579794 4294967295
-7.103538 90.262711 -22.607813 4294967295
-7.1031809 86.815155 -22.16433 4294967295
-7.0846496 92.312714 -22.76593 4294967295
-7.034008 89.841599 -22.169846 4294967295
-7.0008726 92.05999 -22.270842 4294967295
-6.9948502 86.309525 -22.388968 4294967295
-6.9945674 88.973289 -22.728373 4294967295
-6.9928389 87.407822 -22.518471 4294967295
-6.9832268 87.727768 -22.506409 4294967295
-6.9730244 87.107887 -22.370787 4294967295
-6.9709821 90.399582 -22.780807 4294967295
-6.9682937 88.208115 -22.485525 4294967295
-6.9648032 88.837311 -22.546803 4294967295
-6.9527102 88.375572 -22.421003 4294967295
-6.9443192 91.045105 -22.716343 4294967295
-6.9395614 86.503487 -22.108845 4294967295
-6.9384885 89.639137 -22.504276 4294967295
-6.9379988 91.676224 -22.762232 4294967295
-6.9221029 90.277489 -22.495586 4294967295
-6.9210706 91.375053 -22.630329 4294967295
-6.9151616 89.968948 -22.41782 4294967295
-6.9071994 90.601456 -22.45484 4294967295
-6.9037738 90.91732 -22.47636 4294967295
-6.9016881 92.172386 -22.625435 4294967295
-6.8876729 92.652596 -22.609564 4294967295
-6.8843465 89.83387 -22.230568 4294967295
-6.8801775 91.247604 -22.388474 4294967295
-6.8784084 92.816025 -22.579372 4294967295
-6.8471889 86.770828 -22.520035 4294967295
-6.8357224 86.151688 -22.377663 4294967295
-6.811574 89.928879 -22.727829 4294967295
-6.7823067 87.128212 -22.208395 4294967295
-6.7728825 87.448174 -22.19742 4294967295
-6.7593722 88.084534 -22.204412 4294967295
-6.7582016 91.690117 -22.659088 4294967295
-6.7555299 92.475388 -22.744776 4294967295
-6.738585 90.136932 -22.352428 4294967295
-6.7374396 88.726791 -22.165766 4294967295
-6.6626391 92.699501 -22.261808 4294967295
-6.6549048 86.635353 -22.329172 4294967295
-6.6545062 86.478867 -22.306969 4294967295
-6.6478276 86.953629 -22.330942 4294967295
-6.646595 88.678497 -22.54468 4294967295
-6.6446223 89.93338 -22.694233 4294967295
-6.6442485 88.523407 -22.511948 4294967295
-6.6362724 89.155769 -22.548914 4294967295
-6.6361566 87.745308 -22.36797 4294967295
-6.6358132 90.409592 -22.706648 4294967295
-6.6258154 90.730011 -22.69261 4294967295
-6.6234722 89.321381 -22.499683 4294967295
-6.6144519 91.521454 -22.731255 4294967295
-6.6134458 91.835503 -22.765854 4294967295
-6.6125278 87.447876 -22.199984 4294967295
-6.60818 88.077972 -22.256626 4294967295
-6.607245 91.056564 -22.632206 4294967295
-6.601512 89.02317 -22.340782 4294967295
-6.6010394 86.357948 -21.997438 4294967295
-6.5860939 91.38504 -22.557854 4294967295
-6.5709124 92.649597 -22.635944 4294967295
-6.5668006 92.025734 -22.533613 4294967295
-6.5549383 90.623466 -22.289169 4294967295
-6.5488944 91.725128 -22.396717 4294967295
-6.5463176 86.756935 -22.631437 4294967295
-6.542964 92.826599 -22.504847 4294967295
-6.5407143 90.319931 -22.172144 4294967295
-6.5306273 90.954277 -22.197739 4294967295
-6.524847 86.457954 -22.475309 4294967295
-6.457262 87.914459 -22.290228 4294967295
-6.4415355 90.119919 -22.485603 4294967295
-6.4169617 89.353287 -22.252708 4294967295
-6.4162259 88.569786 -22.148575 4294967295
-6.415874 88.883644 -22.186737 4294967295
-6.3851328 86.130417 -22.548943 4294967295
-6.3556809 92.689255 -22.342222 4294967295
-6.3112459 88.217911 -22.410292 4294967295
-6.3085742 87.906212 -22.355837 4294967295
-6.2992711 87.128601 -22.205515 4294967295
-6.297256 89.795006 -22.534922 4294967295
-6.2944918 89.169975 -22.439964 4294967295
-6.2924685 89.014618 -22.409033 4294967295
-6.2907124 88.702301 -22.359526 4294967295
-6.2906141 86.663979 -22.0987 4294967295
-6.2821202 91.999634 -22.733328 4294967295
-6.2806883 90.120079 -22.485558 4294967295
-6.276772 88.555115 -22.264277 4294967295
-6.2658358 91.384453 -22.565496 4294967295
-6.2596726 87.469048 -22.031813 4294967295
-6.2557392 88.099091 -22.090694 4294967295
-6.2555394 91.235039 -22.489956 4294967295
-6.2457104 92.652679 -22.616987 4294967295
-6.2434516 92.184128 -22.544798 4294967295
-6.241642 91.715195 -22.475021 4294967295
-6.2391019 90.619621 -22.321247 4294967295
-6.2378492 89.522881 -22.174366 4294967295
-6.2320395 90.781395 -22.303164 4294967295
-6.2320285 89.997391 -22.20302 4294967295
-6.228518 89.686203 -22.144039 4294967295
-6.215085 91.106995 -22.251741 4294967295
-6.2143192 92.832138 -22.467726 4294967295
-6.2136021 91.892029 -22.343807 4294967295
-6.1921721 92.3778 -22.288279 4294967295
-6.1886911 86.624443 -22.416567 4294967295
-6.172184 87.576103 -22.44762 4294967295
-6.1495991 86.180199 -22.145765 4294967295
-6.1481233 89.316795 -22.537975 4294967295
-6.1399603 91.046394 -22.713936 4294967295
-6.1213961 86.512703 -22.033747 4294967295
-6.1192665 86.357269 -22.002243 4294967295
-6.0951571 87.0009 -21.952354 4294967295
-6.070714 88.429352 -22.000782 4294967295
-6.0381436 91.58902 -22.225534 4294967295
-6.0203342 87.099785 -22.435959 4294967295
-6.0127873 92.704979 -22.229012 4294967295
-5.9634614 88.549461 -22.309816 4294967295
-5.9619622 86.825401 -22.081722 4294967295
-5.9607639 87.296745 -22.13529 4294967295
-5.9571567 90.121643 -22.475819 4294967295
-5.9533567 87.929108 -22.175436 4294967295
-5.9510207 89.49881 -22.362843 4294967295
-5.9500418 92.164284 -22.69733 4294967295
-5.9499755 88.245064 -22.197241 4294967295
-5.9485941 88.873291 -22.269804 4294967295
-5.9451814 92.637909 -22.731129 4294967295
-5.9431553 89.033852 -22.260536 4294967295
-5.9422913 89.818466 -22.355864 4294967295
-5.9313416 90.92363 -22.436893 4294967295
-5.9282856 89.357765 -22.220518 4294967295
-5.924284 91.712486 -22.498867 4294967295
-5.9237814 87.635468 -21.976234 4294967295
-5.9195819 90.775139 -22.353647 4294967295
-5.9155521 91.405151 -22.411932 4294967295
-5.8967824 88.752075 -21.970987 4294967295
-5.8963838 90.634659 -22.208864 4294967295
-5.8948474 91.890274 -22.360544 4294967295
-5.8946319 91.263191 -22.279421 4294967295
-5.8827691 92.05571 -22.315577 4294967295
-5.8732247 86.777054 -22.469778 4294967295
-5.8665338 91.596817 -22.168283 4294967295
-5.8569598 92.858353 -22.276745 4294967295
-5.8469787 87.892097 -22.46858 4294967295
-5.8325715 86.96109 -22.271219 4294967295
-5.8099647 86.505714 -22.089703 4294967295
-5.8028855 89.803635 -22.471403 4294967295
-5.7654438 90.300133 -22.330193 4294967295
-5.7615151 91.086899 -22.408993 4294967295
-5.7375245 92.358299 -22.43996 4294967295
-5.7162213 92.530403 -22.345545 4294967295
-5.6673522 88.061676 -22.387821 4294967295
-5.6502385 88.700546 -22.375872 4294967295
-5.6423826 86.823868 -22.093948 4294967295
-5.6353474 87.769745 -22.176088 4294967295
-5.6352787 87.612938 -22.155737 4294967295
-5.6265006 90.912033 -22.528076 4294967295
-5.6235909 88.875641 -22.252848 4294967295
-5.6225052 90.444496 -22.446745 4294967295
-5.6200385 90.289429 -22.413544 4294967295
-5.6085343 89.983833 -22.311884 4294967295
-5.607038 89.200706 -22.203978 4294967295
-5.6059408 91.083305 -22.437759 4294967295
-5.6041789 92.338776 -22.588018 4294967295
-5.6026731 90.615196 -22.360327 4294967295
-5.591507 88.427017 -22.020727 4294967295
-5.5833578 90.785583 -22.276688 4294967295
-5.5825582 92.511055 -22.492041 4294967295
-5.5819235 90.15921 -22.189095 4294967295
-5.5783873 91.573219 -22.34988 4294967295
-5.5783458 91.730064 -22.369627 4294967295
-5.5608177 91.899361 -22.295593 4294967295
-5.5544953 92.844833 -22.381495 4294967295
-5.54105 87.254402 -22.47344 4294967295
-5.531857 86.476562 -22.324329 4294967295
-5.5115108 87.117432 -22.295128 4294967295
-5.5068717 89.158958 -22.529778 4294967295
-5.4984231 88.223991 -22.36474 4294967295
-5.4980145 88.067459 -22.342585 4294967295
-5.4918771 88.385262 -22.349621 4294967295
-5.4795394 86.825127 -22.083794 4294967295
-5.4768839 89.650017 -22.428972 4294967295
-5.4687152 86.675461 -22.005785 4294967295
-5.4641633 89.345184 -22.320894 4294967295
-5.44244 87.006828 -21.904886 4294967295
-5.4077907 91.266563 -22.258444 4294967295
-5.406848 92.051422 -22.353193 4294967295
-5.3816175 92.853661 -22.317873 4294967295
-5.3726935 87.573029 -22.473293 4294967295
-5.303092 89.188538 -22.300322 4294967295
-5.2961907 89.820641 -22.343206 4294967295
-5.2959261 91.702477 -22.581137 4294967295
-5.294611 86.527252 -21.915569 4294967295
-5.2922263 88.725426 -22.18231 4294967295
-5.2921848 92.332222 -22.640882 4294967295
-5.2906961 90.922203 -22.453449 4294967295
-5.2842798 91.240334 -22.459021 4294967295
-5.2829571 90.457169 -22.352209 4294967295
-5.2749701 88.423424 -22.050039 4294967295
-5.2679367 92.50634 -22.531157 4294967295
-5.2627721 91.412323 -22.36393 4294967295
-5.2612925 87.805023 -21.896971 4294967295
-5.2454805 90.797089 -22.191635 4294967295
-5.2424002 91.583572 -22.274921 4294967295
-5.2421417 92.838448 -22.433109 4294967295
-5.2413411 91.898026 -22.309155 4294967295
-5.2374887 90.175117 -22.069057 4294967295
-5.2355695 89.391876 -21.958979 4294967295
-5.2297502 92.690514 -22.346907 4294967295
-5.2292328 92.220345 -22.284298 4294967295
-5.2268181 90.02562 -21.992008 4294967295
-5.1978402 86.798302 -22.298962 4294967295
-5.1850576 86.963669 -22.250574 4294967295
-5.1827068 86.494652 -22.178154 4294967295
-5.1683679 87.288551 -22.201254 4294967295
-5.1616731 90.116074 -22.524433 4294967295
-5.1555352 88.081512 -22.232405 4294967295
-5.1426644 86.678139 -21.98403 4294967295
-5.1394162 90.445168 -22.445398 4294967295
-5.1355982 92.799644 -22.723949 4294967295
-5.1344962 87.154335 -22.000235 4294967295
-5.119771 87.47805 -21.961435 4294967295
-5.1094174 89.367981 -22.145531 4294967295
-5.1028643 91.098076 -22.329899 4294967295
-5.0901647 89.067383 -22.002754 4294967295
-5.0566196 92.699448 -22.282303 4294967295
-5.0170264 87.752686 -22.31249 4294967295
-4.9965596 89.335007 -22.402584 4294967295
-4.9641275 88.886635 -22.169722 4294967295
-4.962925 86.533592 -21.864134 4294967295
-4.9621944 91.240822 -22.458364 4294967295
-4.9584231 89.047424 -22.159218 4294967295
-4.9521866 90.463608 -22.305347 4294967295
-4.9508362 89.993942 -22.238348 4294967295
-4.946722 91.565376 -22.415689 4294967295
-4.9458904 90.781723 -22.311619 4294967295
-4.9422417 92.352699 -22.491407 4294967295
-4.9340258 91.731186 -22.367901 4294967295
-4.9283333 87.969368 -21.85903 4294967295
-4.9274955 88.597755 -21.934349 4294967295
-4.9141312 89.862419 -22.022577 4294967295
-4.9099078 91.905121 -22.259201 4294967295
-4.8996377 92.539925 -22.284143 4294967295
-4.8811126 92.710045 -22.20529 4294967295
-4.866796 87.118095 -22.290045 4294967295
-4.8486814 87.600815 -22.253262 4294967295
-4.8410687 86.350716 -22.05323 4294967295
-4.8289323 89.496521 -22.387085 4294967295
-4.8267894 86.203201 -21.957157 4294967295
-4.8217316 90.44252 -22.468218 4294967295
-4.8185563 86.679466 -21.973078 4294967295
-4.8173575 89.818192 -22.365248 4294967295
-4.8163824 87.779396 -22.101027 4294967295
-4.8149409 86.995743 -21.993675 4294967295
-4.7925344 88.580086 -22.073576 4294967295
-4.7917829 92.502251 -22.567547 4294967295
-4.7878733 92.818657 -22.586544 4294967295
-4.7680292 89.695297 -22.0825 4294967295
-4.7644019 89.070045 -21.98345 4294967295
-4.7489362 91.434608 -22.199959 4294967295
-4.7397089 92.06871 -22.230495 4294967295
-4.7310295 91.290276 -22.08466 4294967295
-4.6975622 88.221657 -22.385502 4294967295
-4.6764235 89.177116 -22.392464 4294967295
-4.6618943 90.128197 -22.434599 4294967295
-4.6460981 89.354736 -22.251007 4294967295
-4.615808 89.061615 -22.049992 4294967295
-4.6154399 90.31723 -22.207361 4294967295
-4.6147804 90.631477 -22.243677 4294967295
-4.6141825 92.200623 -22.43956 4294967295
-4.6123705 88.750069 -21.991854 4294967295
-4.6107559 92.830437 -22.500938 4294967295
-4.6061172 90.951309 -22.237413 4294967295
-4.6009312 88.600868 -21.911053 4294967295
-4.6001101 89.700127 -22.046137 4294967295
-4.5887561 92.061768 -22.284433 4294967295
-4.5613074 92.708862 -22.218094 4294967295
-4.5566282 91.299789 -22.013996 4294967295
-4.540081 88.219345 -22.404163 4294967295
-4.5305099 87.127625 -22.213961 4294967295
-4.5303435 87.441528 -22.252892 4294967295
-4.525341 86.346481 -22.086927 4294967295
-4.4906149 88.72345 -22.200972 4294967295
-4.4752736 87.007385 -21.900398 4294967295
-4.4692988 86.540375 -21.808872 4294967295
-4.4508371 87.808601 -21.870087 4294967295
-4.4380059 89.543976 -22.020945 4294967295
-4.4358501 91.585533 -22.268242 4294967295
-4.4267392 91.748848 -22.239748 4294967295
-4.3846049 86.646912 -22.234566 4294967295
-4.3841934 86.17646 -22.172684 4294967295
-4.3488359 90.122292 -22.482313 4294967295
-4.3397999 89.344154 -22.334936 4294967295
-4.3350272 87.935226 -22.13056 4294967295
-4.3258281 90.60878 -22.419901 4294967295
-4.3208532 87.473862 -21.995621 4294967295
-4.3207264 88.415649 -22.114351 4294967295
-4.3203678 88.258949 -22.092548 4294967295
-4.3180099 91.241676 -22.45796 4294967295
-4.2948031 91.885429 -22.414398 4294967295
-4.2814426 90.953415 -22.224215 4294967295
-4.2755713 92.840294 -22.431698 4294967295
-4.2746749 90.330383 -22.108742 4294967295
-4.2734241 89.075531 -21.942915 4294967295
-4.2700391 92.530464 -22.362597 4294967295
-4.2661777 91.74868 -22.242691 4294967295
-4.2645578 89.866478 -21.995371 4294967295
-4.259522 91.596436 -22.1875 4294967295
-4.2479157 92.389252 -22.225389 4294967295
-4.2359076 90.828148 -21.962765 4294967295
-4.2126794 88.223083 -22.375643 4294967295
-4.204483 86.18866 -22.073666 4294967295
-4.2015071 89.328743 -22.455576 4294967295
-4.1924496 87.922867 -22.228651 4294967295
-4.189631 86.669273 -22.054596 4294967295
-4.189187 88.39579 -22.271009 4294967295
-4.1779513 86.519997 -21.972775 4294967295
-4.1743312 86.993294 -22.013266 4294967295
-4.1732893 88.563431 -22.206633 4294967295
-4.1726532 89.505318 -22.322554 4294967295
-4.1707215 89.192833 -22.272558 4294967295
-4.1698551 88.094948 -22.128773 4294967295
-4.15904 87.317383 -21.971985 4294967295
-4.1589727 90.612961 -22.389212 4294967295
-4.1583591 89.985817 -22.30645 4294967295
-4.1582146 87.631874 -22.007399 4294967295
-4.1549473 89.831253 -22.268496 4294967295
-4.1546683 92.027771 -22.545252 4294967295
-4.1545291 86.849403 -21.888382 4294967295
-4.125854 88.909431 -21.99501 4294967295
-4.1188827 91.268448 -22.256342 4294967295
-4.0476055 86.499763 -22.135664 4294967295
-4.0469031 87.284882 -22.231339 4294967295
-4.0136971 90.131561 -22.413261 4294967295
-3.9986625 88.729584 -22.154869 4294967295
-3.9838133 91.407372 -22.414076 4294967295
-3.9638062 88.596138 -21.95051 4294967295
-3.9480686 89.077782 -21.926868 4294967295
-3.9395328 92.850662 -22.358643 4294967295
-3.9261959 90.034744 -21.930414 4294967295
-3.9022539 90.836311 -21.903145 4294967295
-3.9010937 92.407074 -22.095764 4294967295
-3.8925872 92.256096 -22.030903 4294967295
-3.8890305 86.341148 -22.129055 4294967295
-3.8840873 88.227554 -22.341307 4294967295
-3.8785954 87.917412 -22.272554 4294967295
-3.8781793 88.859138 -22.389517 4294967295
-3.8570988 90.285515 -22.456818 4294967295
-3.8552883 88.717682 -22.248674 4294967295
-3.8551509 86.99128 -22.029406 4294967295
-3.8508575 87.308075 -22.04645 4294967295
-3.8506818 89.505417 -22.323631 4294967295
-3.8482616 89.977798 -22.370415 4294967295
-3.844836 86.68409 -21.93512 4294967295
-3.8408132 91.238068 -22.489889 4294967295
-3.8377199 86.531754 -21.877615 4294967295
-3.8358839 87.631981 -22.007036 4294967295
-3.8337784 87.162392 -21.936283 4294967295
-3.8330412 92.184731 -22.567924 4294967295
-3.8329904 90.459015 -22.349297 4294967295
-3.8259161 89.051437 -22.133169 4294967295
-3.8256884 88.580688 -22.072365 4294967295
-3.8222187 90.780289 -22.3321 4294967295
-3.8161306 87.488106 -21.882736 4294967295
-3.8059587 88.436974 -21.948214 4294967295
-3.7983012 92.52301 -22.424149 4294967295
-3.7915146 91.429337 -22.249327 4294967295
-3.7764831 89.870003 -21.971279 4294967295
-3.7660077 91.133171 -22.074865 4294967295
-3.7517107 91.77108 -22.078796 4294967295
-3.7353392 91.625534 -21.972456 4294967295
-3.7297375 91.943474 -21.982601 4294967295
-3.6558774 88.272583 -21.986963 4294967295
-3.6453681 86.238022 -21.673191 4294967295
-3.6326268 86.71759 -21.665537 4294967295
-3.6240723 90.178116 -22.057415 4294967295
-3.6104121 90.030472 -21.965479 4294967295
-3.6097286 90.815964 -22.061157 4294967295
-3.6082234 91.915871 -22.192175 4294967295
-3.607842 91.288239 -22.110764 4294967295
-3.6030605 89.721443 -21.886967 4294967295
-3.5982769 89.253571 -21.80213 4294967295
-3.5934329 92.554138 -22.193558 4294967295
-3.5917144 91.456451 -22.04554 4294967295
-3.5763001 91.153145 -21.924515 4294967295
-3.5750997 86.335678 -22.172703 4294967295
-3.573935 92.096901 -22.031174 4294967295
-3.5611227 87.286583 -22.218086 4294967295
-3.546026 87.924408 -22.217878 4294967295
-3.5400422 86.515572 -22.00769 4294967295
-3.5294094 88.092445 -22.150129 4294967295
-3.5250404 86.996429 -21.988148 4294967295
-3.5204403 90.923393 -22.459959 4294967295
-3.5186899 88.413567 -22.133318 4294967295
-3.5048831 89.521667 -22.199457 4294967295
-3.4991162 89.996475 -22.228592 4294967295
-3.4944382 86.85952 -21.806936 4294967295
-3.4909124 88.903198 -22.04645 4294967295
-3.4889598 88.276474 -21.956757 4294967295
-3.481524 91.891953 -22.373943 4294967295
-3.4804628 90.323189 -22.169985 4294967295
-3.4790413 87.811989 -21.84491 4294967295
-3.4774415 92.051743 -22.372272 4294967295
-3.4733799 89.38607 -22.013592 4294967295
-3.4721406 86.717079 -21.669504 4294967295
-3.470124 89.702293 -22.036129 4294967295
-3.4696839 87.504089 -21.755861 4294967295
-3.4402425 88.780296 -21.759535 4294967295
-3.4397986 90.665138 -21.995419 4294967295
-3.4266388 90.517166 -21.906235 4294967295
-3.4028635 91.789955 -21.939766 4294967295
-3.3760245 86.831429 -22.032335 4294967295
-3.3668296 87.151482 -22.023605 4294967295
-3.3383832 90.467194 -22.290403 4294967295
-3.2831762 87.835022 -21.662571 4294967295
-3.2667952 89.888123 -21.834368 4294967295
-3.2645402 90.360847 -21.882029 4294967295
-3.2587445 89.579453 -21.752314 4294967295
-3.2098687 89.032516 -22.28372 4294967295
-3.2078559 88.405998 -22.193853 4294967295
-3.1983345 90.923637 -22.46089 4294967295
-3.1978345 86.371437 -21.883366 4294967295
-3.1942794 88.88604 -22.181961 4294967295
-3.1921506 87.474426 -21.992321 4294967295
-3.191361 91.713036 -22.5233 4294967295
-3.1898096 91.086449 -22.435913 4294967295
-3.1792583 87.011795 -21.865032 4294967295
-3.1726513 88.115471 -21.969135 4294967295
-3.1633844 90.162865 -22.178173 4294967295
-3.163276 88.749863 -21.999174 4294967295
-3.1614895 90.635109 -22.227674 4294967295
-3.1561303 89.6968 -22.080582 4294967295
-3.155441 87.655739 -21.819155 4294967295
-3.1471012 91.272942 -22.231352 4294967295
-3.137445 87.19635 -21.665016 4294967295
-3.1364827 91.437286 -22.195387 4294967295
-3.1364629 91.908249 -22.254732 4294967295
-3.133199 88.612976 -21.821247 4294967295
-3.1310987 90.813004 -22.087816 4294967295
-3.1090815 92.084366 -22.13072 4294967295
-3.0435643 88.094147 -22.137901 4294967295
-3.03565 87.785385 -22.056717 4294967295
-3.0289385 89.359879 -22.219637 4294967295
-2.9514673 90.825813 -21.991415 4294967295
-2.9075007 86.193489 -22.032024 4294967295
-2.891717 87.302948 -22.087929 4294967295
-2.8901434 87.93203 -22.158907 4294967295
-2.8865635 89.03334 -22.278759 4294967295
-2.8759985 88.412445 -22.144169 4294967295
-2.8658967 89.518219 -22.229837 4294967295
-2.8610363 86.537773 -21.827976 4294967295
-2.8566091 91.565155 -22.438507 4294967295
-2.854337 89.683037 -22.189053 4294967295
-2.851563 90.783844 -22.313105 4294967295
-2.8484826 88.744865 -22.039541 4294967295
-2.846482 87.803902 -21.910189 4294967295
-2.8424609 87.021149 -21.790022 4294967295
-2.8405166 87.49369 -21.839281 4294967295
-2.8398452 90.477898 -22.212111 4294967295
-2.8396749 86.708778 -21.735773 4294967295
-2.8359628 91.265518 -22.290752 4294967295
-2.8287399 91.741455 -22.312298 4294967295
-2.8216338 90.1763 -22.077074 4294967295
-2.8161552 91.436195 -22.206774 4294967295
-2.8161011 89.237755 -21.929235 4294967295
-2.8134987 88.139915 -21.776896 4294967295
-2.8062463 87.201996 -21.619946 4294967295
-2.7911952 90.354103 -21.937372 4294967295
-2.787915 88.94252 -21.741867 4294967295
-2.7862008 88.315178 -21.653605 4294967295
-2.7855592 90.043793 -21.868217 4294967295
-2.7340908 86.829521 -22.047337 4294967295
-2.7055871 89.046707 -22.175257 4294967295
-2.6654594 86.088608 -21.588854 4294967295
-2.6504822 89.397842 -21.926416 4294967295
-2.6402271 87.362221 -21.615238 4294967295
-2.6399574 89.719101 -21.910931 4294967295
-2.6379821 88.620743 -21.761967 4294967295
-2.6108763 90.681404 -21.877539 4294967295
-2.609153 91.310928 -21.947714 4294967295
-2.5950406 91.163559 -21.854078 4294967295
-2.5878954 87.290764 -22.185341 4294967295
-2.5856781 86.35006 -22.055016 4294967295
-2.5736103 88.08522 -22.20957 4294967295
-2.5690246 87.931244 -22.16581 4294967295
-2.534987 88.738998 -22.086786 4294967295
-2.534097 86.854767 -21.844633 4294967295
-2.5337212 90.467041 -22.297766 4294967295
-2.5304654 90.155258 -22.241196 4294967295
-2.522542 87.176506 -21.823801 4294967295
-2.5197194 89.534439 -22.105906 4294967295
-2.5150044 89.06646 -22.021902 4294967295
-2.5046012 89.387566 -22.007099 4294967295
-2.5005262 88.290718 -21.84726 4294967295
-2.497345 91.277008 -22.20657 4294967295
-2.4912274 88.925301 -21.877821 4294967295
-2.4895775 86.56945 -21.572201 4294967295
-2.4845459 90.971741 -22.100134 4294967295
-2.4722388 87.523743 -21.600359 4294967295
-2.4609685 87.845482 -21.581038 4294967295
-2.4412684 89.901596 -21.735451 4294967295
-2.3765225 86.381012 -21.804735 4294967295
-2.352437 87.339371 -21.79768 4294967295
-2.3441408 87.81617 -21.813719 4294967295
-2.3307371 86.72496 -21.605188 4294967295
-2.3218167 87.04509 -21.59819 4294967295
-2.3154445 90.034782 -21.940868 4294967295
-2.3050807 87.999062 -21.629557 4294967295
-2.2933977 88.635445 -21.647726 4294967295
-2.2861428 90.368881 -21.827503 4294967295
-2.2766953 89.118088 -21.619904 4294967295
-2.2494504 87.45829 -22.12175 4294967295
-2.2383888 86.837257 -21.984982 4294967295
-2.2360075 88.72345 -22.209774 4294967295
-2.2182593 87.164536 -21.919548 4294967295
-2.2176886 87.636177 -21.975891 4294967295
-2.2113719 88.42572 -22.041803 4294967295
-2.1917341 86.553284 -21.702095 4294967295
-2.1873393 90.012436 -22.114178 4294967295
-2.184442 86.715157 -21.683844 4294967295
-2.1840575 88.915123 -21.958706 4294967295
-2.1818099 87.973976 -21.82835 4294967295
-2.1802104 90.959579 -22.195589 4294967295
-2.1756594 90.334473 -22.092829 4294967295
-2.1724284 89.551277 -21.97716 4294967295
-2.1667778 86.412254 -21.552141 4294967295
-2.1661401 89.08419 -21.885071 4294967295
-2.1588113 88.303429 -21.747988 4294967295
-2.1464016 91.139786 -22.039171 4294967295
-2.1251869 89.897324 -21.770458 4294967295
-2.1094491 89.750778 -21.668652 4294967295
-2.0991526 90.543571 -21.713867 4294967295
-2.0912647 86.670982 -22.039032 4294967295
-2.0661891 89.200333 -22.224554 4294967295
-2.0370204 87.491768 -21.855339 4294967295
-1.9789249 88.315704 -21.651659 4294967295
-1.9737229 90.676392 -21.921045 4294967295
-1.9638127 88.011292 -21.533424 4294967295
-1.9572365 91.159004 -21.894524 4294967295
-1.9250941 87.616562 -22.132158 4294967295
-1.9112014 86.368889 -21.90189 4294967295
-1.9015557 86.846458 -21.910984 4294967295
-1.9008278 87.318253 -21.966459 4294967295
-1.8970147 87.163628 -21.926874 4294967295
-1.8922302 88.109367 -22.020502 4294967295
-1.8892339 89.36795 -22.162891 4294967295
-1.8888237 88.739952 -22.081781 4294967295
-1.8858258 88.584854 -22.046448 4294967295
-1.8749307 90.476959 -22.226727 4294967295
-1.8624396 90.956604 -22.221022 4294967295
-1.855836 86.71891 -21.653418 4294967295
-1.8528961 89.54937 -21.993732 4294967295
-1.8526727 88.292557 -21.83456 4294967295
-1.8465834 87.039261 -21.644819 4294967295
-1.8438078 88.926971 -21.867483 4294967295
-1.8435252 90.341171 -22.043753 4294967295
-1.8340367 89.719139 -21.915442 4294967295
-1.8328927 87.834091 -21.672428 4294967295
-1.8284589 90.03714 -21.925947 4294967295
-1.7775959 90.85733 -21.760338 4294967295
-1.7632686 86.988617 -22.050495 4294967295
-1.6929351 89.077187 -21.941875 4294967295
-1.6863374 87.667221 -21.729912 4294967295
-1.6722107 87.362061 -21.617039 4294967295
-1.6641775 88.153282 -21.67408 4294967295
-1.6625154 90.354599 -21.94187 4294967295
-1.5785284 87.003769 -21.92905 4294967295
-1.5774633 86.375916 -21.84458 4294967295
-1.5739111 87.949478 -22.023495 4294967295
-1.5708332 88.422806 -22.066717 4294967295
-1.5696906 86.852356 -21.86347 4294967295
-1.5616242 87.32901 -21.880838 4294967295
-1.5452552 88.282539 -21.914349 4294967295
-1.541762 88.756241 -21.955429 4294967295
-1.5416546 89.856094 -22.092962 4294967295
-1.5381148 89.230034 -21.995707 4294967295
-1.5230325 90.025711 -22.016151 4294967295
-1.5139498 89.717552 -21.929609 4294967295
-1.4869379 87.849266 -21.552698 4294967295
-1.4733676 89.587547 -21.699484 4294967295
-1.4701903 90.375618 -21.781689 4294967295
-1.4656414 90.693047 -21.797575 4294967295
-1.4097776 88.108444 -22.028896 4294967295
-1.3961487 88.902992 -22.056908 4294967295
-1.3635134 87.195663 -21.670918 4294967295
-1.3481725 87.520035 -21.630922 4294967295
-1.3441304 88.623085 -21.7481 4294967295
-1.3259591 86.119133 -21.338198 4294967295
-1.3143209 88.328293 -21.554266 4294967295
-1.2978973 89.754219 -21.646809 4294967295
-1.2411995 87.798935 -21.952274 4294967295
-1.2398647 86.699692 -21.80736 4294967295
-1.2299832 88.120552 -21.933687 4294967295
-1.225939 86.394257 -21.695871 4294967295
-1.21983 87.184158 -21.762875 4294967295
-1.2123575 88.760742 -21.921383 4294967295
-1.2116562 87.503838 -21.760033 4294967295
-1.1976823 89.870529 -21.983471 4294967295
-1.1974354 89.556404 -21.942776 4294967295
-1.196066 90.18589 -22.014528 4294967295
-1.1937766 89.244522 -21.884436 4294967295
-1.1657783 87.061874 -21.463539 4294967295
-1.1460357 89.119003 -21.617857 4294967295
-1.1454525 88.647675 -21.555676 4294967295
-1.1438731 90.53537 -21.78413 4294967295
-1.1236465 90.391792 -21.659853 4294967295
-1.0512484 86.402695 -21.627472 4294967295
-1.0244263 87.363342 -21.607191 4294967295
-1.0021808 86.905937 -21.433117 4294967295
-0.98827422 88.173119 -21.519028 4294967295
-0.96887338 89.915695 -21.635679 4294967295
-0.95559078 89.610054 -21.527674 4294967295
-0.90726662 88.592026 -21.99354 4294967295
-0.90145952 89.224442 -22.042345 4294967295
-0.9007625 87.810448 -21.861526 4294967295
-0.88202041 87.508217 -21.725449 4294967295
-0.88076478 87.194588 -21.679569 4294967295
-0.87762469 86.724907 -21.604256 4294967295
-0.87574548 89.398651 -21.929434 4294967295
-0.86515182 87.361908 -21.618725 4294967295
-0.86460721 89.09166 -21.832609 4294967295
-0.86209381 88.778923 -21.780256 4294967295
-0.86191988 88.307396 -21.720264 4294967295
-0.84108609 89.736076 -21.790094 4294967295
-0.83388358 88.011223 -21.536247 4294967295
-0.82730901 86.599869 -21.324936 4294967295
-0.82305861 89.905319 -21.716835 4294967295
-0.8207916 90.378502 -21.764235 4294967295
-0.81602442 88.966522 -21.562363 4294967295
-0.8022626 89.604683 -21.570204 4294967295
-0.80024952 90.077797 -21.618927 4294967295
-0.7746374 86.53022 -21.886127 4294967295
-0.72297722 87.978287 -21.797161 4294967295
-0.70517582 90.033508 -21.961363 4294967295
-0.69732481 86.265076 -21.448353 4294967295
-0.65661222 86.920326 -21.317385 4294967295
-0.64541191 89.916183 -21.633942 4294967295
-0.6294027 88.353859 -21.354538 4294967295
-0.59135967 87.172958 -21.852531 4294967295
-0.564318 88.13369 -21.831474 4294967295
-0.54545671 87.517014 -21.655722 4294967295
-0.53771859 87.993774 -21.674959 4294967295
-0.53657079 88.937935 -21.78713 4294967295
-0.53412032 86.580666 -21.479271 4294967295
-0.52791238 89.258095 -21.781952 4294967295
-0.52568942 90.20285 -21.888561 4294967295
-0.52318412 87.059547 -21.482067 4294967295
-0.5181998 89.578972 -21.771353 4294967295
-0.51291019 88.796249 -21.645754 4294967295
-0.50859392 87.698128 -21.485756 4294967295
-0.48617169 86.768631 -21.252234 4294967295
-0.47926161 89.762077 -21.590786 4294967295
-0.476235 89.449524 -21.535856 4294967295
-0.4245736 87.176369 -21.825312 4294967295
-0.42190671 87.806915 -21.890278 4294967295
-0.39449459 87.352951 -21.690432 4294967295
-0.3818121 86.732018 -21.54656 4294967295
-0.37006429 89.884628 -21.879618 4294967295
-0.3479 88.484024 -21.588762 4294967295
-0.31391349 89.292793 -21.512562 4294967295
-0.2205212 86.574524 -21.528343 4294967295
-0.21519271 87.049812 -21.560005 4294967295
-0.20740131 88.627586 -21.716667 4294967295
-0.2055801 89.57225 -21.82527 4294967295
-0.2051491 87.370842 -21.547802 4294967295
-0.2044162 87.843178 -21.603041 4294967295
-0.1959234 86.904839 -21.441452 4294967295
-0.17925151 89.117844 -21.63125 4294967295
-0.16914719 88.180649 -21.461424 4294967295
-0.1549636 88.347198 -21.408327 4294967295
-0.15415069 87.246277 -21.266441 4294967295
-0.14274751 88.040443 -21.306309 4294967295
-0.1253165 89.782677 -21.43327 4294967295
-0.086893998 87.657494 -21.809227 4294967295
-0.032575201 88.636299 -21.648827 4294967295
-0.01285 86.131683 -21.233166 4294967295
-0.0033132001 89.599243 -21.616842 4294967295
-0.0019330001 86.453362 -21.216551 4294967295
0.024885399 88.516449 -21.334789 4294967295
0.045859199 89.15963 -21.305992 4294967295
0.1141997 86.896439 -21.508661 4294967295
0.1262936 87.376137 -21.505716 4294967295
0.1340721 87.223793 -21.446259 4294967295
0.13572609 87.854172 -21.516396 4294967295
0.1364938 88.011986 -21.532114 4294967295
0.14133769 86.284286 -21.291142 4294967295
0.1498111 87.076508 -21.346056 4294967295
0.15326691 86.763977 -21.289057 4294967295
0.17213009 88.979141 -21.467672 4294967295
0.17795441 88.510895 -21.378923 4294967295
0.1880955 88.202744 -21.287729 4294967295
0.2407307 86.402206 -21.629164 4294967295
0.27189189 88.938751 -21.784046 4294967295
0.30426541 89.431824 -21.677544 4294967295
0.31923991 87.396202 -21.345736 4294967295
0.32933149 88.50425 -21.431665 4294967295
0.34410271 89.772705 -21.513304 4294967295
0.454229 86.120216 -21.324989 4294967295
0.45691991 86.751411 -21.389801 4294967295
0.46485329 89.116615 -21.643749 4294967295
0.46783859 87.230461 -21.392973 4294967295
0.4735274 89.43692 -21.638739 4294967295
0.4743402 88.021439 -21.457952 4294967295
0.48002169 87.080856 -21.311152 4294967295
0.48136851 87.553864 -21.363186 4294967295
0.4894948 87.716454 -21.341347 4294967295
0.492125 86.616333 -21.190453 4294967295
0.49694291 88.350777 -21.381872 4294967295
0.50288057 88.66938 -21.390837 4294967295
0.5188995 88.837189 -21.328733 4294967295
0.52669722 89.786598 -21.406738 4294967295
0.53527337 88.53302 -21.205912 4294967295
0.57940871 86.411888 -21.550404 4294967295
0.59167308 87.835594 -21.66445 4294967295
0.64950609 87.400597 -21.31082 4294967295
0.66626948 86.309258 -21.087944 4294967295
0.68240207 88.051338 -21.221666 4294967295
0.7084325 89.327629 -21.246037 4294967295
0.76179552 88.784966 -21.738989 4294967295
0.79356951 87.546707 -21.420414 4294967295
0.79427791 87.861916 -21.456032 4294967295
0.7998513 88.494972 -21.506109 4294967295
0.80226618 86.135574 -21.199574 4294967295
0.80446821 89.284744 -21.580652 4294967295
0.80973321 88.029221 -21.396982 4294967295
0.82848519 89.457817 -21.478052 4294967295
0.92343301 86.582214 -21.464794 4294967295
0.94095677 86.750664 -21.395302 4294967295
0.94142967 86.278763 -21.334074 4294967295
0.94208342 87.066154 -21.428785 4294967295
0.98977089 88.828056 -21.402027 4294967295
1.0000855 88.20507 -21.271183 4294967295
1.0010036 88.677933 -21.325336 4294967295
1.0173213 89.160797 -21.301224 4294967295
1.0657933 87.671387 -21.700186 4294967295
1.1342605 89.28907 -21.548529 4294967295
1.1537018 88.19986 -21.31271 4294967295
1.1616083 88.677231 -21.331366 4294967295
1.170966 88.368401 -21.244675 4294967295
1.2246479 86.725533 -21.597094 4294967295
1.2324955 87.20256 -21.616043 4294967295
1.2458856 86.581535 -21.469816 4294967295
1.257573 89.106804 -21.723831 4294967295
1.2645179 89.425995 -21.727777 4294967295
1.2657619 88.482704 -21.604023 4294967295
1.2724509 88.644386 -21.589693 4294967295
1.2762201 86.443184 -21.296402 4294967295
1.2804109 87.862587 -21.451439 4294967295
1.2852316 89.59687 -21.642374 4294967295
1.2957404 87.557541 -21.334549 4294967295
1.3143502 87.726845 -21.259789 4294967295
1.3371079 89.001038 -21.301132 4294967295
1.4022839 87.522415 -21.614319 4294967295
1.451933 87.081688 -21.304195 4294967295
1.4596103 88.031174 -21.382792 4294967295
1.4670377 88.193359 -21.364765 4294967295
1.4783201 86.46843 -21.092232 4294967295
1.4810729 88.51725 -21.332865 4294967295
1.4967834 87.897484 -21.175009 4294967295
1.5057441 89.005524 -21.26671 4294967295
1.5396903 86.877571 -21.659134 4294967295
1.5723623 87.370338 -21.552595 4294967295
1.57546 86.427872 -21.419537 4294967295
1.5759603 87.215225 -21.514837 4294967295
1.6117376 88.81208 -21.529566 4294967295
1.6127282 88.970123 -21.544117 4294967295
1.6190481 87.714821 -21.355654 4294967295
1.6305298 86.147362 -21.101854 4294967295
1.6396312 89.459793 -21.466808 4294967295
1.6773205 88.224434 -21.11973 4294967295
1.6956465 88.708725 -21.085804 4294967295
1.7219266 86.103432 -21.457788 4294967295
1.7785615 87.24102 -21.308655 4294967295
1.7990078 86.781464 -21.146698 4294967295
1.8055602 89.462563 -21.446131 4294967295
1.8105125 87.576195 -21.186424 4294967295
1.8176849 88.368195 -21.24802 4294967295
1.8222853 86.48101 -20.989986 4294967295
1.8301902 87.746193 -21.106621 4294967295
1.8312004 88.219353 -21.160215 4294967295
1.8384209 89.011467 -21.221571 4294967295
1.8809534 86.259087 -21.491238 4294967295
1.9050941 86.431572 -21.389009 4294967295
1.9354454 87.237892 -21.333672 4294967295
1.9386439 87.712288 -21.37619 4294967295
1.9504141 86.932365 -21.219069 4294967295
1.9648706 89.146133 -21.419865 4294967295
1.9891907 88.689392 -21.2386 4294967295
1.990538 89.320198 -21.310005 4294967295
2.0793388 87.226578 -21.424133 4294967295
2.0991726 88.026382 -21.421928 4294967295
2.1097858 86.300766 -21.153496 4294967295
2.1124215 88.822098 -21.45289 4294967295
2.1465054 86.79628 -21.027166 4294967295
2.1497333 87.585991 -21.108656 4294967295
2.1525331 88.375374 -21.192286 4294967295
2.1535378 89.006027 -21.265396 4294967295
2.1758749 87.917648 -21.016092 4294967295
2.2483065 88.175766 -21.505466 4294967295
2.2579677 87.867012 -21.417822 4294967295
2.26004 87.39592 -21.348808 4294967295
2.2621944 88.342072 -21.455147 4294967295
2.2673464 89.132599 -21.526861 4294967295
2.2690485 87.24411 -21.28396 4294967295
2.3044171 86.47863 -21.008337 4294967295
2.3164036 88.691696 -21.221582 4294967295
2.3179104 88.062569 -21.135866 4294967295
2.3195846 86.330498 -20.912481 4294967295
2.3304472 86.652428 -20.896923 4294967295
2.3339062 89.333023 -21.211702 4294967295
2.424078 89.444252 -21.591698 4294967295
2.4823222 87.906624 -21.103979 4294967295
2.4854026 89.168854 -21.244713 4294967295
2.4854367 87.120781 -20.990675 4294967295
2.4897702 88.068901 -21.086096 4294967295
2.5157008 88.715675 -21.033974 4294967295
2.5179937 88.2444 -20.963863 4294967295
2.5472903 87.05806 -21.493067 4294967295
2.586283 86.452431 -21.21936 4294967295
2.588511 86.926369 -21.266733 4294967295
2.6056585 88.827179 -21.41486 4294967295
2.6070528 87.410545 -21.232254 4294967295
2.6207261 87.261597 -21.144135 4294967295
2.6296387 89.472549 -21.372627 4294967295
2.6392109 86.17012 -20.914715 4294967295
2.657268 86.654137 -20.88269 4294967295
2.6664419 88.550972 -21.070957 4294967295
2.7286756 87.857643 -21.492779 4294967295
2.7328289 88.017738 -21.491468 4294967295
2.8223867 88.862305 -21.14035 4294967295
2.8270757 88.392578 -21.058334 4294967295
2.8378289 89.502464 -21.141035 4294967295
2.8781352 86.432518 -21.379606 4294967295
2.9155526 86.613243 -21.211838 4294967295
2.925833 87.722404 -21.296879 4294967295
2.9306948 88.04052 -21.311543 4294967295
2.9334357 88.672318 -21.375803 4294967295
2.9428968 87.418045 -21.172501 4294967295
2.9614387 89.162781 -21.294197 4294967295
2.9787631 86.96772 -20.934509 4294967295
3.0178673 89.041359 -20.99243 4294967295
3.0754547 88.029686 -21.39752 4294967295
3.0771976 86.45546 -21.193939 4294967295
3.07848 87.874084 -21.362921 4294967295
3.0790632 87.244347 -21.282063 4294967295
3.1521723 87.605293 -20.955696 4294967295
3.1635311 88.558151 -21.015913 4294967295
3.1832457 89.358788 -21.014887 4294967295
3.1898844 86.582458 -21.459475 4294967295
3.1978257 86.902382 -21.458784 4294967295
3.2337255 88.184914 -21.4354 4294967295
3.2372224 86.296654 -21.184216 4294967295
3.2391021 87.400673 -21.311195 4294967295
3.2464373 87.090164 -21.235628 4294967295
3.2534199 87.882278 -21.298172 4294967295
3.2616773 88.832718 -21.373817 4294967295
3.2636867 88.676468 -21.344318 4294967295
3.2697744 88.050133 -21.236036 4294967295
