# .PCD v0.7 - Point Cloud Data file format
VERSION 0.7
FIELDS x y z rgb
SIZE 4 4 4 4
TYPE F F F U
COUNT 1 1 1 1
WIDTH 1147
HEIGHT 1
VIEWPOINT 0 0 0 1 0 0 0
POINTS 1147
DATA ascii
41.256237 104.59111 -17.980255 4294967295
41.25769 105.39407 -18.064653 4294967295
41.259991 102.3469 -17.713785 4294967295
41.278065 102.83871 -17.698347 4294967295
41.283154 102.68113 -17.660791 4294967295
41.286705 106.05294 -18.025204 4294967295
41.295563 105.89776 -17.973179 4294967295
41.302406 99.710373 -17.90317 4294967295
41.304493 105.10075 -17.848883 4294967295
41.306446 99.873039 -17.905645 4294967295
41.308369 100.35536 -17.952251 4294967295
41.342735 101.01631 -17.892273 4294967295
41.351315 103.42738 -18.129227 4294967295
41.367798 101.51177 -17.850031 4294967295
41.371647 103.92034 -18.105162 4294967295
41.378143 100.07336 -17.648281 4294967295
41.380112 103.28358 -18.000711 4294967295
41.394596 101.36645 -17.72913 4294967295
41.407761 104.4226 -18.020533 4294967295
41.41119 105.22671 -18.097326 4294967295
41.411667 100.89458 -17.609564 4294967295
41.414753 102.6617 -17.79574 4294967295
41.416122 103.62526 -17.898464 4294967295
41.430382 101.86817 -17.645735 4294967295
41.451973 105.41116 -17.958826 4294967295
41.485291 102.22044 -17.470932 4294967295
41.516235 106.25155 -17.802256 4294967295
41.526093 102.79114 -18.026169 4294967295
41.564167 100.8872 -17.664211 4294967295
41.571575 103.77993 -17.95969 4294967295
41.572571 99.92881 -17.523968 4294967295
41.583595 101.37964 -17.643681 4294967295
41.584358 102.50355 -17.766729 4294967295
41.585918 103.14636 -17.832727 4294967295
41.58791 106.19595 -18.166864 4294967295
41.601986 105.40212 -18.022982 4294967295
41.60508 101.87333 -17.615271 4294967295
41.608536 103.48035 -17.781994 4294967295
41.609791 104.28349 -17.867138 4294967295
41.611927 105.56843 -18.002861 4294967295
41.622349 104.45127 -17.83699 4294967295
41.637146 102.2126 -17.528278 4294967295
41.644405 103.66156 -17.662453 4294967295
41.656876 104.15035 -17.668627 4294967295
41.66391 105.27807 -17.767622 4294967295
41.665989 100.69097 -17.895035 4294967295
41.667465 105.76167 -17.807983 4294967295
41.673386 101.01601 -17.902672 4294967295
41.673958 100.21405 -17.81053 4294967295
41.676498 101.17821 -17.908718 4294967295
41.678867 104.96581 -17.674297 4294967295
41.684071 106.09251 -17.780317 4294967295
41.692574 101.66862 -17.901091 4294967295
41.699738 106.42284 -17.756266 4294967295
41.722504 99.598991 -17.552479 4294967295
41.740772 101.85637 -17.734398 4294967295
41.744003 100.41356 -17.560062 4294967295
41.744061 104.58627 -18.027561 4294967295
41.758442 105.076 -18.02644 4294967295
41.799648 106.38396 -18.012506 4294967295
41.805077 102.37446 -17.541988 4294967295
41.805828 103.33813 -17.647083 4294967295
41.831455 104.47669 -17.67487 4294967295
41.834637 104.96014 -17.716658 4294967295
41.881752 100.07695 -17.635244 4294967295
41.881939 103.92851 -18.066103 4294967295
41.884537 105.95273 -17.633535 4294967295
41.886486 102.16608 -17.850939 4294967295
41.886806 101.52431 -17.777781 4294967295
41.889111 100.88361 -17.697006 4294967295
41.89687 100.40639 -17.613338 4294967295
41.905205 103.13963 -17.887184 4294967295
41.906887 101.69615 -17.718901 4294967295
41.921501 99.777885 -17.447048 4294967295
41.933784 101.87187 -17.633926 4294967295
41.951653 102.84522 -17.67346 4294967295
41.954887 100.75986 -17.4272 4294967295
41.959877 104.29462 -17.803862 4294967295
41.965012 103.495 -17.694292 4294967295
41.9669 104.61972 -17.812952 4294967295
41.968719 105.58378 -17.913877 4294967295
41.974419 100.51778 -17.97261 4294967295
41.979099 103.66365 -17.658377 4294967295
41.97982 105.2693 -17.835464 4294967295
41.980068 103.02202 -17.582706 4294967295
41.98159 106.23334 -17.936562 4294967295
42.008091 105.928 -17.799246 4294967295
42.0257 104.9751 -17.623974 4294967295
42.035301 105.4624 -17.641203 4294967295
42.045273 100.23624 -17.665648 4294967295
42.069397 102.4969 -17.825132 4294967295
42.088585 101.38414 -17.625889 4294967295
42.095009 102.99303 -17.781139 4294967295
42.118843 102.20395 -17.600103 4294967295
42.130379 103.81596 -17.735823 4294967295
42.137188 103.33826 -17.655855 4294967295
42.150311 103.98801 -17.677618 4294967295
42.165836 99.569214 -17.770344 4294967295
42.213055 101.03996 -17.751709 4294967295
42.217571 106.43569 -17.69029 4294967295
42.228069 100.40623 -17.622438 4294967295
42.23283 102.49568 -17.837938 4294967295
42.237991 99.930084 -17.530584 4294967295
42.242783 100.73551 -17.602179 4294967295
42.24823 103.14648 -17.851004 4294967295
42.252884 103.79115 -17.905123 4294967295
42.25795 101.22565 -17.598173 4294967295
42.258854 102.83153 -17.774492 4294967295
42.263275 100.26522 -17.469934 4294967295
42.267593 101.55217 -17.597292 4294967295
42.27523 104.44607 -17.891674 4294967295
42.284725 103.48844 -17.747583 4294967295
42.287388 105.41616 -17.953068 4294967295
42.288433 104.77476 -17.877197 4294967295
42.292694 102.36916 -17.591314 4294967295
42.293179 105.09855 -17.895021 4294967295
42.296005 99.870552 -17.945959 4294967295
42.301498 102.69529 -17.593636 4294967295
42.317783 101.90161 -17.441534 4294967295
42.328907 102.0685 -17.417017 4294967295
42.344337 103.0409 -17.465986 4294967295
42.354427 106.09768 -17.769049 4294967295
42.356758 105.93851 -17.74217 4294967295
42.36451 100.55047 -17.75633 4294967295
42.383362 99.597687 -17.576527 4294967295
42.415272 101.86312 -17.706371 4294967295
42.502609 101.17707 -17.93759 4294967295
42.519684 103.84947 -17.523689 4294967295
42.522095 100.22491 -17.755524 4294967295
42.532757 101.51496 -17.858587 4294967295
42.540592 99.75351 -17.631079 4294967295
42.542999 100.71809 -17.729708 4294967295
42.553036 105.31425 -17.558254 4294967295
42.555466 100.40393 -17.646238 4294967295
42.55751 101.84991 -17.80014 4294967295
42.561821 101.37074 -17.729815 4294967295
42.576683 102.82391 -17.834827 4294967295
42.584877 102.66805 -17.785639 4294967295
42.591232 103.79536 -17.887146 4294967295
42.593395 100.90672 -17.555523 4294967295
42.612785 105.25246 -17.966648 4294967295
42.614964 101.07935 -17.491266 4294967295
42.628426 103.17451 -17.673561 4294967295
42.629398 103.65675 -17.723749 4294967295
42.62944 105.42271 -17.921164 4294967295
42.631191 106.22631 -18.004274 4294967295
42.640827 101.73625 -17.464558 4294967295
42.6521 103.34863 -17.601301 4294967295
42.654949 104.15316 -17.680271 4294967295
42.659977 104.31664 -17.679079 4294967295
42.664417 100.05143 -17.830835 4294967295
42.66518 102.23183 -17.425648 4294967295
42.666027 105.76522 -17.817707 4294967295
42.666885 102.39342 -17.437109 4294967295
42.674129 104.80657 -17.679047 4294967295
42.691471 100.70848 -17.79961 4294967295
42.697235 100.23009 -17.723768 4294967295
42.711494 106.1131 -17.68042 4294967295
42.739162 103.3037 -17.905298 4294967295
42.747162 105.65222 -17.490646 4294967295
42.753361 101.38521 -17.635721 4294967295
42.80085 104.78403 -17.832064 4294967295
42.80949 104.14679 -17.727354 4294967295
42.814098 104.47059 -17.745722 4294967295
42.817921 106.39941 -17.946648 4294967295
42.854473 102.88772 -17.412376 4294967295
42.868652 105.78701 -17.681767 4294967295
42.869362 104.34194 -17.517403 4294967295
42.882893 101.36494 -17.777815 4294967295
42.884914 102.00822 -17.841932 4294967295
42.893421 102.33409 -17.845472 4294967295
42.896282 101.53299 -17.744829 4294967295
42.896618 99.766891 -17.546003 4294967295
42.899349 102.97957 -17.894722 4294967295
42.914581 106.13522 -17.542904 4294967295
42.915138 102.50692 -17.780813 4294967295
42.917538 100.74199 -17.57416 4294967295
42.923405 104.27755 -17.946831 4294967295
42.933407 100.42959 -17.477856 4294967295
42.935425 103.80286 -17.847277 4294967295
42.94046 103.48465 -17.792217 4294967295
42.94455 105.89502 -18.045904 4294967295
42.94669 105.09367 -17.948027 4294967295
42.951641 100.27905 -17.390503 4294967295
42.971165 102.85985 -17.603609 4294967295
42.974373 101.25548 -17.411795 4294967295
42.976871 104.46897 -17.761469 4294967295
42.977917 105.59351 -17.883146 4294967295
42.981411 104.79274 -17.780111 4294967295
42.983894 103.99128 -17.680899 4294967295
42.990498 106.40363 -17.925066 4294967295
42.991035 106.08285 -17.887125 4294967295
43.005928 103.20086 -17.507311 4294967295
43.007004 99.896965 -17.778757 4294967295
43.033169 100.71414 -17.769035 4294967295
43.033955 100.23291 -17.712204 4294967295
43.054131 104.67428 -17.48564 4294967295
43.088509 101.86898 -17.684351 4294967295
43.118614 102.20711 -17.605837 4294967295
43.162502 105.76524 -17.834 4294967295
43.191952 103.53373 -17.47081 4294967295
43.196918 100.71301 -17.780848 4294967295
43.199726 100.23289 -17.716347 4294967295
43.203667 104.02238 -17.480175 4294967295
43.211529 105.15142 -17.575994 4294967295
43.213314 105.9556 -17.658968 4294967295
43.222595 100.0849 -17.611551 4294967295
43.228394 105.48251 -17.547848 4294967295
43.228535 101.21228 -17.714626 4294967295
43.235561 101.05561 -17.669991 4294967295
43.242035 99.774376 -17.501822 4294967295
43.243618 102.98697 -17.854729 4294967295
43.255573 100.90614 -17.576059 4294967295
43.274261 101.88021 -17.612797 4294967295
43.275566 100.43534 -17.446283 4294967295
43.278004 103.16708 -17.742157 4294967295
43.287598 102.36954 -17.616007 4294967295
43.306156 105.91302 -17.940311 4294967295
43.306499 104.1469 -17.741669 4294967295
43.313549 106.23846 -17.948137 4294967295
43.31374 99.883286 -17.881039 4294967295
43.314453 105.2756 -17.83708 4294967295
43.314541 102.706 -17.549629 4294967295
43.332191 105.60709 -17.805655 4294967295
43.334679 104.64495 -17.688566 4294967295
43.341896 103.846 -17.571434 4294967295
43.344139 103.52601 -17.527025 4294967295
43.346027 102.24183 -17.376234 4294967295
43.351162 104.33321 -17.590115 4294967295
43.363155 106.42822 -17.777885 4294967295
43.369919 104.82595 -17.572784 4294967295
43.401909 101.85883 -17.761822 4294967295
43.410416 101.54243 -17.693684 4294967295
43.419258 103.47433 -17.875408 4294967295
43.428272 104.60337 -17.966768 4294967295
43.43124 102.19648 -17.686462 4294967295
43.468529 103.66304 -17.706532 4294967295
43.505825 103.04176 -17.493343 4294967295
43.51976 101.02928 -17.858091 4294967295
43.531784 105.30569 -17.646124 4294967295
43.53223 104.50273 -17.554722 4294967295
43.533955 100.55544 -17.750496 4294967295
43.537991 105.63057 -17.658484 4294967295
43.548332 101.52687 -17.803614 4294967295
43.554878 100.72759 -17.689133 4294967295
43.560246 103.13919 -17.937788 4294967295
43.560822 105.1619 -17.518122 4294967295
43.568104 100.41369 -17.603136 4294967295
43.579865 101.22326 -17.648258 4294967295
43.589218 105.9818 -17.500208 4294967295
43.590317 102.03213 -17.698338 4294967295
43.591633 99.784081 -17.442196 4294967295
43.600483 100.11024 -17.444546 4294967295
43.60569 104.61021 -17.927015 4294967295
43.609562 103.97015 -17.840635 4294967295
43.611164 103.4893 -17.780766 4294967295
43.61129 100.91945 -17.493301 4294967295
43.615585 105.57931 -17.997097 4294967295
43.620483 99.960548 -17.350792 4294967295
43.622425 101.40758 -17.504929 4294967295
43.623306 102.37189 -17.609226 4294967295
43.623432 103.01446 -17.680492 4294967295
43.631813 103.34045 -17.684612 4294967295
43.633129 101.73485 -17.500252 4294967295
43.63459 105.10864 -17.871351 4294967295
43.638416 100.29176 -17.318722 4294967295
43.652081 104.79757 -17.76926 4294967295
43.659931 103.67772 -17.613991 4294967295
43.665314 104.16271 -17.647408 4294967295
43.667419 100.0559 -17.823339 4294967295
43.667683 106.25205 -17.871565 4294967295
43.67239 102.72088 -17.45915 4294967295
43.75124 106.46172 -17.573151 4294967295
43.765659 102.51933 -17.720379 4294967295
43.765865 103.00126 -17.77339 4294967295
43.788746 102.21107 -17.597139 4294967295
43.798527 104.30471 -17.793221 4294967295
43.827816 100.78677 -17.287807 4294967295
43.839649 104.6496 -17.673494 4294967295
43.854725 102.0874 -17.329473 4294967295
43.85722 106.42674 -17.804232 4294967295
43.861416 104.18015 -17.537342 4294967295
43.866356 100.07404 -17.702139 4294967295
43.870285 104.50658 -17.539658 4294967295
43.874847 105.79451 -17.665859 4294967295
43.880497 105.47649 -17.608618 4294967295
43.883839 106.12106 -17.667704 4294967295
43.890762 105.16109 -17.53393 4294967295
43.905193 104.84806 -17.443462 4294967295
43.914185 103.63375 -17.915567 4294967295
43.920834 99.943237 -17.478146 4294967295
43.926483 102.51655 -17.743641 4294967295
43.927662 102.67783 -17.757101 4294967295
43.930183 101.07296 -17.568298 4294967295
43.931591 103.16187 -17.796011 4294967295
43.933582 101.39613 -17.591303 4294967295
43.934628 100.91476 -17.533569 4294967295
43.936962 102.2012 -17.668158 4294967295
43.939461 100.27478 -17.44356 4294967295
43.943554 104.13229 -17.858315 4294967295
43.959736 101.732 -17.528273 4294967295
43.962151 104.46416 -17.82387 4294967295
43.974461 105.11368 -17.849031 4294967295
43.978279 100.61751 -17.332617 4294967295
43.990059 105.92577 -17.879679 4294967295
43.993626 104.96413 -17.758678 4294967295
43.99577 103.35891 -17.571323 4294967295
44.002426 105.45112 -17.779184 4294967295
44.017586 99.58419 -17.707756 4294967295
44.02253 99.74749 -17.707001 4294967295
44.034744 103.86312 -17.477781 4294967295
44.035431 102.41715 -17.313789 4294967295
44.041462 102.90271 -17.344791 4294967295
44.056236 100.56905 -17.669233 4294967295
44.137081 102.86308 -17.614746 4294967295
44.142891 99.9739 -17.2701 4294967295
44.179459 102.40488 -17.400921 4294967295
44.180328 103.69093 -17.54105 4294967295
44.181065 101.28073 -17.269337 4294967295
44.182854 104.65642 -17.639044 4294967295
44.183392 105.46001 -17.726606 4294967295
44.188347 102.73129 -17.403208 4294967295
44.18985 104.01772 -17.540945 4294967295
44.203686 106.11443 -17.721678 4294967295
44.207428 102.25984 -17.27734 4294967295
44.208244 101.20385 -17.797405 4294967295
44.223476 101.69413 -17.793652 4294967295
44.226665 103.07436 -17.294346 4294967295
44.226669 105.16372 -17.527393 4294967295
44.230782 100.89507 -17.676508 4294967295
44.233353 105.64968 -17.555931 4294967295
44.233631 100.25407 -17.594086 4294967295
44.241089 101.86456 -17.7451 4294967295
44.247818 101.38641 -17.665964 4294967295
44.248005 105.33676 -17.464766 4294967295
44.249992 103.63629 -17.908529 4294967295
44.280029 100.44019 -17.436869 4294967295
44.283058 106.00002 -17.404146 4294967295
44.286686 102.05067 -17.590954 4294967295
44.29071 104.14133 -17.808662 4294967295
44.295368 99.966484 -17.325193 4294967295
44.302551 105.11186 -17.871468 4294967295
44.316563 104.4774 -17.746971 4294967295
44.320927 103.51595 -17.623026 4294967295
44.332165 105.93215 -17.849333 4294967295
44.333996 103.202 -17.537878 4294967295
44.335293 100.79202 -17.264139 4294967295
44.394798 104.36153 -17.433966 4294967295
44.400787 102.82484 -17.88007 4294967295
44.404408 102.02379 -17.776897 4294967295
44.405121 106.29601 -17.610058 4294967295
44.423832 99.945976 -17.470798 4294967295
44.435482 101.07714 -17.552284 4294967295
44.441833 103.97239 -17.850716 4294967295
44.459866 101.73338 -17.532013 4294967295
44.507282 104.17037 -17.621983 4294967295
44.526852 103.21727 -17.440756 4294967295
44.527252 106.27062 -17.779568 4294967295
44.529736 104.66529 -17.591112 4294967295
44.533096 100.87882 -17.795918 4294967295
44.535217 103.38273 -17.427143 4294967295
44.535801 101.36216 -17.839441 4294967295
44.546955 100.56518 -17.707909 4294967295
44.551674 101.85282 -17.833357 4294967295
44.556805 105.80579 -17.614515 4294967295
44.556995 100.41004 -17.652184 4294967295
44.558189 100.73199 -17.683496 4294967295
44.560127 99.929771 -17.586651 4294967295
44.578247 105.17533 -17.462076 4294967295
44.580044 102.02926 -17.744417 4294967295
44.586864 105.34104 -17.447525 4294967295
44.589222 103.48011 -17.870977 4294967295
44.594246 103.96482 -17.905756 4294967295
44.59787 101.07518 -17.569851 4294967295
44.607639 100.11638 -17.425589 4294967295
44.609947 101.72459 -17.595995 4294967295
44.618649 104.9425 -17.921291 4294967295
44.626919 104.46535 -17.83647 4294967295
44.631874 106.01014 -17.349642 4294967295
44.656342 103.83949 -17.654093 4294967295
44.66412 105.12931 -17.768042 4294967295
44.666023 102.55937 -17.474375 4294967295
44.673775 101.27782 -17.301876 4294967295
44.67738 105.77962 -17.789743 4294967295
44.680992 99.90519 -17.760424 4294967295
44.683399 102.72984 -17.426859 4294967295
44.693649 105.4677 -17.692713 4294967295
44.702362 106.43684 -17.76733 4294967295
44.722149 105.96629 -17.639158 4294967295
44.723083 103.39517 -17.349094 4294967295
44.731541 101.53934 -17.749203 4294967295
44.742359 103.15173 -17.887455 4294967295
44.785728 106.32475 -17.435719 4294967295
44.792717 101.41254 -17.501116 4294967295
44.798367 99.647606 -17.282854 4294967295
44.799713 100.29131 -17.349438 4294967295
44.799793 102.05928 -17.546122 4294967295
44.836441 103.68692 -17.587294 4294967295
44.843033 102.56559 -17.437174 4294967295
44.85704 101.93042 -17.312838 4294967295
44.858971 105.62817 -17.71739 4294967295
44.861801 104.82632 -17.617245 4294967295
44.864323 106.11333 -17.750959 4294967295
44.864616 103.05993 -17.409708 4294967295
44.86861 99.756302 -17.665026 4294967295
44.868671 102.25842 -17.304901 4294967295
44.869961 100.07835 -17.695742 4294967295
44.873138 102.42168 -17.306019 4294967295
44.873985 105.31544 -17.625135 4294967295
44.876625 100.88525 -17.760159 4294967295
44.879993 106.44383 -17.727833 4294967295
44.889488 103.55622 -17.369883 4294967295
44.894382 101.85894 -17.800766 4294967295
44.89632 104.52463 -17.451633 4294967295
44.901203 100.57742 -17.631979 4294967295
44.906738 102.34776 -17.808006 4294967295
44.913464 105.17746 -17.458792 4294967295
44.924316 102.51824 -17.759834 4294967295
44.92598 106.30991 -17.537073 4294967295
44.941212 105.99727 -17.443996 4294967295
44.945026 105.83872 -17.411751 4294967295
44.958584 101.41248 -17.505777 4294967295
44.962284 101.09308 -17.456068 4294967295
44.96669 102.70264 -17.6185 4294967295
44.969116 101.73975 -17.501987 4294967295
44.97443 100.29604 -17.320883 4294967295
44.98093 104.96027 -17.815506 4294967295
44.990574 105.60847 -17.850851 4294967295
44.999607 101.27439 -17.333675 4294967295
45.024731 99.590263 -17.688152 4294967295
45.035496 104.18795 -17.521055 4294967295
45.061886 103.39912 -17.332399 4294967295
45.069405 100.9 -17.6635 4294967295
45.086582 100.26662 -17.527426 4294967295
45.086708 104.37788 -17.346563 4294967295
45.137108 104.47279 -17.802885 4294967295
45.158421 100.78812 -17.311319 4294967295
45.15884 99.984459 -17.220228 4294967295
45.159618 104.64632 -17.736303 4294967295
45.166012 103.52501 -17.587069 4294967295
45.166759 101.43578 -17.351612 4294967295
45.169189 102.88388 -17.503567 4294967295
45.169292 105.29463 -17.771542 4294967295
45.1717 105.77808 -17.816172 4294967295
45.171711 102.08156 -17.404617 4294967295
45.181755 103.85537 -17.563766 4294967295
45.183033 99.907394 -17.756744 4294967295
45.184063 104.0174 -17.573 4294967295
45.194832 102.41596 -17.353615 4294967295
45.206062 102.26144 -17.293549 4294967295
45.210014 100.56474 -17.727045 4294967295
45.219685 103.07299 -17.331909 4294967295
45.237942 100.09791 -17.568609 4294967295
45.24081 102.76324 -17.216803 4294967295
45.243729 104.37284 -17.384863 4294967295
45.250351 106.30581 -17.574747 4294967295
45.250793 100.74775 -17.591944 4294967295
45.257915 105.98869 -17.510576 4294967295
45.26099 105.02583 -17.391663 4294967295
45.268661 101.5611 -17.614365 4294967295
45.276054 105.67764 -17.406738 4294967295
45.294205 101.89668 -17.554327 4294967295
45.298622 100.45243 -17.376724 4294967295
45.304333 101.09858 -17.426882 4294967295
45.322842 100.30486 -17.267962 4294967295
45.325031 106.18839 -17.276667 4294967295
45.328884 103.04114 -17.549477 4294967295
45.341881 100.22481 -17.823261 4294967295
45.343689 102.40642 -17.422403 4294967295
45.352165 106.4294 -17.837759 4294967295
45.36002 100.87733 -17.826784 4294967295
45.364899 99.755302 -17.683346 4294967295
45.384785 104.68024 -17.518774 4294967295
45.415649 105.50175 -17.49251 4294967295
45.416122 103.57254 -17.276022 4294967295
45.418816 104.05648 -17.319613 4294967295
45.439941 104.87254 -17.329889 4294967295
45.444252 103.81622 -17.832956 4294967295
45.461739 103.1833 -17.695942 4294967295
45.470615 104.63461 -17.823576 4294967295
45.47728 103.99561 -17.727108 4294967295
45.483082 103.03457 -17.598097 4294967295
45.486286 101.10731 -17.371458 4294967295
45.488598 104.16273 -17.702599 4294967295
45.489197 102.23427 -17.485771 4294967295
45.494175 105.61224 -17.842598 4294967295
45.506405 104.33357 -17.653784 4294967295
45.50666 101.60086 -17.348785 4294967295
45.506725 102.7263 -17.473749 4294967295
45.509556 104.81754 -17.695621 4294967295
45.531708 101.7755 -17.272808 4294967295
45.540417 101.36724 -17.830507 4294967295
45.546158 102.42673 -17.290236 4294967295
45.546928 104.99964 -17.573545 4294967295
45.552513 103.39508 -17.373762 4294967295
45.554737 102.10988 -17.222301 4294967295
45.565765 100.09556 -17.592606 4294967295
45.568233 100.57905 -17.636999 4294967295
45.570778 102.34808 -17.82408 4294967295
45.571476 99.937935 -17.553339 4294967295
45.572845 105.33603 -17.512243 4294967295
45.596024 101.71928 -17.658091 4294967295
45.602879 101.56235 -17.614557 4294967295
45.609188 100.92288 -17.519407 4294967295
45.619564 105.84529 -17.390957 4294967295
45.624039 106.00868 -17.392094 4294967295
45.654373 106.34789 -17.314297 4294967295
45.655773 105.28848 -17.827696 4294967295
45.655811 100.78762 -17.326969 4294967295
45.656548 102.55654 -17.520922 4294967295
45.681671 105.78549 -17.784422 4294967295
45.687424 105.94953 -17.780777 4294967295
45.735973 106.45985 -17.652798 4294967295
45.737732 101.86658 -17.771095 4294967295
45.741116 104.69427 -17.436911 4294967295
45.743153 103.7306 -17.321981 4294967295
45.75668 103.09488 -17.19982 4294967295
45.814037 104.48064 -17.77169 4294967295
45.816658 100.14154 -17.27928 4294967295
45.818836 104.0012 -17.700157 4294967295
45.828171 103.04198 -17.558029 4294967295
45.833282 103.52711 -17.592529 4294967295
45.833603 102.40193 -17.466213 4294967295
45.836941 102.88612 -17.507359 4294967295
45.838978 102.24413 -17.428246 4294967295
45.854324 101.77023 -17.317217 4294967295
45.868389 104.67229 -17.586414 4294967295
45.870701 101.45761 -17.220207 4294967295
45.887772 105.16566 -17.567579 4294967295
45.912464 101.06784 -17.653402 4294967295
45.927326 106.3139 -17.544872 4294967295
45.931095 105.35126 -17.423548 4294967295
45.932125 101.88229 -17.669287 4294967295
45.938625 100.27836 -17.466307 4294967295
45.944958 101.40714 -17.567741 4294967295
45.949146 105.68327 -17.391844 4294967295
45.969173 103.67097 -17.727411 4294967295
45.973522 106.01897 -17.336508 4294967295
45.984848 104.80492 -17.793915 4294967295
45.991131 105.86826 -17.252823 4294967295
46.002316 104.33264 -17.675108 4294967295
46.002502 105.29718 -17.781582 4294967295
46.014473 103.85724 -17.576097 4294967295
46.03521 104.02972 -17.516533 4294967295
46.042675 105.96323 -17.703056 4294967295
46.070072 106.13979 -17.618652 4294967295
46.074047 100.90466 -17.656397 4294967295
46.080494 103.25111 -17.258038 4294967295
46.0924 104.54453 -17.356588 4294967295
46.132198 105.21058 -17.27948 4294967295
46.139133 103.35177 -17.681416 4294967295
46.139759 103.19138 -17.661219 4294967295
46.152016 104.48423 -17.758369 4294967295
46.159168 103.68452 -17.642382 4294967295
46.167999 105.13628 -17.77018 4294967295
46.178188 105.30284 -17.750029 4294967295
46.186146 102.25249 -17.380938 4294967295
46.188477 104.66567 -17.640217 4294967295
46.193214 102.09557 -17.336697 4294967295
46.195522 101.77519 -17.292334 4294967295
46.195763 104.99136 -17.648756 4294967295
46.200886 105.47659 -17.683224 4294967295
46.201443 105.79843 -17.716864 4294967295
46.203705 102.74469 -17.369026 4294967295
46.208252 106.44537 -17.762909 4294967295
46.217358 102.59145 -17.300209 4294967295
46.25124 102.51808 -17.797617 4294967295
46.252453 105.66694 -17.508768 4294967295
46.253292 102.67994 -17.807812 4294967295
46.271091 106.16011 -17.492844 4294967295
46.271366 103.65434 -17.847548 4294967295
46.317108 106.02578 -17.30336 4294967295
46.348053 102.411 -17.418842 4294967295
46.348911 104.18026 -17.612097 4294967295
46.354179 104.5048 -17.628178 4294967295
46.404194 103.24641 -17.29888 4294967295
46.421249 103.8994 -17.306776 4294967295
46.432476 103.58397 -17.229198 4294967295
46.464043 102.06172 -17.574202 4294967295
46.474236 103.83585 -17.732601 4294967295
46.478516 103.99902 -17.734512 4294967295
46.484016 106.18723 -17.322998 4294967295
46.489292 103.04043 -17.587294 4294967295
46.495445 104.97312 -17.778582 4294967295
46.497524 105.87324 -17.236948 4294967295
46.515968 104.50246 -17.648628 4294967295
46.559052 105.33093 -17.577505 4294967295
46.578949 104.69895 -17.432016 4294967295
46.580536 103.57388 -17.301096 4294967295
46.584614 105.828 -17.535915 4294967295
46.590889 104.22316 -17.333982 4294967295
46.605888 104.87509 -17.34959 4294967295
46.631691 102.86651 -17.661993 4294967295
46.646561 105.21999 -17.2339 4294967295
46.651386 106.34895 -17.340967 4294967295
46.672398 103.37156 -17.564096 4294967295
46.688496 104.0238 -17.575613 4294967295
46.695389 102.58024 -17.389317 4294967295
46.700565 103.70895 -17.495026 4294967295
46.710392 105.96581 -17.708328 4294967295
46.742077 106.14481 -17.60837 4294967295
46.743984 102.76804 -17.226374 4294967295
46.787327 105.3665 -17.350861 4294967295
46.810776 103.6777 -17.707287 4294967295
46.817451 103.03828 -17.611113 4294967295
46.817848 103.36008 -17.645321 4294967295
46.819691 106.35033 -17.33765 4294967295
46.822231 103.8449 -17.682558 4294967295
46.823059 104.81003 -17.786505 4294967295
46.861454 104.51017 -17.608185 4294967295
46.863712 102.74232 -17.403484 4294967295
46.86982 104.19325 -17.541412 4294967295
39.922222 112.54319 -18.222424 4294967295
39.922443 111.42077 -18.095285 4294967295
39.933357 112.38994 -18.161268 4294967295
39.942974 107.16219 -18.191999 4294967295
39.945374 110.69009 -18.579336 4294967295
39.949596 107.64719 -18.220474 4294967295
39.955059 108.77274 -18.325542 4294967295
39.963047 106.69329 -18.060183 4294967295
39.981567 109.59068 -18.313093 4294967295
39.985207 112.15762 -18.587418 4294967295
39.987404 109.43398 -18.27248 4294967295
40.010914 111.53279 -18.415884 4294967295
40.022121 108.33289 -18.011858 4294967295
40.023987 110.41875 -18.239101 4294967295
40.025036 109.93837 -18.180939 4294967295
40.026649 111.06177 -18.30093 4294967295
40.03022 112.6672 -18.467388 4294967295
40.034893 107.85951 -17.908304 4294967295
40.044754 108.02594 -17.888168 4294967295
40.049278 108.99114 -17.978905 4294967295
40.05352 110.5976 -18.142862 4294967295
40.081341 111.73772 -18.161474 4294967295
40.095116 110.30283 -17.945847 4294967295
40.112247 109.40915 -18.433935 4294967295
40.113892 107.96739 -18.265366 4294967295
40.118492 109.7336 -18.445847 4294967295
40.152298 107.02859 -18.008654 4294967295
40.164032 109.12051 -18.197687 4294967295
40.164093 110.40324 -18.341656 4294967295
40.16832 106.71746 -17.910622 4294967295
40.19783 112.82932 -18.48159 4294967295
40.214745 108.67058 -17.947517 4294967295
40.22945 112.04781 -18.2693 4294967295
40.253162 108.59288 -18.442997 4294967295
40.259926 111.26519 -18.061384 4294967295
40.266411 110.62761 -17.964197 4294967295
40.268471 109.08318 -18.437918 4294967295
40.275234 112.71846 -18.164501 4294967295
40.282001 111.92077 -18.048199 4294967295
40.284451 109.25334 -18.394203 4294967295
40.285709 108.45251 -18.299255 4294967295
40.288879 108.77512 -18.32305 4294967295
40.304752 108.14348 -18.189651 4294967295
40.309258 109.42899 -18.316418 4294967295
40.310875 106.70385 -18.003769 4294967295
40.321327 109.91747 -18.323866 4294967295
40.323219 112.00272 -18.550753 4294967295
40.330425 107.03642 -17.964287 4294967295
40.337112 106.55921 -17.884344 4294967295
40.33923 108.96642 -18.146591 4294967295
40.340679 107.52383 -17.97875 4294967295
40.341606 107.68479 -17.993196 4294967295
40.371609 109.78831 -18.111675 4294967295
40.372955 111.55322 -18.304707 4294967295
40.400043 112.37217 -18.290243 4294967295
40.402611 110.28879 -18.046028 4294967295
40.411644 109.65273 -17.939028 4294967295
40.422394 110.9428 -18.041742 4294967295
40.428806 107.47717 -18.281916 4294967295
40.445484 111.11772 -17.970621 4294967295
40.448437 111.44044 -17.995285 4294967295
40.451218 107.17003 -18.159388 4294967295
40.488758 112.32377 -18.590937 4294967295
40.495865 107.67819 -18.041126 4294967295
40.50219 112.81321 -18.593163 4294967295
40.528515 110.58518 -18.239494 4294967295
40.555981 108.99821 -17.953341 4294967295
40.577789 111.0972 -18.103497 4294967295
40.58572 110.13962 -17.964775 4294967295
40.587608 111.26378 -18.083639 4294967295
40.590523 106.99411 -18.24675 4294967295
40.594139 112.71154 -18.220615 4294967295
40.612434 111.43982 -18.005913 4294967295
40.622585 112.2484 -18.056879 4294967295
40.644329 107.34731 -18.075329 4294967295
40.648705 108.79339 -18.220581 4294967295
40.649559 107.67126 -18.091188 4294967295
40.651546 106.71004 -17.975418 4294967295
40.654907 110.40077 -18.376755 4294967295
40.665611 108.16219 -18.083359 4294967295
40.67012 110.73095 -18.354162 4294967295
40.670658 109.76913 -18.244034 4294967295
40.676533 109.45201 -18.185368 4294967295
40.679867 110.25595 -18.262569 4294967295
40.68177 108.49286 -18.057095 4294967295
40.683338 107.5313 -17.942947 4294967295
40.690037 111.38486 -18.34944 4294967295
40.701893 110.10926 -18.159683 4294967295
40.71431 111.72087 -18.291954 4294967295
40.72076 107.87487 -17.834717 4294967295
40.748077 109.65661 -17.927647 4294967295
40.750095 111.90386 -18.172096 4294967295
40.75349 109.17857 -17.852728 4294967295
40.770206 110.95396 -17.986526 4294967295
40.781406 106.84922 -18.135313 4294967295
40.796078 110.64921 -17.85079 4294967295
40.808224 109.11073 -18.284134 4294967295
40.856339 107.05468 -17.864702 4294967295
40.86058 112.51089 -18.460621 4294967295
40.89365 110.60712 -18.117304 4294967295
40.903412 109.81103 -17.989672 4294967295
40.912636 110.77939 -18.062241 4294967295
40.924599 107.63783 -18.315639 4294967295
40.934044 111.11366 -18.015856 4294967295
40.938072 112.3997 -18.14443 4294967295
40.942104 106.68615 -18.140276 4294967295
40.948418 112.72712 -18.140633 4294967295
40.953289 110.32334 -17.851706 4294967295
40.960815 112.09322 -18.020891 4294967295
40.964157 108.46368 -18.253456 4294967295
40.970631 109.10912 -18.300556 4294967295
40.971516 107.18501 -18.08112 4294967295
40.973297 112.26157 -17.990868 4294967295
40.987965 108.15739 -18.125864 4294967295
40.98843 110.56338 -18.394072 4294967295
40.990295 106.87545 -17.972858 4294967295
40.99836 107.52203 -18.013851 4294967295
41.021435 107.0546 -17.871046 4294967295
41.029736 107.38052 -17.875132 4294967295
41.034756 110.11101 -18.161934 4294967295
41.039742 106.58414 -17.746561 4294967295
41.04002 109.79343 -18.105682 4294967295
41.041645 112.20043 -18.369423 4294967295
41.047306 109.47707 -18.041645 4294967295
41.053211 110.28288 -18.108959 4294967295
41.067673 111.73568 -18.215374 4294967295
41.092754 111.27015 -18.06493 4294967295
41.101578 110.95477 -17.994989 4294967295
41.105972 108.44949 -18.349045 4294967295
41.107491 109.41252 -18.451151 4294967295
41.119194 111.44719 -17.981274 4294967295
41.127224 110.00781 -17.788319 4294967295
41.129421 111.61409 -17.95997 4294967295
41.146706 110.07813 -18.372446 4294967295
41.17239 112.60415 -17.902826 4294967295
41.174088 107.68883 -17.997276 4294967295
41.174103 111.5385 -18.429111 4294967295
41.197372 108.18427 -17.961803 4294967295
41.197697 112.03446 -18.392462 4294967295
41.217186 108.99864 -17.975668 4294967295
41.240219 107.24725 -17.68907 4294967295
41.256413 109.66462 -17.896971 4294967295
41.25724 111.26981 -18.073801 4294967295
41.262794 108.86606 -17.782406 4294967295
41.26939 109.35162 -17.8111 4294967295
41.27634 107.65082 -18.244938 4294967295
41.276588 112.24469 -18.107496 4294967295
41.279751 111.92578 -18.059349 4294967295
41.285061 110.3243 -17.858932 4294967295
41.295841 109.26649 -18.349955 4294967295
41.315567 110.08052 -18.36417 4294967295
41.317581 107.19442 -18.0326 4294967295
41.319843 106.87489 -17.987928 4294967295
41.321789 109.12201 -18.23237 4294967295
41.322845 110.56615 -18.3902 4294967295
41.327847 108.16322 -18.101162 4294967295
41.329376 108.80583 -18.167255 4294967295
41.332794 107.52446 -18.010183 4294967295
41.345688 108.33448 -18.050657 4294967295
41.348602 109.61971 -18.183414 4294967295
41.351372 111.54623 -18.388655 4294967295
41.370049 107.86787 -17.903143 4294967295
41.375916 108.99471 -18.006603 4294967295
41.383411 110.28292 -18.121796 4294967295
41.393032 111.09109 -18.174841 4294967295
41.444584 106.69024 -18.131113 4294967295
41.448505 112.56999 -18.12393 4294967295
41.458622 110.00848 -17.797153 4294967295
41.459591 107.50132 -18.16349 4294967295
41.475399 110.82149 -17.822777 4294967295
41.480675 106.55134 -17.974665 4294967295
41.485706 112.43305 -17.963228 4294967295
41.522465 110.10639 -18.210159 4294967295
41.527283 108.02351 -17.957827 4294967295
41.547523 111.56579 -18.275946 4294967295
41.560665 112.85738 -18.36944 4294967295
41.562111 111.8958 -18.25601 4294967295
41.579269 109.98101 -17.974388 4294967295
41.579559 109.49972 -17.919298 4294967295
41.579914 111.42564 -18.133812 4294967295
41.586952 110.62769 -18.016891 4294967295
41.589493 108.38221 -17.755226 4294967295
41.59063 112.55553 -18.218653 4294967295
41.596455 111.75693 -18.106396 4294967295
41.607086 107.97187 -18.291153 4294967295
41.623669 110.811 -17.894136 4294967295
41.624523 110.97204 -17.908857 4294967295
41.624779 108.78458 -18.313269 4294967295
41.641743 107.03018 -18.05048 4294967295
41.643814 107.35232 -18.078506 4294967295
41.648945 110.50564 -17.761246 4294967295
41.649132 112.27153 -17.958471 4294967295
41.658592 110.08852 -18.327555 4294967295
41.674385 109.45657 -18.195158 4294967295
41.683331 108.98072 -18.106947 4294967295
41.68787 109.62528 -18.161489 4294967295
41.700901 107.7076 -17.895744 4294967295
41.724384 110.2896 -18.093559 4294967295
41.732998 112.38081 -18.294319 4294967295
41.754921 107.25848 -17.634771 4294967295
41.770756 109.19462 -17.790045 4294967295
41.785496 111.29047 -17.967445 4294967295
41.787178 111.61253 -17.996977 4294967295
41.808708 108.31476 -18.193569 4294967295
41.838707 106.88865 -17.916916 4294967295
41.846943 107.37505 -17.939352 4294967295
41.85479 112.13656 -17.792076 4294967295
41.861774 110.91423 -18.278099 4294967295
41.871517 107.22927 -17.827299 4294967295
41.879551 108.67867 -17.958401 4294967295
41.884567 107.71867 -17.831297 4294967295
41.898693 108.20875 -17.831188 4294967295
41.899097 112.06063 -18.261148 4294967295
41.904724 111.42233 -18.167723 4294967295
41.919064 109.66583 -17.915092 4294967295
41.919601 109.1846 -17.859093 4294967295
41.934265 111.76176 -18.090689 4294967295
41.95393 110.65046 -17.889606 4294967295
41.968143 109.53539 -17.709309 4294967295
41.968655 112.58587 -18.049047 4294967295
41.978691 111.14745 -17.848827 4294967295
41.978767 109.28031 -18.288851 4294967295
41.979282 110.50562 -17.774628 4294967295
41.990204 109.76859 -18.299034 4294967295
41.992218 112.27969 -17.922979 4294967295
41.994137 107.52467 -18.032404 4294967295
41.998108 107.36658 -17.999247 4294967295
42.015541 108.33997 -18.04044 4294967295
42.033131 106.74548 -17.79339 4294967295
42.03595 108.8338 -18.016335 4294967295
42.041718 110.12117 -18.138071 4294967295
42.048172 106.59388 -17.717876 4294967295
42.058697 111.09449 -18.181004 4294967295
42.069069 107.24855 -17.709909 4294967295
42.078331 110.62523 -18.052055 4294967295
42.08831 109.98936 -17.942015 4294967295
42.128136 108.72928 -17.645918 4294967295
42.136036 111.94526 -17.975344 4294967295
42.139755 112.42917 -18.01507 4294967295
42.146599 107.03557 -18.033346 4294967295
42.154804 112.7597 -17.993528 4294967295
42.156723 111.79768 -17.878325 4294967295
42.157219 108.96755 -18.208387 4294967295
42.216965 107.55919 -17.818468 4294967295
42.218712 112.05409 -18.314913 4294967295
42.229015 110.61629 -18.113907 4294967295
42.230957 109.33346 -17.96273 4294967295
42.242596 110.14317 -18.008141 4294967295
42.246666 106.61353 -17.597118 4294967295
42.248062 111.75154 -18.166946 4294967295
42.249477 108.06038 -17.748201 4294967295
42.251148 108.54306 -17.795757 4294967295
42.258907 109.83214 -17.909924 4294967295
42.262051 111.11826 -18.041681 4294967295
42.281761 111.29104 -17.984407 4294967295
42.285568 110.33016 -17.862049 4294967295
42.288071 109.20775 -17.726652 4294967295
42.291889 112.26051 -18.053572 4294967295
42.299313 108.73283 -17.629786 4294967295
42.306362 112.75117 -18.052242 4294967295
42.30843 107.35445 -18.088348 4294967295
42.310955 108.63969 -18.222395 4294967295
42.325569 109.77174 -18.292345 4294967295
42.343788 111.65081 -17.783583 4294967295
42.348198 111.97472 -17.8027 4294967295
42.363312 112.62654 -17.816923 4294967295
42.372166 107.71365 -17.881062 4294967295
42.378342 110.44604 -18.162889 4294967295
42.385544 111.41336 -18.243189 4294967295
42.390087 107.08217 -17.740788 4294967295
42.416485 107.25849 -17.658016 4294967295
42.435188 107.91206 -17.658543 4294967295
42.48484 110.83289 -17.79265 4294967295
42.503162 110.04119 -17.632893 4294967295
42.527721 112.46549 -17.808836 4294967295
42.531845 110.1179 -18.177959 4294967295
42.539051 109.80134 -18.114584 4294967295
42.541439 109.32128 -18.051617 4294967295
42.543633 107.07511 -17.791775 4294967295
42.543922 108.68071 -17.970316 4294967295
42.545486 108.52113 -17.946383 4294967295
42.552021 106.75896 -17.723867 4294967295
42.571678 108.21584 -17.810633 4294967295
42.580154 107.89979 -17.742392 4294967295
42.60564 109.19982 -17.788977 4294967295
42.612751 107.27689 -17.546238 4294967295
42.613838 110.48939 -17.901455 4294967295
42.616009 111.77511 -18.036871 4294967295
42.623302 110.65578 -17.883369 4294967295
42.625202 108.08746 -17.588638 4294967295
42.645416 112.43569 -17.996693 4294967295
42.649117 111.15347 -17.838909 4294967295
42.655895 112.12114 -17.920862 4294967295
42.656193 111.47903 -17.847874 4294967295
42.659576 107.68773 -18.057758 4294967295
42.674294 112.77497 -17.922638 4294967295
42.701694 107.55241 -17.879406 4294967295
42.712166 110.7692 -18.198618 4294967295
42.72533 109.97475 -18.058754 4294967295
42.735268 111.265 -18.164545 4294967295
42.747162 111.11186 -18.101326 4294967295
42.750607 110.15078 -17.980492 4294967295
42.760059 106.78422 -17.567314 4294967295
42.767715 109.35843 -17.825583 4294967295
42.787144 111.61829 -18.003036 4294967295
42.792198 112.26364 -18.055613 4294967295
42.799644 112.74994 -18.081131 4294967295
42.804558 109.86268 -17.739212 4294967295
42.830833 109.55748 -17.603258 4294967295
42.833462 110.36224 -17.683079 4294967295
42.871273 106.91264 -17.797501 4294967295
42.873371 112.15385 -17.728775 4294967295
42.873749 108.84079 -18.003527 4294967295
42.881207 109.32692 -18.029009 4294967295
42.882774 109.96999 -18.09483 4294967295
42.884422 107.72334 -17.837257 4294967295
42.892906 109.49458 -18.002466 4294967295
42.895809 107.40898 -17.758022 4294967295
42.897457 108.37344 -17.859488 4294967295
42.909481 108.2201 -17.795794 4294967295
42.913944 109.82851 -17.958347 4294967295
42.922745 107.26443 -17.637579 4294967295
42.936298 108.07561 -17.675817 4294967295
42.947712 106.79735 -17.488703 4294967295
42.958878 112.74625 -18.11059 4294967295
42.968891 110.34389 -17.803268 4294967295
42.970127 111.78994 -17.960146 4294967295
42.975853 110.82998 -17.830667 4294967295
42.986397 109.0696 -17.593019 4294967295
42.996693 111.48528 -17.823246 4294967295
43.008869 111.1716 -17.741035 4294967295
43.018082 108.66759 -18.071461 4294967295
43.024952 112.46656 -17.823557 4294967295
43.034996 107.0722 -17.827717 4294967295
43.068604 111.26688 -18.166597 4294967295
43.079422 110.79196 -18.071682 4294967295
43.105045 110.16545 -17.902584 4294967295
43.128242 107.77021 -17.545147 4294967295
43.129417 112.42854 -18.061243 4294967295
43.138264 108.25817 -17.560944 4294967295
43.145416 109.38702 -17.659451 4294967295
43.155445 108.58983 -17.531569 4294967295
43.169678 108.49881 -18.111746 4294967295
43.172882 112.61636 -17.914148 4294967295
43.183811 110.53499 -17.639282 4294967295
43.20129 109.16003 -18.063499 4294967295
43.214714 106.75948 -17.743402 4294967295
43.228088 109.33683 -17.979725 4294967295
43.230854 111.42561 -18.20241 4294967295
43.238895 109.02223 -17.902821 4294967295
43.241428 107.73898 -17.749655 4294967295
43.247147 108.22424 -17.781784 4294967295
43.248421 107.42192 -17.687202 4294967295
43.25238 109.67274 -17.923418 4294967295
43.256729 112.40488 -18.211842 4294967295
43.257343 108.87279 -17.814857 4294967295
43.261383 110.6417 -17.996897 4294967295
43.27496 108.40155 -17.694141 4294967295
43.278156 110.97318 -17.969122 4294967295
43.284271 112.74321 -18.143244 4294967295
43.304131 110.34675 -17.798788 4294967295
43.305546 111.79307 -17.954905 4294967295
43.319408 110.03483 -17.704922 4294967295
43.329723 111.32623 -17.809357 4294967295
43.332512 107.85518 -18.055555 4294967295
43.366116 111.18808 -17.65333 4294967295
43.381374 107.24199 -17.798492 4294967295
43.388977 112.32692 -17.692232 4294967295
43.43882 111.61266 -18.06497 4294967295
43.443047 108.08186 -17.654295 4294967295
43.483295 109.39132 -17.645235 4294967295
43.502434 112.77644 -17.949429 4294967295
43.509712 111.97788 -17.832161 4294967295
43.514637 110.3744 -17.634083 4294967295
43.527279 112.63138 -17.837349 4294967295
43.527657 112.47098 -17.81797 4294967295
43.532467 107.23347 -17.858788 4294967295
43.535175 107.39567 -17.866461 4294967295
43.536354 106.75396 -17.790247 4294967295
43.552132 108.20876 -17.891878 4294967295
43.566494 109.50212 -17.980928 4294967295
43.579483 109.83118 -17.967583 4294967295
43.580845 110.63493 -18.052074 4294967295
43.583309 110.15469 -17.988956 4294967295
43.584793 107.74641 -17.714327 4294967295
43.585594 110.95898 -18.06995 4294967295
43.591793 112.40788 -18.207796 4294967295
43.593636 111.28509 -18.075344 4294967295
43.603615 108.40022 -17.714769 4294967295
43.610424 108.083 -17.653107 4294967295
43.611843 111.77809 -18.060186 4294967295
43.623219 109.0546 -17.712269 4294967295
43.629932 108.89799 -17.668896 4294967295
43.636658 110.82978 -17.858656 4294967295
43.644009 110.35239 -17.777014 4294967295
43.652172 111.96372 -17.925434 4294967295
43.657551 109.236 -17.600151 4294967295
43.671211 111.49362 -17.799551 4294967295
43.681488 111.17866 -17.724775 4294967295
43.687325 108.35125 -18.030249 4294967295
43.709534 108.84631 -17.999971 4294967295
43.720966 112.16714 -17.682928 4294967295
43.738937 106.77581 -17.655594 4294967295
43.763706 107.43308 -17.633574 4294967295
43.779152 107.12089 -17.539242 4294967295
43.808716 112.60075 -18.037008 4294967295
43.821949 107.78907 -17.448994 4294967295
43.82333 106.56744 -17.950335 4294967295
43.839249 111.81662 -17.831913 4294967295
43.853222 110.70055 -17.653534 4294967295
43.858925 107.71261 -17.941181 4294967295
43.86467 111.67169 -17.717829 4294967295
43.866859 108.03853 -17.947016 4294967295
43.869499 108.3613 -17.972878 4294967295
43.878017 111.03716 -17.595602 4294967295
43.882801 112.80769 -17.774773 4294967295
43.883984 112.16571 -17.698584 4294967295
43.902966 107.09621 -17.702948 4294967295
43.910114 110.47355 -18.052294 4294967295
43.910431 106.7793 -17.638857 4294967295
43.916985 107.26516 -17.667858 4294967295
43.932713 112.41447 -18.181887 4294967295
43.934193 108.88197 -17.782064 4294967295
43.94865 112.74557 -18.157513 4294967295
43.948696 109.85459 -17.834793 4294967295
43.955292 112.10734 -18.060762 4294967295
43.956738 107.61008 -17.553398 4294967295
43.962635 107.93497 -17.566971 4294967295
43.972153 106.97636 -17.423367 4294967295
43.978455 110.03333 -17.740246 4294967295
43.996098 110.84744 -17.763199 4294967295
44.006195 109.56812 -17.581604 4294967295
44.007023 109.08649 -17.524681 4294967295
44.007687 111.01523 -17.737329 4294967295
44.023045 111.34603 -17.715145 4294967295
44.033287 107.55729 -17.89555 4294967295
44.036896 111.83664 -17.716595 4294967295
44.066917 109.02293 -17.929773 4294967295
44.089821 110.96416 -18.058273 4294967295
44.109112 109.53029 -17.824196 4294967295
44.136608 108.2614 -17.576971 4294967295
44.168743 109.88776 -17.634865 4294967295
44.176743 110.69611 -17.694283 4294967295
44.179417 107.38522 -17.956579 4294967295
44.181 107.70737 -17.986431 4294967295
44.188709 107.2301 -17.90361 4294967295
44.195538 111.99319 -17.766708 4294967295
44.196198 111.35083 -17.692533 4294967295
44.214016 111.84393 -17.679037 4294967295
44.216869 106.60412 -17.725668 4294967295
44.22213 112.65247 -17.738022 4294967295
44.225677 112.33327 -17.688791 4294967295
44.23106 109.34341 -17.976652 4294967295
44.242809 109.02924 -17.896507 4294967295
44.24688 108.06779 -17.77367 4294967295
44.248371 108.38998 -17.803871 4294967295
44.255184 111.44602 -18.11846 4294967295
44.258041 106.78896 -17.5882 4294967295
44.260769 111.61006 -18.115311 4294967295
44.260792 106.95128 -17.595736 4294967295
44.275909 108.72779 -17.735796 4294967295
44.278786 111.94241 -18.083178 4294967295
44.289486 108.25385 -17.630819 4294967295
44.298416 109.7054 -17.758387 4294967295
44.305347 110.51296 -17.821829 4294967295
44.30724 111.79936 -17.957987 4294967295
44.308395 109.22935 -17.667002 4294967295
44.31144 106.5625 -17.9991 4294967295
44.324997 108.91792 -17.568521 4294967295
44.333889 110.04827 -17.660427 4294967295
44.336029 111.01376 -17.759859 4294967295
44.395683 112.33617 -17.67824 4294967295
44.428501 107.756 -17.683146 4294967295
44.439011 108.08362 -17.679359 4294967295
44.460346 112.27374 -18.064554 4294967295
44.48119 110.03726 -17.735344 4294967295
44.494141 109.7237 -17.650703 4294967295
44.512173 110.37749 -17.654417 4294967295
44.515343 110.70086 -17.678307 4294967295
44.532101 107.23738 -17.868731 4294967295
44.533077 109.26497 -17.450226 4294967295
44.533077 112.80092 -17.844334 4294967295
44.535847 107.88216 -17.926239 4294967295
44.552616 112.17023 -17.699097 4294967295
44.553146 108.05307 -17.878988 4294967295
44.576294 112.50637 -17.645735 4294967295
44.612431 109.85587 -17.852709 4294967295
44.612961 106.96358 -17.528378 4294967295
44.614792 112.26704 -18.112316 4294967295
44.620037 110.18182 -17.859888 4294967295
44.62014 106.64632 -17.465496 4294967295
44.622025 109.05824 -17.727074 4294967295
44.623413 109.38046 -17.757652 4294967295
44.629776 107.77715 -17.554607 4294967295
44.636845 110.51339 -17.832422 4294967295
44.642651 107.46328 -17.470289 4294967295
44.649464 110.84245 -17.82074 4294967295
44.650688 111.48593 -17.887733 4294967295
44.654766 108.75642 -17.567972 4294967295
44.654827 108.91718 -17.585663 4294967295
44.66753 109.56774 -17.609476 4294967295
44.687214 111.8298 -17.786083 4294967295
44.691502 111.02885 -17.680426 4294967295
44.697147 111.99663 -17.766615 4294967295
44.702503 106.75826 -17.802605 4294967295
44.711334 108.85193 -18.002037 4294967295
44.718361 108.3742 -17.921928 4294967295
44.721786 107.41226 -17.801649 4294967295
44.739052 111.701 -17.573101 4294967295
44.792542 111.95346 -18.036659 4294967295
44.805237 108.10446 -17.559322 4294967295
44.829967 112.13724 -17.913853 4294967295
44.846142 107.38799 -17.962439 4294967295
44.849411 111.18497 -17.733374 4294967295
44.85371 109.25867 -17.502344 4294967295
44.85606 110.22462 -17.600946 4294967295
44.869381 112.80444 -17.837299 4294967295
44.877659 110.88076 -17.591345 4294967295
44.878372 107.88897 -17.894991 4294967295
44.884468 111.36718 -17.619463 4294967295
44.892475 108.21866 -17.877773 4294967295
44.898891 108.54381 -17.88945 4294967295
44.919472 109.1988 -17.883688 4294967295
44.921753 107.11109 -17.642469 4294967295
44.924107 111.71306 -17.506248 4294967295
44.937153 109.69147 -17.870928 4294967295
44.948208 110.50156 -17.918856 4294967295
44.948254 109.37676 -17.79343 4294967295
44.961063 107.61643 -17.548416 4294967295
44.961609 110.67038 -17.886412 4294967295
44.962109 112.75935 -18.117088 4294967295
44.982967 108.91541 -17.609312 4294967295
44.99128 108.4381 -17.524368 4294967295
45.003834 107.32008 -17.351854 4294967295
45.00452 106.90183 -17.941568 4294967295
