# .PCD v0.7 - Point Cloud Data file format
VERSION 0.7
FIELDS x y z rgb
SIZE 4 4 4 4
TYPE F F F U
COUNT 1 1 1 1
WIDTH 1120
HEIGHT 1
VIEWPOINT 0 0 0 1 0 0 0
POINTS 1120
DATA ascii
-22.810976 108.721 -25.305244 4294967295
-22.800848 109.35178 -25.326374 4294967295
-22.793047 108.58392 -25.171568 4294967295
-22.78924 107.96703 -25.062967 4294967295
-22.7887 110.76026 -25.440657 4294967295
-22.776054 109.68729 -25.213167 4294967295
-22.771624 110.93298 -25.35471 4294967295
-22.769918 110.62446 -25.301687 4294967295
-22.768585 107.36676 -24.8486 4294967295
-22.765877 107.2142 -24.810402 4294967295
-22.759497 108.4625 -24.939859 4294967295
-22.757931 107.84312 -24.845289 4294967295
-22.751514 108.31529 -24.868584 4294967295
-22.750668 109.24752 -24.990364 4294967295
-22.747227 111.42361 -25.265203 4294967295
-22.741837 110.34295 -25.083204 4294967295
-22.73941 108.94846 -24.877359 4294967295
-22.733654 112.52374 -25.328253 4294967295
-22.728645 111.28767 -25.127502 4294967295
-22.726309 110.04842 -24.943438 4294967295
-22.725945 111.75601 -25.174076 4294967295
-22.718464 112.07414 -25.16951 4294967295
-22.704453 111.62313 -25.018127 4294967295
-22.640192 106.71642 -24.956005 4294967295
-22.606829 109.2332 -25.085613 4294967295
-22.582476 112.51677 -25.377357 4294967295
-22.581448 109.87981 -25.011282 4294967295
-22.563766 109.58731 -24.858208 4294967295
-22.555378 110.83784 -24.975004 4294967295
-22.547695 113.01867 -25.223108 4294967295
-22.503435 113.22039 -24.967243 4294967295
-22.496429 107.63353 -25.178371 4294967295
-22.494207 108.10128 -25.227903 4294967295
-22.488853 107.02025 -25.046373 4294967295
-22.488539 108.4173 -25.234735 4294967295
-22.478554 107.80653 -25.087687 4294967295
-22.477385 107.18681 -24.995764 4294967295
-22.4639 107.35542 -24.932543 4294967295
-22.451693 108.60947 -25.025415 4294967295
-22.448782 109.23327 -25.091806 4294967295
-22.444908 110.01319 -25.173307 4294967295
-22.444588 108.92706 -25.023275 4294967295
-22.439535 110.32906 -25.181997 4294967295
-22.429455 109.09756 -24.949776 4294967295
-22.427454 111.27255 -25.233311 4294967295
-22.423275 110.81129 -25.143759 4294967295
-22.41902 109.41859 -24.926819 4294967295
-22.415121 110.66444 -25.071636 4294967295
-22.414131 111.44148 -25.171164 4294967295
-22.396685 109.75177 -24.829447 4294967295
-22.389004 112.86433 -25.204376 4294967295
-22.385515 112.55759 -25.140285 4294967295
-22.384886 111.62692 -25.009499 4294967295
-22.3843 111.00655 -24.921246 4294967295
-22.383852 111.78323 -25.024185 4294967295
-22.370438 112.10761 -24.98263 4294967295
-22.370035 106.82638 -25.276354 4294967295
-22.361906 112.73746 -25.013885 4294967295
-22.352802 106.53296 -25.126434 4294967295
-22.343916 113.22204 -24.964905 4294967295
-22.317614 108.74066 -25.202497 4294967295
-22.313185 106.72713 -24.900066 4294967295
-22.285004 107.6866 -24.850882 4294967295
-22.249666 112.06902 -25.222012 4294967295
-22.240202 110.06073 -24.888239 4294967295
-22.207605 111.18102 -24.832733 4294967295
-22.182035 112.44976 -24.842258 4294967295
-22.178076 107.94627 -25.218437 4294967295
-22.148659 107.50979 -24.971622 4294967295
-22.145906 109.99602 -25.292353 4294967295
-22.132494 107.05993 -24.80743 4294967295
-22.122351 108.15697 -24.892078 4294967295
-22.113466 109.40799 -25.005678 4294967295
-22.10066 108.79979 -24.841351 4294967295
-22.095778 110.51266 -25.043266 4294967295
-22.090094 110.3632 -24.986723 4294967295
-22.084393 111.45575 -25.099014 4294967295
-22.063047 111.32245 -24.944904 4294967295
-22.060146 112.25699 -25.053534 4294967295
-22.059341 110.70512 -24.837317 4294967295
-22.056782 112.10522 -25.011457 4294967295
-22.046343 111.80548 -24.904177 4294967295
-22.042713 112.43034 -24.966045 4294967295
-22.042185 106.68281 -25.193632 4294967295
-22.041609 112.74201 -25.001396 4294967295
-22.038774 111.658 -24.835905 4294967295
-22.012489 107.17767 -25.072035 4294967295
-22.009338 108.26735 -25.20015 4294967295
-22.006044 107.9602 -25.137436 4294967295
-21.992952 106.88637 -24.908157 4294967295
-21.992809 107.66284 -25.012827 4294967295
-21.975124 108.4567 -25.008272 4294967295
-21.966793 110.17268 -25.188555 4294967295
-21.957014 110.9587 -25.233202 4294967295
-21.948822 111.1223 -25.203331 4294967295
-21.94565 109.72838 -24.993675 4294967295
-21.939487 109.26876 -24.892004 4294967295
-21.84495 113.2482 -24.831577 4294967295
-21.82262 107.98537 -24.985975 4294967295
-21.819912 110.47182 -25.306562 4294967295
-21.819202 108.45457 -25.028019 4294967295
-21.817188 107.21429 -24.846724 4294967295
-21.798452 110.02793 -25.109985 4294967295
-21.795443 109.09939 -24.964741 4294967295
-21.794821 108.94473 -24.939783 4294967295
-21.787775 109.7282 -25.001474 4294967295
-21.771513 110.6763 -25.026989 4294967295
-21.770388 109.59044 -24.872341 4294967295
-21.758375 112.86322 -25.24057 4294967295
-21.752689 112.55867 -25.163107 4294967295
-21.744045 112.10186 -25.046173 4294967295
-21.741165 111.639 -24.965027 4294967295
-21.734652 111.17979 -24.861292 4294967295
-21.734146 111.80151 -24.942522 4294967295
-21.716393 112.28571 -24.895544 4294967295
-21.713848 113.06482 -24.985188 4294967295
-21.703163 112.76534 -24.876669 4294967295
-21.69339 107.0253 -25.044943 4294967295
-21.685934 107.49842 -25.061903 4294967295
-21.674419 109.0623 -25.201216 4294967295
-21.661671 108.76456 -25.079966 4294967295
-21.657982 108.30242 -24.993839 4294967295
-21.625454 110.04306 -25.023901 4294967295
-21.611385 110.8337 -25.042023 4294967295
-21.608677 111.76804 -25.151661 4294967295
-21.60247 111.30862 -25.049961 4294967295
-21.602221 111.61941 -25.090559 4294967295
-21.582638 110.70765 -24.842651 4294967295
-21.524195 107.34673 -25.024471 4294967295
-21.516106 106.73347 -24.890057 4294967295
-21.485529 109.86951 -25.121946 4294967295
-21.483736 109.4055 -25.047663 4294967295
-21.478882 110.80774 -25.207127 4294967295
-21.478811 110.34206 -25.143526 4294967295
-21.468616 108.95473 -24.890804 4294967295
-21.460842 109.73907 -24.94799 4294967295
-21.460278 112.37911 -25.302473 4294967295
-21.452648 110.67912 -25.023632 4294967295
-21.450165 110.06044 -24.923992 4294967295
-21.433062 111.7861 -25.04978 4294967295
-21.430094 111.01265 -24.9261 4294967295
-21.428846 112.87734 -25.171078 4294967295
-21.421501 111.95326 -24.999275 4294967295
-21.418018 111.18027 -24.872404 4294967295
-21.411211 112.27445 -24.977703 4294967295
-21.402189 112.74968 -24.985035 4294967295
-21.40167 107.00135 -25.208775 4294967295
-21.387381 112.60968 -24.872322 4294967295
-21.372707 107.65077 -25.113775 4294967295
-21.371256 108.11798 -25.167938 4294967295
-21.359495 106.88727 -24.926771 4294967295
-21.359222 108.90618 -25.198742 4294967295
-21.352264 108.44731 -25.092569 4294967295
-21.348185 107.51958 -24.941021 4294967295
-21.346157 107.9875 -24.991644 4294967295
-21.339907 109.39124 -25.14242 4294967295
-21.338715 107.21822 -24.840322 4294967295
-21.328827 111.11012 -25.305372 4294967295
-21.321754 108.63288 -24.92491 4294967295
-21.32106 110.65229 -25.194242 4294967295
-21.314777 109.26109 -24.965975 4294967295
-21.266893 112.26032 -25.069851 4294967295
-21.230984 113.22925 -24.974209 4294967295
-21.223351 106.71052 -25.047846 4294967295
-21.200075 107.97562 -25.072371 4294967295
-21.174925 108.15573 -24.938091 4294967295
-21.143816 110.67173 -25.082594 4294967295
-21.134895 109.43815 -24.859232 4294967295
-21.134819 111.4573 -25.132217 4294967295
-21.130508 111.77225 -25.147669 4294967295
-21.115011 110.39019 -24.862726 4294967295
-21.112724 111.32451 -24.974827 4294967295
-21.089397 113.05688 -25.062231 4294967295
-21.084042 112.90711 -25.00816 4294967295
-21.077332 112.13735 -24.861595 4294967295
-21.053082 106.8776 -25.000168 4294967295
-21.041096 107.66586 -25.031376 4294967295
-21.034786 106.58471 -24.845268 4294967295
-21.029917 107.05549 -24.87833 4294967295
-21.021818 107.52943 -24.891468 4294967295
-21.018766 109.24093 -25.103909 4294967295
-21.016783 108.62169 -25.007599 4294967295
-21.015709 108.3121 -24.958933 4294967295
-21.01088 107.85085 -24.86607 4294967295
-21.006973 110.02917 -25.136305 4294967295
-21.005381 109.56488 -25.063437 4294967295
-21.002718 109.1016 -24.983959 4294967295
-20.989122 109.89178 -25.005266 4294967295
-20.960665 110.23102 -24.871914 4294967295
-20.93462 111.5002 -24.879614 4294967295
-20.923481 112.44368 -24.937113 4294967295
-20.919725 113.22422 -25.01907 4294967295
-20.875223 108.76059 -25.137148 4294967295
-20.869751 108.30009 -25.04044 4294967295
-20.825672 111.29493 -25.168255 4294967295
-20.803413 112.09409 -25.13633 4294967295
-20.800846 110.69876 -24.931507 4294967295
-20.797699 109.92511 -24.807079 4294967295
-20.79372 111.63802 -25.013699 4294967295
-20.790695 113.03893 -25.184097 4294967295
-20.789036 111.95346 -25.026892 4294967295
-20.760443 112.75945 -24.956057 4294967295
-20.707079 107.68317 -24.935074 4294967295
-20.700277 108.77722 -25.040237 4294967295
-20.700171 109.86449 -25.186516 4294967295
-20.700157 108.156 -24.955521 4294967295
-20.696608 107.22728 -24.807697 4294967295
-20.690962 108.47574 -24.941006 4294967295
-20.678789 111.12831 -25.223051 4294967295
-20.677456 108.95514 -24.920996 4294967295
-20.669502 110.20581 -25.04007 4294967295
-20.668308 111.6048 -25.221628 4294967295
-20.661415 109.59251 -24.906408 4294967295
-20.657467 109.28569 -24.840153 4294967295
-20.632433 110.39835 -24.833332 4294967295
-20.631895 112.41846 -25.10293 4294967295
-20.620747 112.27454 -25.013477 4294967295
-20.614935 113.05718 -25.082737 4294967295
-20.612478 112.5937 -25.004683 4294967295
-20.609304 111.354 -24.817244 4294967295
-20.599077 113.22887 -25.006359 4294967295
-20.576843 106.72389 -24.987083 4294967295
-20.534142 107.38677 -24.80892 4294967295
-20.489864 110.07196 -24.894011 4294967295
-20.47517 110.24203 -24.824862 4294967295
-20.46446 113.20468 -25.157749 4294967295
-20.462708 111.65303 -24.937269 4294967295
-20.459349 111.96718 -24.958626 4294967295
-20.459234 112.12266 -24.978903 4294967295
-20.444298 112.44864 -24.929277 4294967295
-20.430197 112.77384 -24.884787 4294967295
-20.411537 106.57536 -24.92872 4294967295
-20.401779 107.51698 -24.994749 4294967295
-20.380236 109.09158 -25.072416 4294967295
-20.367798 108.32702 -24.891384 4294967295
-20.354387 108.49557 -24.830196 4294967295
-20.352699 109.58491 -24.966646 4294967295
-20.347567 111.14351 -25.144844 4294967295
-20.340481 110.83997 -25.059542 4294967295
-20.284349 112.91662 -24.988401 4294967295
-20.188614 109.90151 -24.979189 4294967295
-20.165131 111.01262 -24.98226 4294967295
-20.153759 110.40244 -24.82893 4294967295
-20.147264 111.18598 -24.893993 4294967295
-20.122461 111.98808 -24.847145 4294967295
-20.085669 106.58435 -24.883575 4294967295
-20.082708 107.98563 -25.053974 4294967295
-20.075928 107.21532 -24.907845 4294967295
-20.066813 109.08868 -25.103462 4294967295
-20.051807 108.32655 -24.907127 4294967295
-20.047184 107.86483 -24.816059 4294967295
-19.98143 112.12608 -24.980028 4294967295
-19.972717 111.35784 -24.822165 4294967295
-19.971985 111.66943 -24.859577 4294967295
-19.955694 112.77386 -24.90674 4294967295
-19.882936 108.33691 -24.848785 4294967295
-19.867462 110.06161 -24.984653 4294967295
-19.860624 109.1359 -24.817406 4294967295
-19.856871 109.76131 -24.878233 4294967295
-19.815231 112.60041 -25.001129 4294967295
-19.793488 112.93339 -24.910511 4294967295
-19.783752 113.25418 -24.893049 4294967295
-19.761393 107.05797 -24.91153 4294967295
-19.708563 109.1298 -24.861799 4294967295
-19.703131 109.91227 -24.933319 4294967295
-19.681129 111.02206 -24.94581 4294967295
-19.678436 112.42332 -25.117579 4294967295
-19.670502 111.49896 -24.943874 4294967295
-19.659458 112.90876 -25.064861 4294967295
-19.656019 111.20264 -24.81394 4294967295
-19.611456 106.89452 -24.947599 4294967295
-19.598614 107.52853 -24.953125 4294967295
-19.585064 108.31871 -24.97526 4294967295
-19.563831 108.65025 -24.888008 4294967295
-19.544409 111.15597 -25.104334 4294967295
-19.535229 109.45547 -24.818689 4294967295
-19.535053 110.54369 -24.963917 4294967295
-19.534662 110.23324 -24.919744 4294967295
-19.489058 111.98863 -24.872587 4294967295
-19.485506 112.45854 -24.913708 4294967295
-19.433941 107.37924 -24.899748 4294967295
-19.41744 108.3278 -24.924923 4294967295
-19.415939 109.26176 -25.041124 4294967295
-19.41153 107.8672 -24.826384 4294967295
-19.405149 109.42776 -24.996542 4294967295
-19.37816 110.2315 -24.937225 4294967295
-19.370705 111.01604 -24.996414 4294967295
-19.367407 110.39759 -24.892876 4294967295
-19.349792 111.19235 -24.890457 4294967295
-19.323666 112.77309 -24.940847 4294967295
-19.322018 112.30841 -24.868208 4294967295
-19.306959 113.10095 -24.881319 4294967295
-19.278458 107.06562 -24.881397 4294967295
-19.224686 109.29408 -24.847832 4294967295
-19.186153 111.97497 -24.969278 4294967295
-19.103178 107.54823 -24.847649 4294967295
-19.067364 109.60403 -24.902187 4294967295
-19.05447 109.92762 -24.865931 4294967295
-19.046782 110.4016 -24.882013 4294967295
-19.031191 111.50533 -24.933744 4294967295
-19.019934 112.44933 -24.990812 4294967295
-19.00503 113.24164 -25.004992 4294967295
-18.986345 112.94966 -24.850361 4294967295
-18.955133 106.76098 -24.811941 4294967295
-18.950531 107.07633 -24.825842 4294967295
-18.855097 111.98956 -24.895802 4294967295
-18.759285 108.50731 -24.821312 4294967295
-18.731512 110.71123 -24.945526 4294967295
-18.714619 111.50534 -24.947853 4294967295
-18.700048 112.45274 -24.985004 4294967295
-18.69949 111.20941 -24.815002 4294967295
-18.661669 113.11337 -24.837063 4294967295
-18.550985 111.82162 -24.964453 4294967295
-18.529293 112.15427 -24.875563 4294967295
-18.404697 110.09921 -24.814951 4294967295
-18.379107 111.52412 -24.848427 4294967295
-18.240971 110.4155 -24.831238 4294967295
-18.22554 111.20834 -24.842628 4294967295
-18.197193 112.7918 -24.880495 4294967295
-18.088842 110.09832 -24.834011 4294967295
-18.02998 113.26731 -24.897011 4294967295
-46.285343 113.71725 -28.378813 4294967295
-46.190472 113.48069 -28.856522 4294967295
-46.158127 113.67839 -28.615437 4294967295
-46.119587 114.19054 -28.371281 4294967295
-46.036125 113.4797 -28.870039 4294967295
-46.035515 113.93872 -28.936377 4294967295
-46.020828 114.26465 -28.863913 4294967295
-45.997017 114.1451 -28.645559 4294967295
-45.996334 114.45161 -28.687532 4294967295
-45.996071 113.68801 -28.566471 4294967295
-45.985012 113.85619 -28.499857 4294967295
-45.978447 115.24061 -28.660322 4294967295
-45.972752 114.79021 -28.542446 4294967295
-45.951271 114.97318 -28.39073 4294967295
-45.853973 114.58659 -28.823112 4294967295
-45.841454 115.21515 -28.816071 4294967295
-45.81633 113.87494 -28.397337 4294967295
-45.809216 114.19055 -28.38685 4294967295
-45.789242 115.13564 -28.366648 4294967295
-45.769726 116.23323 -28.373932 4294967295
-45.70702 113.65865 -28.754799 4294967295
-45.696247 114.43749 -28.785805 4294967295
-45.683041 113.53895 -28.535904 4294967295
-45.682522 115.22054 -28.792789 4294967295
-45.679852 114.91872 -28.723598 4294967295
-45.679218 113.84991 -28.552271 4294967295
-45.667587 114.32455 -28.528847 4294967295
-45.646782 114.04769 -28.312059 4294967295
-45.641689 115.43065 -28.484318 4294967295
-45.633137 117.12381 -28.675869 4294967295
-45.632843 116.51299 -28.578539 4294967295
-45.630013 116.97546 -28.626738 4294967295
-45.625027 115.14826 -28.301294 4294967295
-45.624126 114.84372 -28.246462 4294967295
-45.611885 116.23697 -28.360592 4294967295
-45.586792 117.80145 -28.393963 4294967295
-45.533264 114.9068 -28.800858 4294967295
-45.515053 115.69623 -28.771545 4294967295
-45.512871 114.62959 -28.587864 4294967295
-45.507092 113.72044 -28.398584 4294967295
-45.502556 116.17221 -28.741201 4294967295
-45.485527 115.27916 -28.460686 4294967295
-45.484417 116.04498 -28.570274 4294967295
-45.46487 115.61386 -28.340454 4294967295
-45.4543 117.76894 -28.58667 4294967295
-45.425426 117.96316 -28.376101 4294967295
-45.392822 113.81688 -28.76195 4294967295
-45.383949 113.52345 -28.642662 4294967295
-45.367214 114.46355 -28.649162 4294967295
-45.356049 115.24323 -28.677134 4294967295
-45.347614 115.71351 -28.679844 4294967295
-45.346153 114.0341 -28.407389 4294967295
-45.3447 114.95338 -28.537792 4294967295
-45.333836 113.43937 -28.212763 4294967295
-45.328789 114.66973 -28.361483 4294967295
-45.322155 114.22016 -28.23662 4294967295
-45.317547 116.2143 -28.507339 4294967295
-45.316879 116.82665 -28.59668 4294967295
-45.311916 117.13937 -28.603865 4294967295
-45.308956 118.36613 -28.769344 4294967295
-45.308487 114.85086 -28.220661 4294967295
-45.307259 116.68742 -28.495075 4294967295
-45.305912 117.91208 -28.673674 4294967295
-45.298424 118.53409 -28.707745 4294967295
-45.29026 117.62875 -28.499571 4294967295
-45.286915 115.95158 -28.211817 4294967295
-45.286236 116.41132 -28.277422 4294967295
-45.273739 117.49943 -28.342096 4294967295
-45.272675 118.2654 -28.451918 4294967295
-45.261757 118.12817 -28.339836 4294967295
-45.255783 118.90122 -28.409937 4294967295
-45.243958 119.07119 -28.337883 4294967295
-45.235447 119.69511 -28.363764 4294967295
-45.184464 116.48885 -28.741619 4294967295
-45.17606 113.74869 -28.247623 4294967295
-45.165668 116.05676 -28.518721 4294967295
-45.144047 115.16949 -28.201862 4294967295
-45.0895 119.37588 -28.400194 4294967295
-45.076588 113.36649 -28.658596 4294967295
-45.075832 119.70148 -28.337122 4294967295
-45.05481 113.85492 -28.553722 4294967295
-45.04948 114.168 -28.558008 4294967295
-45.025063 114.96617 -28.479193 4294967295
-45.02327 114.50993 -28.393784 4294967295
-45.008347 113.76572 -28.155045 4294967295
-45.007587 114.37863 -28.243561 4294967295
-45.005116 113.61716 -28.105301 4294967295
-44.999924 115.45985 -28.347294 4294967295
-44.999763 115.91883 -28.416948 4294967295
-44.99934 115.76651 -28.389864 4294967295
-44.999329 115.30775 -28.318838 4294967295
-44.999157 117.14278 -28.60116 4294967295
-44.992058 117.76428 -28.638458 4294967295
-44.988964 116.08687 -28.353455 4294967295
-44.986034 116.70265 -28.424398 4294967295
-44.984741 116.85738 -28.437628 4294967295
-44.976662 116.56293 -28.325174 4294967295
-44.976311 117.02219 -28.393276 4294967295
-44.975018 118.09428 -28.548332 4294967295
-44.965668 118.71915 -28.567474 4294967295
-44.96056 118.42071 -28.479034 4294967295
-44.958103 117.50674 -28.317373 4294967295
-44.942726 118.90498 -28.406185 4294967295
-44.942596 118.29349 -28.310562 4294967295
-44.941532 117.98913 -28.254684 4294967295
-44.940323 119.97868 -28.552254 4294967295
-44.939972 119.52055 -28.478521 4294967295
-44.933807 119.22364 -28.381559 4294967295
-44.925117 120.15363 -28.453342 4294967295
-44.916847 119.09513 -28.221191 4294967295
-44.872433 114.65675 -28.460884 4294967295
-44.845608 116.22313 -28.48111 4294967295
-44.836697 115.01202 -28.220337 4294967295
-44.820152 117.48222 -28.465149 4294967295
-44.81316 117.18627 -28.361635 4294967295
-44.759979 119.86215 -28.335281 4294967295
-44.73278 120.05447 -28.140152 4294967295
-44.731819 113.41325 -28.397646 4294967295
-44.725941 114.18594 -28.468391 4294967295
-44.724861 113.72861 -28.388912 4294967295
-44.715389 114.96506 -28.501583 4294967295
-44.710785 116.1946 -28.653324 4294967295
-44.70713 114.67059 -28.388035 4294967295
-44.705631 115.74312 -28.541155 4294967295
-44.701977 115.28945 -28.440998 4294967295
-44.699089 116.82248 -28.653719 4294967295
-44.694481 114.38206 -28.239149 4294967295
-44.691628 116.52718 -28.546629 4294967295
-44.681168 113.94129 -28.061295 4294967295
-44.672588 115.17716 -28.181259 4294967295
-44.67123 115.94394 -28.288376 4294967295
-44.670341 116.70995 -28.399206 4294967295
-44.664211 117.17736 -28.420765 4294967295
-44.657349 115.50427 -28.106009 4294967295
-44.654621 119.02583 -28.626823 4294967295
-44.648769 118.42261 -28.485516 4294967295
-44.647198 117.35429 -28.30773 4294967295
-44.646065 117.96769 -28.393009 4294967295
-44.638802 116.14214 -28.051443 4294967295
-44.638294 118.13166 -28.354208 4294967295
-44.638191 119.20227 -28.51852 4294967295
-44.6362 119.51093 -28.549719 4294967295
-44.623924 118.76393 -28.333204 4294967295
-44.621025 119.99152 -28.49865 4294967295
-44.609341 119.39664 -28.310507 4294967295
-44.575809 113.56718 -28.423082 4294967295
-44.524223 114.86155 -28.197968 4294967295
-44.518993 114.10361 -28.038061 4294967295
-44.513626 117.78245 -28.560917 4294967295
-44.493992 117.04541 -28.285715 4294967295
-44.491058 115.67245 -28.04994 4294967295
-44.485142 116.13978 -28.073259 4294967295
-44.473946 120.13264 -28.59643 4294967295
-44.463295 119.07748 -28.346161 4294967295
-44.409477 113.58215 -28.342421 4294967295
-44.404743 114.81229 -28.492952 4294967295
-44.402412 114.20367 -28.380089 4294967295
-44.39904 113.90231 -28.305977 4294967295
-44.396046 114.67128 -28.399773 4294967295
-44.376549 115.61591 -28.385063 4294967295
-44.372936 116.69156 -28.521017 4294967295
-44.36974 115.01337 -28.236345 4294967295
-44.362362 116.09449 -28.342194 4294967295
-44.35807 116.55937 -28.378532 4294967295
-44.356441 115.79673 -28.247732 4294967295
-44.356236 114.11366 -27.986862 4294967295
-44.35598 115.33834 -28.173357 4294967295
-44.352329 116.87332 -28.379711 4294967295
-44.342709 118.56922 -28.561749 4294967295
-44.337017 117.96556 -28.422047 4294967295
-44.333355 119.34711 -28.604635 4294967295
-44.330273 118.89277 -28.509394 4294967295
-44.326443 117.82753 -28.313951 4294967295
-44.32375 117.52534 -28.245308 4294967295
-44.311626 118.15444 -28.242558 4294967295
-44.311272 119.83753 -28.498726 4294967295
-44.309032 120.14661 -28.527889 4294967295
-44.308025 118.7715 -28.307966 4294967295
-44.301174 119.08723 -28.300268 4294967295
-44.292137 119.25312 -28.251554 4294967295
-44.274513 119.73737 -28.181316 4294967295
-44.273018 120.04552 -28.216473 4294967295
-44.251442 114.35071 -28.446129 4294967295
-44.247784 114.66163 -28.463955 4294967295
-44.242786 115.12734 -28.494625 4294967295
-44.190845 117.6468 -28.456287 4294967295
-44.176556 119.50226 -28.624443 4294967295
-44.175343 115.37314 -27.979511 4294967295
-44.174587 118.43452 -28.444151 4294967295
-44.173939 115.68122 -28.015377 4294967295
-44.158905 119.06864 -28.413074 4294967295
-44.154015 117.23949 -28.091721 4294967295
-44.076263 115.60166 -28.483629 4294967295
-44.074127 113.76856 -28.184492 4294967295
-44.07103 114.07884 -28.2068 4294967295
-44.067112 115.46129 -28.387171 4294967295
-44.066967 113.47214 -28.080338 4294967295
-44.063309 114.70147 -28.239332 4294967295
-44.063213 115.16064 -28.309105 4294967295
-44.061176 116.69324 -28.527887 4294967295
-44.05994 116.23608 -28.447542 4294967295
-44.054703 115.0193 -28.217735 4294967295
-44.044292 115.95175 -28.275831 4294967295
-44.034309 114.89417 -28.031673 4294967295
-44.028515 116.12659 -28.17363 4294967295
-44.024479 117.20336 -28.306019 4294967295
-44.022949 118.42936 -28.481838 4294967295
-44.022503 116.441 -28.172737 4294967295
-44.019196 115.83337 -28.052319 4294967295
-44.019089 117.66991 -28.333614 4294967295
-44.015434 117.98103 -28.351492 4294967295
-44.012215 117.06747 -28.184805 4294967295
-44.011307 118.90473 -28.459618 4294967295
-43.998367 120.14681 -28.544544 4294967295
-43.996586 119.53755 -28.436388 4294967295
-43.995117 118.16267 -28.213173 4294967295
-43.9925 118.77843 -28.286364 4294967295
-43.990131 116.94521 -27.985361 4294967295
-43.972324 119.41917 -28.219704 4294967295
-43.969723 119.11681 -28.151993 4294967295
-43.965855 119.73444 -28.215204 4294967295
-43.908157 116.07822 -28.46035 4294967295
-43.906277 113.47923 -28.046066 4294967295
-43.893539 113.9557 -28.0152 4294967295
-43.890308 114.11317 -28.012995 4294967295
-43.889874 117.32739 -28.502775 4294967295
-43.882977 117.64297 -28.494884 4294967295
-43.871811 115.21001 -28.030334 4294967295
-43.847652 119.37551 -28.472313 4294967295
-43.841881 116.47596 -27.980268 4294967295
-43.83522 117.25066 -28.044786 4294967295
-43.800816 120.05434 -28.194071 4294967295
-43.786259 113.89065 -28.405445 4294967295
-43.738766 116.86261 -28.474125 4294967295
-43.738605 114.2612 -28.073971 4294967295
-43.735867 116.71364 -28.427668 4294967295
-43.73177 115.34203 -28.184013 4294967295
-43.724136 114.58702 -28.006056 4294967295
-43.723316 117.95502 -28.515692 4294967295
-43.715012 115.05876 -28.004034 4294967295
-43.711021 116.59503 -28.207064 4294967295
-43.706768 118.28422 -28.431337 4294967295
-43.702793 119.05473 -28.517067 4294967295
-43.689728 117.38991 -28.155403 4294967295
-43.68737 119.99448 -28.535429 4294967295
-43.687157 118.15875 -28.252333 4294967295
-43.68232 118.47163 -28.26087 4294967295
-43.680813 120.15681 -28.506886 4294967295
-43.680477 118.93332 -28.31661 4294967295
-43.679718 117.86308 -28.146402 4294967295
-43.675457 119.5525 -28.370605 4294967295
-43.671486 119.40512 -28.315691 4294967295
-43.622097 113.44338 -28.273108 4294967295
-43.602913 113.92837 -28.191395 4294967295
-43.583454 113.80148 -28.013758 4294967295
-43.582329 114.56851 -28.122089 4294967295
-43.576187 114.27063 -28.026518 4294967295
-43.574944 115.80315 -28.251141 4294967295
-43.567894 115.0474 -28.078062 4294967295
-43.566605 115.66151 -28.16164 4294967295
-43.563416 116.1251 -28.206696 4294967295
-43.559483 118.73186 -28.573906 4294967295
-43.537163 116.92672 -28.115995 4294967295
-43.535885 117.54079 -28.19965 4294967295
-43.534531 119.53203 -28.493526 4294967295
-43.534081 119.22668 -28.443117 4294967295
-43.520264 118.63407 -28.240021 4294967295
-43.478035 120.07147 -28.116735 4294967295
-43.401981 114.75535 -27.95645 4294967295
-43.400051 116.74832 -28.245699 4294967295
-43.398731 115.67852 -28.071312 4294967295
-43.397846 115.52662 -28.040905 4294967295
-43.395428 119.50906 -28.630444 4294967295
-43.394707 118.74516 -28.507774 4294967295
-43.39275 116.29913 -28.117735 4294967295
-43.384644 117.99416 -28.311249 4294967295
-43.384144 116.15785 -28.02627 4294967295
-43.383579 117.07725 -28.162354 4294967295
-43.381466 118.61076 -28.379768 4294967295
-43.379051 117.54277 -28.196802 4294967295
-43.377724 118.30994 -28.303389 4294967295
-43.373833 117.24384 -28.108738 4294967295
-43.372784 116.63285 -28.006756 4294967295
-43.367142 119.39609 -28.383636 4294967295
-43.359367 120.0192 -28.415876 4294967295
-43.357483 116.96024 -27.932684 4294967295
-43.353909 119.72089 -28.325941 4294967295
-43.349243 119.88056 -28.312498 4294967295
-43.340809 118.97407 -28.105415 4294967295
-43.331562 119.1402 -28.055805 4294967295
-43.31282 113.59437 -28.324062 4294967295
-43.289333 114.0851 -28.208885 4294967295
-43.282883 113.94067 -28.134583 4294967295
-43.28056 115.01543 -28.280022 4294967295
-43.276981 114.71411 -28.204987 4294967295
-43.267673 117.32864 -28.529184 4294967295
-43.260941 115.19514 -28.148617 4294967295
-43.253887 117.50078 -28.443857 4294967295
-43.246433 114.29594 -27.893723 4294967295
-43.241898 115.98663 -28.115366 4294967295
-43.23251 115.84634 -28.017904 4294967295
-43.230736 119.06332 -28.495123 4294967295
-43.202774 117.1123 -27.970575 4294967295
-43.197796 117.88488 -28.048323 4294967295
-43.111992 113.80817 -27.997448 4294967295
-43.109592 113.50506 -27.931776 4294967295
-43.102837 114.43306 -28.018871 4294967295
-43.093647 118.11965 -28.507393 4294967295
-43.064468 117.0886 -28.114201 4294967295
-43.062115 119.38803 -28.446157 4294967295
-43.058716 115.71811 -27.8585 4294967295
-43.058342 119.69941 -28.463202 4294967295
-43.057842 116.48516 -27.968544 4294967295
-43.056805 120.16065 -28.521164 4294967295
-43.056652 116.02728 -27.889023 4294967295
-43.039848 117.73518 -28.013933 4294967295
-43.0383 118.50298 -28.118612 4294967295
-43.034973 118.35451 -28.069069 4294967295
-43.030067 118.82073 -28.100594 4294967295
-43.022793 120.05582 -28.230288 4294967295
-43.018841 118.9896 -28.035633 4294967295
-43.017189 119.60442 -28.11614 4294967295
-43.016609 119.14587 -28.041466 4294967295
-42.98373 113.77178 -28.219429 4294967295
-42.978409 114.85058 -28.341028 4294967295
-42.975388 113.47666 -28.10713 4294967295
-42.968861 114.0979 -28.149233 4294967295
-42.966686 114.71329 -28.225548 4294967295
-42.963776 116.40108 -28.459478 4294967295
-42.940094 114.44277 -27.969833 4294967295
-42.940041 115.20863 -28.08622 4294967295
-42.938763 115.82288 -28.169565 4294967295
-42.928337 117.98042 -28.414515 4294967295
-42.927959 114.30588 -27.85108 4294967295
-42.927601 117.52225 -28.338703 4294967295
-42.915245 116.31435 -28.054852 4294967295
-42.915127 118.91713 -28.450792 4294967295
-42.910046 117.24028 -28.154125 4294967295
-42.906036 115.40783 -27.84234 4294967295
-42.90591 117.85845 -28.215027 4294967295
-42.90514 116.78762 -28.045532 4294967295
-42.869396 119.2874 -28.138435 4294967295
-42.864418 118.3755 -27.959232 4294967295
-42.863152 118.53042 -27.972647 4294967295
-42.847729 119.47098 -27.991661 4294967295
-42.801483 113.96062 -28.040401 4294967295
-42.796543 113.50767 -27.931639 4294967295
-42.790283 115.50713 -28.185892 4294967295
-42.778194 114.91086 -27.997742 4294967295
-42.777027 116.29077 -28.198568 4294967295
-42.768555 118.29262 -28.435307 4294967295
-42.765022 116.46028 -28.127775 4294967295
-42.759113 119.2241 -28.501188 4294967295
-42.742783 119.85923 -28.46649 4294967295
-42.728027 118.04263 -28.071035 4294967295
-42.725773 117.12671 -27.913391 4294967295
-42.725357 117.74 -28.00346 4294967295
-42.725208 116.66788 -27.838943 4294967295
-42.72121 118.81783 -28.134253 4294967295
-42.703693 119.76117 -28.136936 4294967295
-42.699303 118.69521 -27.939262 4294967295
-42.695137 119.00738 -27.953268 4294967295
-42.662186 114.09215 -28.198551 4294967295
-42.651947 113.49313 -28.025141 4294967295
-42.648247 113.8044 -28.042795 4294967295
-42.645454 115.18649 -28.230711 4294967295
-42.643597 115.95457 -28.332689 4294967295
-42.631641 114.89879 -28.075989 4294967295
-42.625877 115.67234 -28.147419 4294967295
-42.624691 118.12356 -28.510897 4294967295
-42.622002 115.06492 -28.023836 4294967295
-42.621193 114.60644 -27.947554 4294967295
-42.618938 115.3754 -28.04648 4294967295
-42.618572 116.44795 -28.206774 4294967295
-42.617744 117.52087 -28.363384 4294967295
-42.616085 117.06384 -28.280518 4294967295
-42.607292 117.22902 -28.235004 4294967295
-42.602318 118.91994 -28.452354 4294967295
-42.588448 118.63309 -28.297281 4294967295
-42.587914 118.3276 -28.246529 4294967295
-42.586876 120.16605 -28.517904 4294967295
-42.582901 119.71246 -28.416969 4294967295
-42.582291 116.3442 -27.899561 4294967295
-42.572678 119.42062 -28.290445 4294967295
-42.568447 120.03896 -28.350533 4294967295
-42.565418 116.98008 -27.860806 4294967295
-42.544853 119.30641 -28.049582 4294967295
-42.510818 113.9335 -28.215332 4294967295
-42.500729 114.55952 -28.229635 4294967295
-42.483398 116.42032 -28.373621 4294967295
-42.475708 114.13338 -27.964275 4294967295
-42.456417 115.69118 -28.046478 4294967295
-42.445492 118.61574 -28.403463 4294967295
-42.442272 115.86349 -27.959311 4294967295
-42.421772 119.87356 -28.404499 4294967295
-42.383678 118.24185 -27.851152 4294967295
-42.359444 113.46855 -28.185537 4294967295
-42.347473 114.25021 -28.208504 4294967295
-42.337578 113.80383 -28.06155 4294967295
-42.335709 113.6531 -28.023714 4294967295
-42.334759 114.57348 -28.155907 4294967295
-42.33147 115.34366 -28.246574 4294967295
-42.330482 114.88552 -28.169085 4294967295
-42.327824 114.12316 -28.032015 4294967295
-42.323925 116.57889 -28.373802 4294967295
-42.32196 115.96905 -28.265457 4294967295
-42.321705 114.4377 -28.030857 4294967295
-42.319977 115.66544 -28.203482 4294967295
-42.308784 117.97749 -28.465055 4294967295
-42.30323 118.29133 -28.468266 4294967295
-42.301434 116.30315 -28.151983 4294967295
-42.297188 116.7684 -28.188671 4294967295
-42.293949 115.54731 -27.977322 4294967295
-42.29372 117.53886 -28.277922 4294967295
-42.286343 118.16153 -28.313454 4294967295
-42.280052 114.79974 -27.75263 4294967295
-42.271858 119.40653 -28.386625 4294967295
-42.268757 118.64523 -28.246223 4294967295
-42.265068 117.88452 -28.101204 4294967295
-42.261066 116.20462 -27.814085 4294967295
-42.258198 117.28116 -27.954634 4294967295
-42.254475 118.97134 -28.181475 4294967295
-42.235382 119.61058 -28.125788 4294967295
-42.233437 120.07278 -28.180416 4294967295
-42.231987 118.84936 -27.983061 4294967295
-42.213905 119.94698 -28.005053 4294967295
-42.135494 115.24471 -27.916468 4294967295
-42.130966 119.08009 -28.462116 4294967295
-42.125484 117.09678 -28.117542 4294967295
-42.124043 116.79235 -28.059851 4294967295
-42.117599 120.17035 -28.520763 4294967295
-42.115238 116.49787 -27.94488 4294967295
-42.103905 117.73904 -28.042683 4294967295
-42.047771 119.50206 -27.861919 4294967295
-42.037167 114.24921 -28.229942 4294967295
-42.032459 114.71497 -28.263035 4294967295
-42.013313 115.20003 -28.183994 4294967295
-42.00499 115.67072 -28.18902 4294967295
-41.997265 117.67213 -28.430767 4294967295
-41.997036 113.84261 -27.848568 4294967295
-41.991776 114.46262 -27.90062 4294967295
-41.988777 113.70023 -27.761171 4294967295
-41.983662 113.55366 -27.698202 4294967295
-41.979267 116.0117 -28.035761 4294967295
-41.972431 116.32736 -28.029133 4294967295
-41.968819 118.78311 -28.372456 4294967295
-41.967583 116.48714 -28.014715 4294967295
-41.964882 117.25686 -28.109825 4294967295
-41.959785 118.64243 -28.279186 4294967295
-41.959358 118.18353 -28.206232 4294967295
-41.955318 117.11666 -28.012386 4294967295
-41.954178 119.26279 -28.32848 4294967295
-41.952568 117.88647 -28.10713 4294967295
-41.942371 119.73863 -28.306498 4294967295
-41.939861 117.44418 -27.93886 4294967295
-41.934731 118.52379 -28.061567 4294967295
-41.903225 120.09959 -28.049284 4294967295
-41.888966 113.77998 -28.225084 4294967295
-41.836098 116.14822 -28.163252 4294967295
-41.83448 114.15829 -27.8491 4294967295
-41.831661 115.0816 -27.966488 4294967295
-41.831604 114.92843 -27.942852 4294967295
-41.831589 115.84787 -28.081928 4294967295
-41.829952 115.54361 -28.022858 4294967295
-41.823463 116.77807 -28.158154 4294967295
-41.806847 114.50143 -27.681324 4294967295
-41.799568 117.57656 -28.089016 4294967295
-41.749393 118.25816 -27.793226 4294967295
-41.732552 113.47469 -28.179831 4294967295
-41.710136 114.42346 -28.145481 4294967295
-41.692249 114.60035 -28.030275 4294967295
-41.691944 115.67332 -28.19013 4294967295
-41.689949 113.6838 -27.873394 4294967295
-41.687817 115.98525 -28.204559 4294967295
-41.686363 114.30162 -27.93837 4294967295
-41.683197 117.37007 -28.377337 4294967295
-41.678398 116.76389 -28.247589 4294967295
-41.674549 114.01062 -27.800611 4294967295
-41.67403 115.39079 -28.005243 4294967295
-41.672379 115.85272 -28.061989 4294967295
-41.669945 116.46889 -28.135868 4294967295
-41.668365 114.93854 -27.891901 4294967295
-41.662319 117.55163 -28.239101 4294967295
-41.657501 116.33241 -28.016481 4294967295
-41.646637 114.81406 -27.700615 4294967295
-41.637676 116.97216 -27.955912 4294967295
-41.636902 116.66667 -27.903572 4294967295
-41.629559 118.05592 -28.055386 4294967295
-41.626461 118.82628 -28.147289 4294967295
-41.622147 119.29185 -28.183443 4294967295
-41.617233 118.37927 -28.006451 4294967295
-41.612732 117.31251 -27.809423 4294967295
-41.609047 118.697 -27.989534 4294967295
-41.593288 119.63822 -28.006786 4294967295
-41.584641 119.95672 -27.986315 4294967295
-41.581207 119.04184 -27.820747 4294967295
-41.551388 115.1937 -28.24465 4294967295
-41.545952 114.28156 -28.06377 4294967295
-41.542007 116.12537 -28.311123 4294967295
-41.511105 117.8521 -28.327251 4294967295
-41.508995 115.70985 -27.986912 4294967295
-41.490158 118.49345 -28.258221 4294967295
-41.477406 118.20447 -28.113571 4294967295
-41.466984 116.07261 -27.708973 4294967295
-41.452343 117.47222 -27.804472 4294967295
-41.404617 113.6498 -28.089169 4294967295
-41.369087 116.14861 -28.185497 4294967295
-41.366772 114.61912 -27.936335 4294967295
-41.361916 115.23866 -27.991482 4294967295
-41.359741 114.01513 -27.789602 4294967295
-41.356972 115.85831 -28.04594 4294967295
-41.350933 116.47941 -28.09194 4294967295
-41.347153 114.79831 -27.80831 4294967295
-41.339813 118.94588 -28.376268 4294967295
-41.339191 113.58194 -27.561779 4294967295
-41.337852 116.80349 -28.037468 4294967295
-41.320248 115.75397 -27.739906 4294967295
-41.317169 117.44448 -27.970709 4294967295
-41.309593 119.14059 -28.166784 4294967295
-41.308487 119.60177 -28.227636 4294967295
-41.308308 117.30318 -27.879345 4294967295
-41.30201 118.38473 -27.99279 4294967295
-41.297741 118.69711 -28.006182 4294967295
-41.297119 117.93153 -27.885725 4294967295
-41.291466 119.93174 -28.14286 4294967295
-41.28867 119.32261 -28.028864 4294967295
-41.256638 119.52002 -27.805456 4294967295
-41.24844 113.80377 -28.115774 4294967295
-41.218445 115.98877 -28.208649 4294967295
-41.210918 114.31274 -27.896547 4294967295
-41.205715 115.69922 -28.064552 4294967295
-41.195148 118.16511 -28.352982 4294967295
-41.191364 113.72497 -27.653654 4294967295
-41.176628 115.58456 -27.817818 4294967295
-41.172226 117.8898 -28.130657 4294967295
-41.166252 116.51833 -27.876766 4294967295
-41.164986 116.36671 -27.843901 4294967295
-41.163746 118.51431 -28.157898 4294967295
-41.108524 118.43629 -27.710522 4294967295
-41.08979 114.57398 -28.215794 4294967295
-41.080578 115.04583 -28.214355 4294967295
-41.070618 113.52607 -27.907003 4294967295
-41.029919 118.94427 -28.40267 4294967295
-41.024773 116.03943 -27.924675 4294967295
-41.02338 115.27464 -27.79851 4294967295
-41.023064 118.03431 -28.211678 4294967295
-41.022617 118.49461 -28.277493 4294967295
-41.021008 114.20417 -27.618593 4294967295
-41.019871 116.81248 -28.002522 4294967295
-41.017372 119.72742 -28.421844 4294967295
-41.017189 117.12267 -28.028133 4294967295
-41.008408 116.67454 -27.891502 4294967295
-41.006176 117.75065 -28.035997 4294967295
-41.005455 118.82447 -28.192041 4294967295
-41.003666 116.37421 -27.808945 4294967295
-40.999928 115.61238 -27.664757 4294967295
-40.999454 119.13916 -28.19219 4294967295
-40.994335 116.2333 -27.714247 4294967295
-40.985245 116.55217 -27.690714 4294967295
-40.976227 119.32425 -28.037193 4294967295
-40.972511 120.09571 -28.124121 4294967295
-40.968395 119.48827 -28.000237 4294967295
-40.967056 118.41692 -27.828373 4294967295
-40.938332 114.26202 -28.209421 4294967295
-40.929962 114.42623 -28.168377 4294967295
-40.917423 114.13605 -28.02618 4294967295
-40.904369 114.91965 -28.041534 4294967295
-40.902561 115.68845 -28.143011 4294967295
-40.902088 113.38934 -27.793329 4294967295
-40.882725 117.09423 -28.198706 4294967295
-40.87756 113.72793 -27.65155 4294967295
-40.874371 114.65237 -27.765608 4294967295
-40.859528 115.59207 -27.790405 4294967295
-40.833706 117.92667 -27.938778 4294967295
-40.803551 118.73421 -27.823339 4294967295
-40.80183 119.80985 -27.971653 4294967295
-40.789223 113.48717 -28.151932 4294967295
-40.734043 113.86539 -27.776106 4294967295
-40.727543 117.55341 -28.279505 4294967295
-40.706558 116.35516 -27.934841 4294967295
-40.70517 118.04333 -28.177694 4294967295
-40.704617 115.28424 -27.75865 4294967295
-40.697712 115.44672 -27.728937 4294967295
-40.697517 113.75938 -27.473732 4294967295
-40.697479 116.06052 -27.81937 4294967295
-40.697433 116.67397 -27.911232 4294967295
-40.693455 114.99213 -27.627207 4294967295
-40.691727 119.59413 -28.305367 4294967295
-40.685745 115.92268 -27.706646 4294967295
-40.684444 117.76468 -27.973307 4294967295
-40.673321 117.3196 -27.819174 4294967295
-40.665955 118.40295 -27.924242 4294967295
-40.662041 119.17488 -28.009575 4294967295
-40.659538 119.9448 -28.105637 4294967295
-40.658501 119.02639 -27.959488 4294967295
-40.652809 117.5005 -27.685543 4294967295
-40.646305 117.96943 -27.705008 4294967295
-40.642574 118.74136 -27.791759 4294967295
-40.638416 118.59363 -27.736954 4294967295
-40.634483 118.29218 -27.660805 4294967295
-40.597897 115.37312 -28.163755 4294967295
-40.596584 114.60833 -28.038639 4294967295
-40.595795 114.14938 -27.96353 4294967295
-40.585369 115.69621 -28.114241 4294967295
-40.581692 113.86097 -27.80983 4294967295
-40.581127 113.55493 -27.75947 4294967295
-40.571098 114.94833 -27.890251 4294967295
-40.560825 117.26174 -28.157253 4294967295
-40.559608 113.42931 -27.572189 4294967295
-40.547615 117.58603 -28.10256 4294967295
-40.534492 118.67677 -28.163612 4294967295
-40.534439 114.53604 -27.541412 4294967295
-40.534157 115.61037 -27.700556 4294967295
-40.532658 119.29236 -28.241693 4294967295
-40.518547 118.08508 -27.949993 4294967295
-40.470757 119.99021 -27.862015 4294967295
-40.449383 114.29061 -28.065258 4294967295
-40.413418 116.63756 -28.136417 4294967295
-40.38501 118.20856 -28.150194 4294967295
-40.381947 115.14543 -27.666761 4294967295
-40.375313 116.84153 -27.869408 4294967295
-40.368473 117.15738 -27.863369 4294967295
-40.366901 119.61271 -28.219355 4294967295
-40.3633 117.0109 -27.80097 4294967295
-40.362755 117.62513 -27.888847 4294967295
-40.360611 116.24745 -27.66544 4294967295
-40.358017 117.93821 -27.898819 4294967295
-40.349281 120.09666 -28.154308 4294967295
-40.341564 118.42046 -27.842627 4294967295
-40.337399 118.8862 -27.879969 4294967295
-40.326862 119.3606 -27.868826 4294967295
-40.295418 114.74831 -28.155254 4294967295
-40.285744 114.60757 -28.058746 4294967295
-40.279572 115.22894 -28.103771 4294967295
-40.275009 113.7013 -27.839226 4294967295
-40.263939 113.86898 -27.778069 4294967295
-40.256035 113.4189 -27.648994 4294967295
-40.255157 116.181 -28.056139 4294967295
-40.254807 117.40795 -28.237288 4294967295
-40.25248 114.19062 -27.736956 4294967295
-40.251141 114.03893 -27.703783 4294967295
-40.250755 116.49348 -28.068651 4294967295
-40.248672 115.42275 -27.891943 4294967295
-40.238758 116.66271 -28.000484 4294967295
-40.222584 114.53627 -27.555716 4294967295
-40.219536 118.22174 -28.08427 4294967295
-40.215569 115.92641 -27.709398 4294967295
-40.191895 117.03169 -27.69047 4294967295
-40.190277 118.7212 -27.931021 4294967295
-40.185776 119.80074 -28.057705 4294967295
-40.163429 120.13794 -27.934019 4294967295
-40.160564 118.60789 -27.682436 4294967295
-40.156281 113.34694 -28.08217 4294967295
-40.140537 114.44059 -28.123442 4294967295
-40.087818 115.1226 -27.815426 4294967295
-40.075359 115.75253 -27.812798 4294967295
-40.059959 119.4535 -28.247011 4294967295
-40.041222 119.32559 -28.082085 4294967295
-40.025993 118.73271 -27.874887 4294967295
-40.023838 119.96258 -28.042194 4294967295
-40.022785 118.89043 -27.873531 4294967295
-40.020092 119.66096 -27.967892 4294967295
-39.980625 113.37244 -27.938963 4294967295
-39.97694 113.53056 -27.933989 4294967295
-39.970062 113.84617 -27.927788 4294967295
-39.968426 114.15504 -27.961315 4294967295
-39.959091 114.62726 -27.959448 4294967295
-39.953384 115.8616 -28.099768 4294967295
-39.942604 114.80203 -27.857582 4294967295
-39.932178 117.72961 -28.214489 4294967295
-39.931683 115.42987 -27.866688 4294967295
-39.931309 114.04947 -27.657309 4294967295
-39.923847 116.05372 -27.899164 4294967295
-39.918163 115.29408 -27.741413 4294967295
-39.905033 118.53258 -28.123793 4294967295
-39.904514 116.84619 -27.867561 4294967295
-39.903896 116.23335 -27.771112 4294967295
-39.903679 117.61424 -27.975964 4294967295
-39.893486 116.70734 -27.761179 4294967295
-39.890411 119.93227 -28.219572 4294967295
-39.887924 118.2488 -27.948521 4294967295
-39.882011 118.10332 -27.880844 4294967295
-39.881111 117.33745 -27.759329 4294967295
-39.880383 119.17917 -28.029097 4294967295
-39.879723 116.57206 -27.634068 4294967295
-39.860329 117.97888 -27.693869 4294967295
-39.849594 120.14117 -27.933859 4294967295
-39.839855 119.08047 -27.699638 4294967295
-39.812519 115.07545 -28.105618 4294967295
-39.785778 116.18388 -28.063999 4294967295
-39.774689 117.272 -28.140638 4294967295
-39.768726 114.51853 -27.68301 4294967295
-39.762539 114.21956 -27.590399 4294967295
-39.751945 114.84718 -27.602097 4294967295
-39.745487 118.38435 -28.080551 4294967295
-39.720825 116.88302 -27.665106 4294967295
-39.652359 114.46763 -27.988689 4294967295
-39.646854 113.70762 -27.832663 4294967295
-39.638783 114.17827 -27.840508 4294967295
-39.634148 114.79795 -27.897167 4294967295
-39.630825 113.42118 -27.665915 4294967295
-39.628101 115.87963 -28.011868 4294967295
-39.622326 115.1201 -27.853806 4294967295
-39.616905 117.73476 -28.202166 4294967295
-39.614906 117.89075 -28.210005 4294967295
-39.610226 114.36845 -27.648029 4294967295
-39.609959 115.44303 -27.806376 4294967295
-39.609447 118.2047 -28.214619 4294967295
-39.604488 116.52416 -27.92543 4294967295
-39.591549 115.7739 -27.713387 4294967295
-39.590675 116.38886 -27.798407 4294967295
-39.589622 115.31599 -27.630125 4294967295
-39.585274 118.08357 -28.009588 4294967295
-39.583687 118.54584 -28.066301 4294967295
-39.58358 116.09125 -27.69911 4294967295
-39.582111 117.16731 -27.848373 4294967295
-39.578835 117.0182 -27.800756 4294967295
-39.568218 119.33347 -28.064217 4294967295
-39.566799 119.79549 -28.122173 4294967295
-39.56451 117.65092 -27.784426 4294967295
-39.564362 119.64542 -28.080936 4294967295
-39.564087 119.49242 -28.055971 4294967295
-39.551876 118.89525 -27.872414 4294967295
-39.549927 118.74444 -27.83482 4294967295
-39.535141 120.14515 -27.929506 4294967295
-39.520332 120.0118 -27.795074 4294967295
-39.517979 119.24769 -27.662844 4294967295
-39.491955 115.39393 -28.099104 4294967295
-39.490715 113.86144 -27.860966 4294967295
-39.464802 113.7411 -27.642973 4294967295
-39.454479 114.67525 -27.702633 4294967295
-39.452885 117.28564 -28.079584 4294967295
-39.449902 114.83463 -27.691048 4294967295
-39.436298 118.84139 -28.183506 4294967295
-39.393867 116.59602 -27.521191 4294967295
-39.388863 119.36523 -27.895432 4294967295
-39.38348 118.45173 -27.717716 4294967295
-39.358631 119.55936 -27.691032 4294967295
-39.354836 113.52912 -27.972963 4294967295
-39.334877 115.08883 -28.051603 4294967295
-39.329521 113.86827 -27.828455 4294967295
-39.323315 115.56401 -28.0333 4294967295
-39.322876 114.33714 -27.847124 4294967295
-39.31617 113.73183 -27.705265 4294967295
-39.314907 114.96118 -27.878714 4294967295
-39.311718 113.4305 -27.626081 4294967295
-39.30262 114.51659 -27.717821 4294967295
-39.302425 116.35825 -27.990709 4294967295
-39.302372 116.66515 -28.036015 4294967295
-39.286854 116.83891 -27.942345 4294967295
-39.284199 117.14925 -27.968119 4294967295
-39.282455 114.23543 -27.520559 4294967295
-39.279816 116.08086 -27.775192 4294967295
-39.278469 117.00335 -27.902237 4294967295
-39.275047 118.84876 -28.150755 4294967295
-39.27187 117.93262 -27.989813 4294967295
-39.261055 118.71407 -28.022888 4294967295
-39.256916 119.02641 -28.037537 4294967295
-39.25407 119.18362 -28.039019 4294967295
-39.253475 115.96166 -27.55448 4294967295
-39.253387 119.49133 -28.079588 4294967295
-39.247433 119.95952 -28.103422 4294967295
-39.238815 120.12455 -28.061613 4294967295
-39.238411 117.36301 -27.647186 4294967295
-39.238007 117.67053 -27.689867 4294967295
-39.224472 119.68364 -27.885462 4294967295
-39.214928 118.31512 -27.608099 4294967295
-39.155357 114.50555 -27.790318 4294967295
-39.111729 118.70545 -28.079916 4294967295
-39.110336 117.63332 -27.909662 4294967295
-39.10738 118.25099 -27.978834 4294967295
-39.097397 115.50124 -27.492844 4294967295
-39.086441 116.59026 -27.570688 4294967295
-39.056812 120.15993 -27.87406 4294967295
-39.007072 113.42137 -27.69525 4294967295
-38.99789 114.66105 -27.809135 4294967295
-38.99752 116.04266 -28.011717 4294967295
-38.993145 113.74607 -27.636654 4294967295
-38.990799 116.35826 -28.007061 4294967295
-38.987778 115.59492 -27.870377 4294967295
-38.985039 117.28632 -28.100828 4294967295
-38.98418 115.29261 -27.797813 4294967295
-38.983673 114.2187 -27.634243 4294967295
-38.977829 114.84027 -27.681816 4294967295
-38.9687 115.15903 -27.659157 4294967295
-38.966667 116.69661 -27.872177 4294967295
-38.962612 118.54318 -28.115583 4294967295
-38.956512 117.93758 -27.978731 4294967295
-38.955868 115.48263 -27.608793 4294967295
-38.954235 115.79179 -27.642246 4294967295
-38.950924 117.17763 -27.822866 4294967295
-38.950008 119.48039 -28.158186 4294967295
-38.949974 116.25788 -27.678829 4294967295
-38.94479 119.33397 -28.096373 4294967295
-38.939411 117.03922 -27.713936 4294967295
-38.939331 117.6533 -27.804615 4294967295
-38.934475 118.734 -27.92802 4294967295
-38.922195 117.52234 -27.653639 4294967295
-38.919064 119.06145 -27.85841 4294967295
