# .PCD v0.7 - Point Cloud Data file format
VERSION 0.7
FIELDS x y z rgb
SIZE 4 4 4 4
TYPE F F F U
COUNT 1 1 1 1
WIDTH 1147
HEIGHT 1
VIEWPOINT 0 0 0 1 0 0 0
POINTS 1147
DATA ascii
75.411217 84.154381 -11.442822 4294967295
75.411903 89.38868 -11.995446 4294967295
75.42276 88.575424 -11.874003 4294967295
75.445786 87.2761 -11.661509 4294967295
75.462097 87.773315 -11.661243 4294967295
75.48333 88.43615 -11.66258 4294967295
75.498047 86.642204 -11.424629 4294967295
75.50885 90.245949 -11.771528 4294967295
75.520355 89.923477 -11.699981 4294967295
75.521362 88.778625 -11.575391 4294967295
75.541344 90.913673 -11.73678 4294967295
75.550484 86.759148 -11.822445 4294967295
75.55732 85.616898 -11.679211 4294967295
75.566185 85.293159 -11.616127 4294967295
75.566338 86.43824 -11.737008 4294967295
75.580559 90.766243 -11.593841 4294967295
75.58313 85.954048 -11.6312 4294967295
75.583626 84.645439 -11.490907 4294967295
75.586823 84.810272 -11.498014 4294967295
75.587852 84.974274 -11.512049 4294967295
75.599731 86.287682 -11.61272 4294967295
75.600304 90.213333 -12.026847 4294967295
75.608459 84.262474 -11.924732 4294967295
75.611336 88.091667 -11.766251 4294967295
75.62175 89.567924 -11.888896 4294967295
75.64106 88.594292 -11.723078 4294967295
75.6493 87.779594 -11.61001 4294967295
75.6502 87.289108 -11.555111 4294967295
75.65744 90.073151 -11.826647 4294967295
75.663963 86.149048 -11.389653 4294967295
75.683578 88.938591 -11.621635 4294967295
75.688065 85.437576 -11.791236 4294967295
75.699623 88.712616 -12.100739 4294967295
75.700638 85.933083 -11.802977 4294967295
75.714729 89.442047 -11.57393 4294967295
75.721558 83.814537 -11.510693 4294967295
75.724586 90.591469 -11.663731 4294967295
75.72464 88.232086 -11.968747 4294967295
75.730171 84.145012 -11.517794 4294967295
75.731239 89.052353 -12.034259 4294967295
75.751694 89.224136 -11.986162 4294967295
75.777824 84.490326 -11.39994 4294967295
75.780663 84.818687 -11.425537 4294967295
75.796181 87.442657 -11.653248 4294967295
75.804359 84.598686 -11.880013 4294967295
75.835915 86.967422 -11.474131 4294967295
75.889618 90.425339 -11.666363 4294967295
75.892479 85.45018 -11.684855 4294967295
75.896461 84.142899 -11.533484 4294967295
75.904251 83.982224 -11.49123 4294967295
75.908348 84.474632 -11.530129 4294967295
75.908661 84.801987 -11.563782 4294967295
75.915375 88.894028 -11.975484 4294967295
75.918503 86.44178 -11.705633 4294967295
75.921898 89.783928 -11.493798 4294967295
75.928871 87.263771 -11.759118 4294967295
75.929497 85.791649 -11.601159 4294967295
75.933189 87.592644 -11.779968 4294967295
75.933876 84.320686 -11.431152 4294967295
75.938004 87.921707 -11.799236 4294967295
75.938988 90.936569 -11.560505 4294967295
75.942772 87.432838 -11.732017 4294967295
75.94342 89.23243 -11.920496 4294967295
75.954208 86.782928 -11.626128 4294967295
75.974304 85.415649 -11.970379 4294967295
75.976738 86.137192 -11.484771 4294967295
75.981369 90.883507 -11.972459 4294967295
75.982094 90.393112 -11.918189 4294967295
75.986137 84.275414 -11.811317 4294967295
75.993675 89.579918 -11.794546 4294967295
76.001266 89.092178 -11.71833 4294967295
76.00267 88.438271 -11.644534 4294967295
76.003838 85.099899 -11.841375 4294967295
76.005974 86.312195 -11.40864 4294967295
76.010307 85.65918 -11.325419 4294967295
76.015205 88.279648 -11.587123 4294967295
76.024742 87.792503 -11.504641 4294967295
76.09726 88.407616 -11.889372 4294967295
76.111099 88.085976 -11.810555 4294967295
76.11187 90.703278 -12.085165 4294967295
76.116142 90.611694 -11.507232 4294967295
76.117722 85.307121 -11.494838 4294967295
76.132591 84.821846 -11.395342 4294967295
76.152916 90.065834 -11.884859 4294967295
76.161583 84.931015 -11.86687 4294967295
76.166718 84.442299 -11.798534 4294967295
76.20491 89.432487 -11.649587 4294967295
76.209061 86.912003 -11.923136 4294967295
76.229347 84.302414 -11.581255 4294967295
76.232697 85.285362 -11.674499 4294967295
76.237648 90.918602 -11.701008 4294967295
76.237663 89.936714 -11.59699 4294967295
76.241409 88.723877 -12.010376 4294967295
76.242851 83.816612 -11.486156 4294967295
76.24897 88.236229 -11.934298 4294967295
76.249405 87.091377 -11.811716 4294967295
76.282982 85.795547 -11.565979 4294967295
76.286667 89.723465 -11.969861 4294967295
76.288177 84.815651 -11.44543 4294967295
76.294884 89.236061 -11.891719 4294967295
76.296997 84.000633 -11.330608 4294967295
76.29792 89.891609 -11.951284 4294967295
76.298424 86.128799 -11.551333 4294967295
76.30159 86.784584 -11.610516 4294967295
76.309219 88.914642 -11.811341 4294967295
76.320419 88.591904 -11.740993 4294967295
76.322357 86.465385 -11.509594 4294967295
76.322449 85.647095 -11.422674 4294967295
76.3265 84.110611 -11.800249 4294967295
76.335197 87.452332 -11.572586 4294967295
76.336891 87.289352 -11.549851 4294967295
76.338432 90.235275 -11.856703 4294967295
76.368713 85.762421 -11.838752 4294967295
76.369583 87.956902 -11.514837 4294967295
76.377388 89.432961 -11.645846 4294967295
76.380028 86.74823 -11.906546 4294967295
76.392616 87.802345 -11.424012 4294967295
76.402046 89.115578 -11.53254 4294967295
76.403183 88.133919 -11.424943 4294967295
76.410255 84.46946 -11.567698 4294967295
76.421333 90.596443 -11.626931 4294967295
76.47596 85.640076 -11.479411 4294967295
76.493912 90.883247 -11.976315 4294967295
76.508751 88.271393 -11.651999 4294967295
76.518234 88.929756 -11.691022 4294967295
76.532303 85.595734 -11.84571 4294967295
76.534035 86.087128 -11.892134 4294967295
76.537857 90.737686 -11.818956 4294967295
76.559105 87.145538 -11.370204 4294967295
76.566826 88.458183 -11.484185 4294967295
76.573219 85.775063 -11.732657 4294967295
76.58123 86.923393 -11.828316 4294967295
76.581711 85.12384 -11.636333 4294967295
76.594536 86.274139 -11.71667 4294967295
76.596123 90.597908 -11.615977 4294967295
76.601234 89.781555 -11.513099 4294967295
76.608719 89.060928 -11.965758 4294967295
76.613197 86.772263 -11.70915 4294967295
76.616371 90.278801 -11.516816 4294967295
76.629356 89.559998 -11.951962 4294967295
76.632301 84.161064 -11.371169 4294967295
76.644447 88.257187 -11.76544 4294967295
76.646469 84.493797 -11.36067 4294967295
76.654106 90.715187 -11.994308 4294967295
76.665352 87.119926 -11.577651 4294967295
76.667801 84.992989 -11.344675 4294967295
76.670265 87.776497 -11.631266 4294967295
76.670502 87.449272 -11.595871 4294967295
76.685211 90.073456 -11.826034 4294967295
76.706612 88.936577 -11.636696 4294967295
76.718513 84.128777 -11.642179 4294967295
76.740372 89.277481 -11.563811 4294967295
76.787819 86.609802 -11.681205 4294967295
76.798775 85.468437 -11.525146 4294967295
76.802574 90.939735 -11.538943 4294967295
76.804642 84.979652 -11.454506 4294967295
76.832397 90.227303 -11.920122 4294967295
76.873764 86.152061 -11.355686 4294967295
76.90361 83.806427 -11.563532 4294967295
76.913055 89.441696 -11.576963 4294967295
76.913246 86.59185 -11.827117 4294967295
76.919281 84.630585 -11.600229 4294967295
76.925224 85.778358 -11.702492 4294967295
76.926979 84.797157 -11.593044 4294967295
76.930618 88.466469 -11.417205 4294967295
76.931297 86.107964 -11.717794 4294967295
76.933296 87.581345 -11.867173 4294967295
76.936508 87.255379 -11.822357 4294967295
76.936623 84.146141 -11.493115 4294967295
76.940498 87.815445 -11.316466 4294967295
76.941185 88.402489 -11.928603 4294967295
76.959091 85.136696 -11.525507 4294967295
76.972557 89.629402 -11.404978 4294967295
76.974846 84.324219 -11.388828 4294967295
76.985413 87.765495 -11.718752 4294967295
76.987991 89.239258 -11.8663 4294967295
76.990852 90.619263 -11.450677 4294967295
76.994461 89.965759 -11.36992 4294967295
76.994766 87.441864 -11.654392 4294967295
76.999084 86.461502 -11.536809 4294967295
77.009743 86.956703 -11.554839 4294967295
77.01683 88.268898 -11.670771 4294967295
77.018814 90.724365 -11.924032 4294967295
77.019287 87.124115 -11.541809 4294967295
77.052567 85.924911 -11.859481 4294967295
77.058006 86.090614 -11.859495 4294967295
77.085037 88.62339 -11.488544 4294967295
77.086349 89.769867 -11.605552 4294967295
77.099136 90.102448 -11.599507 4294967295
77.114754 88.798965 -11.411366 4294967295
77.117653 88.145142 -11.332886 4294967295
77.125008 90.931519 -11.603825 4294967295
77.129829 85.627296 -11.579329 4294967295
77.150932 84.816887 -11.425698 4294967295
77.187141 84.503128 -11.275966 4294967295
77.192978 89.907379 -11.828569 4294967295
77.215057 90.407303 -11.810349 4294967295
77.220856 86.972076 -11.428526 4294967295
77.228363 89.26696 -11.646988 4294967295
77.239929 90.090065 -11.696774 4294967295
77.244843 88.127571 -11.473483 4294967295
77.244904 89.764694 -11.646369 4294967295
77.245712 84.460358 -11.634314 4294967295
77.254723 90.750824 -11.719011 4294967295
77.258347 87.314201 -11.344018 4294967295
77.259995 85.120399 -11.658155 4294967295
77.264885 86.758728 -11.81563 4294967295
77.265076 89.609131 -11.565002 4294967295
77.265511 88.299484 -11.425148 4294967295
77.274773 84.143944 -11.507394 4294967295
77.275452 90.923004 -11.670471 4294967295
77.286285 87.25798 -11.799584 4294967295
77.287125 86.603722 -11.727717 4294967295
77.302597 88.969238 -11.376582 4294967295
77.305878 88.574799 -11.875773 4294967295
77.307884 85.465996 -11.540692 4294967295
77.314575 87.923676 -11.778974 4294967295
77.326653 89.564911 -11.913597 4294967295
77.32959 86.292801 -11.558305 4294967295
77.330048 87.60244 -11.695255 4294967295
77.337097 86.950478 -11.603666 4294967295
77.342484 84.660576 -11.344269 4294967295
77.349373 90.555916 -11.945269 4294967295
77.37326 86.145927 -11.402328 4294967295
77.374756 85.327789 -11.31103 4294967295
77.387016 89.261848 -11.687446 4294967295
77.402374 90.904869 -11.811691 4294967295
77.426041 87.476387 -11.373231 4294967295
77.428886 88.459976 -11.468059 4294967295
77.436371 84.958435 -11.624844 4294967295
77.449585 88.959442 -11.454282 4294967295
77.461746 85.786491 -11.630815 4294967295
77.506424 89.404663 -11.869616 4294967295
77.531128 87.286598 -11.566424 4294967295
77.579926 89.761589 -11.671157 4294967295
77.583359 88.780663 -11.556497 4294967295
77.589798 90.420395 -11.709042 4294967295
77.594566 87.966408 -11.434442 4294967295
77.623589 90.761581 -11.636526 4294967295
77.628281 90.927223 -11.63895 4294967295
77.651772 88.644119 -11.322232 4294967295
77.683319 87.442696 -11.644652 4294967295
77.696663 88.43013 -11.706118 4294967295
77.718964 88.275246 -11.618163 4294967295
77.762848 89.602509 -11.617493 4294967295
77.770081 89.277939 -11.559999 4294967295
77.849571 89.964951 -11.377377 4294967295
77.863907 89.410561 -11.823066 4294967295
77.871262 90.792717 -11.395167 4294967295
77.874603 90.302673 -11.332693 4294967295
77.919441 89.923988 -11.699152 4294967295
77.962067 90.268669 -11.598825 4294967295
77.972298 90.600319 -11.601036 4294967295
77.984848 90.769173 -11.578609 4294967295
40.178486 91.147491 -16.118732 4294967295
40.294926 92.568375 -16.47666 4294967295
40.36274 92.442474 -16.195864 4294967295
40.363686 93.568077 -16.318815 4294967295
40.369724 92.285301 -16.150723 4294967295
40.381535 91.648262 -16.032593 4294967295
40.403027 93.427765 -16.148355 4294967295
40.440727 91.754478 -16.467371 4294967295
40.447414 92.882568 -16.568016 4294967295
40.447475 91.918587 -16.459333 4294967295
40.48629 92.5812 -16.381433 4294967295
40.50919 91.307022 -16.148146 4294967295
40.517498 93.882988 -16.405294 4294967295
40.522285 93.242607 -16.314455 4294967295
40.545536 94.54052 -16.369135 4294967295
40.553001 93.097733 -16.177534 4294967295
40.628582 95.709686 -16.174471 4294967295
40.632168 91.124298 -16.299652 4294967295
40.640285 94.020996 -16.59355 4294967295
40.657162 96.046501 -16.100103 4294967295
40.660362 96.530617 -16.141983 4294967295
40.681908 94.846214 -16.523033 4294967295
40.698261 92.926064 -16.242962 4294967295
40.700768 93.248856 -16.269423 4294967295
40.702618 93.892776 -16.334574 4294967295
40.703194 91.80323 -16.09733 4294967295
40.706169 92.608612 -16.176241 4294967295
40.707039 95.020164 -16.443995 4294967295
40.709309 91.002357 -15.983273 4294967295
40.715305 92.452522 -16.122831 4294967295
40.719162 95.187286 -16.415224 4294967295
40.74279 96.807083 -16.504625 4294967295
40.752148 94.240128 -16.17931 4294967295
40.754597 95.688286 -16.33252 4294967295
40.768051 96.338455 -16.352823 4294967295
40.76899 93.766533 -16.059971 4294967295
40.771484 97.144012 -16.429914 4294967295
40.779266 95.862167 -16.255285 4294967295
40.784771 91.438705 -16.390646 4294967295
40.788269 97.796066 -16.437357 4294967295
40.798676 94.42527 -16.017563 4294967295
40.801025 97.96376 -16.406164 4294967295
40.81271 92.577911 -16.409214 4294967295
40.816936 91.937172 -16.320625 4294967295
40.821037 97.331581 -16.256588 4294967295
40.833527 96.695145 -16.136044 4294967295
40.84045 95.002853 -16.573076 4294967295
40.848026 93.078232 -16.327044 4294967295
40.849628 91.632248 -16.158205 4294967295
40.855373 95.33213 -16.551594 4294967295
40.86055 94.531303 -16.441292 4294967295
40.868839 93.571213 -16.300884 4294967295
40.886322 92.93718 -16.161093 4294967295
40.914806 91.343567 -15.870286 4294967295
40.932465 93.925804 -16.091373 4294967295
40.972286 96.037216 -16.172602 4294967295
40.981068 94.916145 -16.012188 4294967295
40.995419 91.460976 -16.221472 4294967295
41.041649 92.127518 -16.115376 4294967295
41.05056 93.418373 -16.225548 4294967295
41.056263 94.868217 -16.366129 4294967295
41.057644 91.814026 -16.017513 4294967295
41.060669 97.120773 -16.601944 4294967295
41.066196 91.175026 -15.912215 4294967295
41.068058 94.392113 -16.266453 4294967295
41.074768 92.466011 -16.023741 4294967295
41.079742 96.809601 -16.49231 4294967295
41.081146 91.665092 -15.908764 4294967295
41.087219 93.758926 -16.120279 4294967295
41.09211 93.118195 -16.029142 4294967295
41.098179 96.015709 -16.330944 4294967295
41.105373 95.537193 -16.249008 4294967295
41.108517 96.181992 -16.309145 4294967295
41.110977 94.253723 -16.08287 4294967295
41.117531 97.794472 -16.454994 4294967295
41.118027 95.22229 -16.164087 4294967295
41.120792 96.992432 -16.352135 4294967295
41.122734 91.119713 -16.337809 4294967295
41.125999 95.065681 -16.115276 4294967295
41.131458 94.74691 -16.058081 4294967295
41.133938 97.321075 -16.337574 4294967295
41.148529 97.972099 -16.353573 4294967295
41.157505 96.52977 -16.156414 4294967295
41.164669 92.105392 -16.284531 4294967295
41.16917 95.89267 -16.039167 4294967295
41.177048 92.272453 -16.254877 4294967295
41.180878 94.042686 -16.438768 4294967295
41.19342 94.531441 -16.444607 4294967295
41.197872 93.730019 -16.337173 4294967295
41.200302 92.927429 -16.237507 4294967295
41.205177 92.769142 -16.200665 4294967295
41.271603 97.948685 -16.522587 4294967295
41.283226 95.3825 -16.188929 4294967295
41.2859 97.474174 -16.413372 4294967295
41.297379 91.445251 -16.34388 4294967295
41.379631 96.881401 -15.980208 4294967295
41.380859 91.165627 -15.9863 4294967295
41.388748 92.295425 -16.082354 4294967295
41.389099 93.421272 -16.207417 4294967295
41.401447 91.980209 -15.997338 4294967295
41.403057 93.267654 -16.135624 4294967295
41.405621 94.073021 -16.216051 4294967295
41.406189 92.786797 -16.069391 4294967295
41.408958 95.039513 -16.311523 4294967295
41.409935 93.592827 -16.145273 4294967295
41.410484 94.397148 -16.233442 4294967295
41.425072 91.670441 -15.870233 4294967295
41.432884 94.730469 -16.183344 4294967295
41.434868 96.661049 -16.392338 4294967295
41.451591 95.38356 -16.183573 4294967295
41.452698 96.509804 -16.305695 4294967295
41.453045 97.957016 -16.466803 4294967295
41.454803 96.993309 -16.351753 4294967295
41.465034 95.873131 -16.18602 4294967295
41.473957 93.947655 -15.934959 4294967295
41.476189 94.270554 -15.962498 4294967295
41.481201 95.560028 -16.0877 4294967295
41.481766 91.614983 -16.294527 4294967295
41.482727 96.043358 -16.136005 4294967295
41.486359 97.492706 -16.284523 4294967295
41.486916 94.597885 -15.957344 4294967295
41.49456 92.264542 -16.317509 4294967295
41.506874 96.217049 -16.061152 4294967295
41.521217 97.833221 -16.186539 4294967295
41.523289 97.673508 -16.160519 4294967295
41.528805 93.085915 -16.276056 4294967295
41.534607 90.998306 -16.019037 4294967295
41.534969 97.19725 -16.061422 4294967295
41.54649 93.577385 -16.262194 4294967295
41.55117 96.15213 -16.532925 4294967295
41.594311 92.958672 -16.006084 4294967295
41.628517 92.654396 -15.838421 4294967295
41.640064 95.073509 -16.06489 4294967295
41.720009 92.133598 -16.074533 4294967295
41.721817 93.421135 -16.211964 4294967295
41.723099 91.813469 -16.026546 4294967295
41.724304 98.014076 -16.066088 4294967295
41.728806 91.333771 -15.950455 4294967295
41.73457 96.161255 -16.469687 4294967295
41.740055 92.787163 -16.069704 4294967295
41.740173 93.10891 -16.105354 4294967295
41.760647 93.280258 -16.044752 4294967295
41.763569 97.14138 -16.46657 4294967295
41.765938 94.087234 -16.114681 4294967295
41.773609 97.950668 -16.518206 4294967295
41.778885 92.002525 -15.830238 4294967295
41.780838 93.612373 -16.003294 4294967295
41.782051 95.54319 -16.215216 4294967295
41.784191 96.830864 -16.351324 4294967295
41.78907 91.524925 -15.736925 4294967295
41.79887 97.803574 -16.4032 4294967295
41.805641 95.394775 -16.106573 4294967295
41.806927 92.499474 -15.776681 4294967295
41.824055 92.101921 -16.316101 4294967295
41.826241 94.922974 -15.973321 4294967295
41.836514 93.801994 -15.807481 4294967295
41.844254 94.7715 -15.886088 4294967295
41.845142 95.73735 -15.990983 4294967295
41.849777 97.509415 -16.171711 4294967295
41.849979 96.061691 -16.00852 4294967295
41.853161 97.672096 -16.176767 4294967295
41.859371 93.084656 -16.288794 4294967295
41.863567 92.76519 -16.236612 4294967295
41.868408 96.393265 -15.973851 4294967295
41.875172 95.10952 -15.803449 4294967295
41.900379 91.49707 -15.950943 4294967295
41.927673 94.406456 -16.171013 4294967295
41.944611 95.380348 -16.214272 4294967295
41.952652 91.040527 -15.696103 4294967295
41.999168 97.339478 -16.221474 4294967295
42.001881 96.536629 -16.120878 4294967295
42.055702 91.169594 -15.959714 4294967295
42.057648 92.618355 -16.114624 4294967295
42.057991 91.009857 -15.932884 4294967295
42.068272 96.250122 -15.830137 4294967295
42.068443 98.02037 -16.027987 4294967295
42.074429 97.862701 -15.987 4294967295
42.083118 95.687317 -16.359642 4294967295
42.088341 92.955719 -16.033018 4294967295
42.093922 94.728027 -16.210039 4294967295
42.099167 95.374123 -16.262079 4294967295
42.100883 94.892509 -16.201395 4294967295
42.102612 93.284775 -16.014393 4294967295
42.108322 92.000504 -15.848139 4294967295
42.10955 91.35743 -15.771237 4294967295
42.116669 94.579025 -16.104828 4294967295
42.117966 96.50988 -16.316256 4294967295
42.128643 91.688881 -15.734129 4294967295
42.135063 92.496796 -15.799754 4294967295
42.138752 94.107834 -15.966061 4294967295
42.148411 93.791008 -15.892946 4294967295
42.16925 97.341522 -16.20993 4294967295
42.172924 97.182625 -16.177834 4294967295
42.176094 95.897247 -16.021383 4294967295
42.176609 91.468384 -16.172459 4294967295
42.185165 97.832687 -16.203062 4294967295
42.185524 95.580406 -15.949177 4294967295
42.194809 95.263435 -15.8775 4294967295
42.244961 92.307098 -16.000805 4294967295
42.24604 96.095161 -15.771406 4294967295
42.254593 96.743553 -15.810822 4294967295
42.256382 95.690956 -16.335709 4294967295
42.29364 94.262688 -16.030792 4294967295
42.305737 97.003838 -16.290998 4294967295
42.318199 96.527908 -16.189226 4294967295
42.328602 96.21167 -16.11335 4294967295
42.343437 94.93222 -15.91227 4294967295
42.398582 93.587433 -16.196417 4294967295
42.40218 97.699135 -15.994032 4294967295
42.406845 94.235092 -16.236902 4294967295
42.410069 96.093857 -15.783466 4294967295
42.410633 93.111008 -16.096235 4294967295
42.418396 92.471405 -15.994406 4294967295
42.422382 95.208244 -16.285614 4294967295
42.42556 97.389824 -15.868482 4294967295
42.428738 92.154823 -15.918775 4294967295
42.43531 93.2845 -16.019857 4294967295
42.439217 98.041008 -15.888375 4294967295
42.439327 96.986359 -16.419035 4294967295
42.445354 97.311234 -16.432022 4294967295
42.445778 91.358727 -15.763371 4294967295
42.461086 94.584946 -16.065479 4294967295
42.469345 93.945595 -15.961767 4294967295
42.481209 96.043488 -16.150763 4294967295
42.488335 95.081848 -16.01535 4294967295
42.491173 95.566055 -16.058582 4294967295
42.498001 97.82206 -16.284801 4294967295
42.498596 96.857132 -16.174397 4294967295
42.519176 91.955521 -16.193758 4294967295
42.527058 91.316025 -16.091536 4294967295
42.538403 95.429909 -15.859931 4294967295
42.539684 94.947701 -15.800912 4294967295
42.542316 96.558578 -15.971183 4294967295
42.554478 93.260246 -16.202988 4294967295
42.577969 96.255569 -15.798788 4294967295
42.599556 93.605072 -16.066761 4294967295
42.606415 95.700027 -16.274811 4294967295
42.630871 91.850739 -15.748743 4294967295
42.661118 92.992798 -15.759354 4294967295
42.681816 93.969208 -15.788444 4294967295
42.730961 91.495453 -15.968775 4294967295
42.751736 91.988609 -15.943507 4294967295
42.755516 98.032143 -15.957585 4294967295
42.755924 95.047722 -16.269842 4294967295
42.757431 92.796074 -16.011862 4294967295
42.757942 92.474503 -15.973862 4294967295
42.765995 91.352005 -15.816943 4294967295
42.773693 94.413437 -16.129965 4294967295
42.780262 94.095024 -16.068844 4294967295
42.78265 94.900764 -16.14982 4294967295
42.78281 93.613594 -16.00507 4294967295
42.789062 91.846405 -15.782921 4294967295
42.789471 94.582504 -16.087751 4294967295
42.792641 97.891174 -15.797786 4294967295
42.800861 91.691353 -15.719834 4294967295
42.80162 93.140404 -15.879174 4294967295
42.801949 95.393517 -16.130211 4294967295
42.816311 92.986923 -15.805065 4294967295
42.82399 96.531425 -16.172194 4294967295
42.835258 95.732811 -16.039114 4294967295
42.842693 93.483299 -15.758419 4294967295
42.859306 97.032936 -16.091476 4294967295
42.860607 96.3899 -16.01445 4294967295
42.861088 97.194809 -16.102695 4294967295
42.86343 97.839729 -16.165813 4294967295
42.87933 91.32534 -16.0222 4294967295
42.882072 92.935631 -16.191872 4294967295
42.884277 95.597572 -15.834015 4294967295
42.902351 95.285049 -15.728971 4294967295
42.91938 92.149979 -15.959478 4294967295
42.930649 95.943924 -15.693082 4294967295
42.954311 96.029686 -16.258547 4294967295
42.964375 97.000275 -16.328217 4294967295
42.968922 92.496841 -15.806534 4294967295
42.989445 93.312119 -15.818353 4294967295
43.006847 97.988304 -16.274359 4294967295
43.041122 93.660507 -15.657293 4294967295
43.052658 93.827438 -15.631318 4294967295
43.075199 94.322128 -15.599441 4294967295
43.077957 95.289734 -15.697071 4294967295
43.087925 91.346123 -15.864002 4294967295
43.090305 97.872261 -15.938294 4294967295
43.095528 93.442146 -16.06918 4294967295
43.100155 94.249084 -16.141586 4294967295
43.105392 91.032867 -15.761383 4294967295
43.107178 96.183418 -16.330866 4294967295
43.114605 93.612816 -16.014511 4294967295
43.116787 93.935799 -16.042215 4294967295
43.125439 95.227638 -16.153309 4294967295
43.137939 97.164986 -16.32172 4294967295
43.142017 96.845383 -16.270189 4294967295
43.151333 97.333023 -16.28871 4294967295
43.155857 91.701965 -15.641122 4294967295
43.156406 94.921883 -15.999334 4294967295
43.163017 92.02758 -15.649873 4294967295
43.167526 96.376152 -16.119036 4294967295
43.176914 92.839653 -15.687012 4294967295
43.177238 92.517784 -15.649736 4294967295
43.182487 95.74025 -15.990034 4294967295
43.183254 96.706337 -16.095154 4294967295
43.190273 94.6175 -15.834298 4294967295
43.19693 95.908791 -15.953035 4294967295
43.211052 93.340065 -15.610994 4294967295
43.230007 97.053078 -15.953142 4294967295
43.234814 92.623634 -16.08519 4294967295
43.236427 91.497932 -15.953017 4294967295
43.238628 97.862549 -16.010353 4294967295
43.240616 92.143784 -16.009098 4294967295
43.246998 95.613037 -15.726321 4294967295
43.257004 91.991058 -15.928695 4294967295
43.263329 91.189384 -15.81456 4294967295
43.285713 92.810303 -15.909435 4294967295
43.334373 94.766815 -15.940309 4294967295
43.341183 92.355293 -15.644231 4294967295
43.343048 93.966362 -15.817267 4294967295
43.359028 93.652527 -15.720425 4294967295
43.386765 97.208885 -16.01104 4294967295
43.409084 96.093727 -15.8001 4294967295
43.413921 96.579323 -15.835726 4294967295
43.414413 91.664429 -15.929783 4294967295
43.415443 97.546143 -15.937971 4294967295
43.422966 97.38916 -15.891345 4294967295
43.428062 92.154137 -15.931872 4294967295
43.435459 92.479774 -15.939754 4294967295
43.437202 94.411972 -16.149107 4294967295
43.43919 92.964531 -15.979567 4294967295
43.446205 93.290009 -15.988888 4294967295
43.451458 95.310661 -15.548807 4294967295
43.454361 97.888992 -15.825955 4294967295
43.466278 96.036301 -16.218506 4294967295
43.469547 94.589592 -16.044136 4294967295
43.472103 95.395638 -16.12439 4294967295
43.489948 91.380013 -15.606455 4294967295
43.499508 92.673042 -15.714175 4294967295
43.510235 93.16153 -15.727404 4294967295
43.51321 95.578033 -15.98614 4294967295
43.514507 93.968788 -15.801191 4294967295
43.514767 93.646896 -15.764192 4294967295
43.51741 94.29229 -15.826167 4294967295
43.532318 92.367477 -15.553375 4294967295
43.539165 94.947556 -15.815471 4294967295
43.539177 92.854111 -15.581323 4294967295
43.545563 96.721878 -15.989176 4294967295
43.560028 95.9245 -15.844196 4294967295
43.571693 91.33773 -15.93137 4294967295
43.576084 96.899025 -15.891187 4294967295
43.583866 96.259056 -15.789604 4294967295
43.585987 95.777061 -15.727527 4294967295
43.59164 94.813675 -15.597985 4294967295
43.61837 91.682899 -15.790009 4294967295
43.621914 95.386917 -16.190422 4294967295
43.664494 96.21389 -16.118692 4294967295
43.665318 94.926582 -15.971625 4294967295
43.752754 97.065414 -15.87358 4294967295
43.762581 92.476501 -15.967318 4294967295
43.763943 97.715462 -15.903092 4294967295
43.7719 96.109261 -15.692895 4294967295
43.78421 91.682358 -15.79525 4294967295
43.789612 97.568123 -15.787662 4294967295
43.79808 91.206169 -15.688611 4294967295
43.798637 92.977623 -15.884455 4294967295
43.806095 96.932625 -15.65309 4294967295
43.810951 92.339783 -15.765739 4294967295
43.812016 93.306396 -15.869673 4294967295
43.813976 96.365883 -16.203993 4294967295
43.818756 95.080719 -16.041994 4294967295
43.822498 96.209412 -16.153692 4294967295
43.823269 97.908226 -15.69591 4294967295
43.844028 94.28878 -15.856155 4294967295
43.845993 95.7388 -16.010616 4294967295
43.856358 95.905205 -15.98929 4294967295
43.866516 93.8172 -15.716843 4294967295
43.872612 92.853935 -15.585714 4294967295
43.875359 92.694244 -15.557288 4294967295
43.875988 97.525421 -16.094702 4294967295
43.892128 95.279778 -15.781637 4294967295
43.899685 93.673042 -15.572987 4294967295
43.906227 92.303902 -16.038681 4294967295
43.930275 91.671982 -15.875547 4294967295
43.931953 97.877296 -15.918461 4294967295
43.943855 94.501122 -15.495401 4294967295
43.970539 92.014061 -15.758852 4294967295
43.975121 92.660461 -15.813444 4294967295
43.980728 95.400253 -16.097933 4294967295
43.99839 93.155281 -15.77919 4294967295
44.004902 97.183533 -16.204103 4294967295
44.005688 97.505852 -16.23708 4294967295
44.013744 94.773369 -15.900874 4294967295
44.023312 97.837166 -16.206264 4294967295
44.045494 95.111824 -15.816535 4294967295
44.046772 94.629349 -15.757716 4294967295
44.049942 92.21479 -15.475771 4294967295
44.066364 94.156204 -15.629486 4294967295
44.085537 96.904205 -15.862664 4294967295
44.091057 96.101845 -15.751803 4294967295
44.094433 94.009453 -15.505088 4294967295
44.096725 96.588005 -15.784295 4294967295
44.098125 91.1894 -15.819261 4294967295
44.098736 91.833748 -15.888883 4294967295
44.102993 92.318878 -15.926703 4294967295
44.108215 91.677452 -15.83499 4294967295
44.108658 92.482712 -15.923231 4294967295
44.116207 94.257378 -16.092415 4294967295
44.127453 97.087433 -15.72185 4294967295
44.136173 92.979576 -15.872963 4294967295
44.137817 96.28743 -15.592613 4294967295
44.13829 97.415337 -15.716777 4294967295
44.140221 92.820595 -15.839658 4294967295
44.141506 95.644897 -15.506662 4294967295
44.146534 96.204674 -16.193283 4294967295
44.1506 98.066231 -15.742099 4294967295
44.155853 96.531487 -16.193951 4294967295
44.165211 95.570518 -16.050686 4294967295
44.177074 97.758179 -15.605844 4294967295
44.177853 95.094063 -15.948889 4294967295
44.178165 96.060249 -16.055576 4294967295
44.178505 93.323036 -15.748609 4294967295
44.18259 95.25753 -15.948945 4294967295
44.190605 92.684875 -15.630833 4294967295
44.199158 92.205902 -15.54446 4294967295
44.203884 96.717743 -16.03014 4294967295
44.205963 92.048195 -15.500695 4294967295
44.222988 97.53289 -16.047718 4294967295
44.230515 94.476997 -15.677573 4294967295
44.231571 93.511002 -15.565642 4294967295
44.239349 97.380562 -15.967826 4294967295
44.258644 94.652534 -15.589054 4294967295
44.273312 94.176712 -15.47955 4294967295
44.273586 91.676659 -15.842137 4294967295
44.27615 98.044312 -15.900479 4294967295
44.276272 95.467155 -15.612269 4294967295
44.285587 94.98864 -15.523035 4294967295
44.313828 92.018738 -15.725824 4294967295
44.316544 94.596603 -16.003193 4294967295
44.36515 91.560959 -15.47763 4294967295
44.37912 96.239227 -15.94627 4294967295
44.413956 91.019424 -15.871956 4294967295
44.425117 93.202225 -15.430625 4294967295
44.425186 96.907616 -15.843985 4294967295
44.42551 97.229904 -15.878711 4294967295
44.427662 96.586777 -15.798669 4294967295
44.440556 94.338028 -15.498149 4294967295
44.440784 95.304878 -15.605205 4294967295
44.445541 92.645287 -15.932282 4294967295
44.445557 91.196014 -15.770453 4294967295
44.452232 91.682442 -15.79915 4294967295
44.458652 92.812889 -15.900697 4294967295
44.469738 95.803268 -15.549653 4294967295
44.473492 93.625504 -15.934466 4294967295
44.474411 92.337662 -15.787213 4294967295
44.484215 97.905396 -15.728694 4294967295
44.498764 94.121452 -15.892871 4294967295
44.501968 96.377327 -16.132309 4294967295
44.506172 92.997833 -15.739055 4294967295
44.512154 95.255554 -15.968072 4294967295
44.525558 95.584557 -15.95337 4294967295
44.528481 92.525772 -15.600803 4294967295
44.536148 93.818367 -15.715651 4294967295
44.540756 91.887436 -15.48247 4294967295
44.54245 93.499382 -15.655883 4294967295
44.545307 96.07795 -15.932662 4294967295
44.54726 94.790504 -15.781508 4294967295
44.561127 96.569366 -15.926816 4294967295
44.564964 94.316322 -15.660684 4294967295
44.587002 91.666489 -15.922014 4294967295
44.60376 97.880348 -15.909552 4294967295
44.607048 97.559959 -15.86119 4294967295
44.608189 91.999054 -15.877927 4294967295
44.610382 92.161179 -15.887613 4294967295
44.623611 91.845665 -15.801715 4294967295
44.637356 93.301941 -15.911535 4294967295
44.658585 96.94278 -15.594646 4294967295
44.663746 96.300903 -15.50324 4294967295
44.670334 97.432396 -15.604205 4294967295
44.687489 93.166153 -15.704278 4294967295
44.693356 97.766899 -15.553225 4294967295
44.713947 91.568184 -15.424593 4294967295
44.718727 95.115067 -15.802 4294967295
44.734455 95.928596 -15.832478 4294967295
44.770317 96.913857 -15.804947 4294967295
44.771873 91.675331 -15.855665 4294967295
44.777729 94.017448 -15.453459 4294967295
44.779625 95.307587 -15.590117 4294967295
44.789555 98.051666 -15.858134 4294967295
44.790802 94.346436 -15.440061 4294967295
44.792103 93.702408 -15.363223 4294967295
44.794628 91.847656 -15.787775 4294967295
44.794659 97.248886 -15.749045 4294967295
44.796673 96.766609 -15.687531 4294967295
44.799911 95.801506 -15.567477 4294967295
44.805542 96.448997 -15.618129 4294967295
44.807365 92.176109 -15.775653 4294967295
44.807545 97.577927 -15.736364 4294967295
44.809345 95.484093 -15.495922 4294967295
44.818115 94.843933 -15.390904 4294967295
44.826088 93.796135 -15.88467 4294967295
44.835056 93.961746 -15.868809 4294967295
44.835167 93.317535 -15.796535 4294967295
44.85733 91.556458 -15.51527 4294967295
44.867527 94.139336 -15.764311 4294967295
44.871342 93.65799 -15.696027 4294967295
44.874409 93.015091 -15.61259 4294967295
44.87746 95.271996 -15.852599 4294967295
44.890488 94.956535 -15.767549 4294967295
44.892605 94.796532 -15.741598 4294967295
44.894829 92.541916 -15.481638 4294967295
44.89875 96.249489 -15.880097 4294967295
44.906441 95.931328 -15.815185 4294967295
44.924809 93.201576 -15.440442 4294967295
44.925983 92.152069 -15.959316 4294967295
44.946571 92.645439 -15.935594 4294967295
44.949776 92.808083 -15.941469 4294967295
44.949917 97.88726 -15.866838 4294967295
44.967827 98.057892 -15.817295 4294967295
44.99955 91.221947 -15.574262 4294967295
45.008152 92.515114 -15.685572 4294967295
45.018787 95.097824 -15.932839 4294967295
45.034466 91.561401 -15.478595 4294967295
45.038113 96.55735 -16.021633 4294967295
45.098972 93.366341 -15.433154 4294967295
45.106968 94.33741 -15.510849 4294967295
45.108948 95.627632 -15.647104 4294967295
45.111549 96.112389 -15.69119 4294967295
45.115036 94.663857 -15.516393 4294967295
45.115871 92.485558 -15.910247 4294967295
45.125156 94.507858 -15.460297 4294967295
45.128651 97.088112 -15.734556 4294967295
45.128677 97.893723 -15.824237 4294967295
45.143238 95.000656 -15.446085 4294967295
45.160542 97.427193 -15.650393 4294967295
45.168705 93.317383 -15.801116 4294967295
45.171066 93.801826 -15.846082 4294967295
45.181248 91.873642 -15.592278 4294967295
45.187881 97.763977 -15.583369 4294967295
45.21534 97.617332 -15.462023 4294967295
45.217087 96.563782 -15.978065 4294967295
45.221779 92.860649 -15.547444 4294967295
45.224319 91.250214 -15.358223 4294967295
45.235382 92.706284 -15.47828 4294967295
45.241123 95.287498 -15.74402 4294967295
45.242527 91.581551 -15.325609 4294967295
45.247952 92.390198 -15.395022 4294967295
45.248596 93.679909 -15.536305 4294967295
45.265545 94.010818 -15.508444 4294967295
45.267593 93.528328 -15.446838 4294967295
45.27047 96.269432 -15.741323 4294967295
45.277721 95.14518 -15.588339 4294967295
45.289135 92.327621 -15.87006 4294967295
45.295048 93.296967 -15.955508 4294967295
45.322823 91.377663 -15.635648 4294967295
45.346298 92.678276 -15.690969 4294967295
45.346462 95.986588 -15.419496 4294967295
45.348198 91.712418 -15.5761 4294967295
45.43642 91.834625 -15.89173 4294967295
45.450695 95.148308 -15.567739 4294967295
45.458527 97.730782 -15.825526 4294967295
45.460594 92.168739 -15.836777 4294967295
45.462097 94.348206 -15.435096 4294967295
45.469742 92.012169 -15.784458 4294967295
45.482082 97.09861 -15.665209 4294967295
45.499687 96.140717 -15.491329 4294967295
45.510544 91.226601 -15.541396 4294967295
45.518272 91.552704 -15.54826 4294967295
45.518982 94.292267 -15.850689 4294967295
45.527637 92.846542 -15.656674 4294967295
45.52993 93.653351 -15.737794 4294967295
45.531162 94.620674 -15.840827 4294967295
45.536091 96.482079 -15.390411 4294967295
45.547226 91.405754 -15.42149 4294967295
45.551693 97.296387 -15.421569 4294967295
45.560398 93.829865 -15.641296 4294967295
45.561234 95.280525 -15.799673 4294967295
45.574169 94.481453 -15.661361 4294967295
45.581375 93.195747 -15.490685 4294967295
45.598907 96.750175 -15.819683 4294967295
45.599522 95.944809 -15.727666 4294967295
45.599792 96.267235 -15.762538 4294967295
45.601921 92.722412 -15.359637 4294967295
45.606945 94.820496 -15.574152 4294967295
45.61541 95.630707 -15.632118 4294967295
45.623791 98.052299 -15.869802 4294967295
45.630825 97.25032 -15.753695 4294967295
45.64996 92.985329 -15.844029 4294967295
45.689522 93.166245 -15.713486 4294967295
45.691093 96.637131 -15.455629 4294967295
45.698082 92.68708 -15.627533 4294967295
45.729061 96.086639 -15.888031 4294967295
45.732952 92.220856 -15.442801 4294967295
45.76059 91.750847 -15.285194 4294967295
45.764305 91.591431 -15.253298 4294967295
45.770233 91.512283 -15.859451 4294967295
45.77618 94.982857 -15.58568 4294967295
45.77869 95.790024 -15.665984 4294967295
45.785301 97.405029 -15.82058 4294967295
45.785419 93.697929 -15.407436 4294967295
45.794247 97.570885 -15.804965 4294967295
45.812336 95.484985 -15.503869 4294967295
45.815388 94.035515 -15.330877 4294967295
45.81543 98.065529 -15.779345 4294967295
45.819111 91.697403 -15.694075 4294967295
45.841679 95.983765 -15.44765 4294967295
45.844246 92.676674 -15.707459 4294967295
45.845562 96.630676 -15.504858 4294967295
45.850773 91.390617 -15.539463 4294967295
45.851681 97.117516 -15.535754 4294967295
45.860405 91.234146 -15.485385 4294967295
45.869263 94.945122 -15.864758 4294967295
45.876381 92.209122 -15.533133 4294967295
45.883659 97.295509 -15.433764 4294967295
45.883801 96.973099 -15.397335 4294967295
45.886925 93.66494 -15.655073 4294967295
45.887047 96.813545 -15.367218 4294967295
45.898113 93.348213 -15.57724 4294967295
45.901707 93.027641 -15.527893 4294967295
45.902523 92.060829 -15.417169 4294967295
45.911388 94.805481 -15.68893 4294967295
45.915638 96.580299 -15.870263 4294967295
45.942028 92.402817 -15.304924 4294967295
45.948959 94.17981 -15.476346 4294967295
45.961449 92.896217 -15.285951 4294967295
45.966999 94.511391 -15.444609 4294967295
45.968086 95.962845 -15.601997 4294967295
45.979855 93.227921 -15.252838 4294967295
45.987206 95.327835 -15.458583 4294967295
45.991348 92.022194 -15.712047 4294967295
46.023426 94.455269 -15.860841 4294967295
46.027367 95.670959 -15.343961 4294967295
46.078186 97.793846 -15.386827 4294967295
46.085243 94.325455 -15.611423 4294967295
46.115238 95.469086 -15.624645 4294967295
46.131054 91.203003 -15.726335 4294967295
46.13311 96.929031 -15.71913 4294967295
46.138012 93.384682 -15.306178 4294967295
46.138802 95.158737 -15.500566 4294967295
46.143555 96.612091 -15.644175 4294967295
46.143806 97.901703 -15.786659 4294967295
46.148739 96.292374 -15.588904 4294967295
46.149319 94.035393 -15.335604 4294967295
46.15453 97.423798 -15.692751 4294967295
46.162933 95.654808 -15.464016 4294967295
46.166309 92.187202 -15.701959 4294967295
46.16761 93.315872 -15.822567 4294967295
46.187935 91.553131 -15.549295 4294967295
46.19154 92.683182 -15.661325 4294967295
46.19371 93.490089 -15.742838 4294967295
46.196526 93.813812 -15.768157 4294967295
46.201225 92.043236 -15.553364 4294967295
46.210052 92.853561 -15.60998 4294967295
46.216774 97.617722 -15.477731 4294967295
46.250454 94.163345 -15.60225 4294967295
46.26416 92.557983 -15.371639 4294967295
46.280094 94.66198 -15.54517 4294967295
46.282146 94.824242 -15.555425 4294967295
46.292736 92.410866 -15.246758 4294967295
46.295559 94.347359 -15.451454 4294967295
46.313068 95.16246 -15.475618 4294967295
46.315975 95.970108 -15.554397 4294967295
46.316509 95.647926 -15.516547 4294967295
46.363583 97.76844 -15.573603 4294967295
46.364788 91.235413 -15.478563 4294967295
46.377472 97.291985 -15.467878 4294967295
46.390266 91.731529 -15.437093 4294967295
46.391136 92.054413 -15.469698 4294967295
46.435318 96.912659 -15.842268 4294967295
46.449875 97.564941 -15.859557 4294967295
46.454525 95.633072 -15.627152 4294967295
46.45776 93.054863 -15.328225 4294967295
46.46249 91.928215 -15.18499 4294967295
46.465191 93.219833 -15.318371 4294967295
46.468418 92.253731 -15.198697 4294967295
46.481583 94.034409 -15.346778 4294967295
46.486816 91.535736 -15.684463 4294967295
46.487694 92.503151 -15.78869 4294967295
46.488903 96.134438 -15.552489 4294967295
46.497231 96.622452 -15.575143 4294967295
46.499863 91.219727 -15.599887 4294967295
46.510719 96.306946 -15.488914 4294967295
46.519947 93.731102 -15.16751 4294967295
46.521271 95.022194 -15.30605 4294967295
46.522568 95.345428 -15.337059 4294967295
46.535397 95.997147 -15.360851 4294967295
46.537689 97.77227 -15.549497 4294967295
46.54668 91.403748 -15.442921 4294967295
46.55056 97.133965 -15.429715 4294967295
46.554207 97.45842 -15.451944 4294967295
46.568054 93.348999 -15.578176 4294967295
46.571815 94.156929 -15.653729 4294967295
46.57235 92.706238 -15.490459 4294967295
46.584835 94.969521 -15.69472 4294967295
46.604023 95.301712 -15.658918 4294967295
46.621288 94.343109 -15.48694 4294967295
46.646763 92.259171 -15.158748 4294967295
46.659409 96.297523 -15.559698 4294967295
46.665443 97.268074 -15.644687 4294967295
46.6805 98.082115 -15.678084 4294967295
46.687481 93.569939 -15.150159 4294967295
46.699432 95.673042 -15.338625 4294967295
46.716213 96.649452 -15.383553 4294967295
46.731277 91.73468 -15.415281 4294967295
46.788788 94.665825 -15.523273 4294967295
46.799553 93.381096 -15.33977 4294967295
46.80616 94.029533 -15.386814 4294967295
46.812576 95.000404 -15.470389 4294967295
46.82069 94.359413 -15.368462 4294967295
46.823769 92.425255 -15.14187 4294967295
46.828598 94.524689 -15.356883 4294967295
46.831635 93.074455 -15.184243 4294967295
46.832485 91.218773 -15.609092 4294967295
46.836365 98.076355 -15.722063 4294967295
46.840427 92.189865 -15.686937 4294967295
46.842739 95.338318 -15.393752 4294967295
46.843281 96.628784 -15.535066 4294967295
46.85059 95.503616 -15.3824 4294967295
46.851276 93.729553 -15.182674 4294967295
46.859974 91.877037 -15.578263 4294967295
46.878387 96.324371 -15.368352 4294967295
46.88129 97.132347 -15.447112 4294967295
46.886063 97.457413 -15.465159 4294967295
46.895462 92.378159 -15.499723 4294967295
46.89555 97.784958 -15.465625 4294967295
46.901283 92.703522 -15.513854 4294967295
46.906975 93.834999 -15.618013 4294967295
46.918434 94.808105 -15.682769 4294967295
46.918457 95.130547 -15.718496 4294967295
46.92263 92.552811 -15.416365 4294967295
46.924202 95.778305 -15.768714 4294967295
46.93819 91.431427 -15.232936 4294967295
46.938358 95.301895 -15.662258 4294967295
46.940262 92.077637 -15.296901 4294967295
46.952225 94.341469 -15.503138 4294967295
46.96117 96.925842 -15.756348 4294967295
46.970684 95.963379 -15.613465 4294967295
46.989647 91.697456 -15.701553 4294967295
46.994305 97.265533 -15.668759 4294967295
47.001923 96.463226 -15.550839 4294967295
47.009056 97.595734 -15.649626 4294967295
47.055359 93.019501 -15.600099 4294967295
47.095715 96.673019 -15.219414 4294967295
47.097397 91.588745 -15.282376 4294967295
47.128723 94.507469 -15.488145 4294967295
47.12949 95.959183 -15.646447 4294967295
47.131565 94.025055 -15.423846 4294967295
47.139801 95.64196 -15.57226 4294967295
47.140591 96.448631 -15.658836 4294967295
47.150528 94.35717 -15.389082 4294967295
47.160854 93.555786 -15.261077 4294967295
47.16243 94.847076 -15.398505 4294967295
47.179691 93.242493 -15.155113 4294967295
47.181244 97.437248 -15.615002 4294967295
47.182323 96.631447 -15.521466 4294967295
47.183697 98.083565 -15.677487 4294967295
47.188873 95.183105 -15.335915 4294967295
47.208401 92.367554 -15.582742 4294967295
47.209259 95.516136 -15.295862 4294967295
47.21064 91.723656 -15.50279 4294967295
47.212719 93.498306 -15.691976 4294967295
47.226788 91.408974 -15.406915 4294967295
47.229515 97.139801 -15.399608 4294967295
47.232712 93.185776 -15.58182 4294967295
47.233704 94.153702 -15.685528 4294967295
47.241016 93.028641 -15.533028 4294967295
47.25087 97.634903 -15.373877 4294967295
47.251881 92.227638 -15.403095 4294967295
47.263565 97.964211 -15.362472 4294967295
47.280994 95.306274 -15.634969 4294967295
47.295807 91.281151 -15.1322 4294967295
47.31591 92.904404 -15.236558 4294967295
47.319763 91.615501 -15.078912 4294967295
47.323406 91.0522 -15.635154 4294967295
47.342964 92.756416 -15.118007 4294967295
47.376583 96.806847 -15.440723 4294967295
47.385319 97.779236 -15.51566 4294967295
47.430897 91.910744 -15.325138 4294967295
47.439739 97.323624 -15.259701 4294967295
47.468895 92.413322 -15.237643 4294967295
47.486206 93.873878 -15.334458 4294967295
47.487495 94.519806 -15.401272 4294967295
47.49614 91.781212 -15.064754 4294967295
47.496635 94.363083 -15.349414 4294967295
47.502491 92.591187 -15.130692 4294967295
47.504623 95.818954 -15.480839 4294967295
47.509266 96.950394 -15.588876 4294967295
47.510601 96.62851 -15.548123 4294967295
47.5173 93.405334 -15.16522 4294967295
47.51923 92.194687 -15.655602 4294967295
47.531818 95.994179 -15.397749 4294967295
47.550766 95.197121 -15.237857 4294967295
47.551704 91.888039 -15.499262 4294967295
47.564274 97.301544 -15.420413 4294967295
47.569157 94.88369 -15.133739 4294967295
47.569958 93.187172 -15.574635 4294967295
47.570187 93.348549 -15.591681 4294967295
47.587242 97.636177 -15.37094 4294967295
47.592785 94.488678 -15.633024 4294967295
47.605175 91.430115 -15.247022 4294967295
47.609894 95.142372 -15.641094 4294967295
47.611511 95.788223 -15.706645 4294967295
47.616676 94.339409 -15.526483 4294967295
47.618305 92.888489 -15.359371 4294967295
47.620983 96.115578 -15.707276 4294967295
47.622673 93.535912 -15.414745 4294967295
47.638206 94.834129 -15.500253 4294967295
47.661308 91.295929 -15.020691 4294967295
47.672867 96.464775 -15.550559 4294967295
47.686958 91.872398 -15.6195 4294967295
47.696129 93.733803 -15.160012 4294967295
47.700375 97.446815 -15.555867 4294967295
47.72525 94.232513 -15.105631 4294967295
47.727718 96.815681 -15.38287 4294967295
47.738091 96.33696 -15.290697 4294967295
47.740166 91.737015 -15.404257 4294967295
47.742264 93.673508 -15.611143 4294967295
47.75404 92.711617 -15.460155 4294967295
47.762505 94.006149 -15.571867 4294967295
47.781403 97.166191 -15.219521 4294967295
47.816113 97.668427 -15.144478 4294967295
47.826355 95.328682 -15.478247 4294967295
47.830925 97.998993 -15.125341 4294967295
47.833668 92.589409 -15.14694 4294967295
47.838882 94.689697 -15.360247 4294967295
47.840599 93.561073 -15.228625 4294967295
47.854603 96.472336 -15.498759 4294967295
47.858295 94.860825 -15.306166 4294967295
47.863163 97.928558 -15.627995 4294967295
47.86338 95.670158 -15.376788 4294967295
47.880989 91.885391 -15.521787 4294967295
47.882626 97.454758 -15.502224 4294967295
47.896503 91.409019 -15.410632 4294967295
47.900539 94.236511 -15.077971 4294967295
47.901165 96.980347 -15.379859 4294967295
47.901318 96.01223 -15.27195 4294967295
47.902214 92.218323 -15.478905 4294967295
47.904743 97.78894 -15.45605 4294967295
47.907135 93.511063 -15.603733 4294967295
47.917046 97.311287 -15.356791 4294967295
47.927414 94.005005 -15.582262 4294967295
47.942131 93.205795 -15.438334 4294967295
47.946468 94.498421 -15.56533 4294967295
47.96806 96.692062 -15.096177 4294967295
47.969284 91.766983 -15.176717 4294967295
47.975258 92.899467 -15.279825 4294967295
47.979282 92.740082 -15.247025 4294967295
47.980995 91.288498 -15.079627 4294967295
47.981422 92.095642 -15.167524 4294967295
48.003677 94.365776 -15.335559 4294967295
48.007492 91.624123 -15.017245 4294967295
48.018253 91.225655 -15.562937 4294967295
48.025253 96.635513 -15.506037 4294967295
48.033844 91.555756 -15.540985 4294967295
48.065506 93.912498 -15.052862 4294967295
48.065544 94.719589 -15.142197 4294967295
48.092434 95.378815 -15.114191 4294967295
48.140194 94.834381 -15.504952 4294967295
48.145264 92.900757 -15.271617 4294967295
48.147018 93.708427 -15.354536 4294967295
48.153481 91.936485 -15.133865 4294967295
48.154202 90.968399 -15.02385 4294967295
48.15472 92.582649 -15.200837 4294967295
48.170227 95.333534 -15.447474 4294967295
48.174923 95.6586 -15.465858 4294967295
48.175522 91.140083 -14.962803 4294967295
48.188377 93.244774 -15.147821 4294967295
48.198391 95.025047 -15.307518 4294967295
48.198921 94.379784 -15.234012 4294967295
48.205727 91.880516 -15.561275 4294967295
48.215473 96.163322 -15.369498 4294967295
48.215927 96.97036 -15.457214 4294967295
48.224583 94.554039 -15.156949 4294967295
48.240013 94.077492 -15.046185 4294967295
48.241478 91.575218 -15.3933 4294967295
48.242905 93.594604 -14.981808 4294967295
48.245361 94.241592 -15.044296 4294967295
48.246056 97.308655 -15.381547 4294967295
48.250889 96.504219 -15.274259 4294967295
48.252357 97.796043 -15.411885 4294967295
48.262604 95.541725 -15.123612 4294967295
48.272388 94.655479 -15.618629 4294967295
48.278351 96.35688 -15.154799 4294967295
48.285213 96.037521 -15.093645 4294967295
48.288284 91.436478 -15.202321 4294967295
48.297859 94.990906 -15.560226 4294967295
48.299908 97.982208 -15.253932 4294967295
48.325684 94.036797 -15.350121 4294967295
48.325897 92.423088 -15.170524 4294967295
48.336048 93.396431 -15.240286 4294967295
48.343403 97.681969 -15.057313 4294967295
48.353203 96.793678 -15.552273 4294967295
48.36982 92.283104 -14.990224 4294967295
48.373394 98.094788 -15.620633 4294967295
48.404976 96.658913 -15.343107 4294967295
48.422768 91.904594 -15.379065 4294967295
48.432457 95.220161 -15.080619 4294967295
48.442921 94.902534 -15.006173 4294967295
