# .PCD v0.7 - Point Cloud Data file format
VERSION 0.7
FIELDS x y z rgb
SIZE 4 4 4 4
TYPE F F F U
COUNT 1 1 1 1
WIDTH 1147
HEIGHT 1
VIEWPOINT 0 0 0 1 0 0 0
POINTS 1147
DATA ascii
71.360809 47.124622 -7.8766837 4294967295
71.361534 42.662979 -7.9631691 4294967295
71.37175 48.275002 -7.9635091 4294967295
71.38665 48.113945 -7.8969054 4294967295
71.392876 48.607311 -7.9290676 4294967295
71.408051 45.131016 -8.0732183 4294967295
71.408791 44.475201 -8.0006161 4294967295
71.414009 43.984131 -7.9307976 4294967295
71.418701 47.792194 -7.7562761 4294967295
71.4245 46.808804 -7.6318407 4294967295
71.43219 44.807446 -7.9586906 4294967295
71.441521 43.824989 -7.8227029 4294967295
71.452843 48.947586 -7.7667542 4294967295
71.487373 47.113941 -8.0227308 4294967295
71.523949 44.988239 -7.6742654 4294967295
71.525597 46.629219 -7.8443398 4294967295
71.529854 48.926479 -8.0759668 4294967295
71.538391 43.317715 -8.013588 4294967295
71.541992 45.319733 -7.6499796 4294967295
71.542236 43.810349 -8.0535774 4294967295
71.549919 44.172424 -7.5010014 4294967295
71.551735 46.306072 -7.7232394 4294967295
71.554443 45.65023 -7.6441188 4294967295
71.598747 46.444435 -8.1483774 4294967295
71.63913 43.171192 -7.6647024 4294967295
71.640083 42.843189 -7.6264725 4294967295
71.642288 46.288712 -7.9877 4294967295
71.655472 47.275337 -8.0496063 4294967295
71.675034 47.93523 -8.0554543 4294967295
71.677353 45.311001 -7.7671509 4294967295
71.678528 45.803413 -7.8159347 4294967295
71.690018 46.953976 -7.9009786 4294967295
71.692627 44.657463 -7.6467223 4294967295
71.697639 48.267773 -8.0162458 4294967295
71.708908 46.793556 -7.8213258 4294967295
71.711571 47.614372 -7.9003024 4294967295
71.711845 47.450371 -7.8818498 4294967295
71.715363 42.660484 -7.9234023 4294967295
71.7164 43.480709 -8.0076847 4294967295
71.723045 45.48354 -7.6344738 4294967295
71.725426 49.257572 -8.0301571 4294967295
71.728203 48.109825 -7.8982649 4294967295
71.734184 44.500854 -7.4925294 4294967295
71.737213 45.65028 -7.6054454 4294967295
71.753181 45.783283 -8.1323414 4294967295
71.759552 48.608299 -7.8478527 4294967295
71.764336 46.147728 -7.5689201 4294967295
71.781479 49.433136 -7.8635364 4294967295
71.789436 43.001282 -7.7150326 4294967295
71.802238 46.448536 -8.0413532 4294967295
71.804924 44.480598 -7.8220592 4294967295
71.805832 43.660435 -7.7313404 4294967295
71.818901 44.975307 -7.8287649 4294967295
71.823059 44.647938 -7.7800059 4294967295
71.825211 43.992016 -7.7027564 4294967295
71.834602 43.829586 -7.6543574 4294967295
71.886345 43.346294 -7.4316759 4294967295
71.886459 45.97229 -7.7120795 4294967295
71.912155 44.630951 -8.0487881 4294967295
71.924088 42.500591 -7.7816582 4294967295
71.928513 45.289967 -8.0652409 4294967295
71.936668 45.127449 -8.0209341 4294967295
71.957932 45.951492 -8.0388069 4294967295
71.972412 49.599369 -7.8157792 4294967295
71.976418 44.4785 -7.8203077 4294967295
71.977173 43.001904 -7.6599555 4294967295
71.9776 43.658337 -7.7287354 4294967295
71.978897 45.791386 -7.9524689 4294967295
71.983856 46.284431 -7.9888015 4294967295
71.985626 49.109756 -7.7197738 4294967295
71.991989 44.153137 -7.7341228 4294967295
71.994736 45.466225 -7.8654108 4294967295
72.001114 47.10791 -8.0198174 4294967295
72.001488 46.943947 -8.0010681 4294967295
72.014381 48.094688 -8.0814943 4294967295
72.018166 44.814205 -7.7183528 4294967295
72.020332 43.994076 -7.6235318 4294967295
72.026634 43.831074 -7.5853066 4294967295
72.028015 47.441223 -7.9666381 4294967295
72.039909 49.248013 -8.1204338 4294967295
72.050163 47.773678 -7.9290195 4294967295
72.051186 43.342964 -7.4520392 4294967295
72.054878 46.133774 -7.7381902 4294967295
72.082329 46.631302 -7.700737 4294967295
72.084908 48.436863 -7.8851962 4294967295
72.091354 42.825806 -7.8287902 4294967295
72.098587 48.767776 -7.875381 4294967295
56.11903 56.65612 -10.449494 4294967295
56.926281 56.638172 -10.584879 4294967295
57.597279 56.630417 -10.604303 4294967295
57.807671 56.639652 -10.458836 4294967295
58.161259 56.640457 -10.405519 4294967295
58.356915 56.645782 -10.312659 4294967295
58.577351 56.657558 -10.132939 4294967295
58.824211 56.467579 -10.437542 4294967295
58.885475 56.646412 -10.240381 4294967295
59.051208 56.318043 -10.217597 4294967295
59.221409 56.316654 -10.214743 4294967295
59.24165 56.647781 -10.179398 4294967295
59.475777 56.500008 -9.9352665 4294967295
59.549751 56.636631 -10.286878 4294967295
59.764404 56.157822 -10.075696 4294967295
59.802971 56.493771 -9.976532 4294967295
59.931187 56.155521 -10.085126 4294967295
60.155071 56.004795 -9.8778105 4294967295
60.156178 56.168133 -9.891715 4294967295
60.190109 56.666077 -9.8267069 4294967295
60.266762 56.477444 -10.132574 4294967295
60.442329 56.314388 -10.093831 4294967295
60.523121 56.498219 -9.830513 4294967295
60.524185 56.009197 -9.7735767 4294967295
60.591995 55.981659 -10.127463 4294967295
60.609726 56.475262 -10.119039 4294967295
60.643257 56.157772 -9.9670286 4294967295
60.724529 56.341675 -9.7023039 4294967295
60.818161 55.994442 -9.9308653 4294967295
60.825424 56.322453 -9.9411087 4294967295
61.007244 56.650162 -9.9342527 4294967295
61.055859 56.010128 -9.6946735 4294967295
61.21563 56.332279 -9.7645435 4294967295
61.245304 56.176697 -9.6439695 4294967295
61.250198 56.504288 -9.6624622 4294967295
61.29068 55.535385 -9.4157381 4294967295
61.31617 56.639175 -10.039461 4294967295
61.347137 55.505306 -9.8081894 4294967295
61.452354 56.184586 -9.5147362 4294967295
61.520943 55.504696 -9.7939463 4294967295
61.543591 55.999851 -9.7687473 4294967295
61.57827 55.682262 -9.613328 4294967295
61.588856 56.174511 -9.6298742 4294967295
61.589069 55.848175 -9.5936909 4294967295
61.614677 56.670704 -9.5937204 4294967295
61.67075 56.47681 -9.9690084 4294967295
61.686169 56.317627 -9.8980141 4294967295
61.842415 55.377777 -9.2516241 4294967295
61.867989 56.482254 -9.8739233 4294967295
61.876522 55.505451 -9.7381907 4294967295
61.885017 55.833935 -9.744277 4294967295
61.928337 56.171272 -9.6301212 4294967295
61.932655 56.661987 -9.6683455 4294967295
61.948009 55.3601 -9.4735956 4294967295
61.998981 56.025928 -9.3684483 4294967295
62.0028 55.700333 -9.3198175 4294967295
62.068169 56.325249 -9.7512045 4294967295
62.125546 55.033848 -9.4115543 4294967295
62.216175 56.644451 -9.8616848 4294967295
62.280403 55.191734 -9.4809446 4294967295
62.281197 55.844929 -9.5490503 4294967295
62.299969 56.339409 -9.5374718 4294967295
62.308258 55.525192 -9.420351 4294967295
62.342773 56.513577 -9.4076595 4294967295
62.347027 55.044937 -9.2335615 4294967295
62.347767 54.718475 -9.1955719 4294967295
62.374912 55.378506 -9.1728687 4294967295
62.522907 55.208073 -9.2307301 4294967295
62.529793 56.516342 -9.3487062 4294967295
62.537739 55.701756 -9.232789 4294967295
62.556667 54.562977 -9.0435705 4294967295
62.595825 55.835373 -9.6353512 4294967295
62.604229 55.347736 -9.5533295 4294967295
62.611401 56.655495 -9.6702538 4294967295
62.631363 56.334084 -9.5661821 4294967295
62.637737 55.519341 -9.4557467 4294967295
62.683178 55.693989 -9.3171015 4294967295
62.725056 54.88765 -9.0844469 4294967295
62.796768 54.698555 -9.4045954 4294967295
62.847733 55.527683 -9.3179092 4294967295
62.850033 56.508152 -9.416213 4294967295
62.879513 56.678982 -9.332592 4294967295
62.887161 56.19091 -9.2531948 4294967295
62.89579 55.049534 -9.0995855 4294967295
62.908798 54.562557 -9.0017319 4294967295
62.944317 55.344517 -9.5521832 4294967295
62.979141 56.169617 -9.5210447 4294967295
62.991253 54.702877 -9.3201838 4294967295
63.000427 55.521744 -9.3771677 4294967295
63.009617 55.850674 -9.3810043 4294967295
63.028503 56.018742 -9.3338461 4294967295
63.043861 54.388977 -9.1040773 4294967295
63.092514 54.684425 -9.5558977 4294967295
63.141125 54.206326 -9.3359995 4294967295
63.184196 55.850204 -9.3651409 4294967295
63.217663 55.041737 -9.1618299 4294967295
63.221157 55.532719 -9.2029419 4294967295
63.221676 54.879337 -9.1303596 4294967295
63.259205 55.824825 -9.6906786 4294967295
63.278572 54.849972 -9.5182009 4294967295
63.29026 56.485695 -9.6549511 4294967295
63.304493 56.162735 -9.5708084 4294967295
63.334812 54.537048 -9.2900038 4294967295
63.425674 55.659073 -9.6847801 4294967295
63.43755 53.908222 -8.8669386 4294967295
63.448399 54.521664 -9.4831934 4294967295
63.521336 55.192829 -9.3041086 4294967295
63.555447 56.181503 -9.2934046 4294967295
63.603985 54.06908 -8.8971462 4294967295
63.609097 54.844334 -9.5502033 4294967295
63.615631 53.744938 -8.8218441 4294967295
63.624928 56.644459 -9.6904554 4294967295
63.628815 55.828999 -9.5887871 4294967295
63.632923 56.15662 -9.6100769 4294967295
63.638893 53.87159 -9.3421545 4294967295
63.656178 54.202438 -9.3183727 4294967295
63.69162 55.68132 -9.3562241 4294967295
63.701145 53.559654 -9.0937166 4294967295
63.732357 56.508373 -9.3052578 4294967295
63.769352 55.493465 -9.6540537 4294967295
63.778297 53.250996 -8.794239 4294967295
63.830425 54.691837 -9.3568916 4294967295
63.85511 56.494812 -9.4669352 4294967295
63.862404 56.169952 -9.4066563 4294967295
63.863697 55.680191 -9.3492041 4294967295
63.867771 56.007938 -9.3706398 4294967295
63.869537 55.845013 -9.3469181 4294967295
63.890728 53.399105 -9.009223 4294967295
63.894051 54.217052 -9.0863028 4294967295
63.906979 54.056725 -9.0244064 4294967295
63.932114 53.899284 -8.9207697 4294967295
63.953396 55.168682 -9.5706043 4294967295
63.953983 56.638523 -9.7275848 4294967295
63.954391 55.658855 -9.620203 4294967295
63.964272 53.089455 -8.7223282 4294967295
63.996677 54.362507 -9.3344126 4294967295
64.00592 53.547806 -9.2144461 4294967295
64.01503 53.876759 -9.2186823 4294967295
64.034218 55.351913 -9.312232 4294967295
64.052505 56.33675 -9.3558121 4294967295
64.055878 54.703617 -9.1675444 4294967295
64.056648 55.847633 -9.2886381 4294967295
64.067291 56.503864 -9.3229895 4294967295
64.123459 55.537369 -9.0250988 4294967295
64.132484 52.923717 -8.7112713 4294967295
64.200111 52.734612 -9.0436611 4294967295
64.214951 53.882149 -9.1167583 4294967295
64.21563 55.679848 -9.3088446 4294967295
64.231773 53.559261 -9.0239687 4294967295
64.240646 54.542057 -9.0997734 4294967295
64.249374 53.726891 -8.9815683 4294967295
64.249847 52.582668 -8.8561821 4294967295
64.275696 54.387058 -8.9624748 4294967295
64.276093 54.0602 -8.9257603 4294967295
64.288513 56.024834 -9.095499 4294967295
64.309784 54.189243 -9.4087448 4294967295
64.323601 52.926819 -8.6397896 4294967295
64.334641 56.318954 -9.5536108 4294967295
64.33847 54.03273 -9.2932615 4294967295
64.343529 54.687508 -9.3466711 4294967295
64.362816 55.345764 -9.3515911 4294967295
64.36879 55.837399 -9.3842125 4294967295
64.38961 53.391167 -9.0481739 4294967295
64.39978 52.739689 -8.9427834 4294967295
64.427925 56.669243 -9.2709675 4294967295
64.447319 53.241245 -8.8337059 4294967295
64.458443 55.042336 -8.9902353 4294967295
64.466347 54.34766 -9.472352 4294967295
64.487778 53.209095 -9.275691 4294967295
64.49353 55.334435 -9.4856844 4294967295
64.502983 56.48027 -9.5770702 4294967295
64.506676 55.501034 -9.4585733 4294967295
64.537949 55.018539 -9.2990713 4294967295
64.557709 56.167259 -9.3553877 4294967295
64.558861 52.735344 -8.9804716 4294967295
64.563812 56.658993 -9.3875971 4294967295
64.566475 54.535183 -9.1489115 4294967295
64.570808 56.007118 -9.2931137 4294967295
64.571671 54.046082 -9.0781994 4294967295
64.595413 53.070816 -8.8912592 4294967295
64.61293 53.401924 -8.8669434 4294967295
64.634956 52.589428 -8.7034903 4294967295
64.664543 54.84288 -9.4295082 4294967295
64.679169 52.88546 -9.1678028 4294967295
64.684586 55.50132 -9.4319143 4294967295
64.70723 53.709236 -9.1605988 4294967295
64.708694 56.160862 -9.4204788 4294967295
64.732155 55.676468 -9.2876968 4294967295
64.744263 55.025692 -9.1758575 4294967295
64.746712 52.24715 -8.8671675 4294967295
64.76033 56.500637 -9.2801247 4294967295
64.811104 55.205494 -8.9660559 4294967295
64.816162 54.062092 -8.8251495 4294967295
64.847839 52.229561 -9.102067 4294967295
64.875282 55.831558 -9.3971958 4294967295
64.88652 55.180656 -9.2883768 4294967295
64.891472 52.729996 -9.0066452 4294967295
64.893517 54.692047 -9.2116165 4294967295
64.898285 56.49094 -9.3895826 4294967295
64.900383 52.405067 -8.9409962 4294967295
64.901352 54.530487 -9.167325 4294967295
64.907112 53.387573 -9.0241127 4294967295
64.911766 53.061684 -8.9729424 4294967295
64.914322 54.043201 -9.0702209 4294967295
64.915649 56.65873 -9.3482132 4294967295
64.925018 56.007339 -9.2457533 4294967295
64.949318 56.176849 -9.1808062 4294967295
64.966751 53.892166 -8.8742704 4294967295
64.993797 51.772152 -8.552557 4294967295
64.996765 52.549793 -9.2094584 4294967295
65.011284 52.062767 -9.1071539 4294967295
65.020889 53.045704 -9.1804466 4294967295
65.028412 53.701252 -9.2254887 4294967295
65.028831 55.662418 -9.4358759 4294967295
65.044144 52.233727 -9.013133 4294967295
65.057922 52.890842 -9.0369406 4294967295
65.060417 56.32391 -9.3991728 4294967295
65.079834 51.58778 -8.8211889 4294967295
65.081566 51.915226 -8.8506279 4294967295
65.175354 54.717335 -8.8322239 4294967295
65.208313 55.8265 -9.4217844 4294967295
65.209404 54.028988 -9.223999 4294967295
65.22187 55.666428 -9.3581333 4294967295
65.223175 51.906929 -8.9477539 4294967295
65.230843 52.7262 -9.0099926 4294967295
65.239334 53.218666 -9.0341349 4294967295
65.23996 54.52668 -9.1732206 4294967295
65.240768 50.766159 -8.7643595 4294967295
65.250854 56.32737 -9.3303719 4294967295
65.258766 52.242062 -8.862216 4294967295
65.265228 51.589352 -8.7696123 4294967295
65.268295 53.715973 -8.9887838 4294967295
65.276848 54.208538 -9.0127029 4294967295
65.286087 55.028286 -9.0696068 4294967295
65.286385 50.449024 -8.5740967 4294967295
65.302956 51.107052 -8.5885048 4294967295
65.304878 51.434666 -8.6173134 4294967295
65.311157 55.361416 -9.0198488 4294967295
65.313942 55.198578 -8.9927444 4294967295
65.314919 56.506893 -9.1306295 4294967295
65.333199 54.712646 -8.8744192 4294967295
65.353371 53.857601 -9.2952061 4294967295
65.373344 52.554546 -9.0863113 4294967295
65.377777 50.756973 -8.8770714 4294967295
65.383545 55.49926 -9.3693161 4294967295
65.397713 54.685459 -9.233057 4294967295
65.429619 51.095516 -8.7364874 4294967295
65.429672 53.058075 -8.9481974 4294967295
65.431534 53.385555 -8.9771719 4294967295
65.445656 50.93549 -8.6644211 4294967295
65.470055 49.631935 -8.4402952 4294967295
65.483849 55.850918 -9.064538 4294967295
65.520561 50.297413 -8.3395824 4294967295
65.530228 50.587666 -8.919651 4294967295
65.556717 53.209774 -9.1122284 4294967295
65.559914 55.826019 -9.3836184 4294967295
65.566582 56.644863 -9.4492044 4294967295
65.570496 51.087143 -8.836092 4294967295
65.577003 52.887474 -9.0081749 4294967295
65.577568 53.051121 -9.0239248 4294967295
65.578491 52.233719 -8.9325495 4294967295
65.594482 55.671082 -9.2489004 4294967295
65.596924 56.325569 -9.3111629 4294967295
65.601105 54.691765 -9.1206102 4294967295
65.607132 49.622898 -8.5529623 4294967295
65.608528 51.749866 -8.7777805 4294967295
65.616623 49.95216 -8.5560942 4294967295
65.616692 50.933788 -8.6618252 4294967295
65.618477 56.003975 -9.2029076 4294967295
65.620407 53.715244 -8.9493484 4294967295
65.646065 54.866131 -8.9859457 4294967295
65.65493 55.195358 -8.9912024 4294967295
65.659607 55.360039 -8.9929953 4294967295
65.664673 54.379951 -8.8699627 4294967295
65.672798 51.437077 -8.5246124 4294967295
65.689819 53.567993 -8.6964931 4294967295
65.692848 53.52702 -9.262888 4294967295
65.698647 54.34568 -9.3314419 4294967295
65.735489 50.266315 -8.7656145 4294967295
65.759407 50.762257 -8.7375746 4294967295
65.763748 51.417519 -8.7934589 4294967295
65.807076 56.497417 -9.1937218 4294967295
65.811745 51.755444 -8.6662226 4294967295
65.820145 54.047577 -8.8848934 4294967295
65.863586 50.457787 -8.3493729 4294967295
65.875122 56.678009 -8.9811249 4294967295
65.896797 52.061523 -8.990015 4294967295
65.918396 55.500248 -9.2872877 4294967295
65.924568 49.777695 -8.648982 4294967295
65.928886 50.596611 -8.7226334 4294967295
65.933098 50.270336 -8.6730728 4294967295
65.93335 50.92477 -8.7428122 4294967295
65.942551 56.323631 -9.2937574 4294967295
65.947701 53.872189 -9.0118532 4294967295
65.956955 55.019131 -9.1040049 4294967295
65.964592 52.567635 -8.8135691 4294967295
65.965866 53.058655 -8.8622055 4294967295
65.976868 51.425217 -8.6485157 4294967295
65.983147 53.553406 -8.8566837 4294967295
66.002502 54.539448 -8.8970766 4294967295
66.002502 54.703022 -8.9147053 4294967295
66.007683 56.666935 -9.108839 4294967295
66.027756 55.363441 -8.8998718 4294967295
66.034149 53.40173 -8.6665363 4294967295
66.037941 52.380146 -9.1236792 4294967295
66.06279 53.203419 -9.1278515 4294967295
66.07312 53.859882 -9.1634598 4294967295
66.079063 54.188305 -9.1786394 4294967295
66.098236 51.903191 -8.8669748 4294967295
66.105652 54.521675 -9.1240778 4294967295
66.108063 51.41465 -8.7808437 4294967295
66.124481 55.343838 -9.148613 4294967295
66.138718 50.766983 -8.6066275 4294967295
66.144142 51.095436 -8.6235752 4294967295
66.151001 52.733124 -8.7768421 4294967295
66.167061 51.755062 -8.6166859 4294967295
66.174782 55.192528 -8.9610367 4294967295
66.189171 52.905521 -8.6654835 4294967295
66.193527 54.051884 -8.7742634 4294967295
66.209785 53.073921 -8.6134567 4294967295
66.218063 50.45697 -8.3030367 4294967295
66.22245 56.022121 -8.8882055 4294967295
66.22403 56.349701 -8.9181252 4294967295
66.231293 51.892982 -8.9927692 4294967295
66.233574 51.566391 -8.9497957 4294967295
66.236603 51.239944 -8.9042864 4294967295
66.245499 54.34919 -9.2092266 4294967295
66.249969 52.060749 -8.9473228 4294967295
66.261566 55.497597 -9.2783375 4294967295
66.263107 52.717972 -8.9734859 4294967295
66.275093 55.991421 -9.2855577 4294967295
66.276299 54.192989 -9.0876226 4294967295
66.278587 50.594818 -8.6919241 4294967295
66.282677 55.175713 -9.1718359 4294967295
66.287994 50.924107 -8.6954231 4294967295
66.295837 50.271313 -8.5983696 4294967295
66.305534 53.382061 -8.9007587 4294967295
66.308311 51.092205 -8.644453 4294967295
66.310204 50.76535 -8.6027803 4294967295
66.311058 56.327362 -9.1994343 4294967295
66.322479 53.876781 -8.8964605 4294967295
66.336319 52.571148 -8.7086325 4294967295
66.341125 53.226738 -8.7629528 4294967295
66.36338 50.449619 -8.3878517 4294967295
66.368355 54.705681 -8.8297529 4294967295
66.36837 55.032894 -8.8649855 4294967295
66.374329 56.670254 -9.0211687 4294967295
66.392502 50.089897 -8.8294468 4294967295
66.392754 53.729687 -8.6415749 4294967295
66.410522 49.766571 -8.7333641 4294967295
66.483612 54.527199 -8.998065 4294967295
66.502342 51.422871 -8.5998564 4294967295
66.505348 49.950504 -8.4309416 4294967295
66.521461 54.209023 -8.8351488 4294967295
66.526955 56.500645 -9.0634041 4294967295
66.540398 52.577049 -8.5949306 4294967295
66.542343 53.068474 -8.6412849 4294967295
66.543564 51.923084 -8.5136909 4294967295
66.546684 53.396786 -8.6619081 4294967295
66.560814 50.251144 -8.853817 4294967295
66.568619 52.092419 -8.4467955 4294967295
66.569794 51.561733 -8.9645481 4294967295
66.576294 55.367565 -8.7736626 4294967295
66.579567 53.568115 -8.5686398 4294967295
66.584824 53.241974 -8.5156212 4294967295
66.592461 53.03894 -9.0467529 4294967295
66.604279 51.733017 -8.8659315 4294967295
66.607002 55.211369 -8.6524687 4294967295
66.609154 56.193844 -8.7510338 4294967295
66.622391 55.662762 -9.2277918 4294967295
66.628151 49.774731 -8.5738544 4294967295
66.629486 53.374657 -8.9572096 4294967295
66.631546 52.884365 -8.8974075 4294967295
66.63308 56.690765 -8.7232437 4294967295
66.638695 51.086193 -8.679368 4294967295
66.643936 50.760056 -8.6264343 4294967295
66.649063 54.851479 -9.0498447 4294967295
66.654236 53.707615 -8.9090681 4294967295
66.656219 52.071915 -8.7260818 4294967295
66.65892 50.599667 -8.5582657 4294967295
66.668907 53.220203 -8.8067293 4294967295
66.686043 54.696762 -8.9076366 4294967295
66.68676 54.369713 -8.8699474 4294967295
66.720146 56.013908 -8.9337082 4294967295
66.733612 55.035442 -8.7826033 4294967295
66.747437 53.893124 -8.6126051 4294967295
66.747627 49.925571 -8.7629881 4294967295
66.747902 52.583714 -8.4699612 4294967295
66.751266 50.908005 -8.8564882 4294967295
66.754303 54.222099 -8.6247253 4294967295
66.762657 52.546429 -8.9943409 4294967295
66.763878 52.751072 -8.4337521 4294967295
66.776749 55.373199 -8.6725264 4294967295
66.795006 54.353241 -9.0792303 4294967295
66.810852 55.338432 -9.1315556 4294967295
66.814766 54.030762 -8.9774542 4294967295
66.84156 51.418816 -8.6052217 4294967295
66.880127 50.117649 -8.3342447 4294967295
66.881393 56.664433 -9.0350685 4294967295
66.89502 50.448326 -8.3193359 4294967295
66.89727 56.013931 -8.9111576 4294967295
66.903793 52.25119 -8.4838057 4294967295
66.9226 52.215107 -8.9941158 4294967295
66.925766 52.91103 -8.4803457 4294967295
66.929375 50.089718 -8.7422695 4294967295
66.929924 56.349266 -8.8365164 4294967295
66.930107 55.694706 -8.765399 4294967295
66.934021 51.072464 -8.8323612 4294967295
66.942589 51.728809 -8.8740206 4294967295
66.955376 54.227623 -8.5216904 4294967295
66.959694 50.423531 -8.675478 4294967295
66.965775 50.261189 -8.6373796 4294967295
66.968147 54.721794 -8.531599 4294967295
66.968559 55.867798 -8.6536102 4294967295
66.976318 55.335583 -9.1480637 4294967295
66.983383 51.246971 -8.6838646 4294967295
66.993095 52.394676 -8.7745619 4294967295
66.995399 52.886108 -8.819663 4294967295
67.013458 54.526562 -8.9350853 4294967295
67.0187 55.01865 -8.9703035 4294967295
67.030678 51.584797 -8.5599642 4294967295
67.034225 50.93079 -8.477519 4294967295
67.034775 53.549782 -8.7576742 4294967295
67.046486 53.879829 -8.7535334 4294967295
67.062187 49.954475 -8.2775898 4294967295
67.0709 53.23082 -8.6009216 4294967295
67.076309 53.395767 -8.6003332 4294967295
67.077408 49.793961 -8.2087355 4294967295
67.085869 50.412071 -8.8241892 4294967295
67.089935 50.779236 -8.2723827 4294967295
67.109589 52.093613 -8.3473282 4294967295
67.117653 55.206169 -8.65516 4294967295
67.129311 53.735535 -8.4572964 4294967295
67.131172 56.518959 -8.7506571 4294967295
67.157242 51.573196 -8.7075453 4294967295
67.162086 49.773773 -8.4974098 4294967295
67.164825 54.029495 -8.94629 4294967295
67.184929 55.50679 -9.03724 4294967295
67.200249 53.219555 -8.7391691 4294967295
67.205017 56.166134 -9.0401917 4294967295
67.206757 51.911598 -8.5763445 4294967295
67.208054 49.947289 -8.3604574 4294967295
67.233147 52.408653 -8.5404778 4294967295
67.241859 55.193321 -8.8107424 4294967295
67.242424 51.264656 -8.3859119 4294967295
67.245773 52.902657 -8.5509062 4294967295
67.254395 50.612267 -8.2751303 4294967295
67.255638 52.577477 -8.4825115 4294967295
67.261261 55.361679 -8.7631712 4294967295
67.262665 50.411556 -8.80266 4294967295
67.263809 54.54388 -8.666503 4294967295
67.27095 50.904259 -8.8276491 4294967295
67.273048 52.090202 -8.37111 4294967295
67.285027 56.513214 -8.8066187 4294967295
67.293991 53.732426 -8.4769793 4294967295
67.297409 54.879311 -8.5888491 4294967295
67.30703 50.257465 -8.6359882 4294967295
67.307693 56.02776 -8.6776247 4294967295
67.31237 49.931244 -8.5828104 4294967295
67.315666 50.750359 -8.6598206 4294967295
67.325966 54.352814 -9.0126839 4294967295
67.32914 53.37183 -8.8963995 4294967295
67.332268 52.227032 -8.7626038 4294967295
67.337059 52.555431 -8.7817278 4294967295
67.345627 51.57534 -8.6472559 4294967295
67.381531 54.038651 -8.790906 4294967295
67.395248 51.750084 -8.4982023 4294967295
67.397598 55.84269 -8.9306784 4294967295
67.408768 56.172718 -8.9284 4294967295
67.437096 49.919575 -8.7362938 4294967295
67.44957 55.036926 -8.6681747 4294967295
67.471085 52.74966 -8.3492556 4294967295
67.475876 53.242058 -8.3860369 4294967295
67.489357 55.373959 -8.5698471 4294967295
67.509445 52.717735 -8.7928791 4294967295
67.515511 53.701061 -8.8781652 4294967295
67.516823 53.210407 -8.8209286 4294967295
67.51725 56.690651 -8.6171532 4294967295
67.561241 49.782272 -8.30194 4294967295
67.575409 52.56905 -8.5539331 4294967295
67.585098 55.517876 -8.8384037 4294967295
67.59137 54.537273 -8.7117357 4294967295
67.5914 51.26268 -8.3593159 4294967295
67.593239 55.847202 -8.8463202 4294967295
67.594955 54.86552 -8.7349234 4294967295
67.604675 54.704144 -8.684701 4294967295
67.607155 55.032139 -8.7116194 4294967295
67.607956 50.611187 -8.2332468 4294967295
67.617226 56.507809 -8.8363113 4294967295
67.620193 51.065994 -8.817049 4294967295
67.628265 51.598377 -8.2708483 4294967295
67.635956 51.39677 -8.7994108 4294967295
67.642654 53.566948 -8.4340029 4294967295
67.650253 56.188572 -8.690341 4294967295
67.664322 53.366997 -8.9155636 4294967295
67.665428 54.391098 -8.4457035 4294967295
67.666176 55.21006 -8.531271 4294967295
67.673492 50.095421 -8.5326662 4294967295
67.683983 55.705627 -8.5244083 4294967295
67.690186 51.572449 -8.6351767 4294967295
67.691315 50.917858 -8.560956 4294967295
67.691376 55.379902 -8.4643736 4294967295
67.693916 49.772308 -8.4289246 4294967295
67.701057 50.592525 -8.4930658 4294967295
67.704247 53.048862 -8.7465191 4294967295
67.70929 51.740398 -8.5887575 4294967295
67.71904 56.696815 -8.5125294 4294967295
67.739975 52.729622 -8.5915279 4294967295
67.752724 52.24131 -8.4959564 4294967295
67.758568 50.768753 -8.317832 4294967295
67.781021 53.230228 -8.5067701 4294967295
67.840881 52.384644 -8.7895718 4294967295
67.857803 52.715839 -8.7680912 4294967295
67.878777 49.60965 -8.3632822 4294967295
67.912018 50.926918 -8.3928099 4294967295
67.913666 53.874603 -8.7042255 4294967295
67.914536 51.582527 -8.4548206 4294967295
67.919594 53.057369 -8.596343 4294967295
67.925278 51.91243 -8.4540548 4294967295
67.929695 56.497513 -8.9321442 4294967295
67.931664 55.024807 -8.7671804 4294967295
67.93219 56.334454 -8.9062061 4294967295
67.93351 49.785011 -8.1974764 4294967295
67.943077 51.097481 -8.3063765 4294967295
67.950943 53.55582 -8.544178 4294967295
67.952065 54.538521 -8.6460629 4294967295
67.959412 52.902729 -8.4453926 4294967295
67.960152 50.773598 -8.2139292 4294967295
67.966011 50.735981 -8.7654238 4294967295
67.966438 54.214436 -8.5627251 4294967295
67.967636 55.524616 -8.6995392 4294967295
67.988014 51.068142 -8.7269754 4294967295
67.989952 52.050667 -8.8260717 4294967295
67.991928 53.237743 -8.3717136 4294967295
68.000984 51.725765 -8.7539539 4294967295
68.00312 55.696964 -8.5983686 4294967295
68.006569 52.585869 -8.2522345 4294967295
68.011993 53.037697 -8.8578844 4294967295
68.018257 50.256123 -8.5377359 4294967295
68.031906 49.767796 -8.439208 4294967295
68.036247 56.687637 -8.5931149 4294967295
68.039131 50.424347 -8.4854708 4294967295
68.048485 52.391209 -8.6653872 4294967295
68.05851 55.012665 -8.9134016 4294967295
68.083221 50.106251 -8.3026505 4294967295
68.102516 53.713402 -8.6254168 4294967295
68.120117 56.009712 -8.8129053 4294967295
68.120621 49.748554 -8.7129583 4294967295
68.171501 52.746597 -8.2889509 4294967295
68.20182 55.865921 -8.522048 4294967295
68.215813 54.886513 -8.3696384 4294967295
68.226761 51.244938 -8.5163536 4294967295
68.249161 55.015797 -8.8461952 4294967295
68.261711 52.071487 -8.4875088 4294967295
68.269142 52.400692 -8.4978704 4294967295
68.274094 51.746689 -8.4108934 4294967295
68.293716 51.587238 -8.3276854 4294967295
68.29451 54.044155 -8.5890455 4294967295
68.302383 53.227131 -8.4747438 4294967295
68.306335 53.391823 -8.4791393 4294967295
68.307045 49.749989 -8.6597157 4294967295
68.307686 49.951969 -8.1048489 4294967295
68.312172 56.668236 -8.8115463 4294967295
68.318291 52.247955 -8.3159418 4294967295
68.321999 52.740227 -8.3563633 4294967295
68.322067 54.705704 -8.5673561 4294967295
68.322998 55.68848 -8.6698122 4294967295
68.323944 50.244732 -8.6560364 4294967295
68.332535 50.57402 -8.6625071 4294967295
68.337372 51.229935 -8.7167282 4294967295
68.347366 50.904678 -8.6481361 4294967295
68.35289 54.385426 -8.429142 4294967295
68.364235 52.054459 -8.7149286 4294967295
68.370758 51.073509 -8.5875797 4294967295
68.383232 55.866898 -8.4861355 4294967295
68.388382 56.195751 -8.5041323 4294967295
68.391159 55.213581 -8.3892431 4294967295
68.410789 51.573566 -8.5066242 4294967295
68.447784 50.762688 -8.2950239 4294967295
68.449814 55.839928 -8.8336954 4294967295
68.455711 55.186451 -8.7436371 4294967295
68.471367 53.716335 -8.5330362 4294967295
68.475502 56.173653 -8.7831011 4294967295
68.512306 52.742893 -8.2907143 4294967295
68.572311 53.207241 -8.7128592 4294967295
68.572426 54.722919 -8.3011627 4294967295
68.59433 50.591782 -8.3578863 4294967295
68.602829 51.740242 -8.4526739 4294967295
68.614059 55.34557 -8.8021641 4294967295
68.622932 51.580879 -8.3679857 4294967295
68.631371 51.091267 -8.2870197 4294967295
68.632034 49.742733 -8.7133474 4294967295
68.633286 52.566036 -8.439002 4294967295
68.638275 52.239544 -8.3871622 4294967295
68.647209 54.043373 -8.550889 4294967295
68.647537 50.767094 -8.1978502 4294967295
68.650955 54.863144 -8.6263409 4294967295
68.658066 55.028614 -8.6201916 4294967295
68.662216 51.425697 -8.2192526 4294967295
68.662582 53.883163 -8.4820099 4294967295
68.668373 53.556892 -8.4274969 4294967295
68.680328 52.740498 -8.2996225 4294967295
68.680458 55.689106 -8.6158533 4294967295
68.688164 56.673634 -8.6956758 4294967295
68.689156 56.510109 -8.6747913 4294967295
68.700966 50.903629 -8.6065331 4294967295
68.704773 53.729141 -8.3236294 4294967295
68.716263 54.551018 -8.37327 4294967295
68.719498 53.077114 -8.2041044 4294967295
68.722511 50.253185 -8.4643126 4294967295
68.723534 56.190975 -8.5249567 4294967295
68.747246 53.697697 -8.7511587 4294967295
68.749207 54.394932 -8.2457829 4294967295
68.766853 50.426472 -8.3339968 4294967295
68.806854 49.943462 -8.1477871 4294967295
68.840958 52.572586 -8.3156052 4294967295
68.866486 51.922859 -8.1600952 4294967295
68.869415 52.251263 -8.1855316 4294967295
68.878769 53.564304 -8.2951155 4294967295
68.885681 54.385162 -8.3600321 4294967295
68.89637 56.026047 -8.5003166 4294967295
68.926773 55.705757 -8.3638201 4294967295
68.926788 49.930798 -8.3169622 4294967295
68.935883 56.691071 -8.439003 4294967295
68.938805 54.561539 -8.2005625 4294967295
68.939163 56.200336 -8.3752871 4294967295
68.945229 52.883392 -8.5721188 4294967295
68.947479 51.901115 -8.4590893 4294967295
68.948471 49.607677 -8.2095175 4294967295
68.958946 51.576015 -8.3857059 4294967295
68.968529 50.758919 -8.2658253 4294967295
68.971428 53.05315 -8.5024157 4294967295
68.977425 52.23542 -8.3944988 4294967295
68.98465 53.383793 -8.4935389 4294967295
68.998055 54.369743 -8.5544024 4294967295
69.003143 52.07732 -8.2912436 4294967295
69.011742 55.028191 -8.5791435 4294967295
69.016495 54.210255 -8.4754238 4294967295
69.016556 50.605389 -8.0881977 4294967295
69.025948 51.262993 -8.1272917 4294967295
69.034195 54.869717 -8.4868078 4294967295
69.045372 53.5616 -8.3088751 4294967295
69.050201 55.528843 -8.5038338 4294967295
69.057564 49.920437 -8.4498167 4294967295
69.061722 52.418171 -8.1312656 4294967295
69.069252 50.905735 -8.5163918 4294967295
69.088364 53.899296 -8.2008724 4294967295
69.107285 50.094791 -8.301836 4294967295
69.117714 53.864742 -8.6715202 4294967295
69.123711 55.710434 -8.2766857 4294967295
69.14846 52.397514 -8.4109774 4294967295
69.156502 55.839226 -8.7533503 4294967295
69.164604 56.496273 -8.7966919 4294967295
69.17968 56.172417 -8.7114038 4294967295
69.196663 50.075634 -8.572361 4294967295
69.235146 51.066624 -8.549799 4294967295
69.246895 50.577744 -8.4580011 4294967295
69.264915 56.357079 -8.4454699 4294967295
69.266418 51.728676 -8.5161028 4294967295
69.268364 52.548115 -8.5975237 4294967295
69.268425 54.22752 -8.2051888 4294967295
69.268738 56.685722 -8.4679241 4294967295
69.272682 50.910946 -8.4073706 4294967295
69.278534 53.574219 -8.1012115 4294967295
69.278954 51.567619 -8.4568377 4294967295
69.282295 56.033592 -8.3525085 4294967295
69.302223 50.753479 -8.2915268 4294967295
69.302353 50.261909 -8.2383394 4294967295
69.324776 51.413826 -8.286871 4294967295
69.329697 54.691643 -8.622057 4294967295
69.330956 52.889885 -8.4245386 4294967295
69.331436 52.070744 -8.3350401 4294967295
69.333374 53.054276 -8.4340849 4294967295
69.334961 53.873802 -8.516696 4294967295
69.346474 55.514656 -8.65417 4294967295
69.35009 51.255478 -8.1850691 4294967295
69.350731 55.351871 -8.6224489 4294967295
69.356598 56.172306 -8.6907997 4294967295
69.363853 56.501678 -8.7018099 4294967295
69.377213 54.211311 -8.4113941 4294967295
69.379112 50.240013 -8.5506802 4294967295
69.384308 50.404919 -8.5509701 4294967295
69.392044 52.412033 -8.1686621 4294967295
69.416855 54.548344 -8.3147612 4294967295
69.421539 52.746494 -8.1057482 4294967295
69.447998 49.926945 -8.2865667 4294967295
69.459259 51.240196 -8.3897676 4294967295
69.506607 51.906029 -8.3027678 4294967295
69.507545 50.595135 -8.1589832 4294967295
69.51693 53.546974 -8.4442186 4294967295
69.524384 54.531765 -8.5249004 4294967295
69.587936 54.874477 -8.3489866 4294967295
69.610886 51.234177 -8.4531803 4294967295
69.611465 55.863419 -8.3763008 4294967295
69.619507 56.68478 -8.4374838 4294967295
69.622955 55.374496 -8.2854376 4294967295
69.629616 52.221317 -8.4964266 4294967295
69.632401 52.877254 -8.5574589 4294967295
69.649361 50.095367 -8.2024069 4294967295
69.656425 53.865696 -8.5831385 4294967295
69.65667 50.424709 -8.2133083 4294967295
69.667229 49.771324 -8.1079102 4294967295
69.677032 51.41246 -8.2511559 4294967295
69.679787 53.543407 -8.4704628 4294967295
69.687859 54.856018 -8.5842333 4294967295
69.693039 52.727097 -8.3386211 4294967295
69.696281 51.908379 -8.2399874 4294967295
69.702713 54.367985 -8.4822359 4294967295
69.708244 53.0583 -8.3233156 4294967295
69.708679 50.927605 -8.093339 4294967295
69.710678 52.075466 -8.2097778 4294967295
69.716324 55.354305 -8.5424852 4294967295
69.718361 49.744297 -8.5049143 4294967295
69.726997 56.17609 -8.5949068 4294967295
69.737152 51.589539 -8.0691576 4294967295
69.742332 55.688255 -8.4913349 4294967295
69.749054 54.214928 -8.3109007 4294967295
69.753906 53.396511 -8.2068977 4294967295
69.767647 50.246208 -8.3941193 4294967295
69.769318 55.203083 -8.3490992 4294967295
69.774483 54.548691 -8.2616491 4294967295
69.789024 51.561619 -8.463747 4294967295
69.793571 54.717098 -8.2158947 4294967295
69.804909 55.867237 -8.3013077 4294967295
69.806541 56.359364 -8.3485889 4294967295
69.841492 52.392532 -8.3775616 4294967295
69.874519 53.219383 -8.3558836 4294967295
69.877892 49.941704 -7.9931855 4294967295
69.879433 51.089645 -8.1111355 4294967295
69.88591 54.041416 -8.4059696 4294967295
69.905022 50.728706 -8.5573902 4294967295
69.920486 50.404346 -8.4709997 4294967295
69.945496 49.754185 -8.3178473 4294967295
69.946045 53.727501 -8.1714249 4294967295
69.950729 56.18734 -8.4194632 4294967295
69.962044 53.403275 -8.0832376 4294967295
69.963959 50.905231 -8.3796043 4294967295
69.966011 54.223949 -8.1579552 4294967295
69.968697 52.872513 -8.5746765 4294967295
69.972107 54.717205 -8.1904755 4294967295
69.984863 50.25415 -8.2400599 4294967295
69.985245 51.40147 -8.361763 4294967295
69.993134 51.730957 -8.3707542 4294967295
69.996567 51.240047 -8.306673 4294967295
69.999741 55.707439 -8.2043142 4294967295
70.00322 53.208031 -8.49541 4294967295
70.00544 52.225315 -8.3826799 4294967295
70.007294 55.053425 -8.1089792 4294967295
70.012657 56.366344 -8.2317877 4294967295
70.020042 53.5396 -8.4747896 4294967295
70.022423 52.392986 -8.3439751 4294967295
70.054184 54.858486 -8.5021944 4294967295
70.057541 51.581173 -8.1397476 4294967295
70.060402 50.598099 -8.0248222 4294967295
70.060951 54.53233 -8.4446487 4294967295
70.067955 56.008827 -8.5794888 4294967295
70.071724 54.207062 -8.3738508 4294967295
70.085968 55.357666 -8.4496021 4294967295
70.097473 56.671482 -8.5519791 4294967295
70.119499 55.693493 -8.3736877 4294967295
70.124039 54.383175 -8.2181215 4294967295
70.126648 53.072147 -8.0689116 4294967295
70.149162 52.749271 -7.9591699 4294967295
70.166573 55.540859 -8.2002401 4294967295
70.188828 51.734581 -8.2883224 4294967295
70.201141 52.229031 -8.3002234 4294967295
70.204567 53.868755 -8.4644918 4294967295
70.26815 51.260052 -7.9729776 4294967295
70.272583 49.747288 -8.365695 4294967295
70.276466 50.567486 -8.4406185 4294967295
70.286385 56.346516 -8.4571295 4294967295
70.294846 52.741802 -8.0427389 4294967295
70.303719 53.563694 -8.1012049 4294967295
70.312355 51.06683 -8.374567 4294967295
70.31575 50.084145 -8.2579632 4294967295
70.317451 54.714642 -8.1787395 4294967295
70.328262 50.414623 -8.2516832 4294967295
70.331375 55.537735 -8.22048 4294967295
70.337685 53.407471 -7.9712071 4294967295
70.34198 54.556423 -8.0799809 4294967295
70.35704 55.871826 -8.1706963 4294967295
70.358643 54.027027 -8.5374584 4294967295
70.36171 52.38884 -8.351759 4294967295
70.365891 50.750511 -8.1623259 4294967295
70.369904 51.243195 -8.2017326 4294967295
70.384262 51.902073 -8.2244921 4294967295
70.384895 53.213593 -8.3628721 4294967295
70.390442 53.706581 -8.397191 4294967295
70.3927 55.018246 -8.5301638 4294967295
70.395645 51.576683 -8.1517086 4294967295
70.400009 52.233433 -8.2075157 4294967295
70.413414 49.940735 -7.9172525 4294967295
70.421265 55.844482 -8.5234919 4294967295
70.425301 54.370296 -8.3521538 4294967295
70.429703 50.070248 -8.4459715 4294967295
70.438156 53.061733 -8.1691818 4294967295
70.438484 52.569916 -8.1153965 4294967295
70.455635 51.425789 -7.9357047 4294967295
70.457642 50.731689 -8.4238262 4294967295
70.466873 49.914169 -8.3055315 4294967295
70.469551 54.216652 -8.1882792 4294967295
70.496147 55.20668 -8.2057095 4294967295
70.50721 53.8974 -8.0286388 4294967295
70.509346 51.890163 -8.3758163 4294967295
70.510521 52.054329 -8.3894768 4294967295
70.559746 56.205837 -8.1008453 4294967295
70.592705 51.088589 -8.0125046 4294967295
70.59346 55.187542 -8.4489326 4294967295
70.609787 53.715958 -8.2370129 4294967295
70.626724 55.03149 -8.321497 4294967295
70.633385 51.38641 -8.4777174 4294967295
70.63382 56.180725 -8.420927 4294967295
70.634171 53.065628 -8.0862141 4294967295
70.638397 56.509686 -8.4409084 4294967295
70.646896 55.692066 -8.3251009 4294967295
70.64801 53.560741 -8.0931692 4294967295
70.650665 51.881844 -8.4732914 4294967295
70.655739 56.022091 -8.3310013 4294967295
70.656654 54.382664 -8.1524105 4294967295
70.656769 51.227589 -8.3829489 4294967295
70.664619 52.048805 -8.4447641 4294967295
70.674561 50.903591 -8.2890787 4294967295
70.676666 50.084354 -8.1943665 4294967295
70.680656 52.707958 -8.4620008 4294967295
70.686188 54.225533 -8.0372963 4294967295
70.704674 52.549419 -8.3651714 4294967295
70.709351 56.690983 -8.2241573 4294967295
70.709747 49.927338 -8.0675287 4294967295
70.729721 49.767529 -7.9839935 4294967295
70.7332 51.080154 -8.1129999 4294967295
70.74675 55.017788 -8.4894991 4294967295
70.770905 50.596245 -7.9357824 4294967295
70.780113 52.894226 -8.1512012 4294967295
70.809258 51.58865 -7.9145026 4294967295
70.817642 53.722679 -8.1150961 4294967295
70.828957 51.756992 -7.8670306 4294967295
70.832108 52.249805 -7.9093075 4294967295
70.839142 56.187424 -8.3074274 4294967295
70.843842 50.40955 -8.2416573 4294967295
70.856804 51.723831 -8.3392887 4294967295
70.857117 53.567696 -7.9672451 4294967295
70.866875 51.398155 -8.2709503 4294967295
70.900909 53.372982 -8.369257 4294967295
70.926079 55.673759 -8.5318661 4294967295
70.951469 55.188026 -8.3955164 4294967295
70.960258 53.058498 -8.1384087 4294967295
70.96418 55.846817 -8.4237833 4294967295
70.966217 52.403831 -8.0485325 4294967295
70.971497 54.536907 -8.2592964 4294967295
70.974876 52.077713 -7.9848771 4294967295
70.976379 54.046104 -8.1905603 4294967295
70.977692 53.554436 -8.1335592 4294967295
70.979477 55.522579 -8.3382721 4294967295
70.981049 53.719196 -8.1400499 4294967295
70.994316 54.870209 -8.2191381 4294967295
70.994484 50.403358 -8.3083954 4294967295
71.002052 52.575832 -7.9478817 4294967295
71.004425 56.184422 -8.3261929 4294967295
71.00705 51.881397 -8.4248581 4294967295
71.009125 49.9146 -8.2074738 4294967295
71.024132 50.081707 -8.1755495 4294967295
71.032455 52.378769 -8.3937416 4294967295
71.034668 56.519711 -8.2615995 4294967295
71.046135 51.726021 -8.2784853 4294967295
71.098511 50.917439 -8.0180788 4294967295
71.113083 52.23267 -8.1104517 4294967295
71.11512 51.413067 -8.0160007 4294967295
71.119408 54.857738 -8.3703289 4294967295
71.120461 56.661285 -8.5597801 4294967295
71.122963 51.086712 -7.9550185 4294967295
71.124756 55.350853 -8.4053345 4294967295
71.127846 49.775372 -7.7984653 4294967295
71.16906 55.03339 -8.2243013 4294967295
71.187706 52.045639 -8.410182 4294967295
71.215309 53.075668 -7.8613243 4294967295
71.230118 51.071114 -8.1652813 4294967295
71.240662 55.706451 -8.0586367 4294967295
71.242897 54.189201 -8.4564466 4294967295
71.266693 50.094818 -7.9395199 4294967295
71.273445 54.360222 -8.3734379 4294967295
71.279129 55.509193 -8.4774733 4294967295
71.293831 52.88905 -8.1484613 4294967295
71.302536 56.662395 -8.5231695 4294967295
71.31102 55.352814 -8.3549709 4294967295
71.311768 55.189022 -8.3349657 4294967295
71.312782 53.71336 -8.1737757 4294967295
71.324059 50.724842 -8.3836155 4294967295
71.324394 55.683941 -8.3460398 4294967295
71.324944 53.552124 -8.1161823 4294967295
71.3265 56.01239 -8.3741665 4294967295
71.333214 51.382534 -8.4236126 4294967295
71.334442 50.399158 -8.3143797 4294967295
71.337509 51.258274 -7.8291302 4294967295
71.338242 54.703274 -8.1952076 4294967295
71.35321 53.066422 -7.9704871 4294967295
71.360771 52.575939 -7.8929324 4294967295
71.384842 54.550117 -8.0242739 4294967295
71.38765 53.894539 -7.9448628 4294967295
71.391411 56.520065 -8.2131786 4294967295
71.410599 55.868576 -8.0798855 4294967295
71.413017 50.251747 -8.0382318 4294967295
71.417343 49.924603 -7.9888997 4294967295
71.420082 51.565338 -8.1553211 4294967295
71.425667 56.364346 -8.0829306 4294967295
71.429161 55.010754 -8.4936943 4294967295
71.435654 52.060749 -8.1567011 4294967295
71.442947 52.390362 -8.1678019 4294967295
71.444855 51.898758 -8.1088915 4294967295
71.456688 53.213444 -8.2102804 4294967295
71.476013 49.735298 -8.3407221 4294967295
71.477623 54.202209 -8.2466583 4294967295
71.481514 53.383068 -8.146162 4294967295
71.484375 50.228882 -8.3658247 4294967295
71.521317 52.040176 -8.4371967 4294967295
71.524223 51.876873 -8.41012 4294967295
71.534027 52.534805 -8.448 4294967295
71.53933 53.027802 -8.4831524 4294967295
71.553291 50.899357 -8.209341 4294967295
71.577896 53.364399 -8.3914633 4294967295
71.578056 51.068657 -8.1454697 4294967295
71.605408 54.682404 -8.4412727 4294967295
71.633873 53.54108 -8.2250433 4294967295
71.639191 56.166035 -8.488039 4294967295
71.646812 52.7239 -8.0948286 4294967295
71.648506 50.427475 -7.8436756 4294967295
71.653801 55.349663 -8.3523998 4294967295
71.654716 50.75695 -7.8583317 4294967295
71.654747 54.85791 -8.2966957 4294967295
71.667168 55.188828 -8.2909431 4294967295
71.684219 56.504871 -8.3751869 4294967295
71.688011 56.013798 -8.3101234 4294967295
71.697624 50.071873 -8.2091751 4294967295
71.704735 50.565334 -8.2384253 4294967295
71.707748 55.690491 -8.2102385 4294967295
71.725174 52.045574 -8.329051 4294967295
71.749611 51.88694 -8.2312727 4294967295
71.753448 51.067726 -8.1309938 4294967295
71.757614 53.364613 -8.3627443 4294967295
71.760773 56.35939 -8.1061869 4294967295
71.766129 53.038567 -8.2997303 4294967295
71.770668 49.759041 -7.9341211 4294967295
71.781136 51.401737 -8.0751286 4294967295
71.801888 55.670513 -8.4627333 4294967295
71.803345 52.390808 -8.1073914 4294967295
71.818092 50.261166 -7.8309608 4294967295
71.827934 51.57592 -7.9389491 4294967295
71.847954 54.533348 -8.1888475 4294967295
71.848747 53.713337 -8.0985603 4294967295
71.871353 52.569939 -7.9015865 4294967295
71.88237 54.213215 -8.0407877 4294967295
71.89312 53.887531 -7.9704294 4294967295
71.917694 53.196404 -8.3810282 4294967295
71.92157 50.901203 -8.1229296 4294967295
71.927948 53.854637 -8.4174747 4294967295
71.936607 56.687042 -8.1257439 4294967295
71.969788 55.012196 -8.4028931 4294967295
71.978844 54.194302 -8.2855759 4294967295
71.983231 49.92981 -7.8153348 4294967295
72.00631 55.840813 -8.3707161 4294967295
72.006882 55.512936 -8.3338079 4294967295
72.012932 54.858288 -8.2438498 4294967295
72.013443 52.397621 -7.9792409 4294967295
72.033951 53.550732 -8.0346861 4294967295
72.041435 50.888416 -8.2906923 4294967295
72.043251 54.373199 -8.0918274 4294967295
72.046722 51.748528 -7.7998896 4294967295
72.051537 50.234539 -8.1874666 4294967295
72.052452 49.742668 -8.1318874 4294967295
72.05648 51.547619 -8.3114395 4294967295
72.062271 52.900749 -7.8716512 4294967295
72.065353 52.205517 -8.3524284 4294967295
72.067917 50.402 -8.1512785 4294967295
72.073814 55.200668 -8.0792437 4294967295
72.080536 52.70084 -8.3552217 4294967295
72.086464 51.226067 -8.1780844 4294967295
72.087242 54.055161 -7.9124722 4294967295
72.095284 56.026138 -8.0964756 4294967295
72.098457 56.519115 -8.1386547 4294967295
55.574867 57.626938 -10.68905 4294967295
55.587494 57.793018 -10.661805 4294967295
55.832718 60.578201 -10.693072 4294967295
55.850838 60.908787 -10.664122 4294967295
55.943832 56.981483 -10.507125 4294967295
55.944248 57.632389 -10.576998 4294967295
55.957603 58.449486 -10.618582 4294967295
56.084465 57.135033 -10.626103 4294967295
56.117313 58.770802 -10.687438 4294967295
56.119167 57.795158 -10.573851 4294967295
56.187378 60.254757 -10.59847 4294967295
56.208321 61.237064 -10.63091 4294967295
56.264706 57.46188 -10.621832 4294967295
56.271687 56.975636 -10.543511 4294967295
56.289165 58.282017 -10.623952 4294967295
56.330868 60.083363 -10.671696 4294967295
56.362076 60.743118 -10.632021 4294967295
56.421932 62.876072 -10.650908 4294967295
56.431286 57.13427 -10.594949 4294967295
56.450401 58.441078 -10.66958 4294967295
56.531811 60.253727 -10.576333 4294967295
56.533787 60.742485 -10.622771 4294967295
56.63913 56.817554 -10.421567 4294967295
56.790157 57.136692 -10.521381 4294967295
56.807556 58.117832 -10.566551 4294967295
56.808022 63.864464 -10.588318 4294967295
56.871429 60.414051 -10.589395 4294967295
56.902905 61.562389 -10.60248 4294967295
56.910019 56.959312 -10.678138 4294967295
56.95734 57.785603 -10.599463 4294967295
56.963676 57.461819 -10.54138 4294967295
57.025658 60.571148 -10.66012 4294967295
57.031982 59.270866 -10.495241 4294967295
57.059753 61.394703 -10.628361 4294967295
57.063992 62.046944 -10.684567 4294967295
57.072491 62.374939 -10.69008 4294967295
57.098701 62.870983 -10.650668 4294967295
57.104523 57.615437 -10.659329 4294967295
57.122356 58.271183 -10.667402 4294967295
57.13937 63.371494 -10.560081 4294967295
57.154541 59.256454 -10.660275 4294967295
57.199703 59.594563 -10.536026 4294967295
57.208817 59.759895 -10.521564 4294967295
57.220345 60.414265 -10.551986 4294967295
57.249298 61.562035 -10.574139 4294967295
57.259495 57.284653 -10.673779 4294967295
57.265034 56.797905 -10.600787 4294967295
57.329411 58.768314 -10.586666 4294967295
57.37949 60.735554 -10.623154 4294967295
57.401318 60.41621 -10.510378 4294967295
57.416321 62.211166 -10.653117 4294967295
57.473442 57.783375 -10.568748 4294967295
57.490116 56.973896 -10.420816 4294967295
57.492558 58.765182 -10.607967 4294967295
57.520294 59.58672 -10.598943 4294967295
57.543957 60.570045 -10.622117 4294967295
57.585178 62.372524 -10.672231 4294967295
57.600922 57.119652 -10.644814 4294967295
57.652584 59.08672 -10.675886 4294967295
57.658207 63.045391 -10.485533 4294967295
57.672611 56.975845 -10.373871 4294967295
57.676426 58.116554 -10.484982 4294967295
57.688213 57.468468 -10.372173 4294967295
57.692123 60.399899 -10.678638 4294967295
57.72123 58.454365 -10.362395 4294967295
57.725651 61.386139 -10.667045 4294967295
57.756512 62.534622 -10.682659 4294967295
57.798492 57.28841 -10.562368 4294967295
57.810684 63.853168 -10.633861 4294967295
57.81916 56.805481 -10.43609 4294967295
57.829041 57.622154 -10.490191 4294967295
57.82943 58.59903 -10.595549 4294967295
57.833675 58.274605 -10.545006 4294967295
57.837711 59.740761 -10.690832 4294967295
57.865711 59.911381 -10.609888 4294967295
57.887108 60.568596 -10.605589 4294967295
57.891678 58.778877 -10.393805 4294967295
57.896633 61.385288 -10.660926 4294967295
57.933704 62.21006 -10.619165 4294967295
57.943027 62.701221 -10.639644 4294967295
58.006432 59.413631 -10.657032 4294967295
58.05508 57.798679 -10.307775 4294967295
