# .PCD v0.7 - Point Cloud Data file format
VERSION 0.7
FIELDS x y z rgb
SIZE 4 4 4 4
TYPE F F F U
COUNT 1 1 1 1
WIDTH 1120
HEIGHT 1
VIEWPOINT 0 0 0 1 0 0 0
POINTS 1120
DATA ascii
-38.197754 18.780968 -22.937572 4294967295
-38.197044 21.260931 -23.300438 4294967295
-38.188683 20.177238 -23.076962 4294967295
-38.187786 20.487347 -23.116283 4294967295
-38.179451 19.868357 -22.961985 4294967295
-38.173592 21.574169 -23.17137 4294967295
-38.163677 19.56016 -22.798155 4294967295
-38.158978 21.111235 -22.993231 4294967295
-38.152157 20.802097 -22.896271 4294967295
-38.140789 21.733912 -22.949514 4294967295
-38.089886 15.206867 -22.771114 4294967295
-38.084297 15.982723 -22.844442 4294967295
-38.078392 16.293344 -22.846416 4294967295
-38.064514 14.898245 -22.535738 4294967295
-38.047138 21.257053 -23.349123 4294967295
-38.039944 16.916964 -22.651617 4294967295
-38.035767 19.243641 -22.965521 4294967295
-38.033714 19.553953 -22.996212 4294967295
-38.014069 18.160419 -22.642715 4294967295
-38.00367 21.728148 -23.094173 4294967295
-37.985184 20.490349 -22.772463 4294967295
-37.939461 15.823563 -22.908062 4294967295
-37.934978 15.513719 -22.828714 4294967295
-37.932255 17.219622 -23.061222 4294967295
-37.927727 14.893747 -22.682732 4294967295
-37.926857 16.134674 -22.860163 4294967295
-37.902493 17.53248 -22.885609 4294967295
-37.897373 19.083481 -23.077276 4294967295
-37.891716 16.602823 -22.667454 4294967295
-37.891045 18.619072 -22.961252 4294967295
-37.889465 15.982419 -22.558727 4294967295
-37.888462 17.843992 -22.827114 4294967295
-37.888424 19.394556 -23.056622 4294967295
-37.886467 18.154356 -22.858252 4294967295
-37.883774 15.362117 -22.424326 4294967295
-37.881905 15.051833 -22.364393 4294967295
-37.880383 20.015604 -23.088667 4294967295
-37.880276 17.069204 -22.651234 4294967295
-37.87569 20.171207 -23.076731 4294967295
-37.875198 17.379929 -22.659437 4294967295
-37.871166 20.481817 -23.089031 4294967295
-37.864628 17.691196 -22.626703 4294967295
-37.86245 19.862782 -22.932278 4294967295
-37.859749 18.777542 -22.751326 4294967295
-37.851849 21.569519 -23.106115 4294967295
-37.844753 19.709858 -22.777636 4294967295
-37.844734 20.330185 -22.869421 4294967295
-37.84391 21.260601 -23.001139 4294967295
-37.843876 20.795479 -22.931965 4294967295
-37.834209 20.641697 -22.837063 4294967295
-37.827137 21.107868 -22.853392 4294967295
-37.82296 21.418587 -22.868282 4294967295
-37.819931 21.729143 -22.891722 4294967295
-37.776283 15.200418 -22.766262 4294967295
-37.762703 17.372713 -22.986799 4294967295
-37.757595 16.752872 -22.857012 4294967295
-37.749043 16.908703 -22.816414 4294967295
-37.738518 16.133938 -22.623344 4294967295
-37.716095 19.083212 -22.893093 4294967295
-37.701645 18.154123 -22.647963 4294967295
-37.679447 21.723871 -23.01119 4294967295
-37.612446 16.903811 -22.964174 4294967295
-37.604553 14.887857 -22.607313 4294967295
-37.601852 18.14525 -23.069092 4294967295
-37.601685 15.663816 -22.700788 4294967295
-37.601173 15.818992 -22.719952 4294967295
-37.600113 17.215052 -22.918581 4294967295
-37.597389 16.439789 -22.783653 4294967295
-37.593517 15.509243 -22.617222 4294967295
-37.589169 18.92178 -23.089705 4294967295
-37.585949 18.612045 -23.019974 4294967295
-37.583729 15.354743 -22.521641 4294967295
-37.58271 17.992113 -22.904213 4294967295
-37.581066 15.975639 -22.593708 4294967295
-37.580959 16.596264 -22.684727 4294967295
-37.578182 19.233089 -23.054127 4294967295
-37.569382 16.131704 -22.529972 4294967295
-37.565865 19.079433 -22.939878 4294967295
-37.564014 19.854931 -23.040827 4294967295
-37.55814 18.459915 -22.790838 4294967295
-37.557758 16.753366 -22.535583 4294967295
-37.556698 18.770279 -22.826036 4294967295
-37.551514 18.305487 -22.718761 4294967295
-37.551334 17.529785 -22.602692 4294967295
-37.550087 19.54648 -22.891726 4294967295
-37.538692 20.013103 -22.87607 4294967295
-37.533966 20.478937 -22.909851 4294967295
-37.533268 21.409363 -23.042276 4294967295
-37.532066 20.324102 -22.872858 4294967295
-37.520351 21.101044 -22.900707 4294967295
-37.42915 17.523417 -22.857443 4294967295
-37.420761 20.470335 -23.230709 4294967295
-37.408092 21.711962 -23.320234 4294967295
-37.406254 20.93726 -23.192129 4294967295
-37.405376 16.905008 -22.589754 4294967295
-37.374271 21.25169 -23.001389 4294967295
-37.365082 21.563093 -22.979239 4294967295
-37.345654 20.324884 -22.652205 4294967295
-37.284153 18.294563 -23.057285 4294967295
-37.28326 16.743748 -22.821707 4294967295
-37.278347 16.89929 -22.808289 4294967295
-37.274815 16.27902 -22.690556 4294967295
-37.27446 14.882385 -22.481716 4294967295
-37.274361 17.675215 -22.893354 4294967295
-37.274082 15.658398 -22.593489 4294967295
-37.269154 15.969119 -22.602892 4294967295
-37.261505 15.193649 -22.43177 4294967295
-37.261177 20.467726 -23.20805 4294967295
-37.258331 18.142109 -22.843636 4294967295
-37.255295 19.538223 -23.027292 4294967295
-37.255119 17.987312 -22.79701 4294967295
-37.254898 16.125391 -22.520454 4294967295
-37.244503 20.004711 -23.016247 4294967295
-37.243011 18.609049 -22.799181 4294967295
-37.240898 18.764397 -22.806465 4294967295
-37.240559 19.695044 -22.941334 4294967295
-37.235836 20.781097 -23.066711 4294967295
-37.230865 17.524181 -22.549082 4294967295
-37.224453 19.076468 -22.730785 4294967295
-37.222702 20.317593 -22.901064 4294967295
-37.220135 18.45632 -22.607273 4294967295
-37.219879 17.369997 -22.444994 4294967295
-37.214687 18.922403 -22.635767 4294967295
-37.205776 20.629972 -22.821882 4294967295
-37.202862 21.405853 -22.914862 4294967295
-37.198284 21.251398 -22.858173 4294967295
-37.196068 19.855522 -22.635696 4294967295
-37.195992 21.716997 -22.909935 4294967295
-37.18449 20.943041 -22.710535 4294967295
-37.142773 15.03275 -22.688486 4294967295
-37.139889 15.963861 -22.804564 4294967295
-37.112961 18.758213 -23.017803 4294967295
-37.101738 20.310064 -23.163773 4294967295
-37.097084 16.898241 -22.626123 4294967295
-37.072857 21.089075 -23.065275 4294967295
-37.070358 16.745308 -22.406096 4294967295
-37.068352 19.848982 -22.849068 4294967295
-37.063656 17.98764 -22.539818 4294967295
-37.059944 21.55604 -23.038731 4294967295
-36.984238 15.495127 -22.742643 4294967295
-36.954342 18.600262 -22.979811 4294967295
-36.9538 17.204235 -22.770065 4294967295
-36.953499 15.807672 -22.562019 4294967295
-36.95224 17.980053 -22.87291 4294967295
-36.948277 15.652835 -22.500687 4294967295
-36.946098 15.187288 -22.416014 4294967295
-36.944656 19.066589 -22.9771 4294967295
-36.942295 18.756651 -22.913996 4294967295
-36.94146 17.050165 -22.656359 4294967295
-36.940372 17.670927 -22.739832 4294967295
-36.94006 18.291529 -22.828966 4294967295
-36.936897 16.740181 -22.577015 4294967295
-36.936245 19.998055 -23.05232 4294967295
-36.933304 21.083788 -23.190605 4294967295
-36.932888 17.36129 -22.638983 4294967295
-36.931335 17.516611 -22.650444 4294967295
-36.92141 17.827915 -22.623106 4294967295
-36.909218 20.77689 -22.967772 4294967295
-36.906174 20.622194 -22.92251 4294967295
-36.898319 21.39871 -22.979004 4294967295
-36.894997 19.692812 -22.703138 4294967295
-36.893242 18.451534 -22.507286 4294967295
-36.886974 19.538591 -22.621252 4294967295
-36.885471 21.24539 -22.861673 4294967295
-36.880779 21.711372 -22.895729 4294967295
-36.876919 20.315678 -22.661608 4294967295
-36.868736 20.471891 -22.624279 4294967295
-36.842274 14.870272 -22.758726 4294967295
-36.823402 15.802523 -22.757082 4294967295
-36.822803 16.888563 -22.91259 4294967295
-36.812767 16.423975 -22.770308 4294967295
-36.809898 16.73452 -22.794905 4294967295
-36.789043 15.028809 -22.390211 4294967295
-36.767078 15.340784 -22.274485 4294967295
-36.763885 18.135241 -22.662451 4294967295
-36.75967 21.548302 -23.133884 4294967295
-36.73951 19.844788 -22.734718 4294967295
-36.73753 19.379517 -22.651621 4294967295
-36.733349 20.311007 -22.758007 4294967295
-36.704678 20.935383 -22.638874 4294967295
-36.678032 15.177839 -22.748163 4294967295
-36.631271 14.870349 -22.359339 4294967295
-36.620289 16.734097 -22.552837 4294967295
-36.620106 18.906578 -22.871056 4294967295
-36.615822 16.11351 -22.428709 4294967295
-36.605782 20.304327 -22.971411 4294967295
-36.603962 21.235088 -23.094952 4294967295
-36.598988 16.270071 -22.328049 4294967295
-36.598942 20.615408 -22.966927 4294967295
-36.597652 17.512213 -22.500986 4294967295
-36.596558 18.598785 -22.652781 4294967295
-36.596508 19.529812 -22.78937 4294967295
-36.593636 17.97827 -22.540028 4294967295
-36.591045 20.926657 -22.954678 4294967295
-36.585835 19.220703 -22.665472 4294967295
-36.5849 18.134359 -22.498795 4294967295
-36.576004 21.394033 -22.912888 4294967295
-36.559391 20.154972 -22.608591 4294967295
-36.556767 21.706991 -22.817581 4294967295
-36.55418 19.689976 -22.501926 4294967295
-36.553207 20.466139 -22.60894 4294967295
-36.541958 21.088387 -22.617788 4294967295
-36.5415 20.778053 -22.568781 4294967295
-36.508148 15.951405 -22.764929 4294967295
-36.470284 17.195974 -22.670162 4294967295
-36.462284 17.041471 -22.588797 4294967295
-36.461563 14.867878 -22.264021 4294967295
-36.460976 17.352011 -22.624836 4294967295
-36.458275 18.438585 -22.76473 4294967295
-36.456036 16.421053 -22.451765 4294967295
-36.450085 18.284246 -22.681965 4294967295
-36.434258 21.389 -23.022139 4294967295
-36.43404 19.992916 -22.815407 4294967295
-36.420101 21.080704 -22.873028 4294967295
-36.373894 21.707754 -22.62628 4294967295
-36.340702 16.880095 -22.822578 4294967295
-36.323391 15.795031 -22.536539 4294967295
-36.323334 19.053734 -23.014612 4294967295
-36.317493 19.209499 -22.994732 4294967295
-36.304256 15.330555 -22.328255 4294967295
-36.300377 18.901117 -22.824163 4294967295
-36.299221 17.038857 -22.54225 4294967295
-36.297215 16.573284 -22.459187 4294967295
-36.294014 17.505016 -22.572598 4294967295
-36.293827 18.281094 -22.685169 4294967295
-36.291142 15.486744 -22.255178 4294967295
-36.287388 18.436951 -22.660934 4294967295
-36.286938 20.29899 -22.931017 4294967295
-36.286472 21.384808 -23.087009 4294967295
-36.286209 17.816206 -22.561142 4294967295
-36.285122 20.454348 -22.940536 4294967295
-36.284679 18.126804 -22.595549 4294967295
-36.277336 17.351295 -22.427919 4294967295
-36.269444 19.370104 -22.666582 4294967295
-36.268417 19.990973 -22.750217 4294967295
-36.267944 21.232243 -22.928993 4294967295
-36.26231 19.526127 -22.637255 4294967295
-36.258789 20.923189 -22.816593 4294967295
-36.251797 19.837784 -22.606056 4294967295
-36.23737 20.149977 -22.546286 4294967295
-36.236542 21.546879 -22.745319 4294967295
-36.236477 21.702057 -22.767609 4294967295
-36.206532 14.85778 -22.690592 4294967295
-36.200375 15.944567 -22.805046 4294967295
-36.191307 15.63483 -22.69334 4294967295
-36.170074 15.791563 -22.561195 4294967295
-36.167408 16.412693 -22.632841 4294967295
-36.166553 17.188803 -22.740473 4294967295
-36.161022 15.326411 -22.426834 4294967295
-36.157169 16.10301 -22.512619 4294967295
-36.15564 15.016183 -22.341991 4294967295
-36.147167 19.983635 -23.008799 4294967295
-36.145973 19.363251 -22.909071 4294967295
-36.13797 20.760347 -23.055548 4294967295
-36.127155 21.692392 -23.113234 4294967295
-36.125057 18.744854 -22.665545 4294967295
-36.1208 16.571692 -22.315619 4294967295
-36.114048 19.522091 -22.69912 4294967295
-36.041451 15.165482 -22.674725 4294967295
-36.020241 16.253527 -22.679527 4294967295
-36.018364 16.87451 -22.756853 4294967295
-36.011967 16.719839 -22.687532 4294967295
-36.004242 18.73794 -22.926977 4294967295
-36.002602 17.651897 -22.755833 4294967295
-35.981453 20.602217 -23.034002 4294967295
-35.97934 15.946088 -22.336164 4294967295
-35.978142 16.10148 -22.350204 4294967295
-35.978027 17.964666 -22.622461 4294967295
-35.974316 20.758261 -23.004812 4294967295
-35.974152 21.06852 -23.049059 4294967295
-35.972706 19.982758 -22.879423 4294967295
-35.968014 20.138491 -22.868011 4294967295
-35.96637 18.897188 -22.674109 4294967295
-35.961479 21.69071 -23.047815 4294967295
-35.960564 19.363459 -22.700089 4294967295
-35.959923 21.535812 -23.013781 4294967295
-35.950569 19.20937 -22.604631 4294967295
-35.950203 18.277922 -22.465435 4294967295
-35.946491 20.451523 -22.756922 4294967295
-35.94318 17.346844 -22.277742 4294967295
-35.933933 21.229088 -22.779272 4294967295
-35.913517 20.300446 -22.494291 4294967295
-35.854401 16.406267 -22.63583 4294967295
-35.853745 17.18243 -22.744709 4294967295
-35.851692 17.958588 -22.84343 4294967295
-35.849995 15.009168 -22.399132 4294967295
-35.849922 17.493183 -22.762392 4294967295
-35.840366 18.580442 -22.852026 4294967295
-35.838539 17.02853 -22.611479 4294967295
-35.836826 15.631235 -22.394377 4294967295
-35.835152 15.165418 -22.313974 4294967295
-35.833527 19.667326 -22.961386 4294967295
-35.830658 14.855038 -22.235813 4294967295
-35.819847 17.340679 -22.521103 4294967295
-35.819687 20.599865 -22.997179 4294967295
-35.819046 16.719646 -22.424339 4294967295
-35.814556 15.788125 -22.255247 4294967295
-35.804337 20.912144 -22.931143 4294967295
-35.795582 18.895622 -22.572161 4294967295
-35.78838 21.534914 -22.906176 4294967295
-35.785637 17.65439 -22.318022 4294967295
-35.756519 19.986912 -22.447586 4294967295
-35.713959 15.15988 -22.572281 4294967295
-35.679192 17.491318 -22.660757 4294967295
-35.672413 18.268095 -22.725151 4294967295
-35.651173 18.580729 -22.616529 4294967295
-35.647526 19.822908 -22.771776 4294967295
-35.647408 15.940992 -22.202974 4294967295
-35.644104 18.891964 -22.61072 4294967295
-35.643066 17.960495 -22.4669 4294967295
-35.639225 21.530897 -22.961292 4294967295
-35.635517 20.910742 -22.843647 4294967295
-35.633369 20.600645 -22.782682 4294967295
-35.622898 20.136312 -22.63866 4294967295
-35.617069 21.068378 -22.73266 4294967295
-35.608788 19.982777 -22.513662 4294967295
-35.603485 19.672855 -22.42979 4294967295
-35.601627 20.759954 -22.575336 4294967295
-35.59795 21.226166 -22.616795 4294967295
-35.594364 21.692348 -22.658939 4294967295
-35.56205 15.466827 -22.652617 4294967295
-35.553116 15.77795 -22.633295 4294967295
-35.5494 14.846543 -22.470201 4294967295
-35.540909 17.02083 -22.726454 4294967295
-35.539322 16.710495 -22.66958 4294967295
-35.538975 16.244768 -22.598972 4294967295
-35.538437 16.089544 -22.572392 4294967295
-35.526981 17.953428 -22.761747 4294967295
-35.524212 17.643242 -22.696314 4294967295
-35.523121 17.177612 -22.620342 4294967295
-35.520832 18.109247 -22.739922 4294967295
-35.517868 15.314481 -22.309898 4294967295
-35.514339 15.625385 -22.329762 4294967295
-35.510983 20.438107 -23.008884 4294967295
-35.509323 16.557659 -22.429653 4294967295
-35.507927 16.86837 -22.464958 4294967295
-35.502094 19.352934 -22.78582 4294967295
-35.501007 18.887405 -22.709875 4294967295
-35.493717 18.267183 -22.566355 4294967295
-35.487869 20.130625 -22.796303 4294967295
-35.48777 17.491331 -22.409805 4294967295
-35.483437 19.66551 -22.696178 4294967295
-35.476681 19.200552 -22.579218 4294967295
-35.454609 21.686996 -22.782526 4294967295
-35.352516 15.001061 -22.202806 4294967295
-35.337662 16.24497 -22.27696 4294967295
-35.332115 16.711445 -22.304932 4294967295
-35.327526 16.867168 -22.294456 4294967295
-35.320461 18.576307 -22.492891 4294967295
-35.317245 17.800091 -22.356277 4294967295
-35.311333 17.645311 -22.290842 4294967295
-35.30267 21.528154 -22.79513 4294967295
-35.299591 19.19973 -22.432835 4294967295
-35.296818 20.287041 -22.571537 4294967295
-35.293579 19.976887 -22.502821 4294967295
-35.290199 21.685102 -22.727755 4294967295
-35.287281 20.754038 -22.570686 4294967295
-35.285511 20.443722 -22.512558 4294967295
-35.280293 21.220743 -22.58824 4294967295
-35.269634 21.377451 -22.533958 4294967295
-35.235947 15.461194 -22.561556 4294967295
-35.217819 18.412395 -22.861193 4294967295
-35.217304 17.015352 -22.653608 4294967295
-35.216946 14.99648 -22.356426 4294967295
-35.213177 15.618052 -22.419889 4294967295
-35.210438 15.152231 -22.332138 4294967295
-35.205883 17.171606 -22.593895 4294967295
-35.205715 14.841811 -22.252708 4294967295
-35.199024 17.638039 -22.612389 4294967295
-35.19619 15.774574 -22.319994 4294967295
-35.190334 16.085693 -22.323071 4294967295
-35.188648 18.104836 -22.605494 4294967295
-35.18816 16.551876 -22.375376 4294967295
-35.184246 19.036821 -22.709679 4294967295
-35.182423 19.657948 -22.787107 4294967295
-35.182373 20.589163 -22.922619 4294967295
-35.179108 21.675753 -23.057531 4294967295
-35.173748 16.708382 -22.294081 4294967295
-35.172989 21.211107 -22.945532 4294967295
-35.172535 19.348608 -22.670544 4294967295
-35.169991 20.125092 -22.765421 4294967295
-35.162926 19.815464 -22.669197 4294967295
-35.162334 16.39856 -22.166397 4294967295
-35.162258 20.902145 -22.822918 4294967295
-35.153557 17.797598 -22.307104 4294967295
-35.140316 19.50754 -22.460888 4294967295
-35.066673 17.16691 -22.720623 4294967295
-35.063118 16.39086 -22.58185 4294967295
-35.042686 15.926454 -22.366785 4294967295
-35.020145 19.034534 -22.657278 4294967295
-34.997421 18.881699 -22.471077 4294967295
-34.996243 21.521229 -22.847324 4294967295
-34.99498 17.794619 -22.29501 4294967295
-34.992859 18.416208 -22.370316 4294967295
-34.984734 20.125513 -22.560863 4294967295
-34.978676 19.815647 -22.472015 4294967295
-34.96064 21.215572 -22.545958 4294967295
-34.95084 20.595631 -22.384916 4294967295
-34.937523 14.832546 -22.580114 4294967295
-34.929203 15.45425 -22.610771 4294967295
-34.918762 16.697222 -22.716661 4294967295
-34.918156 15.610296 -22.553953 4294967295
-34.914639 16.076441 -22.596533 4294967295
-34.892166 16.544077 -22.502846 4294967295
-34.889977 15.146143 -22.283455 4294967295
-34.889172 17.476122 -22.61706 4294967295
-34.889038 18.562967 -22.774393 4294967295
-34.887932 17.942062 -22.675978 4294967295
-34.878204 16.389845 -22.37986 4294967295
-34.877682 15.768453 -22.28558 4294967295
-34.87394 14.991755 -22.14551 4294967295
-34.869194 16.235182 -22.292469 4294967295
-34.867733 19.030973 -22.689157 4294967295
-34.86586 17.167568 -22.404266 4294967295
-34.864681 19.186569 -22.689819 4294967295
-34.863747 20.273357 -22.841368 4294967295
-34.863518 18.09971 -22.523167 4294967295
-34.861797 17.012573 -22.352428 4294967295
-34.858513 20.429228 -22.826385 4294967295
-34.8536 21.205923 -22.904125 4294967295
-34.851498 20.895781 -22.843838 4294967295
-34.848568 19.498913 -22.619299 4294967295
-34.821548 19.346661 -22.402597 4294967295
-34.819279 18.725521 -22.29579 4294967295
-34.815353 20.745199 -22.561657 4294967295
-34.759998 16.849464 -22.725166 4294967295
-34.691956 16.544325 -22.191757 4294967295
-34.670567 20.274794 -22.580854 4294967295
-34.6689 19.653767 -22.478525 4294967295
-34.668736 17.634111 -22.183451 4294967295
-34.667099 18.877283 -22.352583 4294967295
-34.664341 20.430857 -22.558823 4294967295
-34.663433 21.517918 -22.710464 4294967295
-34.660271 19.965422 -22.461851 4294967295
-34.654747 18.723219 -22.241392 4294967295
-34.647312 21.054241 -22.527136 4294967295
-34.615135 15.292484 -22.584997 4294967295
-34.577312 14.828771 -22.24625 4294967295
-34.566769 17.625914 -22.577295 4294967295
-34.559402 15.451506 -22.208298 4294967295
-34.552666 15.762778 -22.205223 4294967295
-34.552475 15.918194 -22.226467 4294967295
-34.544849 19.646927 -22.713869 4294967295
-34.541206 17.006798 -22.303909 4294967295
-34.537304 18.250013 -22.456663 4294967295
-34.536598 19.337297 -22.609676 4294967295
-34.534737 17.784218 -22.370512 4294967295
-34.533733 17.318201 -22.295568 4294967295
-34.52594 18.56184 -22.420488 4294967295
-34.524788 16.697361 -22.141138 4294967295
-34.499168 19.030737 -22.2966 4294967295
-34.495922 20.739906 -22.521772 4294967295
-34.490398 19.497829 -22.301586 4294967295
-34.483486 21.362793 -22.523088 4294967295
-34.462875 14.822978 -22.55003 4294967295
-34.454983 15.910698 -22.651527 4294967295
-34.408024 16.846272 -22.451195 4294967295
-34.392311 17.158312 -22.383995 4294967295
-34.379311 19.800158 -22.67465 4294967295
-34.373943 20.266642 -22.703972 4294967295
-34.359539 21.200108 -22.736385 4294967295
-34.342819 19.338337 -22.346254 4294967295
-34.341282 19.959948 -22.425528 4294967295
-34.34029 21.357964 -22.621469 4294967295
-34.334583 20.737463 -22.490496 4294967295
-34.324253 20.428072 -22.371592 4294967295
-34.28825 15.752854 -22.558414 4294967295
-34.287048 15.131555 -22.459656 4294967295
-34.280907 16.685328 -22.641272 4294967295
-34.277733 15.442876 -22.438265 4294967295
-34.272461 14.82169 -22.310411 4294967295
-34.262463 16.37612 -22.464569 4294967295
-34.253414 18.085524 -22.64798 4294967295
-34.250229 16.998518 -22.46747 4294967295
-34.246632 15.911166 -22.283922 4294967295
-34.245327 17.309639 -22.477581 4294967295
-34.244804 18.862877 -22.699265 4294967295
-34.241577 16.222336 -22.292952 4294967295
-34.23624 15.290188 -22.11952 4294967295
-34.228745 18.709253 -22.56217 4294967295
-34.226765 19.796602 -22.705811 4294967295
-34.226349 16.534319 -22.229389 4294967295
-34.217556 20.884638 -22.79789 4294967295
-34.211296 19.021765 -22.482805 4294967295
-34.209778 20.1092 -22.629755 4294967295
-34.209141 21.040995 -22.760418 4294967295
-34.207405 16.846693 -22.139313 4294967295
-34.205673 17.468538 -22.217184 4294967295
-34.2048 17.779434 -22.256062 4294967295
-34.201393 19.644224 -22.502367 4294967295
-34.197361 18.557133 -22.315775 4294967295
-34.181053 19.49118 -22.334763 4294967295
-34.178051 21.200382 -22.561321 4294967295
-34.099312 18.392729 -22.712978 4294967295
-34.096741 17.771742 -22.604584 4294967295
-34.09634 15.752066 -22.308857 4294967295
-34.079536 19.326576 -22.707294 4294967295
-34.072063 20.414404 -22.811691 4294967295
-34.035076 21.661421 -22.728592 4294967295
-34.015354 20.576765 -22.430632 4294967295
-34.00951 21.354273 -22.501635 4294967295
-34.008709 21.043684 -22.450893 4294967295
-33.948013 16.214386 -22.437782 4294967295
-33.939716 16.991886 -22.491335 4294967295
-33.936977 16.059814 -22.336792 4294967295
-33.925617 14.972545 -22.098356 4294967295
-33.924213 15.594448 -22.178452 4294967295
-33.919174 18.391939 -22.547894 4294967295
-33.915745 18.081572 -22.478498 4294967295
-33.915215 17.460125 -22.38468 4294967295
-33.911907 16.372528 -22.203564 4294967295
-33.907253 15.284639 -22.012787 4294967295
-33.90472 21.654802 -22.917597 4294967295
-33.903381 18.704248 -22.480661 4294967295
-33.903103 16.52865 -22.163475 4294967295
-33.897346 17.150871 -22.212614 4294967295
-33.895943 19.637144 -22.56282 4294967295
-33.890434 21.346218 -22.771166 4294967295
-33.888897 16.840693 -22.107513 4294967295
-33.888561 18.861164 -22.397844 4294967295
-33.886345 20.104275 -22.562136 4294967295
-33.88327 17.618416 -22.18012 4294967295
-33.878498 18.240585 -22.236265 4294967295
-33.874756 19.794935 -22.434776 4294967295
-33.873558 19.018147 -22.313734 4294967295
-33.868595 19.329485 -22.323471 4294967295
-33.860416 20.884209 -22.490437 4294967295
-33.859455 19.485907 -22.281036 4294967295
-33.856556 19.952444 -22.327986 4294967295
-33.803593 16.520947 -22.571718 4294967295
-33.799576 17.297966 -22.655622 4294967295
-33.792923 15.43406 -22.338522 4294967295
-33.761318 19.786842 -22.743914 4294967295
-33.751587 19.166658 -22.584949 4294967295
-33.733715 16.059973 -22.008205 4294967295
-33.728436 17.770504 -22.218294 4294967295
-33.689613 20.416798 -22.325317 4294967295
-33.682194 21.194708 -22.385166 4294967295
-33.655121 15.584933 -22.496855 4294967295
-33.65097 15.119032 -22.400032 4294967295
-33.6394 15.896791 -22.430416 4294967295
-33.637474 15.275294 -22.326857 4294967295
-33.6343 14.964632 -22.25939 4294967295
-33.632484 16.674236 -22.493769 4294967295
-33.632248 17.606401 -22.626921 4294967295
-33.627228 16.830038 -22.479019 4294967295
-33.625103 18.07308 -22.643702 4294967295
-33.61866 16.364529 -22.350883 4294967295
-33.612148 18.229677 -22.57443 4294967295
-33.605015 18.541092 -22.568848 4294967295
-33.604645 16.210157 -22.229107 4294967295
-33.603512 17.142805 -22.355944 4294967295
-33.602772 15.743932 -22.148376 4294967295
-33.599323 16.987743 -22.303799 4294967295
-33.593075 19.62977 -22.641541 4294967295
-33.583981 20.407469 -22.689476 4294967295
-33.583275 20.252234 -22.662027 4294967295
-33.580978 21.339668 -22.802959 4294967295
-33.569519 19.166302 -22.407368 4294967295
-33.56617 20.720341 -22.608318 4294967295
-33.564442 19.943779 -22.483753 4294967295
-33.551617 20.566809 -22.482851 4294967295
-33.549438 19.479321 -22.310118 4294967295
-33.541359 21.500303 -22.545038 4294967295
-33.443966 16.673559 -22.270689 4294967295
-33.440945 19.004793 -22.586151 4294967295
-33.437717 19.781862 -22.675566 4294967295
-33.432018 16.052624 -22.096325 4294967295
-33.424297 17.918728 -22.311306 4294967295
-33.40773 18.542059 -22.284012 4294967295
-33.406914 17.143002 -22.076077 4294967295
-33.401653 21.65032 -22.690046 4294967295
-33.399185 18.387472 -22.201139 4294967295
-33.378941 20.254915 -22.327549 4294967295
-33.354156 21.190559 -22.287169 4294967295
-33.333771 14.957281 -22.354612 4294967295
-33.332161 15.734463 -22.455448 4294967295
-33.312008 16.668371 -22.44779 4294967295
-33.308952 15.269705 -22.224257 4294967295
-33.30698 15.114363 -22.187859 4294967295
-33.28701 18.535284 -22.540575 4294967295
-33.282719 17.447895 -22.353251 4294967295
-33.282066 16.359831 -22.191525 4294967295
-33.279449 19.312912 -22.599384 4294967295
-33.277885 17.603752 -22.341562 4294967295
-33.27692 18.847075 -22.51425 4294967295
-33.271915 14.805452 -21.895317 4294967295
-33.267502 16.04994 -22.043812 4294967295
-33.263393 21.334192 -22.777618 4294967295
-33.261318 21.645081 -22.807817 4294967295
-33.260029 19.625816 -22.507223 4294967295
-33.256878 18.227455 -22.28306 4294967295
-33.252403 20.248207 -22.543146 4294967295
-33.251682 20.559025 -22.582914 4294967295
-33.251434 15.895568 -21.907892 4294967295
-33.24712 19.938072 -22.461023 4294967295
-33.240459 21.492582 -22.63833 4294967295
-33.239056 17.918234 -22.11241 4294967295
-33.237778 20.716127 -22.507292 4294967295
-33.237774 19.006609 -22.260466 4294967295
-33.231453 21.183064 -22.529949 4294967295
-33.205303 20.875641 -22.300694 4294967295
-33.127342 18.066257 -22.454737 4294967295
-33.113785 16.512964 -22.134974 4294967295
-33.113373 15.735476 -22.019911 4294967295
-33.103352 17.291233 -22.173601 4294967295
-33.092445 16.825659 -22.029478 4294967295
-33.080551 19.469862 -22.326942 4294967295
-33.070518 19.160063 -22.211426 4294967295
-33.063301 19.938147 -22.272722 4294967295
-33.055832 20.249924 -22.264965 4294967295
-33.05315 20.561138 -22.290922 4294967295
-33.026157 21.341841 -22.212997 4294967295
-32.991482 16.817923 -22.42461 4294967295
-32.972961 17.907463 -22.451153 4294967295
-32.972618 15.264595 -22.067801 4294967295
-32.971729 15.731175 -22.12879 4294967295
-32.962421 18.530127 -22.466633 4294967295
-32.959427 15.420966 -21.997417 4294967295
-32.958099 15.10997 -21.943232 4294967295
-32.957157 16.354227 -22.11594 4294967295
-32.952747 16.976547 -22.174557 4294967295
-32.950962 18.375847 -22.363651 4294967295
-32.949837 16.043741 -22.019596 4294967295
-32.949276 17.132322 -22.172562 4294967295
-32.94783 20.085632 -22.587984 4294967295
-32.947235 18.84251 -22.40465 4294967295
-32.944294 19.309072 -22.451166 4294967295
-32.938587 19.620525 -22.455841 4294967295
-32.93737 17.444328 -22.133638 4294967295
-32.93322 20.553532 -22.552475 4294967295
-32.926659 18.222763 -22.170374 4294967295
-32.9217 21.487261 -22.605856 4294967295
-32.920422 21.176682 -22.552092 4294967295
-32.918537 21.02154 -22.516474 4294967295
-32.916157 17.601725 -22.006851 4294967295
-32.891022 19.781378 -22.143908 4294967295
-32.887218 20.248266 -22.184391 4294967295
-32.858128 15.103194 -22.344803 4294967295
-32.830669 17.281322 -22.465359 4294967295
-32.826675 17.747917 -22.504473 4294967295
-32.788204 17.906904 -22.256773 4294967295
-32.781242 16.663507 -22.028761 4294967295
-32.775658 16.352858 -21.944754 4294967295
-32.768402 18.53072 -22.20735 4294967295
-32.768124 19.463528 -22.339706 4294967295
-32.765778 19.152878 -22.278463 4294967295
-32.765087 19.774755 -22.363148 4294967295
-32.745296 18.999573 -22.112337 4294967295
-32.73624 20.399963 -22.250282 4294967295
-32.724018 21.02335 -22.254084 4294967295
-32.693832 15.255842 -22.316416 4294967295
-32.669651 17.74477 -22.504761 4294967295
-32.667095 15.102009 -22.106544 4294967295
-32.657528 16.346704 -22.218487 4294967295
-32.64679 15.569894 -22.031324 4294967295
-32.644665 14.947818 -21.926889 4294967295
-32.643204 16.658802 -22.162836 4294967295
-32.642689 18.990738 -22.49472 4294967295
-32.637222 17.436769 -22.23278 4294967295
-32.636501 17.125849 -22.182983 4294967295
-32.635429 15.881755 -21.996449 4294967295
-32.632664 18.05909 -22.290319 4294967295
-32.631062 18.21471 -22.301447 4294967295
-32.61903 19.304131 -22.373714 4294967295
-32.617817 19.615145 -22.409929 4294967295
-32.617641 19.770596 -22.431078 4294967295
-32.617229 16.816397 -22.003141 4294967295
-32.616894 16.505323 -21.956045 4294967295
-32.616669 15.727486 -21.842546 4294967295
-32.615051 19.149109 -22.323467 4294967295
-32.611744 20.237562 -22.456858 4294967295
-32.607376 20.704346 -22.493319 4294967295
-32.60548 20.39374 -22.435326 4294967295
-32.605453 18.528189 -22.166777 4294967295
-32.599396 21.171591 -22.50452 4294967295
-32.591103 19.46266 -22.200462 4294967295
-32.570724 21.019854 -22.281406 4294967295
-32.568756 21.486483 -22.334696 4294967295
-32.558735 20.554907 -22.130352 4294967295
-32.545128 21.334141 -22.1469 4294967295
-32.500984 15.876934 -22.1555 4294967295
-32.480434 16.811565 -22.145851 4294967295
-32.475704 18.677795 -22.38098 4294967295
-32.470879 16.345713 -22.011906 4294967295
-32.456341 21.477547 -22.647682 4294967295
-32.45163 18.835732 -22.234953 4294967295
-32.448879 17.125233 -21.969791 4294967295
-32.431847 17.437826 -21.895363 4294967295
-32.427204 20.237795 -22.265301 4294967295
-32.423756 19.771727 -22.174149 4294967295
-32.35117 16.806137 -22.340721 4294967295
-32.344986 15.095949 -22.051811 4294967295
-32.344479 15.873657 -22.159964 4294967295
-32.33604 15.563163 -22.056337 4294967295
-32.329193 16.185806 -22.097881 4294967295
-32.328274 14.941386 -21.912701 4294967295
-32.327435 16.497 -22.13027 4294967295
-32.324974 15.408325 -21.95669 4294967295
-32.318939 17.430796 -22.20496 4294967295
-32.310822 16.342716 -21.991884 4294967295
-32.305042 18.831543 -22.308941 4294967295
-32.301311 18.676441 -22.260572 4294967295
-32.299305 20.231279 -22.46982 4294967295
-32.296875 17.121618 -22.006208 4294967295
-32.29401 18.055122 -22.120249 4294967295
-32.281143 19.611526 -22.253763 4294967295
-32.278694 20.700111 -22.392954 4294967295
-32.271904 17.90164 -21.943542 4294967295
-32.27187 19.30154 -22.144361 4294967295
-32.267681 18.213175 -21.958759 4294967295
-32.26606 20.857151 -22.327126 4294967295
-32.258026 20.547186 -22.226408 4294967295
-32.257328 19.92524 -22.132231 4294967295
-32.246513 21.481575 -22.28006 4294967295
-32.246147 20.082066 -22.076511 4294967295
-32.244698 21.32633 -22.245079 4294967295
-32.196579 15.403218 -22.157581 4294967295
-32.166714 17.427202 -22.239494 4294967295
-32.156765 15.716965 -21.924587 4294967295
-32.152718 18.361492 -22.275839 4294967295
-32.150734 19.294563 -22.395893 4294967295
-32.144135 20.383446 -22.506035 4294967295
-32.140179 16.807261 -21.965244 4294967295
-32.13588 16.652018 -21.912924 4294967295
-32.13456 16.029711 -21.814396 4294967295
-32.129089 21.3179 -22.535049 4294967295
-32.118961 17.586946 -21.92897 4294967295
-32.090614 19.456625 -21.9993 4294967295
-32.072132 20.236549 -21.982168 4294967295
-32.052948 15.088058 -22.207205 4294967295
-32.030678 15.867154 -22.163692 4294967295
-32.025917 17.111637 -22.308947 4294967295
-32.012596 15.401683 -21.970892 4294967295
-32.010399 18.201447 -22.357046 4294967295
-32.004135 14.935403 -21.845055 4294967295
-31.99432 16.180861 -21.955219 4294967295
-31.992434 15.558593 -21.852839 4294967295
-31.987476 18.981171 -22.309046 4294967295
-31.985712 17.737206 -22.11838 4294967295
-31.979788 18.048836 -22.121767 4294967295
-31.974825 18.671452 -22.176449 4294967295
-31.974092 17.271542 -21.970617 4294967295
-31.971077 19.138399 -22.217272 4294967295
-31.970463 20.226931 -22.369047 4294967295
-31.967196 16.960932 -21.877996 4294967295
-31.965939 21.315697 -22.493603 4294967295
-31.965025 17.583494 -21.952137 4294967295
-31.963968 20.694128 -22.390755 4294967295
-31.962523 18.361586 -22.046261 4294967295
-31.962231 19.450386 -22.200333 4294967295
-31.96072 19.761581 -22.234425 4294967295
-31.958757 20.383806 -22.309948 4294967295
-31.956182 17.895466 -21.935232 4294967295
-31.948008 20.07407 -22.190609 4294967295
-31.942795 21.007744 -22.288128 4294967295
-31.861771 16.953524 -22.238256 4294967295
-31.851633 16.17658 -22.056393 4294967295
-31.848314 18.82073 -22.412109 4294967295
-31.832983 16.644712 -21.993689 4294967295
-31.812027 20.845928 -22.449715 4294967295
-31.772726 18.984072 -21.909531 4294967295
-31.755377 21.630735 -22.167921 4294967295
-31.721176 16.171417 -22.242134 4294967295
-31.717678 15.238354 -22.084257 4294967295
-31.715612 16.638411 -22.270344 4294967295
-31.694706 16.795591 -22.147619 4294967295
-31.693857 15.862234 -22.008104 4294967295
-31.681381 17.729994 -22.188808 4294967295
-31.680883 14.929358 -21.784433 4294967295
-31.669912 19.286327 -22.331913 4294967295
-31.668726 18.975437 -22.279182 4294967295
-31.666237 19.753216 -22.373207 4294967295
-31.658098 20.842512 -22.472584 4294967295
-31.657011 16.954203 -21.908478 4294967295
-31.655769 15.709207 -21.721624 4294967295
-31.65423 18.354738 -22.089643 4294967295
-31.653624 17.265701 -21.929535 4294967295
-31.649004 18.044088 -22.008871 4294967295
-31.644499 18.66683 -22.066719 4294967295
-31.642212 20.533503 -22.318008 4294967295
-31.640926 18.200438 -21.975143 4294967295
-31.637461 19.600914 -22.151529 4294967295
-31.636726 21.622602 -22.435768 4294967295
-31.636366 19.912119 -22.188467 4294967295
-31.621704 20.224905 -22.131388 4294967295
-31.617342 21.158653 -22.23472 4294967295
-31.615065 21.003418 -22.196688 4294967295
-31.590019 21.473286 -22.089956 4294967295
-31.574308 14.923113 -22.135714 4294967295
-31.562193 15.857235 -22.185322 4294967295
-31.546494 15.547148 -22.032101 4294967295
-31.53471 18.347963 -22.350988 4294967295
-31.509874 16.172113 -21.867577 4294967295
-31.508738 18.039362 -22.126757 4294967295
-31.461525 19.288731 -21.978058 4294967295
-38.535099 27.334995 -23.215553 4294967295
-38.502991 22.04245 -23.364056 4294967295
-38.502213 23.281649 -23.542503 4294967295
-38.48307 24.368923 -23.560312 4294967295
-38.482903 22.200403 -23.236584 4294967295
-38.482861 22.820122 -23.328415 4294967295
-38.477512 22.356169 -23.219221 4294967295
-38.475105 23.90571 -23.431578 4294967295
-38.472515 24.680532 -23.527348 4294967295
-38.469334 25.145678 -23.572603 4294967295
-38.467285 23.442329 -23.303911 4294967295
-38.462425 26.230835 -23.682016 4294967295
-38.450195 22.980295 -23.106768 4294967295
-38.444256 25.769901 -23.476954 4294967295
-38.442448 27.473461 -23.716652 4294967295
-38.440006 23.756805 -23.14566 4294967295
-38.438011 24.996639 -23.315042 4294967295
-38.436504 25.461634 -23.372862 4294967295
-38.430443 24.223337 -23.143162 4294967295
-38.401989 25.933084 -23.183578 4294967295
-38.383251 27.021454 -23.204571 4294967295
-38.347797 21.884422 -23.350122 4294967295
-38.338303 22.350611 -23.348162 4294967295
-38.320251 23.592802 -23.397341 4294967295
-38.312832 24.213669 -23.433928 4294967295
-38.296791 26.694437 -23.682125 4294967295
-38.296612 23.13191 -23.151537 4294967295
-38.280781 27.781538 -23.723509 4294967295
-38.265823 24.686844 -23.151615 4294967295
-38.264153 27.630335 -23.576321 4294967295
-38.258636 27.941231 -23.581104 4294967295
-38.256489 25.308401 -23.173939 4294967295
-38.253395 26.393547 -23.311909 4294967295
-38.252674 26.548607 -23.329542 4294967295
-38.223137 27.48431 -23.246981 4294967295
-38.197994 22.190329 -23.445528 4294967295
-38.18504 23.121738 -23.48679 4294967295
-38.171078 22.50429 -23.290613 4294967295
-38.162788 22.040674 -23.159737 4294967295
-38.160156 23.900379 -23.416092 4294967295
-38.16 24.519978 -23.506878 4294967295
-38.154602 24.830713 -23.512579 4294967295
-38.149101 22.817644 -23.172613 4294967295
-38.140511 25.917467 -23.568363 4294967295
-38.137352 23.749344 -23.222944 4294967295
-38.135624 24.989094 -23.394003 4294967295
-38.127621 23.59602 -23.127319 4294967295
-38.126995 27.313833 -23.674408 4294967295
-38.125854 25.300737 -23.367128 4294967295
-38.113995 24.218275 -23.117668 4294967295
-38.110962 26.697758 -23.462934 4294967295
-38.104149 23.444937 -22.929178 4294967295
-38.099007 26.080536 -23.281851 4294967295
-38.096664 25.771114 -23.218378 4294967295
-38.094749 27.165802 -23.411022 4294967295
-38.091145 27.476355 -23.430113 4294967295
-38.062077 27.017735 -23.144459 4294967295
-38.045544 27.796083 -23.136173 4294967295
-38.002522 23.587894 -23.361399 4294967295
-37.989365 26.068531 -23.630898 4294967295
-37.970154 22.353214 -22.936438 4294967295
-37.962498 22.819511 -22.948374 4294967295
-37.955574 25.145599 -23.241562 4294967295
-37.935944 27.783169 -23.485916 4294967295
-37.917904 25.927652 -23.076021 4294967295
-37.91716 27.942177 -23.369141 4294967295
-37.900364 27.171076 -23.129299 4294967295
-37.864552 22.18758 -23.292437 4294967295
-37.850334 24.203976 -23.485132 4294967295
-37.845585 22.965317 -23.266201 4294967295
-37.843124 22.345798 -23.15605 4294967295
-37.830959 23.587557 -23.249298 4294967295
-37.826878 23.898169 -23.264881 4294967295
-37.825924 24.518122 -23.349609 4294967295
-37.824467 25.292994 -23.453516 4294967295
-37.819851 24.364256 -23.281527 4294967295
-37.817913 27.1528 -23.680132 4294967295
-37.811123 25.140564 -23.331417 4294967295
-37.80788 26.535406 -23.513851 4294967295
-37.807762 25.605991 -23.375303 4294967295
-37.805939 24.831619 -23.246994 4294967295
-37.804516 26.226288 -23.44298 4294967295
-37.798992 23.282843 -22.965752 4294967295
-37.790298 26.848797 -23.429148 4294967295
-37.789257 25.454571 -23.214865 4294967295
-37.785988 24.990246 -23.121702 4294967295
-37.773842 26.697252 -23.283964 4294967295
-37.768345 27.318146 -23.334929 4294967295
-37.753807 27.476181 -23.24991 4294967295
-37.75243 27.941307 -23.308529 4294967295
-37.711617 22.958834 -23.433477 4294967295
-37.692993 23.736532 -23.409941 4294967295
-37.690487 23.427073 -23.345482 4294967295
-37.685719 24.667309 -23.493563 4294967295
-37.664993 22.036074 -22.949814 4294967295
-37.664734 23.121319 -23.108519 4294967295
-37.65453 27.461267 -23.674831 4294967295
-37.652916 22.503056 -22.929037 4294967295
-37.652275 24.208391 -23.176676 4294967295
-37.646286 26.998396 -23.544991 4294967295
-37.634476 23.591362 -22.952837 4294967295
-37.623234 26.228462 -23.259441 4294967295
-37.613926 24.83526 -22.983963 4294967295
-37.612137 26.540615 -23.223022 4294967295
-37.611389 25.920837 -23.125727 4294967295
-37.608479 27.780956 -23.37933 4294967295
-37.601547 26.077765 -23.075695 4294967295
-37.594379 27.164162 -23.18309 4294967295
-37.570824 27.944122 -23.123152 4294967295
-37.53019 22.029919 -23.111187 4294967295
-37.528484 22.3402 -23.144396 4294967295
-37.521873 23.581171 -23.278803 4294967295
-37.519455 24.666252 -23.421282 4294967295
-37.5172 23.736927 -23.267105 4294967295
-37.513268 22.962606 -23.123384 4294967295
-37.507946 26.682186 -23.633825 4294967295
-37.506721 25.59816 -23.464458 4294967295
-37.505447 24.513805 -23.294653 4294967295
-37.502846 22.499142 -22.977388 4294967295
-37.499714 24.979721 -23.320942 4294967295
-37.499603 25.134695 -23.343039 4294967295
-37.492428 26.220615 -23.450272 4294967295
-37.489037 26.376211 -23.448069 4294967295
-37.485413 23.277153 -22.962912 4294967295
-37.485115 24.052383 -23.075348 4294967295
-37.484905 25.757275 -23.325882 4294967295
-37.471962 25.294809 -23.161314 4294967295
-37.449631 27.468889 -23.316818 4294967295
-37.329182 27.148727 -23.538157 4294967295
-37.32872 24.824568 -23.191431 4294967295
-37.318127 23.586153 -22.929918 4294967295
-37.317501 24.051432 -22.994015 4294967295
-37.310055 24.362823 -22.984774 4294967295
-37.308125 23.897972 -22.901791 4294967295
-37.295658 27.465645 -23.336321 4294967295
-37.28376 27.933069 -23.317127 4294967295
-37.28244 27.778395 -23.284502 4294967295
-37.280495 26.383848 -23.064106 4294967295
-37.225979 22.022738 -23.177042 4294967295
-37.218952 23.728724 -23.376827 4294967295
-37.216827 22.954176 -23.246798 4294967295
-37.214878 23.419456 -23.301043 4294967295
-37.205341 24.040966 -23.322174 4294967295
-37.201923 22.33639 -23.045267 4294967295
-37.1889 23.888777 -23.177988 4294967295
-37.186138 24.819229 -23.294878 4294967295
-37.185905 22.493885 -22.949942 4294967295
-37.183186 25.43965 -23.364597 4294967295
-37.182724 26.834127 -23.566952 4294967295
-37.18092 24.510183 -23.210636 4294967295
-37.172237 26.061577 -23.375338 4294967295
-37.166374 25.907755 -23.309227 4294967295
-37.164032 26.373108 -23.360567 4294967295
-37.161327 23.118063 -22.860151 4294967295
-37.155792 27.924166 -23.528448 4294967295
-37.154285 27.30479 -23.425892 4294967295
-37.151222 26.995533 -23.357601 4294967295
-37.151119 24.360395 -22.967945 4294967295
-37.151024 24.205347 -22.944345 4294967295
-37.140831 25.292572 -23.029346 4294967295
-37.138206 25.13801 -22.987108 4294967295
-37.112305 27.468628 -23.139315 4294967295
-37.041164 22.023954 -22.968983 4294967295
-37.02808 24.971674 -23.306973 4294967295
-37.021584 23.267536 -23.007696 4294967295
-37.018421 25.903324 -23.372993 4294967295
-36.9991 23.73646 -22.910707 4294967295
-36.994186 27.76766 -23.468779 4294967295
-36.988789 26.219074 -23.200581 4294967295
-36.968708 26.688128 -23.121386 4294967295
-36.965 26.998928 -23.139807 4294967295
-36.959484 26.06978 -22.962057 4294967295
-36.949417 27.932314 -23.16226 4294967295
-36.888073 22.020498 -22.995068 4294967295
-36.88406 23.106531 -23.125494 4294967295
-36.879601 23.727392 -23.184059 4294967295
-36.871937 22.488159 -22.944971 4294967295
-36.866009 22.954332 -22.969942 4294967295
-36.860073 24.19581 -23.109051 4294967295
-36.85648 24.661549 -23.151175 4294967295
-36.856018 23.266096 -22.942192 4294967295
-36.855286 26.366749 -23.393545 4294967295
-36.849216 25.902996 -23.280487 4294967295
-36.848301 23.422441 -22.908304 4294967295
-36.845604 26.98855 -23.413738 4294967295
-36.843582 25.439041 -23.170582 4294967295
-36.841801 24.354034 -22.997604 4294967295
-36.831989 24.976049 -23.01688 4294967295
-36.829361 24.046005 -22.8605 4294967295
-36.826546 26.062401 -23.13677 4294967295
-36.822758 26.683237 -23.200293 4294967295
-36.819954 26.528782 -23.156853 4294967295
-36.815418 25.13415 -22.917982 4294967295
-36.811928 27.770498 -23.280554 4294967295
-36.808605 25.755753 -22.959288 4294967295
-36.795311 27.153942 -23.067184 4294967295
-36.743885 22.015739 -23.086508 4294967295
-36.728939 22.948355 -23.113768 4294967295
-36.72031 25.12007 -23.369904 4294967295
-36.715183 25.585955 -23.400728 4294967295
-36.71434 23.570921 -23.097961 4294967295
-36.692818 27.604837 -23.533201 4294967295
-36.690926 23.729876 -22.94899 4294967295
-36.676704 24.662842 -22.981634 4294967295
-36.66626 27.455498 -23.315731 4294967295
-36.640919 26.065269 -22.924604 4294967295
-36.591011 22.787491 -23.228092 4294967295
-36.562412 23.412222 -23.109835 4294967295
-36.554527 23.878698 -23.120523 4294967295
-36.553371 25.274166 -23.317221 4294967295
-36.55122 22.173199 -22.845402 4294967295
-36.550289 22.948917 -22.952625 4294967295
-36.542336 26.361214 -23.395964 4294967295
-36.537552 25.432117 -23.224192 4294967295
-36.531662 22.48641 -22.747747 4294967295
-36.530766 23.572481 -22.900892 4294967295
-36.52935 24.193125 -22.98175 4294967295
-36.5285 23.262609 -22.838678 4294967295
-36.525112 24.659117 -23.019148 4294967295
-36.524658 26.674717 -23.312159 4294967295
-36.516888 24.350374 -22.913309 4294967295
-36.514328 27.141825 -23.304956 4294967295
-36.513168 27.762024 -23.387596 4294967295
-36.510288 26.057453 -23.115831 4294967295
-36.506908 25.903049 -23.068306 4294967295
-36.504284 24.817924 -22.889456 4294967295
-36.50222 26.524187 -23.125172 4294967295
-36.496716 25.74992 -22.970901 4294967295
-36.49052 25.595997 -22.902744 4294967295
-36.486843 27.612629 -23.172224 4294967295
-36.483269 27.303297 -23.100487 4294967295
-36.456223 27.929293 -22.993774 4294967295
-36.425667 23.251081 -23.232748 4294967295
-36.416885 22.632227 -23.077427 4294967295
-36.411331 25.113701 -23.401268 4294967295
-36.400696 25.425646 -23.369099 4294967295
-36.386639 27.288092 -23.539583 4294967295
-36.381161 24.498976 -23.089678 4294967295
-36.378304 23.879128 -22.977663 4294967295
-36.27491 23.247257 -23.275774 4294967295
-36.274693 22.472042 -23.160404 4294967295
-36.252415 23.405931 -23.134411 4294967295
-36.252087 24.491322 -23.291334 4294967295
-36.241165 23.71792 -23.097853 4294967295
-36.235943 23.098387 -22.968697 4294967295
-36.234997 24.184179 -23.121141 4294967295
-36.233212 25.579899 -23.312927 4294967295
-36.233059 26.354944 -23.42556 4294967295
-36.232456 22.788691 -22.897705 4294967295
-36.229 22.013464 -22.758593 4294967295
-36.21447 25.738464 -23.199003 4294967295
-36.214382 24.653004 -23.039038 4294967295
-36.213032 26.978931 -23.370531 4294967295
-36.211338 24.963718 -23.062376 4294967295
-36.192013 27.758335 -23.331028 4294967295
-36.189976 24.347033 -22.815481 4294967295
-36.182472 26.675043 -23.102242 4294967295
-36.178856 25.434973 -22.893774 4294967295
-36.176025 27.606703 -23.191746 4294967295
-36.175167 26.521421 -23.026201 4294967295
-36.168858 26.05735 -22.911924 4294967295
-36.167091 27.453527 -23.103891 4294967295
-36.150261 27.301954 -22.958448 4294967295
-36.054432 26.821594 -23.334047 4294967295
-36.05286 27.286943 -23.390766 4294967295
-36.049229 26.977669 -23.318892 4294967295
-36.047676 24.186567 -22.898298 4294967295
-36.031719 26.050808 -23.055067 4294967295
-36.019131 27.914139 -23.236279 4294967295
-36.006977 25.745293 -22.829498 4294967295
-35.966526 22.310356 -23.17543 4294967295
-35.942593 22.469027 -23.024137 4294967295
-35.942329 22.779285 -23.067667 4294967295
-35.932602 23.246117 -23.065134 4294967295
-35.930664 24.17695 -23.187389 4294967295
-35.929649 23.86697 -23.134563 4294967295
-35.929287 24.642374 -23.245535 4294967295
-35.921864 25.263897 -23.282446 4294967295
-35.914795 24.334751 -23.094763 4294967295
-35.914692 21.852509 -22.73031 4294967295
-35.91367 22.93885 -22.882048 4294967295
-35.913246 26.815748 -23.446949 4294967295
-35.911594 23.404604 -22.935131 4294967295
-35.911533 22.008154 -22.730082 4294967295
-35.909595 23.094639 -22.875141 4294967295
-35.908588 26.506664 -23.367682 4294967295
-35.90773 25.886709 -23.270603 4294967295
-35.906269 26.972158 -23.418955 4294967295
-35.900528 26.353222 -23.286415 4294967295
-35.896416 27.594196 -23.438206 4294967295
-35.89637 23.717371 -22.869936 4294967295
-35.890331 24.494097 -22.939692 4294967295
-35.88818 25.425167 -23.060425 4294967295
-35.887703 26.045599 -23.147818 4294967295
-35.884968 24.029581 -22.832521 4294967295
-35.876301 26.668121 -23.15587 4294967295
-35.870712 25.118126 -22.888039 4294967295
-35.865818 27.445581 -23.193304 4294967295
-35.858829 27.136885 -23.097124 4294967295
-35.856426 25.586193 -22.852409 4294967295
-35.844002 27.760319 -23.080275 4294967295
-35.839081 27.296051 -22.976387 4294967295
-35.78117 23.55258 -23.149078 4294967295
-35.758312 22.625412 -22.84693 4294967295
-35.729881 27.438551 -23.344475 4294967295
-35.724754 27.904703 -23.375368 4294967295
-35.63829 22.461817 -23.090664 4294967295
-35.618519 24.171049 -23.196997 4294967295
-35.613148 23.861765 -23.112734 4294967295
-35.612854 22.775932 -22.951786 4294967295
-35.612736 24.32712 -23.177803 4294967295
-35.611172 23.396742 -23.030357 4294967295
-35.60738 22.311272 -22.844053 4294967295
-35.59383 26.966532 -23.42639 4294967295
-35.591976 26.036676 -23.276958 4294967295
-35.590729 23.555185 -22.904976 4294967295
-35.587116 27.432951 -23.445799 4294967295
-35.582829 25.262983 -23.097349 4294967295
-35.579533 22.62583 -22.6877 4294967295
-35.577335 22.16048 -22.603683 4294967295
-35.568035 26.506535 -23.171694 4294967295
-35.560989 26.663013 -23.14337 4294967295
-35.560581 24.80158 -22.8682 4294967295
-35.557793 27.128906 -23.188259 4294967295
