# .PCD v0.7 - Point Cloud Data file format
VERSION 0.7
FIELDS x y z rgb
SIZE 4 4 4 4
TYPE F F F U
COUNT 1 1 1 1
WIDTH 1120
HEIGHT 1
VIEWPOINT 0 0 0 1 0 0 0
POINTS 1120
DATA ascii
-79.165268 60.876331 -34.357597 4294967295
-79.062073 57.383301 -34.291771 4294967295
-79.049294 56.949379 -34.008373 4294967295
-79.048004 58.445423 -34.317417 4294967295
-79.012306 58.935535 -33.898827 4294967295
-79.009354 60.732315 -34.249264 4294967295
-78.905563 57.837097 -34.305466 4294967295
-78.904991 56.34288 -33.970074 4294967295
-78.900902 57.991886 -34.270844 4294967295
-78.893929 57.551472 -34.072067 4294967295
-78.892563 57.254005 -33.986965 4294967295
-78.889969 59.05051 -34.341946 4294967295
-78.889771 58.75193 -34.273621 4294967295
-78.889763 56.808533 -33.848366 4294967295
-78.877235 58.318111 -33.994732 4294967295
-78.874413 58.171867 -33.921215 4294967295
-78.862411 60.129089 -34.173191 4294967295
-78.861336 59.5326 -34.026859 4294967295
-78.858391 60.582165 -34.213242 4294967295
-78.846405 59.849308 -33.87698 4294967295
-78.843597 61.048378 -34.09798 4294967295
-78.738747 57.704865 -34.040649 4294967295
-78.73307 56.365097 -33.665127 4294967295
-78.721298 59.817688 -34.246483 4294967295
-78.7201 59.071846 -34.066219 4294967295
-78.718643 59.372501 -34.110477 4294967295
-78.717293 57.579693 -33.699444 4294967295
-78.707832 59.98315 -34.085537 4294967295
-78.707069 60.880623 -34.270248 4294967295
-78.686203 61.055393 -34.003067 4294967295
-78.61142 56.780266 -34.181129 4294967295
-78.596062 57.395523 -34.091202 4294967295
-78.58741 58.750771 -34.26017 4294967295
-78.584846 59.052643 -34.288475 4294967295
-78.582123 56.96249 -33.793644 4294967295
-78.576469 58.165409 -33.973198 4294967295
-78.575157 58.615479 -34.052006 4294967295
-78.57473 57.718739 -33.850559 4294967295
-78.570793 57.274395 -33.696468 4294967295
-78.570007 58.322353 -33.913212 4294967295
-78.568367 59.520298 -34.150074 4294967295
-78.565292 59.97229 -34.203621 4294967295
-78.564621 59.674175 -34.12896 4294967295
-78.563011 60.423298 -34.268559 4294967295
-78.558693 61.026115 -34.336784 4294967295
-78.558151 60.727974 -34.263958 4294967295
-78.557999 59.831474 -34.066677 4294967295
-78.549522 61.485451 -34.303043 4294967295
-78.548851 60.290791 -34.033279 4294967295
-78.53968 60.899693 -34.032169 4294967295
-78.53054 61.209713 -33.966404 4294967295
-78.529213 61.360806 -33.979912 4294967295
-78.454994 56.336723 -34.001972 4294967295
-78.445312 57.992378 -34.221035 4294967295
-78.442093 57.397957 -34.045147 4294967295
-78.438637 56.653931 -33.833317 4294967295
-78.438004 58.598652 -34.246628 4294967295
-78.425018 57.117912 -33.736301 4294967295
-78.416939 59.071495 -34.043278 4294967295
-78.396378 60.441196 -34.042114 4294967295
-78.310997 56.328075 -34.098389 4294967295
-78.292221 57.545307 -34.09042 4294967295
-78.257431 59.379539 -33.984383 4294967295
-78.250198 59.687065 -33.946247 4294967295
-78.243515 61.787682 -34.304623 4294967295
-78.236839 61.198017 -34.080235 4294967295
-78.231308 60.756161 -33.904461 4294967295
-78.229767 61.655006 -34.076859 4294967295
-78.218903 61.369194 -33.857777 4294967295
-78.145882 56.342514 -33.894573 4294967295
-78.139206 57.546627 -34.058693 4294967295
-78.137047 56.950687 -33.898666 4294967295
-78.135254 57.999725 -34.099697 4294967295
-78.124756 56.664928 -33.659672 4294967295
-78.123726 58.461449 -34.033199 4294967295
-78.123482 57.115322 -33.73867 4294967295
-78.123383 58.760918 -34.093056 4294967295
-78.117561 57.870094 -33.816502 4294967295
-78.11525 59.06934 -34.04245 4294967295
-78.110275 58.626369 -33.874886 4294967295
-78.109093 58.178894 -33.761154 4294967295
-78.105278 60.277077 -34.159676 4294967295
-78.10379 59.381695 -33.944679 4294967295
-78.097969 60.883678 -34.185299 4294967295
-78.091934 60.591888 -34.035267 4294967295
-78.088943 61.342918 -34.154423 4294967295
-78.082947 60.004318 -33.778603 4294967295
-78.07476 61.659039 -34.018204 4294967295
-77.981514 56.356007 -33.703049 4294967295
-77.972115 59.2089 -34.183361 4294967295
-77.952515 60.427807 -34.164513 4294967295
-77.910866 61.972855 -33.89912 4294967295
-77.909164 62.124454 -33.907356 4294967295
-77.836784 56.348106 -33.789711 4294967295
-77.83564 56.947979 -33.902382 4294967295
-77.834183 56.201233 -33.720863 4294967295
-77.833511 56.651005 -33.808022 4294967295
-77.829483 58.600315 -34.169846 4294967295
-77.82003 57.563778 -33.811398 4294967295
-77.817528 57.267223 -33.71175 4294967295
-77.814766 58.317818 -33.898346 4294967295
-77.81395 56.822056 -33.564682 4294967295
-77.811966 58.919376 -33.987709 4294967295
-77.810204 57.724365 -33.705307 4294967295
-77.80648 59.823044 -34.103516 4294967295
-77.805222 58.17894 -33.731701 4294967295
-77.803787 59.227917 -33.936901 4294967295
-77.801079 60.576958 -34.188335 4294967295
-77.797081 59.385227 -33.874725 4294967295
-77.79406 58.790188 -33.703403 4294967295
-77.792503 61.334595 -34.2285 4294967295
-77.791351 60.887482 -34.115891 4294967295
-77.789062 59.992893 -33.890614 4294967295
-77.784744 59.698704 -33.76556 4294967295
-77.784431 61.045227 -34.050701 4294967295
-77.776611 60.755413 -33.876392 4294967295
-77.68251 56.35054 -33.741951 4294967295
-77.668198 58.012585 -33.894562 4294967295
-77.648674 58.333771 -33.684978 4294967295
-77.638519 61.785767 -34.280949 4294967295
-77.637375 61.189167 -34.136623 4294967295
-77.63176 60.448048 -33.897449 4294967295
-77.613586 61.516644 -33.867493 4294967295
-77.538269 57.240086 -34.02747 4294967295
-77.537361 57.390705 -34.046783 4294967295
-77.530708 56.799377 -33.82547 4294967295
-77.523811 58.303394 -34.049679 4294967295
-77.521683 58.006546 -33.95578 4294967295
-77.519203 57.710014 -33.856987 4294967295
-77.517418 56.514328 -33.575455 4294967295
-77.514679 56.667038 -33.569229 4294967295
-77.505981 59.969013 -34.152786 4294967295
-77.503975 58.774582 -33.868469 4294967295
-77.50367 59.223793 -33.960346 4294967295
-77.503105 57.578106 -33.599823 4294967295
-77.498024 59.529461 -33.94558 4294967295
-77.496971 59.829868 -33.994854 4294967295
-77.495789 58.634167 -33.722015 4294967295
-77.492218 60.583241 -34.088608 4294967295
-77.490532 60.734756 -34.097172 4294967295
-77.484161 61.340435 -34.136196 4294967295
-77.483421 61.939335 -34.253944 4294967295
-77.479698 60.298702 -33.849682 4294967295
-77.479393 60.448666 -33.877502 4294967295
-77.478996 60.8979 -33.968056 4294967295
-77.474342 61.501663 -34.031128 4294967295
-77.471069 61.206425 -33.921421 4294967295
-77.465729 61.66151 -33.942863 4294967295
-77.463661 62.561237 -34.106056 4294967295
-77.450394 62.427818 -33.888828 4294967295
-77.365875 56.962975 -33.663307 4294967295
-77.355568 59.668266 -34.095406 4294967295
-77.349884 57.729137 -33.600498 4294967295
-77.337494 61.035328 -34.131393 4294967295
-77.311119 60.916763 -33.732353 4294967295
-77.310867 62.263443 -34.016441 4294967295
-77.223213 58.150188 -34.033829 4294967295
-77.223091 57.851036 -33.968334 4294967295
-77.219872 56.956409 -33.732056 4294967295
-77.215515 57.560005 -33.79932 4294967295
-77.215111 56.662048 -33.602066 4294967295
-77.21196 56.36586 -33.494457 4294967295
-77.211945 58.462006 -33.941185 4294967295
-77.208054 59.214531 -34.04668 4294967295
-77.203476 58.920444 -33.919369 4294967295
-77.188751 59.386066 -33.810772 4294967295
-77.185646 58.34161 -33.544174 4294967295
-77.183716 60.140079 -33.900337 4294967295
-77.180214 59.84481 -33.787983 4294967295
-77.177246 59.548847 -33.682976 4294967295
-77.17318 60.601177 -33.849922 4294967295
-77.17115 59.705502 -33.630322 4294967295
-77.171135 62.099445 -34.140366 4294967295
-77.170235 60.005943 -33.68145 4294967295
-77.169563 61.951782 -34.086674 4294967295
-77.169281 61.50341 -33.987171 4294967295
-77.163567 60.762028 -33.748459 4294967295
-77.163345 60.911942 -33.777241 4294967295
-77.157928 61.067944 -33.733997 4294967295
-77.155067 61.220959 -33.726292 4294967295
-77.153854 62.867989 -34.060165 4294967295
-77.150803 62.273407 -33.890324 4294967295
-77.141693 62.433971 -33.795891 4294967295
-77.055817 57.86784 -33.741928 4294967295
-77.055046 57.569218 -33.667534 4294967295
-77.045807 58.178329 -33.66708 4294967295
-77.039024 58.635052 -33.668846 4294967295
-77.020729 59.104778 -33.511333 4294967295
-77.005959 61.217678 -33.752918 4294967295
-77.002953 60.472729 -33.552139 4294967295
-77.001854 61.372169 -33.72794 4294967295
-76.931145 56.490639 -33.818768 4294967295
-76.931 56.939964 -33.912132 4294967295
-76.930946 56.790314 -33.879551 4294967295
-76.897903 59.670601 -34.027569 4294967295
-76.896172 59.073929 -33.876667 4294967295
-76.89608 57.277115 -33.494015 4294967295
-76.893585 57.72921 -33.554989 4294967295
-76.892136 58.62933 -33.725735 4294967295
-76.891548 58.330509 -33.654057 4294967295
-76.889565 58.182938 -33.594959 4294967295
-76.88559 59.385208 -33.794392 4294967295
-76.882393 59.987556 -33.877361 4294967295
-76.875267 59.247131 -33.62027 4294967295
-76.874199 61.044498 -33.986771 4294967295
-76.871643 60.748203 -33.888096 4294967295
-76.871185 59.551212 -33.627567 4294967295
-76.86879 60.601852 -33.816944 4294967295
-76.868431 59.85379 -33.653179 4294967295
-76.864655 60.307247 -33.696468 4294967295
-76.858276 62.110516 -33.989651 4294967295
-76.85421 60.169502 -33.520817 4294967295
-76.853973 62.863571 -34.089088 4294967295
-76.853752 61.816647 -33.863892 4294967295
-76.853386 62.415546 -33.98576 4294967295
-76.851196 61.370697 -33.733387 4294967295
-76.846634 63.022007 -34.019772 4294967295
-76.842285 61.680531 -33.674236 4294967295
-76.836113 62.735497 -33.811485 4294967295
-76.827003 62.59679 -33.654327 4294967295
-76.771545 56.648354 -33.731598 4294967295
-76.761749 57.407665 -33.755508 4294967295
-76.760406 57.858334 -33.832218 4294967295
-76.759209 56.511662 -33.530216 4294967295
-76.753113 58.91428 -33.953907 4294967295
-76.752129 56.219456 -33.369392 4294967295
-76.750206 56.970718 -33.501694 4294967295
-76.710274 61.657112 -33.936031 4294967295
-76.700897 60.769962 -33.617165 4294967295
-76.690445 61.231274 -33.568806 4294967295
-76.688705 62.131542 -33.734989 4294967295
-76.669243 63.202538 -33.6898 4294967295
-76.606705 58.159588 -33.858322 4294967295
-76.600693 58.315903 -33.807629 4294967295
-76.597008 56.522228 -33.377247 4294967295
-76.568481 61.495674 -34.030766 4294967295
-76.558479 61.208015 -33.830746 4294967295
-76.555031 61.661053 -33.878376 4294967295
-76.553406 60.914494 -33.69812 4294967295
-76.552849 63.159752 -34.164597 4294967295
-76.54789 62.11842 -33.875553 4294967295
-76.543594 62.42281 -33.880032 4294967295
-76.543404 63.021538 -34.003841 4294967295
-76.539909 62.876114 -33.924484 4294967295
-76.539688 61.379574 -33.605343 4294967295
-76.537071 61.981506 -33.696007 4294967295
-76.477226 56.488029 -33.804733 4294967295
-76.472717 56.342972 -33.711628 4294967295
-76.468689 57.096165 -33.814529 4294967295
-76.449852 57.415897 -33.620525 4294967295
-76.449638 58.614269 -33.870247 4294967295
-76.446594 56.820034 -33.449615 4294967295
-76.445518 56.671299 -33.403362 4294967295
-76.440628 59.522545 -33.9366 4294967295
-76.438751 57.877304 -33.563755 4294967295
-76.437843 58.177902 -33.614567 4294967295
-76.434494 60.277859 -34.010773 4294967295
-76.431389 58.933907 -33.684361 4294967295
-76.428207 59.0872 -33.672535 4294967295
-76.423859 61.337597 -34.086498 4294967295
-76.421875 60.441914 -33.870197 4294967295
-76.417419 59.398766 -33.588516 4294967295
-76.414589 60.749645 -33.833916 4294967295
-76.414146 59.701992 -33.606964 4294967295
-76.307838 57.105431 -33.680519 4294967295
-76.304153 57.858334 -33.78801 4294967295
-76.299721 58.012909 -33.759155 4294967295
-76.292648 59.068916 -33.883514 4294967295
-76.287376 59.224487 -33.843372 4294967295
-76.279198 57.285774 -33.32238 4294967295
-76.278763 58.485096 -33.568699 4294967295
-76.264847 60.148174 -33.726002 4294967295
-76.26133 60.451649 -33.741199 4294967295
-76.256729 62.552441 -34.119289 4294967295
-76.2444 59.871628 -33.385033 4294967295
-76.234802 61.081036 -33.506687 4294967295
-76.212975 63.053448 -33.619553 4294967295
-76.17868 56.332146 -33.820251 4294967295
-76.166389 56.494804 -33.684933 4294967295
-76.162437 57.098236 -33.757172 4294967295
-76.155823 56.95541 -33.636036 4294967295
-76.153458 56.80806 -33.572475 4294967295
-76.151245 57.40976 -33.668285 4294967295
-76.146858 58.463032 -33.828983 4294967295
-76.135689 58.625 -33.709003 4294967295
-76.134499 58.176872 -33.598488 4294967295
-76.12999 57.582302 -33.41161 4294967295
-76.128212 59.232349 -33.733444 4294967295
-76.126579 60.432068 -33.962715 4294967295
-76.12558 59.68457 -33.792038 4294967295
-76.125328 60.283779 -33.91436 4294967295
-76.120796 60.88773 -33.978561 4294967295
-76.120247 59.540745 -33.688377 4294967295
-76.115349 61.043655 -33.936199 4294967295
-76.111076 61.796959 -34.035419 4294967295
-76.110832 61.49791 -33.969261 4294967295
-76.10849 60.003242 -33.623383 4294967295
-76.096718 59.417065 -33.338116 4294967295
-76.091446 62.717941 -33.958 4294967295
-76.086479 62.424438 -33.827995 4294967295
-76.080246 62.282051 -33.712177 4294967295
-76.077911 62.584236 -33.74345 4294967295
-76.073448 62.888939 -33.745892 4294967295
-75.998314 56.211483 -33.392105 4294967295
-75.995483 56.364349 -33.385151 4294967295
-75.989288 58.618759 -33.772316 4294967295
-75.986786 58.321873 -33.675751 4294967295
-75.983887 56.826233 -33.322617 4294967295
-75.983887 59.373547 -33.856136 4294967295
-75.977562 57.73238 -33.425625 4294967295
-75.971107 59.687241 -33.746384 4294967295
-75.970718 58.039505 -33.395889 4294967295
-75.958916 58.501942 -33.330688 4294967295
-75.952682 62.253494 -34.030544 4294967295
-75.945023 61.06461 -33.676476 4294967295
-75.944283 60.915684 -33.635033 4294967295
-75.941475 59.870079 -33.377575 4294967295
-75.939278 60.322098 -33.442078 4294967295
-75.935959 61.674091 -33.679482 4294967295
-75.93219 61.37888 -33.565948 4294967295
-75.930222 60.482162 -33.351151 4294967295
-75.929878 63.178394 -33.910938 4294967295
-75.852829 56.803989 -33.593494 4294967295
-75.848808 56.358482 -33.445347 4294967295
-75.842735 57.713806 -33.645496 4294967295
-75.842064 57.564671 -33.605118 4294967295
-75.841919 58.014351 -33.69717 4294967295
-75.839867 56.667618 -33.387577 4294967295
-75.835739 56.971786 -33.394611 4294967295
-75.827217 57.280602 -33.342514 4294967295
-75.825943 58.481079 -33.575993 4294967295
-75.818375 58.93885 -33.568054 4294967295
-75.815948 59.540833 -33.660637 4294967295
-75.812187 60.144215 -33.735126 4294967295
-75.808197 59.84906 -33.618885 4294967295
-75.806801 59.101376 -33.443504 4294967295
-75.800812 60.456558 -33.644699 4294967295
-75.792343 62.712368 -34.000019 4294967295
-75.792328 60.316273 -33.499229 4294967295
-75.791901 61.215607 -33.681293 4294967295
-75.790932 59.418583 -33.292603 4294967295
-75.788429 61.968403 -33.790974 4294967295
-75.783875 62.273163 -33.792324 4294967295
-75.781906 60.92738 -33.484196 4294967295
-75.778069 60.781883 -33.401287 4294967295
-75.773933 61.38596 -33.470909 4294967295
-75.770889 62.438065 -33.649006 4294967295
-75.767204 62.891659 -33.693306 4294967295
-75.766624 61.843845 -33.466461 4294967295
-75.764328 63.044804 -33.685905 4294967295
-75.762589 62.148155 -33.474777 4294967295
-75.707138 57.396515 -33.791317 4294967295
-75.690887 57.11388 -33.510654 4294967295
-75.65683 58.199448 -33.272343 4294967295
-75.633774 60.323433 -33.400604 4294967295
-75.625893 63.178535 -33.888229 4294967295
-75.547691 57.404118 -33.679432 4294967295
-75.544174 58.157082 -33.788326 4294967295
-75.539543 57.712456 -33.632797 4294967295
-75.532944 56.819881 -33.357319 4294967295
-75.532341 58.019852 -33.598858 4294967295
-75.531105 56.371857 -33.239063 4294967295
-75.529449 57.123428 -33.372967 4294967295
-75.522308 60.128284 -33.901054 4294967295
-75.517418 58.335575 -33.461624 4294967295
-75.510185 59.69228 -33.645561 4294967295
-75.510124 59.242794 -33.551144 4294967295
-75.509895 60.441669 -33.797482 4294967295
-75.507271 58.946133 -33.450611 4294967295
-75.503098 58.50087 -33.30127 4294967295
-75.502373 59.401138 -33.478729 4294967295
-75.49762 58.656719 -33.259174 4294967295
-75.493614 60.31002 -33.548729 4294967295
-75.489799 59.115028 -33.248264 4294967295
-75.488792 61.813564 -33.795864 4294967295
-75.488121 61.065369 -33.631119 4294967295
-75.482918 62.868553 -33.935394 4294967295
-75.482101 61.37183 -33.613064 4294967295
-75.480385 62.422302 -33.808197 4294967295
-75.476151 60.629284 -33.377636 4294967295
-75.472595 60.933052 -33.392464 4294967295
-75.468773 62.73534 -33.715374 4294967295
-75.467148 61.988228 -33.537918 4294967295
-75.464859 63.189217 -33.756519 4294967295
-75.462364 61.694035 -33.411613 4294967295
-75.462212 62.593201 -33.596603 4294967295
-75.404282 56.495525 -33.595615 4294967295
-75.401741 57.547356 -33.779591 4294967295
-75.392487 57.257298 -33.59396 4294967295
-75.37323 59.375954 -33.772858 4294967295
-75.363777 58.187099 -33.397972 4294967295
-75.361038 57.89011 -33.299107 4294967295
-75.355667 61.192966 -33.91198 4294967295
-75.353081 60.147263 -33.659908 4294967295
-75.348297 60.7519 -33.720539 4294967295
-75.336342 63.011959 -34.027557 4294967295
-75.321823 62.280071 -33.678928 4294967295
-75.253387 56.793861 -33.661121 4294967295
-75.206589 60.140999 -33.722374 4294967295
-75.20636 59.092144 -33.502014 4294967295
-75.205986 58.942635 -33.466003 4294967295
-75.202087 58.796894 -33.383202 4294967295
-75.200043 60.597752 -33.72855 4294967295
-75.199104 59.549736 -33.498798 4294967295
-75.196014 59.852905 -33.519897 4294967295
-75.19133 60.757301 -33.643963 4294967295
-75.187088 61.511215 -33.742767 4294967295
-75.186935 62.260303 -33.89587 4294967295
-75.185654 62.561279 -33.940929 4294967295
-75.18531 62.711418 -33.967331 4294967295
-75.182732 59.267662 -33.219219 4294967295
-75.182304 61.216961 -33.617249 4294967295
-75.180176 59.720333 -33.278526 4294967295
-75.174042 61.825676 -33.631718 4294967295
-75.160973 63.039246 -33.706463 4294967295
-75.101288 56.493763 -33.586437 4294967295
-75.094109 56.651054 -33.522373 4294967295
-75.084572 57.260689 -33.520061 4294967295
-75.082176 58.012814 -33.643307 4294967295
-75.077293 58.31778 -33.64064 4294967295
-75.070641 56.375027 -33.149334 4294967295
-75.066978 57.878883 -33.411022 4294967295
-75.06485 56.981121 -33.196762 4294967295
-75.061447 57.584717 -33.275692 4294967295
-75.043694 61.201756 -33.784374 4294967295
-75.027954 60.020168 -33.3283 4294967295
-75.022659 63.023258 -33.877663 4294967295
-75.021622 62.125687 -33.678173 4294967295
-75.017311 62.729897 -33.745018 4294967295
-75.002113 61.998074 -33.38924 4294967295
-74.931717 57.261196 -33.49828 4294967295
-74.922806 56.820396 -33.287743 4294967295
-74.920441 59.371864 -33.782379 4294967295
-74.917679 57.875668 -33.436726 4294967295
-74.89679 58.947559 -33.377556 4294967295
-74.882057 61.811768 -33.77055 4294967295
-74.870819 60.625298 -33.375134 4294967295
-74.868416 61.527454 -33.528965 4294967295
-74.868385 59.72813 -33.157394 4294967295
-74.865677 62.429729 -33.678249 4294967295
-74.863792 60.932976 -33.344288 4294967295
-74.86235 61.983955 -33.541687 4294967295
-74.858292 62.288326 -33.549934 4294967295
-74.856445 61.690857 -33.401962 4294967295
-74.838806 63.209991 -33.478535 4294967295
-74.792038 56.798229 -33.557625 4294967295
-74.781166 56.959332 -33.445415 4294967295
-74.778816 56.361664 -33.290878 4294967295
-74.77758 58.16272 -33.645203 4294967295
-74.773674 57.267021 -33.408585 4294967295
-74.771866 57.568874 -33.446491 4294967295
-74.770569 57.120216 -33.336796 4294967295
-74.769745 57.871033 -33.480358 4294967295
-74.769531 58.770889 -33.662785 4294967295
-74.767754 56.672985 -33.207088 4294967295
-74.752708 57.738796 -33.225254 4294967295
-74.751419 59.689793 -33.609615 4294967295
-74.749657 60.291271 -33.709869 4294967295
-74.74955 60.441254 -33.739372 4294967295
-74.748947 58.042782 -33.237591 4294967295
-74.74118 61.049942 -33.752682 4294967295
-74.739883 59.252399 -33.365391 4294967295
-74.734123 60.758026 -33.598194 4294967295
-74.725159 59.56823 -33.233509 4294967295
-74.720604 63.170689 -33.913906 4294967295
-74.719406 61.224072 -33.497368 4294967295
-74.708969 62.734669 -33.668594 4294967295
-74.699844 61.39587 -33.27103 4294967295
-74.688515 62.158424 -33.276497 4294967295
-74.684776 63.062263 -33.412491 4294967295
-74.611237 59.077126 -33.631641 4294967295
-74.597214 60.591274 -33.75576 4294967295
-74.591904 58.647739 -33.285755 4294967295
-74.587448 61.501228 -33.8125 4294967295
-74.584106 61.804653 -33.830246 4294967295
-74.580658 58.359493 -33.076736 4294967295
-74.570992 60.170185 -33.319771 4294967295
-74.527473 62.918209 -33.304058 4294967295
-74.525764 63.220055 -33.343182 4294967295
-74.47963 57.705853 -33.611874 4294967295
-74.479591 56.505867 -33.365334 4294967295
-74.477921 56.6576 -33.37421 4294967295
-74.474915 56.960716 -33.396408 4294967295
-74.472649 58.462875 -33.674305 4294967295
-74.467896 57.417969 -33.396904 4294967295
-74.453934 58.032497 -33.337433 4294967295
-74.444923 58.341965 -33.281166 4294967295
-74.444839 59.542011 -33.526043 4294967295
-74.444534 58.642426 -33.337551 4294967295
-74.444321 57.892437 -33.181057 4294967295
-74.442192 60.14463 -33.614357 4294967295
-74.441139 60.745396 -33.72353 4294967295
-74.440666 59.696453 -33.502254 4294967295
-74.440079 57.596657 -33.064045 4294967295
-74.434128 58.20319 -33.109329 4294967295
-74.432106 59.10564 -33.267391 4294967295
-74.428123 60.45982 -33.492069 4294967295
-74.427696 59.860405 -33.363556 4294967295
-74.426338 59.411839 -33.253593 4294967295
-74.419121 61.369343 -33.558815 4294967295
-74.412918 60.32642 -33.262741 4294967295
-74.411995 62.426605 -33.680828 4294967295
-74.404091 61.685963 -33.424019 4294967295
-74.401871 60.938541 -33.241459 4294967295
-74.399353 62.141094 -33.454403 4294967295
-74.398003 62.892178 -33.590317 4294967295
-74.391968 63.048981 -33.542271 4294967295
-74.388016 62.003902 -33.275677 4294967295
-74.334602 56.498306 -33.447399 4294967295
-74.284569 57.89994 -33.071644 4294967295
-74.277359 60.008221 -33.407455 4294967295
-74.275421 58.35976 -33.04459 4294967295
-74.268242 61.217892 -33.534073 4294967295
-74.262367 62.723457 -33.764145 4294967295
-74.258728 63.027313 -33.778095 4294967295
-74.254646 61.382885 -33.387802 4294967295
-74.178291 56.802216 -33.443264 4294967295
-74.174431 57.256222 -33.485073 4294967295
-74.172813 58.007896 -33.617172 4294967295
-74.1679 56.962757 -33.338966 4294967295
-74.160278 56.520153 -33.147953 4294967295
-74.15712 57.724041 -33.352058 4294967295
-74.150475 56.379818 -32.989883 4294967295
-74.14653 58.63525 -33.398312 4294967295
-74.145042 56.685574 -32.980686 4294967295
-74.142395 59.539627 -33.528339 4294967295
-74.137001 57.594589 -33.060093 4294967295
-74.135262 59.697224 -33.466393 4294967295
-74.132454 57.148785 -32.909042 4294967295
-74.132034 58.200161 -33.118156 4294967295
-74.131538 60.301136 -33.540512 4294967295
-74.129547 58.953159 -33.23909 4294967295
-74.126251 58.356274 -33.073711 4294967295
-74.124069 58.508656 -33.075996 4294967295
-74.123489 59.409729 -33.252335 4294967295
-74.118294 60.915413 -33.491051 4294967295
-74.117004 60.016823 -33.2906 4294967295
-74.11219 61.222046 -33.473045 4294967295
-74.111275 61.522968 -33.522404 4294967295
-74.108177 59.275902 -33.022869 4294967295
-74.107643 60.777065 -33.322231 4294967295
-74.107315 61.677315 -33.501606 4294967295
-74.106667 60.628113 -33.278938 4294967295
-74.104523 59.880173 -33.097973 4294967295
-74.104179 62.730289 -33.675053 4294967295
-74.103233 62.281624 -33.571072 4294967295
-74.098518 63.036507 -33.662815 4294967295
-74.092148 61.094078 -33.182404 4294967295
-74.084602 62.602505 -33.390652 4294967295
-74.017647 56.810383 -33.322258 4294967295
-73.998291 57.280224 -33.163357 4294967295
-73.996529 59.082752 -33.50745 4294967295
-73.986465 60.593204 -33.682655 4294967295
-73.973526 58.056194 -32.995701 4294967295
-73.969772 59.261005 -33.191769 4294967295
-73.966431 58.664101 -33.026203 4294967295
-73.962479 62.418659 -33.738876 4294967295
-73.949005 61.383995 -33.350864 4294967295
-73.928558 62.756741 -33.361404 4294967295
-73.918823 63.067734 -33.296726 4294967295
-73.857689 58.31852 -33.516197 4294967295
-73.85527 56.970333 -33.210377 4294967295
-73.854111 57.571918 -33.31749 4294967295
-73.850639 58.925911 -33.547272 4294967295
-73.849648 58.176773 -33.381996 4294967295
-73.839195 59.087921 -33.430176 4294967295
-73.832527 59.695065 -33.466061 4294967295
-73.829918 60.44783 -33.584866 4294967295
-73.828026 59.549805 -33.377602 4294967295
-73.82798 59.249756 -33.31596 4294967295
-73.827423 58.800117 -33.217228 4294967295
-73.824127 60.004047 -33.418777 4294967295
-73.810257 62.418667 -33.727638 4294967295
-73.809639 59.869453 -33.20145 4294967295
-73.807816 61.521725 -33.513317 4294967295
-73.807808 60.6217 -33.330326 4294967295
-73.806595 61.972965 -33.589005 4294967295
-73.804077 62.125713 -33.586987 4294967295
-73.797279 61.683323 -33.40799 4294967295
-73.796448 62.883942 -33.641037 4294967295
-73.795364 61.385403 -33.322384 4294967295
-73.794342 60.936394 -33.217731 4294967295
-73.787079 63.194405 -33.581261 4294967295
-73.764282 62.770218 -33.196209 4294967295
-73.719383 56.803501 -33.379417 4294967295
-73.718796 57.104256 -33.432777 4294967295
-73.718048 56.3545 -33.270802 4294967295
-73.706879 57.716606 -33.401234 4294967295
-73.691429 56.981586 -33.050137 4294967295
-73.674026 60.901596 -33.617935 4294967295
-73.673828 58.500996 -33.128452 4294967295
-73.6698 58.355015 -33.046146 4294967295
-73.669563 58.054932 -32.982189 4294967295
-73.668564 57.605385 -32.877895 4294967295
-73.668495 60.007481 -33.364288 4294967295
-73.65316 61.074249 -33.380219 4294967295
-73.638504 60.189564 -33.009212 4294967295
-73.620567 62.160355 -33.174526 4294967295
-73.542526 56.827652 -33.052322 4294967295
-73.538391 56.531345 -32.938515 4294967295
-73.519302 58.352859 -33.058624 4294967295
-73.519073 59.704151 -33.329201 4294967295
-73.515663 59.407566 -33.224686 4294967295
-73.515549 59.257568 -33.192905 4294967295
-73.511497 61.512604 -33.596519 4294967295
-73.505066 59.118382 -33.028137 4294967295
-73.49897 60.626007 -33.253895 4294967295
-73.498337 60.176399 -33.154671 4294967295
-73.494637 59.880081 -33.046467 4294967295
-73.491524 61.684475 -33.371082 4294967295
-73.490685 61.985443 -33.421116 4294967295
-73.486092 60.94006 -33.149651 4294967295
-73.484924 61.391579 -33.225899 4294967295
-73.484665 60.040806 -32.949051 4294967295
-73.480812 62.44643 -33.385738 4294967295
-73.480095 63.197201 -33.528355 4294967295
-73.478973 61.09787 -33.088856 4294967295
-73.475517 62.152233 -33.257202 4294967295
-73.465668 62.763386 -33.252556 4294967295
-73.455757 63.074604 -33.186409 4294967295
-73.395935 56.671417 -33.084137 4294967295
-73.394516 56.97319 -33.126713 4294967295
-73.38385 56.382889 -32.868885 4294967295
-73.382759 57.435486 -33.067455 4294967295
-73.380432 56.235977 -32.794834 4294967295
-73.379906 58.189201 -33.182663 4294967295
-73.379417 56.837986 -32.903328 4294967295
-73.379005 58.640511 -33.262226 4294967295
-73.376305 57.141544 -32.924206 4294967295
-73.370605 56.546185 -32.729885 4294967295
-73.365471 60.305618 -33.422867 4294967295
-73.361687 57.757133 -32.858852 4294967295
-73.361023 58.058254 -32.911045 4294967295
-73.354034 58.816422 -32.973434 4294967295
-73.352249 61.220081 -33.435856 4294967295
-73.348679 62.124058 -33.572056 4294967295
-73.336044 59.58609 -32.89539 4294967295
-73.330498 62.894203 -33.491455 4294967295
-73.330017 62.59473 -33.424713 4294967295
-73.321922 61.102802 -33.018349 4294967295
-73.248817 57.716991 -33.351482 4294967295
-73.248795 56.515736 -33.108887 4294967295
-73.239235 57.426327 -33.168781 4294967295
-73.220665 58.496288 -33.144146 4294967295
-73.179306 61.692562 -33.253189 4294967295
-73.178787 61.392937 -33.186024 4294967295
-73.176613 60.344257 -32.946484 4294967295
-73.172226 63.050854 -33.435272 4294967295
-73.170471 62.902782 -33.382725 4294967295
-73.167717 62.155514 -33.196434 4294967295
-73.154022 62.620926 -33.112949 4294967295
-73.100143 56.361538 -33.114353 4294967295
-73.094597 56.517174 -33.074142 4294967295
-73.092834 56.819332 -33.112183 4294967295
-73.091591 56.670341 -33.066185 4294967295
-73.089783 57.272942 -33.164085 4294967295
-73.088539 57.123985 -33.118084 4294967295
-73.087166 58.32666 -33.342453 4294967295
-73.086609 56.975685 -33.06337 4294967295
-73.079659 57.433228 -33.065746 4294967295
-73.073387 58.640991 -33.227901 4294967295
-73.072731 59.242195 -33.340355 4294967295
-73.072357 57.740955 -33.033474 4294967295
-73.068855 59.996712 -33.442142 4294967295
-73.063805 59.851925 -33.347839 4294967295
-73.059074 58.054783 -32.925247 4294967295
-73.055176 60.611492 -33.389336 4294967295
-73.053703 59.111725 -33.068584 4294967295
-73.05275 59.413055 -33.11697 4294967295
-73.051437 58.813667 -32.979408 4294967295
-73.048279 62.119358 -33.603668 4294967295
-73.042442 61.075356 -33.318336 4294967295
-73.041687 60.926071 -33.278553 4294967295
-73.039482 59.727238 -33.008961 4294967295
-73.036613 62.582214 -33.546253 4294967295
-73.034317 62.73476 -33.547344 4294967295
-73.030457 60.187279 -32.98502 4294967295
-73.014053 61.556324 -33.048794 4294967295
-72.999031 63.224171 -33.190449 4294967295
-72.942169 56.21637 -33.001797 4294967295
-72.937469 58.023441 -33.304379 4294967295
-72.934708 57.87606 -33.239227 4294967295
-72.906052 60.007519 -33.298672 4294967295
-72.889839 58.372009 -32.76173 4294967295
-72.844704 62.775909 -33.065392 4294967295
-72.793793 56.662811 -33.131699 4294967295
-72.789513 57.267868 -33.198124 4294967295
-72.781693 56.524349 -32.94886 4294967295
-72.777634 57.129364 -33.018131 4294967295
-72.776421 57.431046 -33.062992 4294967295
-72.775261 58.033062 -33.168766 4294967295
-72.774567 57.733341 -33.099804 4294967295
-72.771019 58.788242 -33.265816 4294967295
-72.769531 58.339222 -33.156693 4294967295
-72.768631 57.889492 -33.055065 4294967295
-72.763069 59.397018 -33.285854 4294967295
-72.756363 58.652981 -33.050728 4294967295
-72.754295 60.006691 -33.295586 4294967295
-72.750847 60.310574 -33.31221 4294967295
-72.744514 58.965511 -32.96154 4294967295
-72.744377 61.218082 -33.411106 4294967295
-72.741623 58.5177 -32.834641 4294967295
-72.733177 59.878555 -32.999077 4294967295
-72.7313 62.432804 -33.486759 4294967295
-72.730087 60.933083 -33.170769 4294967295
-72.728424 62.285889 -33.420441 4294967295
-72.726311 60.18615 -32.972744 4294967295
-72.721916 61.842667 -33.248272 4294967295
-72.719353 60.6441 -32.975296 4294967295
-72.719025 61.545517 -33.15168 4294967295
-72.716774 63.199074 -33.453999 4294967295
-72.71402 62.00135 -33.17886 4294967295
-72.712196 61.402687 -33.035526 4294967295
-72.710663 63.055786 -33.346958 4294967295
-72.702782 62.614151 -33.157536 4294967295
-72.698349 62.769157 -33.131737 4294967295
-72.613708 56.839714 -32.802025 4294967295
-72.611885 58.043762 -33.019592 4294967295
-72.608437 56.39381 -32.645512 4294967295
-72.590378 59.718132 -33.079639 4294967295
-72.572403 60.337708 -32.973812 4294967295
-72.567505 61.093906 -33.062462 4294967295
-72.56588 61.396004 -33.1021 4294967295
-72.548752 62.165344 -33.036991 4294967295
-72.538544 62.62701 -32.998825 4294967295
-72.535919 63.08041 -33.055954 4294967295
-72.481621 57.270256 -33.136814 4294967295
-72.477921 56.372215 -32.9104 4294967295
-72.466705 57.585453 -33.009811 4294967295
-72.460602 57.140594 -32.843204 4294967295
-72.459297 58.944988 -33.186756 4294967295
-72.457329 58.045567 -32.982178 4294967295
-72.454391 56.545273 -32.645176 4294967295
-72.449455 58.353985 -32.943439 4294967295
-72.449242 56.700634 -32.610596 4294967295
-72.442093 59.262966 -33.031044 4294967295
-72.441116 57.761093 -32.718842 4294967295
-72.44101 58.663036 -32.89756 4294967295
-72.440926 59.414391 -33.046459 4294967295
-72.440399 57.91214 -32.739819 4294967295
-72.43998 59.715813 -33.094501 4294967295
-72.431641 62.127014 -33.469463 4294967295
-72.431053 61.226948 -33.282425 4294967295
-72.430519 59.875813 -33.00592 4294967295
-72.426727 60.931213 -33.168259 4294967295
-72.425858 61.833038 -33.337154 4294967295
-72.424591 60.032196 -32.96162 4294967295
-72.420517 60.33691 -32.970592 4294967295
-72.420303 62.589592 -33.417301 4294967295
-72.416756 60.641315 -32.983372 4294967295
-72.408676 62.001686 -33.151905 4294967295
-72.405632 63.055958 -33.323494 4294967295
-72.405518 61.404316 -32.992435 4294967295
-72.3974 62.914875 -33.190479 4294967295
-72.384048 62.478924 -32.933407 4294967295
-72.328331 57.120499 -33.085064 4294967295
-72.320145 56.677578 -32.892807 4294967295
-72.306503 59.395714 -33.261158 4294967295
-72.293922 57.304459 -32.684685 4294967295
-72.268745 59.133698 -32.729374 4294967295
-72.263695 59.289165 -32.69622 4294967295
-72.248268 61.859928 -33.012299 4294967295
-72.247185 62.612057 -33.148365 4294967295
-72.244606 61.112598 -32.817028 4294967295
-72.238754 62.771416 -33.072987 4294967295
-72.237274 62.322414 -32.964775 4294967295
-72.228195 63.083347 -33.001038 4294967295
-72.158737 57.738083 -32.979839 4294967295
-72.157928 57.137619 -32.850193 4294967295
-72.157028 56.687439 -32.749279 4294967295
-72.152771 56.390774 -32.636303 4294967295
-72.150505 57.595871 -32.847347 4294967295
-72.148254 58.349648 -32.968674 4294967295
-72.147636 58.04966 -32.901253 4294967295
-72.147499 58.951477 -33.078835 4294967295
-72.142235 57.00251 -32.62458 4294967295
-72.138657 57.457146 -32.669712 4294967295
-72.131462 57.915337 -32.6698 4294967295
-72.12867 59.421391 -32.933811 4294967295
-72.128479 58.820377 -32.811932 4294967295
-72.127533 60.324078 -33.098888 4294967295
-72.127266 60.023876 -33.035881 4294967295
-72.122337 58.67622 -32.705544 4294967295
-72.117546 59.883629 -32.884907 4294967295
-72.117142 60.935818 -33.089001 4294967295
-72.115479 59.284504 -32.739655 4294967295
-72.11396 59.135704 -32.690872 4294967295
-72.112984 63.192608 -33.484867 4294967295
-72.110023 60.642792 -32.94059 4294967295
-72.105385 61.248657 -33.002335 4294967295
-72.105316 61.999802 -33.150753 4294967295
-72.102097 62.904278 -33.289757 4294967295
-72.101654 61.553078 -33.015602 4294967295
-72.100334 60.502609 -32.790089 4294967295
-72.097397 61.858074 -33.022259 4294967295
-72.092155 62.46455 -33.076511 4294967295
-72.087021 63.0709 -33.13195 4294967295
-72.017159 58.027569 -33.164173 4294967295
-72.010017 56.531384 -32.77705 4294967295
-72.001411 58.944786 -33.147415 4294967295
-71.990921 59.856846 -33.196022 4294967295
-71.988846 59.558498 -33.110661 4294967295
-71.977585 60.171024 -33.090073 4294967295
-71.97744 57.766064 -32.610962 4294967295
-71.971085 58.524261 -32.681267 4294967295
-71.954132 59.744228 -32.709427 4294967295
-71.946152 62.006836 -33.057503 4294967295
-71.942932 60.50745 -32.719467 4294967295
-71.876991 57.113583 -33.127022 4294967295
-71.831245 59.112591 -32.947464 4294967295
-71.830284 57.309177 -32.578201 4294967295
-71.82827 57.611973 -32.612782 4294967295
-71.827301 58.81591 -32.839054 4294967295
-71.825401 61.071869 -33.261848 4294967295
-71.823456 60.923695 -33.20805 4294967295
-71.82225 59.572601 -32.925377 4294967295
-71.821991 60.023735 -33.011478 4294967295
-71.813583 62.285812 -33.353542 4294967295
-71.812538 61.536003 -33.191914 4294967295
-71.812248 59.883415 -32.861076 4294967295
-71.811806 62.43787 -33.36132 4294967295
-71.810837 60.636333 -32.992458 4294967295
-71.806862 63.043789 -33.419029 4294967295
-71.806702 62.893822 -33.387363 4294967295
-71.805054 61.844349 -33.158859 4294967295
-71.800529 61.248165 -32.983894 4294967295
-71.799538 61.699974 -33.06081 4294967295
-71.79438 61.404903 -32.937519 4294967295
-71.793938 63.208 -33.288879 4294967295
-71.793602 60.804535 -32.808899 4294967295
-71.713646 57.123699 -32.98185 4294967295
-71.712013 56.523834 -32.842785 4294967295
-71.709747 57.578453 -33.022945 4294967295
-71.703331 56.83289 -32.794987 4294967295
-71.697479 58.041424 -32.960533 4294967295
-71.697449 58.342094 -33.019588 4294967295
-71.697227 58.642914 -33.07626 4294967295
-71.696548 59.394936 -33.216393 4294967295
-71.693832 57.894665 -32.885788 4294967295
-71.691216 60.151505 -33.29911 4294967295
-71.691109 59.250156 -33.119606 4294967295
-71.682747 60.310425 -33.224251 4294967295
-71.627724 62.171097 -32.901829 4294967295
-71.625 63.075584 -33.046352 4294967295
-71.541466 56.390053 -32.580616 4294967295
-71.535347 58.952553 -33.009727 4294967295
-71.532478 59.857182 -33.152336 4294967295
-71.518692 58.518036 -32.715736 4294967295
-71.508942 58.678093 -32.625385 4294967295
-71.492432 62.90374 -33.252415 4294967295
-71.490417 61.253078 -32.901741 4294967295
-71.490044 62.155163 -33.074924 4294967295
-71.487175 62.608948 -33.128593 4294967295
-71.486755 63.060062 -33.212276 4294967295
-71.4785 61.716507 -32.844124 4294967295
-71.407234 56.6731 -32.854855 4294967295
-71.405128 56.975883 -32.888279 4294967295
-71.403778 57.277927 -32.93095 4294967295
-71.398872 57.884102 -32.989166 4294967295
-71.394073 56.384701 -32.63401 4294967295
-71.391029 58.493141 -33.011322 4294967295
-71.390465 58.644028 -33.033985 4294967295
-71.389214 57.141514 -32.722469 4294967295
-71.38887 56.840977 -32.659046 4294967295
-71.388351 58.195084 -32.919212 4294967295
-71.387131 59.699429 -33.200275 4294967295
-71.386665 59.399338 -33.135403 4294967295
-71.384384 58.950703 -33.018608 4294967295
-71.381248 57.600441 -32.7136 4294967295
-71.377762 57.453384 -32.641151 4294967295
-71.376198 60.311596 -33.184521 4294967295
-71.373947 59.562428 -33.008968 4294967295
-71.366859 60.020538 -33.010807 4294967295
-71.352638 59.884628 -32.806774 4294967295
-71.337593 62.004662 -33.036602 4294967295
-71.336296 60.653122 -32.75436 4294967295
-71.335281 61.55621 -32.919468 4294967295
-71.333733 60.204597 -32.634075 4294967295
-71.330566 62.613197 -33.068714 4294967295
-71.327766 60.812279 -32.679379 4294967295
-71.324898 62.919781 -33.058449 4294967295
-71.25708 56.52 -32.844139 4294967295
-71.239723 59.092899 -33.134247 4294967295
-71.204971 60.330441 -32.945511 4294967295
-71.202499 61.685654 -33.181065 4294967295
-71.201996 58.077259 -32.465839 4294967295
-71.18589 59.748238 -32.594009 4294967295
-71.100075 57.726948 -33.015606 4294967295
-71.096848 56.677212 -32.769665 4294967295
-71.096016 56.377094 -32.700459 4294967295
-71.089912 57.586346 -32.862129 4294967295
-71.085831 58.642956 -33.018822 4294967295
-71.081703 58.346264 -32.909527 4294967295
-71.080902 57.444576 -32.722675 4294967295
-71.079712 59.400696 -33.091652 4294967295
-71.077446 58.20002 -32.828129 4294967295
-71.071533 56.249496 -32.372208 4294967295
-71.070129 57.153934 -32.532188 4294967295
-71.068184 59.111462 -32.892117 4294967295
-71.067352 59.563377 -32.970467 4294967295
-71.066704 58.962543 -32.844582 4294967295
-71.062859 56.859806 -32.384502 4294967295
-71.062759 59.868683 -32.973434 4294967295
-71.060478 57.012592 -32.384991 4294967295
-71.058899 60.473919 -33.044292 4294967295
-71.056717 61.227654 -33.165077 4294967295
-71.055832 61.378845 -33.18375 4294967295
-71.055176 60.778355 -33.05785 4294967295
-71.053726 60.178501 -32.922272 4294967295
-71.050751 57.925014 -32.443485 4294967295
-71.050468 58.828148 -32.617088 4294967295
-71.040848 61.845291 -33.089577 4294967295
-71.038368 61.096283 -32.912003 4294967295
-71.03347 61.70269 -32.970215 4294967295
-71.033043 62.755154 -33.171341 4294967295
-71.021126 62.918121 -33.055614 4294967295
-71.020508 62.16724 -32.900761 4294967295
-71.012459 62.626724 -32.891182 4294967295
-71.008804 63.081581 -32.93504 4294967295
-70.955299 56.365528 -32.834831 4294967295
-70.941826 56.679058 -32.729805 4294967295
-70.904861 60.775833 -33.075375 4294967295
-70.897804 59.128738 -32.665791 4294967295
-70.896637 59.430771 -32.710457 4294967295
-70.889488 61.543247 -33.035686 4294967295
-70.887466 62.447113 -33.187645 4294967295
-70.880272 60.349731 -32.688313 4294967295
-70.877609 59.750637 -32.538155 4294967295
-70.873283 63.213516 -33.162361 4294967295
-70.786613 56.530556 -32.658665 4294967295
-70.785301 56.983231 -32.730968 4294967295
-70.783508 58.037998 -32.915035 4294967295
-70.780212 56.837547 -32.639801 4294967295
-70.773857 59.701542 -33.121235 4294967295
-70.768753 59.255547 -32.97123 4294967295
-70.765694 58.656952 -32.816616 4294967295
-70.7649 57.454018 -32.571812 4294967295
-70.764465 58.507717 -32.772346 4294967295
-70.763039 56.100861 -32.28437 4294967295
-70.761116 57.909119 -32.614105 4294967295
-70.75753 60.619949 -33.099667 4294967295
-70.751251 61.077316 -33.111713 4294967295
-70.749992 60.92828 -33.067104 4294967295
-70.748856 58.974316 -32.671364 4294967295
-70.747589 58.825104 -32.62653 4294967295
-70.746635 59.427841 -32.732647 4294967295
-70.746292 59.879444 -32.816654 4294967295
-70.746101 59.578804 -32.755516 4294967295
-70.74511 60.482197 -32.919777 4294967295
-70.739738 60.186836 -32.79599 4294967295
-70.737328 58.383614 -32.413944 4294967295
-70.736877 60.039295 -32.731949 4294967295
-70.736778 61.242504 -32.965748 4294967295
-70.735207 61.695141 -33.034836 4294967295
-70.733833 62.748661 -33.22366 4294967295
-70.733376 62.147995 -33.10078 4294967295
-70.732407 61.547703 -32.971561 4294967295
-70.725739 63.057777 -33.184437 4294967295
-70.722313 62.009216 -32.937443 4294967295
-70.721794 60.806664 -32.696182 4294967295
-70.638824 56.826542 -32.765858 4294967295
-70.630424 57.737232 -32.840393 4294967295
-70.612419 56.550179 -32.387798 4294967295
-70.598076 61.378365 -33.153332 4294967295
-70.594788 58.674404 -32.585686 4294967295
-70.588997 57.92738 -32.368908 4294967295
-70.586403 59.73595 -32.689854 4294967295
-70.561432 63.070103 -33.03334 4294967295
-70.558693 62.772331 -32.941669 4294967295
-70.558357 61.569592 -32.703102 4294967295
-70.473267 57.440201 -32.717094 4294967295
-70.473129 56.988831 -32.627499 4294967295
-70.469528 57.74472 -32.730598 4294967295
-70.469002 56.390518 -32.46048 4294967295
-70.466736 59.101391 -32.960541 4294967295
-70.458511 59.861473 -33.007862 4294967295
-70.457489 56.551773 -32.35096 4294967295
-70.455627 56.854668 -32.387203 4294967295
-70.454788 58.812191 -32.758076 4294967295
-70.452118 58.212856 -32.608681 4294967295
-70.450714 61.07217 -33.148067 4294967295
-70.439568 59.579411 -32.721149 4294967295
-70.439354 58.526192 -32.513496 4294967295
-70.434586 61.238964 -32.983154 4294967295
-70.432404 58.081245 -32.34182 4294967295
-70.432388 60.489212 -32.81036 4294967295
-70.431969 60.18877 -32.7467 4294967295
-70.428963 60.793507 -32.827644 4294967295
-70.426476 58.990295 -32.446236 4294967295
-70.423233 62.603813 -33.10984 4294967295
-70.419746 62.306789 -33.009327 4294967295
-70.419563 61.404713 -32.831589 4294967295
-70.418419 59.750835 -32.495647 4294967295
-70.417152 62.459843 -33.007412 4294967295
-70.415001 63.213749 -33.127689 4294967295
-70.413345 60.95977 -32.668884 4294967295
-70.40876 63.070026 -33.023434 4294967295
-70.405022 61.720486 -32.715069 4294967295
-70.39209 62.185173 -32.647213 4294967295
-70.391823 62.78714 -32.761089 4294967295
-70.327942 57.583336 -32.824463 4294967295
-70.327576 57.884605 -32.878498 4294967295
-70.315849 56.691586 -32.503632 4294967295
-70.297913 59.568241 -32.843803 4294967295
-70.291901 58.671261 -32.596184 4294967295
-70.270363 58.842678 -32.366638 4294967295
-70.270187 60.047085 -32.598511 4294967295
-70.266609 61.85601 -32.906288 4294967295
-70.264389 61.106186 -32.733566 4294967295
-70.256706 60.361534 -32.495132 4294967295
-70.245834 61.42601 -32.569244 4294967295
-70.234726 62.490719 -32.640568 4294967295
-70.182457 56.974239 -32.783581 4294967295
-70.141182 57.464531 -32.376621 4294967295
-70.140923 58.067081 -32.490318 4294967295
-70.136429 58.372478 -32.494942 4294967295
-70.134918 57.922218 -32.389233 4294967295
-70.134186 58.826267 -32.555637 4294967295
-70.126114 59.586731 -32.604942 4294967295
-70.12571 58.23217 -32.337345 4294967295
-70.123726 61.093769 -32.868126 4294967295
-70.121201 60.344059 -32.692043 4294967295
-70.119385 58.991158 -32.4076 4294967295
-70.118935 60.045334 -32.606522 4294967295
-70.116264 58.542423 -32.282597 4294967295
-70.111519 59.299953 -32.371773 4294967295
-70.110802 59.902863 -32.480019 4294967295
-70.109467 62.91312 -33.047371 4294967295
-70.107697 59.153099 -32.296806 4294967295
-70.099266 61.569965 -32.662952 4294967295
-70.098694 61.269596 -32.597717 4294967295
-70.093719 61.726109 -32.62574 4294967295
-70.084778 62.3372 -32.63541 4294967295
-70.083336 62.188213 -32.589046 4294967295
-70.014381 56.988106 -32.589546 4294967295
-70.011406 57.442535 -32.641388 4294967295
-70.003845 56.696701 -32.40535 4294967295
-69.99823 56.249973 -32.25074 4294967295
-69.998138 57.605556 -32.512039 4294967295
-69.989243 57.162098 -32.318348 4294967295
-69.964966 60.798737 -32.727894 4294967295
-69.95739 61.558701 -32.783051 4294967295
-69.955261 62.463432 -32.932354 4294967295
-69.954422 61.712173 -32.776772 4294967295
-69.932678 63.088612 -32.779469 4294967295
-69.870483 56.527798 -32.597473 4294967295
-69.853943 58.500278 -32.778664 4294967295
-69.834229 59.873795 -32.805634 4294967295
-69.832642 60.477203 -32.903038 4294967295
-69.828712 60.782001 -32.914452 4294967295
-69.800369 62.615952 -32.925926 4294967295
-69.79895 62.76783 -32.938118 4294967295
-69.795441 61.116333 -32.576717 4294967295
-69.794167 62.02058 -32.735962 4294967295
-69.780136 62.335941 -32.627213 4294967295
-69.777321 61.887306 -32.506538 4294967295
-69.773323 63.095387 -32.691513 4294967295
-69.768555 62.949879 -32.605835 4294967295
-69.715012 56.529823 -32.555012 4294967295
-69.709335 56.986809 -32.574688 4294967295
-69.700035 58.501049 -32.754654 4294967295
-69.700027 58.199997 -32.696545 4294967295
-69.69957 56.393311 -32.342461 4294967295
-69.696114 57.601437 -32.533875 4294967295
-69.692215 56.851986 -32.342308 4294967295
-69.69133 58.960934 -32.738449 4294967295
-69.688339 57.307472 -32.383511 4294967295
-69.673271 58.827728 -32.495083 4294967295
-69.670731 58.378365 -32.377789 4294967295
-69.669838 60.48695 -32.773655 4294967295
-69.667671 59.43541 -32.544739 4294967295
-69.664055 58.685959 -32.356602 4294967295
-69.663757 60.944454 -32.788567 4294967295
-69.662949 59.138832 -32.430599 4294967295
-69.662804 59.741261 -32.54509 4294967295
-69.660828 62.150986 -32.985889 4294967295
-69.656319 60.349819 -32.584225 4294967295
-69.654823 61.705795 -32.827694 4294967295
-69.651344 59.300648 -32.321945 4294967295
-69.650162 60.807526 -32.598274 4294967295
-69.644775 61.565498 -32.679493 4294967295
-69.644615 63.070187 -32.967644 4294967295
-69.561218 56.982079 -32.619778 4294967295
-69.536263 58.360592 -32.585304 4294967295
-69.528542 57.614811 -32.348904 4294967295
-69.524811 58.070206 -32.391792 4294967295
-69.495056 60.207306 -32.445507 4294967295
-69.477203 60.827316 -32.350307 4294967295
-69.460136 62.952496 -32.554115 4294967295
-69.41378 56.374332 -32.557003 4294967295
-69.407181 57.585117 -32.710617 4294967295
-69.405617 56.984222 -32.576435 4294967295
-69.383736 56.552269 -32.231178 4294967295
-69.383148 58.059322 -32.513813 4294967295
-69.383011 58.81237 -32.656902 4294967295
-69.381668 58.512501 -32.58321 4294967295
-69.376579 57.46291 -32.320515 4294967295
-69.376343 57.161785 -32.259789 4294967295
-69.37326 59.122826 -32.599693 4294967295
-69.368675 60.030571 -32.719131 4294967295
-69.366455 57.924332 -32.287819 4294967295
-69.365623 60.635635 -32.798801 4294967295
-69.36293 59.584499 -32.56459 4294967295
-69.358795 59.739082 -32.544746 4294967295
-69.355858 61.999691 -32.943893 4294967295
-69.355125 61.097565 -32.76178 4294967295
-69.354492 61.399193 -32.812138 4294967295
-69.350899 59.445526 -32.393791 4294967295
-69.350082 61.855083 -32.846855 4294967295
-69.344566 60.355297 -32.492638 4294967295
-69.342545 61.260651 -32.642338 4294967295
-69.335503 62.622303 -32.819572 4294967295
-69.329391 63.080009 -32.834175 4294967295
-69.325508 61.578827 -32.499386 4294967295
-69.315048 62.342213 -32.520676 4294967295
-69.313599 61.741405 -32.387852 4294967295
-69.300926 62.507214 -32.383091 4294967295
-69.237938 57.901196 -32.564728 4294967295
-69.212814 58.527287 -32.384617 4294967295
-69.197739 60.800816 -32.640526 4294967295
