# .PCD v0.7 - Point Cloud Data file format
VERSION 0.7
FIELDS x y z
SIZE 4 4 4
TYPE F F F
COUNT 1 1 1
WIDTH 1523
HEIGHT 1
VIEWPOINT 0 0 0 1 0 0 0
POINTS 1523
DATA ascii
242.6301 19.505402 -5.9073296
225.26917 20.449255 -4.0633059
227.10669 20.517321 -4.2124839
229.03802 20.648056 -4.2202334
231.05286 20.908405 -4.4024353
232.98065 21.0123 -4.5720649
234.93823 21.00433 -4.9016323
236.92203 21.088661 -5.1259542
238.9342 21.034164 -5.3475671
240.91127 21.055681 -5.563797
242.96382 21.199778 -5.6412578
244.77599 21.425137 -5.7702909
247.02744 21.857141 -5.8099742
248.65701 21.931831 -5.8955593
231.16504 22.299784 -4.0720868
232.99776 22.533052 -4.2320738
235.08447 22.710419 -4.3185539
236.93365 22.990072 -4.5586696
238.97502 22.964617 -4.6741567
240.9881 23.032543 -4.8601146
243.01979 23.033175 -5.0049005
245.01685 23.050386 -5.3110194
247.01611 23.116951 -5.4927497
248.93506 23.139006 -5.6335845
250.86508 23.263046 -5.8322148
252.8941 23.53088 -5.8579683
254.28391 23.960476 -5.9448738
256.77356 23.906075 -5.9859962
258.06787 23.628254 -5.9274721
236.93311 24.321823 -4.1905446
239.04912 24.425884 -4.2717962
241.10582 24.671778 -4.2563891
243.04179 24.941313 -4.4582806
245.06053 24.970818 -4.5794926
247.06235 25.008461 -4.8129125
249.07452 25.026218 -5.1215448
251.02652 24.969606 -5.4384375
253 25.19425 -5.5995841
255.00365 25.285398 -5.7162156
256.88821 25.287611 -5.7229815
258.09625 24.958464 -5.4627271
238.47537 26.240505 -4.0445118
241.38513 26.159473 -4.0464344
243.23657 26.132305 -4.1082664
245.14696 26.567026 -4.1627116
247.06769 26.877728 -4.2709885
249.08476 26.919147 -4.5145769
251.08704 27.00551 -4.6730242
253.07646 27.057783 -4.9419832
255.04492 27.095144 -5.1722159
256.86209 26.991859 -5.1891055
249.06412 28.354294 -4.1165028
251.06674 28.688921 -4.2627425
253.13588 28.941399 -4.3422017
255.06383 28.917255 -4.4466729
256.93008 28.999716 -4.5491719
253.41956 30.24205 -4.2706604
255.24583 30.429634 -4.14289
256.87402 30.315573 -4.2271438
223.73375 40.378845 -4.0063972
255.52995 49.202499 -5.2153416
119.79756 -0.27078366 -2.5654707
123.18845 -0.25522256 -2.8551512
149.54816 -0.59428144 -2.0869942
150.86113 -0.20757264 -2.0697064
153.093 -0.23925157 -2.3303576
154.79155 -0.25975367 -2.6179299
156.96931 -0.13695426 -2.687175
158.15163 -0.08382535 -2.8962688
164.77008 -0.020627737 -3.5350895
169.35931 -0.30762732 -3.227025
215.29697 -0.56768465 -3.0667286
216.28777 -0.22153306 -3.9296598
100.18318 0.1571362 -3.0416689
105.11479 0.27173316 -3.6709146
123.19649 0.12180781 -2.7234249
150.9487 0.21610117 -2.0446892
153.0536 0.27234021 -2.1309905
155.0229 0.70437038 -2.2656178
157.06131 0.92726195 -2.3775096
159.00096 1.0323391 -2.5539398
160.97237 1.1018813 -2.8179188
162.97948 1.1180786 -3.0047059
164.98257 1.1427335 -3.2103829
166.97873 1.1819519 -3.3656778
168.90131 1.2134066 -3.6639981
170.8497 1.3012427 -3.7601824
173.29913 1.1818954 -3.920351
177.66605 0.045188904 -3.6538715
157.24724 2.3481755 -2.0575702
159.08984 2.5095491 -2.1193299
161.02434 2.8212039 -2.2538519
163.11871 2.899215 -2.3878214
165.01102 3.0616357 -2.6000738
167.01018 3.0939965 -2.8227007
169.07863 2.9599574 -3.0702016
171.01633 3.0576234 -3.2598393
172.93826 3.0229969 -3.5088787
174.91994 3.3092077 -3.6813049
176.71526 3.1639822 -3.8047218
178.53705 3.4334514 -3.7886772
180.66997 3.6017685 -3.9987659
182.72928 3.5339417 -3.9957123
161.37453 4.2624288 -2.0775566
163.01292 4.2115436 -2.0816333
164.85812 4.5441771 -2.2299967
167.10611 4.9657688 -2.2407084
169.09886 4.8757434 -2.5106995
171.0296 5.0912251 -2.6888795
173.06342 5.0722723 -2.911803
175.04544 5.0654216 -3.1503961
177.02245 5.0027075 -3.4317551
178.97198 5.0495915 -3.5834515
180.89439 5.2589569 -3.6709676
183.09235 5.2433276 -3.7635975
184.70644 5.3779631 -3.8573246
187.14426 5.7497511 -3.8864317
166.19412 6.2664118 -2.0208874
169.1227 6.6664906 -2.0746951
171.13878 6.4562154 -2.2629757
173.09746 6.9071693 -2.3283308
175.05522 7.0768175 -2.5286791
177.06589 7.0552125 -2.8517425
179.06364 6.9662967 -2.9046371
181.0631 6.9887571 -3.1416364
183.08871 7.0436163 -3.2451749
185.03413 6.9580412 -3.5954514
186.97047 7.2462897 -3.6539862
188.69981 7.5072494 -3.8078842
190.46132 7.3415642 -3.9389293
193.15919 7.9927487 -3.9587898
173.83585 8.6666031 -2.0781708
175.34521 8.6733046 -2.2044034
177.14424 8.6835995 -2.2145965
179.11699 8.8388605 -2.4242246
181.06161 9.0296144 -2.5541263
183.08339 9.0521002 -2.7545748
185.12337 9.0444422 -2.8860817
187.15202 9.0386868 -3.1301534
189.08495 9.109374 -3.4370422
191.10953 9.2936506 -3.5856609
193.00002 9.3569927 -3.8042657
194.96063 9.5921316 -3.7489605
197.16696 9.6215153 -3.979166
179.59126 10.813588 -2.0838516
181.20816 10.67924 -2.2270732
183.18521 10.646951 -2.2951307
185.1369 10.901052 -2.4416478
187.16362 11.015677 -2.5125096
189.13963 11.094078 -2.7556663
191.13339 11.093128 -3.0169673
193.20029 10.969225 -3.2704692
195.10938 11.028732 -3.46418
197.06007 11.157794 -3.5717394
199.15608 11.337568 -3.6918526
201.04424 11.82833 -3.7088649
203.24507 11.962639 -3.7741604
185.7542 12.190311 -2.0121546
187.3466 12.425835 -2.169996
189.14102 12.801368 -2.3057072
190.92648 12.807106 -2.4043274
192.94725 13.047596 -2.6605482
194.95746 12.998186 -2.8359423
197.062 13.057475 -3.0813775
199.09947 13.080053 -3.3304133
201.15138 13.012733 -3.4867163
202.94809 13.012423 -3.6076458
204.88612 13.544802 -3.7424214
206.8443 13.792545 -3.7253275
208.46663 13.59376 -3.8877964
210.51669 13.558632 -3.9525394
212.54817 13.943103 -3.9775867
189.09268 14.308131 -2.1163845
191.10631 14.645584 -2.2023633
193.1868 14.563098 -2.2938437
195.02408 14.783489 -2.2948952
196.95219 14.889569 -2.446249
198.96591 15.094924 -2.588341
200.98038 14.964127 -2.9081922
203.07024 14.980944 -3.1359525
204.98885 14.974769 -3.3400345
206.96799 15.028876 -3.5287616
208.90173 15.188009 -3.6231349
210.73022 15.624724 -3.7037346
212.68074 15.47791 -3.8398886
215.1246 15.786972 -3.8873882
193.09924 16.321823 -2.0233765
194.75171 16.266357 -2.0088043
197.18822 16.642338 -2.0429115
199.05464 16.57678 -2.2806051
201.03345 16.775724 -2.3780317
202.95659 16.913141 -2.3759353
204.9529 16.958151 -2.6971135
206.89767 17.066771 -2.8508573
208.87451 17.0063 -3.046665
210.93973 16.981123 -3.2241185
212.80963 17.139837 -3.4882867
214.967 17.088474 -3.6753271
216.68633 17.322269 -3.6816778
218.82538 17.810825 -3.7896113
220.98309 17.967356 -3.7970333
203.48814 18.853729 -2.140224
205.17731 18.751678 -2.2215011
207.03972 18.888895 -2.4032369
208.93268 19.058891 -2.4239364
210.87779 19.030739 -2.6155493
212.96321 19.033108 -2.8824909
214.88113 19.007471 -3.1520038
216.86221 19.008175 -3.294874
218.84981 18.982485 -3.5771296
220.91034 19.229271 -3.6318054
222.53192 19.28796 -3.8166008
224.54797 19.451134 -3.9607844
206.81123 20.294924 -2.1124382
209.11099 20.556276 -2.1197355
210.93832 20.754066 -2.2230759
213.00696 20.756163 -2.3544002
214.9324 20.920225 -2.5113232
216.92073 21.056669 -2.6929369
218.97743 20.995298 -2.9071922
220.92543 21.044415 -3.1650145
222.92674 20.940779 -3.4323235
224.80766 21.081648 -3.6321352
226.86992 21.138536 -3.7249873
228.87622 21.453535 -3.8086059
230.51799 21.315903 -3.8136699
212.88568 22.248974 -2.018589
215.06079 22.425087 -2.0723438
217.20663 22.625557 -2.1836023
219.05016 22.953344 -2.3073149
220.96317 23.070704 -2.4767795
222.94154 22.980873 -2.8217192
225.04442 22.989832 -2.9917574
226.9471 22.990957 -3.2351604
228.97215 22.995024 -3.3880527
230.94194 23.186693 -3.6102865
232.90685 23.232121 -3.7150691
234.79301 23.402477 -3.7818086
237.10306 23.590275 -3.8242149
218.47464 24.706625 -2.0620041
221.32069 24.74437 -2.2210209
223.13669 24.808987 -2.2473836
224.90778 24.849838 -2.354811
227.006 25.033182 -2.5197718
228.97641 25.014183 -2.8170428
231.0106 25.042786 -2.9385378
233.03331 25.032566 -3.2604074
235.01105 25.085093 -3.522157
237.03853 25.118401 -3.6852264
238.98195 25.294714 -3.805759
241.01384 25.511547 -3.8101106
242.95276 25.204952 -3.9380503
225.19461 26.593588 -2.0580807
227.243 26.776514 -2.2251956
229.05949 26.714069 -2.2849624
231.06194 26.960644 -2.3568184
233.0475 27.077806 -2.6073351
235.08522 27.043215 -2.7888422
237.01643 27.026226 -3.1117415
239.09833 26.930725 -3.3192601
241.03159 27.028791 -3.3829837
243.01109 27.111496 -3.6099956
245.10336 27.367054 -3.7694714
247.14783 27.372757 -3.8745606
249.07271 27.342093 -3.9318893
228.94917 28.306746 -2.0600185
231.64803 28.575285 -2.1976693
233.22737 28.648354 -2.128793
235.11763 28.889399 -2.3505309
237.12245 29.018892 -2.4318421
239.04964 28.989124 -2.6504707
241.15276 29.013609 -2.7497437
243.16148 29.060659 -3.0071092
245.05824 29.022093 -3.2023158
247.07082 28.950521 -3.535805
249.08728 28.916456 -3.7114913
250.98712 29.388796 -3.7692318
252.25459 29.633734 -3.7472694
258.19766 29.709208 -3.8029251
237.11891 30.512983 -2.1944604
239.05566 30.593439 -2.1672165
241.18153 30.696413 -2.2550888
243.10045 31.039421 -2.3894536
245.01276 31.083807 -2.4945059
247.04637 31.014963 -2.7898955
249.16676 31.007915 -3.0882096
251.06552 30.97052 -3.3375323
253.02092 30.92075 -3.5553346
254.9113 31.099722 -3.5913455
256.91208 31.265415 -3.6010406
258.22604 31.039417 -3.3381801
243.19913 32.380135 -2.1442337
245.19762 32.473282 -2.182292
247.18109 32.954655 -2.2787471
249.04219 32.984165 -2.3868446
250.99541 32.996483 -2.7807932
252.92049 32.979973 -2.8886933
254.97273 33.051193 -3.0724432
256.96222 33.081501 -3.1383023
258.2666 32.93972 -2.674258
247.9425 34.268349 -2.0542755
249.55006 34.58252 -2.1396623
251.14049 34.750675 -2.2011282
253.01765 34.78154 -2.2928059
254.92561 34.888405 -2.3670487
257.00369 34.959492 -2.3874683
258.29904 34.459957 -2.1431224
253.17746 36.274231 -2.0222483
254.97305 36.703087 -2.138041
257.47449 36.71981 -2.4741011
224.53651 38.332832 -3.1878662
257.85452 38.056885 -2.4911499
224.82033 45.010555 -2.5223002
254.83293 58.921135 -3.3389645
254.87701 60.986362 -2.6174231
254.90906 62.488342 -2.0926657
99.887207 -0.79448307 -0.87067032
113.26251 -0.42264009 -1.7316351
122.94089 -0.72726995 -1.1111965
131.77104 -0.67149949 -0.084612846
133.56915 -0.84522867 -0.32105732
134.90862 -0.65977347 -0.23135024
137.04346 -0.54095298 -0.34970775
138.98045 -0.51541907 -0.60590589
141.0148 -0.48853961 -0.76586628
142.8476 -0.31409276 -1.0473946
144.94687 -0.2690869 -1.203509
147.13181 -0.45243341 -1.6072788
148.91556 -0.34583715 -1.7758032
150.81148 -0.51327014 -1.8689175
177.97217 -1.2305722 -0.7767067
183.96579 -1.4139199 -0.80806541
135.07681 0.44773203 -0.14185333
137.32224 0.56756246 -0.08437252
139.24272 0.82347059 -0.27714497
141.04272 1.025556 -0.450627
143.0159 1.0732031 -0.61510766
144.99352 1.0341886 -0.88049561
146.99214 0.86143601 -1.22667
148.97874 0.89717162 -1.3412443
150.99045 1.0858338 -1.5378666
152.95644 1.1261823 -1.7053542
154.99921 1.4241885 -1.7469066
156.72568 1.2856904 -1.9228714
158.67673 1.2532949 -1.9941196
139.38435 2.3686833 -0.10882568
141.6283 2.2974145 -0.11231804
143.1747 2.5201986 -0.15359211
145.07097 2.7489529 -0.40159956
147.01364 2.885216 -0.63565737
149.04066 2.9216094 -0.78395379
151.03127 3.0478153 -1.0286655
153.02724 3.0127294 -1.1891427
155.03996 2.9334638 -1.364823
157.02228 3.033371 -1.4819921
158.94644 3.2367263 -1.7253808
161.06393 3.4900434 -1.7850432
162.69962 3.3272922 -1.8338963
144.98427 4.181849 -0.27580681
147.21204 4.5163503 -0.16067865
149.05069 4.609694 -0.2486349
151.11499 4.745563 -0.41836986
153.10555 5.0380988 -0.45678133
155.09534 4.9466424 -0.6725865
157.10847 4.9140358 -0.84686422
159.09544 4.9627843 -1.1996566
161.01204 4.9739795 -1.4023961
163.10608 5.0435972 -1.5983661
165.1308 5.1738281 -1.850332
166.27383 5.5252075 -1.8263884
168.4339 5.5748558 -1.9321855
151.25459 6.330986 -0.057787895
153.37318 6.6185951 -0.12180758
155.45682 6.8570037 -0.17033978
157.18106 6.8326125 -0.38139683
159.09607 7.0221205 -0.53901559
161.08141 7.0097003 -0.83737051
163.08281 7.0369911 -1.0479318
165.10951 7.0010185 -1.2945071
167.13324 6.9759364 -1.5083929
168.96638 7.3726215 -1.5976756
171.03984 7.2701845 -1.8584379
172.92798 7.6002855 -1.8130207
157.29654 8.3065529 -0.024633408
159.09213 8.4400139 -0.21340132
161.35449 8.8890619 -0.27265269
163.13515 9.0238695 -0.38812295
165.04189 8.9579439 -0.58582491
167.06866 8.9753923 -0.8694312
169.13712 8.9522791 -1.0684164
171.07993 8.9272785 -1.3484957
173.04709 8.9752998 -1.5594187
175.05623 9.0153484 -1.7691262
177.08197 9.3296165 -1.7335824
179.04462 9.6392145 -1.9291735
162.90526 10.343775 -0.10323238
165.35387 10.606548 -0.19530821
167.22604 10.835164 -0.38770264
169.192 10.84404 -0.52709413
171.11992 10.976428 -0.59960961
173.12343 11.00467 -0.86522901
175.04005 11.00976 -1.1747617
177.06633 10.938629 -1.4001102
179.06879 11.013617 -1.6093932
180.96626 11.255261 -1.6416487
182.9025 11.223692 -1.8169218
184.68684 11.252084 -1.9232104
186.46155 11.434721 -1.8217907
166.69749 12.383627 -0.056818008
169.14542 12.528912 -0.062865257
171.42281 12.610191 -0.24858856
173.15767 12.837167 -0.38104388
175.12746 13.077425 -0.47824994
177.09077 13.017371 -0.71134126
179.13597 13.060658 -0.89644015
181.13818 12.937842 -1.1642787
183.18367 12.93477 -1.3198651
185.04144 12.970649 -1.6116264
186.91608 13.186994 -1.6203057
188.55875 13.236916 -1.702824
190.8412 13.639313 -1.8584366
192.09132 13.646202 -1.7924099
173.52596 14.007469 -0.27579308
175.46184 14.571098 -0.031114578
177.034 14.679432 -0.2168403
178.84979 14.921601 -0.24688712
180.91997 14.858085 -0.54727823
182.89732 15.061982 -0.70067263
184.84843 14.968036 -0.90118825
186.88084 14.984767 -1.1362951
188.96991 14.965251 -1.4000742
191.09918 15.117135 -1.6214947
193.01009 15.242511 -1.6873914
194.72336 15.377225 -1.8553782
196.73604 15.724929 -1.8952509
179.98334 16.365803 -0.14408112
181.51498 16.729494 -0.084039688
183.07538 16.812664 -0.31541136
184.91408 16.969492 -0.32991028
186.9594 16.970188 -0.50928926
188.87784 16.933186 -0.67527896
190.94365 16.986082 -0.95854282
192.99899 16.994522 -1.1958324
194.94386 16.956442 -1.4102206
196.86964 16.960686 -1.6532739
198.7789 17.32522 -1.708454
200.82182 17.276091 -1.8411001
202.77931 17.294291 -1.9201603
183.17783 18.387806 -0.013755798
184.3826 18.398985 -0.12675285
186.90262 18.609579 -0.18583564
188.998 18.656303 -0.37817273
190.91716 18.959383 -0.30416247
192.85619 19.059526 -0.55115288
194.91093 18.968151 -0.77589786
196.87126 18.922422 -0.99966103
198.87892 18.926762 -1.2657793
200.87143 18.928049 -1.532208
202.76872 19.013987 -1.6652943
204.79726 19.350637 -1.7837731
206.69489 19.290491 -1.7726558
208.58987 19.675606 -1.7878838
190.84564 20.49305 -0.053023022
192.98947 20.674141 -0.15311566
194.89264 20.818054 -0.24062617
197.0472 20.894627 -0.46445665
198.96295 21.019695 -0.66033399
200.96516 20.942984 -0.86011904
202.88783 20.962669 -1.102607
204.86337 20.996056 -1.2423437
206.8985 21.057442 -1.5738262
208.78319 21.240974 -1.6791192
210.88161 21.276999 -1.798
212.80478 21.45928 -1.8491282
214.9054 21.680292 -1.8305181
197.11455 22.68199 -0.19591141
199.13902 22.584412 -0.20013155
200.89471 22.81641 -0.31937525
203.00069 22.976301 -0.51023042
205.01189 23.014326 -0.68143421
206.91478 22.966335 -0.88773149
208.93579 23.062862 -1.0769848
210.9586 23.014669 -1.1926548
212.96295 22.95524 -1.5401911
214.96457 23.083441 -1.5803062
216.81334 23.230772 -1.7401322
218.54822 23.396854 -1.775466
222.2975 23.695065 -1.9723244
199.25064 24.017128 -0.079248428
200.87325 24.010756 -0.17739677
203.2972 24.407835 -0.25878429
205.06262 24.671177 -0.19232096
207.03223 24.724655 -0.35901508
209.06349 24.934847 -0.3594127
211.09067 25.064138 -0.49960908
213.00247 25.016254 -0.83667403
214.98964 24.941601 -1.0890646
217.00377 24.917044 -1.2838243
218.99255 24.98605 -1.54633
220.80865 25.134109 -1.7702272
222.68449 25.469461 -1.7942363
225.37137 25.545788 -1.9411478
205.19473 26.932461 -0.21581078
206.49118 26.03451 -0.22336769
208.93623 26.403318 -0.23515637
211.06288 26.622149 -0.15849659
213.07503 26.900101 -0.23897968
215.07802 26.999777 -0.43183172
217.03458 26.978907 -0.6158452
219.05664 27.025436 -0.87276167
221.06822 26.979691 -1.1985245
223.04358 27.009916 -1.4114908
224.97672 27.066065 -1.6022877
226.85175 27.190203 -1.7907442
229.0192 27.529652 -1.7439091
231.05867 27.323614 -1.9118149
232.74625 27.73695 -1.97999
215.44435 28.321714 -0.077029549
217.31287 28.613688 -0.21596272
219.18483 28.836256 -0.25651178
221.02135 29.053133 -0.47728416
223.0641 29.072651 -0.66754425
225.04474 28.934397 -1.0692128
227.05878 28.957146 -1.1496181
229.0905 28.996834 -1.4424287
230.96361 29.067743 -1.6085205
232.99907 29.19006 -1.7763022
234.84424 29.357359 -1.8486633
236.54326 29.763567 -1.8997402
219.61856 30.383327 -0.11569405
221.07553 30.334513 -0.092592239
223.17488 30.967489 -0.26770985
225.18102 30.837074 -0.37130532
227.15309 30.953651 -0.61973953
229.12761 30.987225 -0.75251752
231.20068 30.989466 -0.90764225
233.07678 30.918964 -1.2164336
235.04095 30.977108 -1.4241556
237.09798 31.086411 -1.6918918
239.15622 31.424046 -1.8225976
240.98987 31.5462 -1.7946742
242.01392 31.732056 -1.7881813
225.23465 32.802971 -0.068504333
227.15585 32.629658 -0.19798259
229.14876 32.513657 -0.20966275
230.91078 32.359047 -0.42503619
233.04012 32.606529 -0.65124482
235.06525 32.901714 -0.72757417
236.97601 32.902954 -1.0441705
239.06084 32.972027 -1.2083514
241.09392 32.891872 -1.5223876
242.92766 33.143929 -1.5964277
244.90251 33.210312 -1.6738863
246.70369 33.286503 -1.8048279
248.88817 33.338806 -1.9495258
250.09465 33.74477 -1.9655704
231.44022 34.46735 -0.33625603
235.73526 34.235531 -0.58678389
237.23328 34.717064 -0.45927969
238.96149 34.864288 -0.56649804
240.89122 34.958733 -0.77665281
242.91458 34.919804 -1.0850953
244.9525 34.941029 -1.2744844
246.97131 34.992989 -1.5105981
248.95718 35.04483 -1.6684506
250.69228 35.237316 -1.7223386
252.6337 35.324039 -1.8608979
254.79744 35.484444 -1.9493433
256.6351 35.177551 -1.9322252
258.31934 35.410107 -1.811161
237.95607 36.003742 -0.29483795
239.06641 36.581181 -0.30321884
241.00787 36.769493 -0.31805846
243.01379 36.935368 -0.45839384
244.91524 37.042854 -0.52099717
246.88008 36.906746 -0.6731087
248.8828 36.934574 -1.0043896
250.91885 36.884762 -1.2192882
252.82378 37.019737 -1.5030272
254.87589 37.00457 -1.5837337
256.86554 37.088173 -1.6443619
224.93011 38.498421 -0.30797958
239.49289 38.053341 -0.12914848
243.59566 38.592796 -0.12796879
244.69786 38.567081 -0.21505737
247.16203 38.707333 -0.26475674
248.87973 38.917328 -0.40762123
250.88542 38.934917 -0.58627027
252.92296 38.949303 -0.76018274
254.92567 38.948078 -1.0025605
256.86374 38.966896 -0.99157327
258.00925 39.581478 -0.29958534
247.58377 40.432148 -0.14090729
249.24797 40.391003 -0.1438961
250.96306 40.77977 -0.2622942
253.02516 40.79493 -0.32639861
255.02336 40.837872 -0.41066161
256.75766 40.913788 -0.47040248
258.02142 40.151569 -0.10041046
254.96545 42.388546 -0.12141132
256.27515 42.755337 -0.041269939
254.92912 63.427078 -1.7646929
254.96115 64.929062 -1.2399349
254.99722 66.61879 -0.64958239
113.43246 -2.0205994 1.8686295
115.45197 -2.0555773 1.7961502
133.334 -2.1241314 1.6013489
113.21777 -1.5797286 1.8771343
115.38574 -1.2593091 1.8558471
117.08779 -1.1092191 1.710482
119.11253 -0.98326302 1.5472027
121.10407 -1.0030158 1.367301
122.91904 -0.87585866 1.1326859
125.05835 -0.65259206 0.99583644
126.99187 -0.76607525 0.77557671
129.01474 -0.61046851 0.47992247
130.94794 -0.59276569 0.22408758
132.80446 -0.51210576 0.15354
135.16768 -0.18433125 0.0455424
136.6761 -0.26257086 0.11061668
146.91383 -1.4288514 0.0024032593
177.92538 -1.8769045 0.69604874
119.29838 0.24137092 1.7553068
121.02302 0.60602528 1.7917712
123.08791 0.70405465 1.7028877
125.10616 0.88779396 1.5824869
127.10469 0.93843514 1.2780186
129.07487 0.92080772 1.0868801
131.04787 0.92682642 0.81104571
133.04782 0.95117629 0.60631144
135.02469 1.1183058 0.41014028
137.00333 1.0664684 0.28571028
138.75233 1.3958001 0.073315881
140.69327 1.7415025 0.22923374
121.01191 2.1088839 1.852397
125.46835 2.4075654 1.8377739
127.01396 2.4747968 1.7119253
129.08804 2.741451 1.661999
131.07445 2.9625535 1.5084692
133.1002 2.9414577 1.2711825
135.1304 2.9654436 1.0653951
137.08249 2.9100449 0.8246727
139.04295 3.0208919 0.50824738
141.00909 3.0784903 0.32082492
142.97935 3.4240975 0.20990236
144.89404 3.5189583 0.18492539
147.31421 3.7740445 0.088953018
129.64447 4.1060228 1.6380806
131.34473 4.6188374 1.7835886
133.15762 4.6666617 1.7843689
135.08614 4.9418764 1.6152602
137.06258 4.9180737 1.3465302
139.09041 4.9998088 1.2156526
141.09836 4.9926653 0.87581104
143.10237 5.0099926 0.68803036
145.0963 5.0863218 0.54206753
146.96303 5.2861261 0.30072907
149.13574 5.4883819 0.21265897
150.96568 5.5569477 0.11428332
154.35974 5.7642336 0.016139984
134.43509 6.1457124 1.9483877
137.39568 6.526011 1.6911551
139.14696 6.9712162 1.6947514
141.15508 7.0136323 1.576764
142.99001 6.9982548 1.3650584
145.08617 6.9050884 1.1676587
147.11067 6.9485326 0.83946669
149.10577 6.9863515 0.60484117
151.08913 7.0812206 0.41481334
153.02756 7.0955343 0.31623822
154.85751 7.1110668 0.27282512
156.67688 7.6242037 0.18881302
141.31512 8.2502947 1.7869759
143.36934 8.6453829 1.8045803
145.25558 8.7633371 1.6333005
147.12013 8.9371071 1.4413326
149.106 8.9745245 1.3162045
151.05923 8.9223404 1.0308547
153.07069 8.9480371 0.94157779
155.05728 8.9988585 0.60008246
157.0412 9.1068106 0.48813498
159.0863 9.1225967 0.35094553
160.76353 9.2417049 0.15656975
162.57333 9.8144531 0.14155579
143.49895 10.095896 1.8946285
145.73582 10.242891 1.8980203
147.27141 10.456332 1.7960428
149.26407 10.555164 1.698056
151.05226 10.764326 1.5879829
152.98956 10.939377 1.5670639
154.92865 10.911656 1.3500043
156.97565 10.97064 1.1410754
159.04399 10.946574 0.88358545
161.12015 11.019692 0.56535637
163.17018 11.114452 0.29222438
164.96667 11.441134 0.23957984
166.90231 11.543917 0.15003149
168.68449 11.601659 0.1049029
151.76181 12.443939 1.9141769
153.43887 12.314426 1.7560552
155.17487 12.707968 1.6758529
157.04839 12.866019 1.6164459
159.07231 12.879448 1.4945602
161.0864 12.958833 1.1902863
163.03671 12.86792 0.97111899
165.11064 12.959089 0.71627337
167.1021 13.07042 0.55571342
168.99359 13.192975 0.43783301
170.82274 13.129708 0.2653684
172.48151 13.570995 0.148894
157.97107 15.076315 1.9253988
159.50003 14.366808 1.8051832
161.0451 14.692422 1.756546
162.8777 14.779022 1.5750251
164.83258 14.908035 1.4348018
166.88892 15.024163 1.2976205
169.00957 15.016028 0.9867934
170.94232 14.938561 0.75465453
172.83273 14.987392 0.5489729
174.80663 15.05521 0.38041314
176.73686 15.469039 0.24249284
178.63106 15.870115 0.10007191
180.82219 15.628595 0.10515442
163.08775 16.469133 1.8631535
164.86258 16.596281 1.7782046
166.93954 16.840134 1.739584
168.95154 16.879084 1.6325833
170.85056 16.992172 1.4297298
172.86763 16.991064 1.2132673
174.89725 16.99939 0.9069854
176.87398 16.987556 0.62957865
178.9007 17.027914 0.47110903
180.79961 17.133465 0.31602058
182.70229 17.192129 0.28653568
184.75789 17.633343 0.2282135
186.27271 17.388723 0.081024803
168.51178 18.226374 1.8434029
171.0374 18.637024 1.7771417
173.13605 18.772385 1.6394401
174.94904 18.922117 1.5184382
176.84491 18.9529 1.2928481
178.93164 18.894438 1.0837785
180.92302 18.982853 0.89618891
182.91733 19.083727 0.74594152
184.92363 19.021065 0.51866293
186.92032 19.105457 0.45288831
188.83199 19.26531 0.26232287
190.67583 19.369366 0.23030901
175.22031 20.3323 1.9406513
177.03264 20.604986 1.7992333
178.92343 20.755583 1.7312078
180.92929 20.917646 1.4997013
182.89867 21.07543 1.3822808
184.88731 20.995842 1.1417296
186.91661 20.963078 0.96505129
188.94345 20.958803 0.70970094
190.94318 21.082644 0.50602633
192.86414 21.253748 0.3072536
194.82645 21.369526 0.13695335
196.47809 21.246735 0.17947324
198.26045 21.726791 0.29475594
179.29683 22.051977 1.898571
180.98032 22.2297 1.7688465
183.17401 22.825666 1.7561936
185.01906 22.832741 1.7060338
187.02956 22.800198 1.5478482
188.98094 22.859715 1.3610175
190.96452 23.045605 1.106667
192.9592 22.962313 0.82830203
194.94351 23.020714 0.544792
196.95341 23.031033 0.42426747
198.85318 23.23155 0.25264964
201.1179 23.408962 0.22158456
202.84253 23.599514 0.1651392
185.31909 24.464714 1.9314976
187.24704 24.35375 1.803426
189.00743 24.611565 1.7115443
190.95633 24.911322 1.5590681
192.97153 24.901237 1.3867307
194.9744 24.976509 1.1838162
196.98726 25.029251 1.1335844
198.99193 24.974682 0.78340703
200.99524 25.005104 0.5677318
202.91553 25.111723 0.41309243
204.82608 25.381868 0.27396819
207.04108 25.525055 0.16807111
208.97144 25.774103 0.25152841
210.28487 25.826611 0.029230118
191.0249 26.397339 1.8898494
193.06769 26.365738 1.8266401
194.99472 26.661808 1.7090333
197.06523 26.870935 1.6397117
199.01089 26.947771 1.3803189
201.02948 26.955843 1.2199162
203.0479 26.919777 1.0450836
204.97633 27.050928 0.75602716
207.02922 27.041365 0.58912098
209.02794 27.107006 0.30216408
211.04396 27.234497 0.24316184
212.99722 27.520294 0.20407772
214.28259 27.857347 0.08351326
193.70036 28.152531 1.8538303
195.76184 28.093618 1.8588867
196.82899 28.762415 1.9135303
199.31297 28.526623 1.8080808
201.02353 28.759096 1.6745603
203.06575 28.864418 1.4977516
205.11444 29.001844 1.4354186
207.08894 28.944061 1.200525
209.07039 28.950068 0.95775521
211.06235 29.021227 0.76662403
213.07513 29.016567 0.51367742
215.02545 29.152163 0.334149
217.0305 29.229136 0.2813088
218.88025 29.691854 0.12270219
201.83977 30.037067 1.9837132
203.16527 30.388519 1.8224621
205.23038 30.58106 1.7644256
207.13719 30.672495 1.6502352
209.08176 30.953377 1.4782723
211.11655 30.885275 1.4801239
213.09079 30.985798 1.2682266
215.0659 31.00292 1.0587084
217.11737 30.984987 0.71984923
219.07466 31.076641 0.54357576
221.06627 31.17391 0.28906822
222.90938 31.464643 0.20123206
224.75566 31.702122 0.12954292
226.44011 31.391394 0.14503479
206.8307 32.089798 1.9080181
209.15025 32.34779 1.8247085
211.0959 32.464783 1.7600224
213.09822 32.876881 1.7512207
215.2784 32.820019 1.6166341
217.10208 33.020775 1.4401907
219.0114 33.035004 1.1509557
221.06123 33.071224 0.87786871
223.11243 33.052696 0.54015613
225.10556 33.110046 0.35338858
227.10442 33.201805 0.52578253
229.07365 33.261181 0.96769887
231.03638 33.121193 0.66854513
232.94678 33.475727 0.54151601
234.52165 33.760773 0.43618488
211.86656 34.079395 1.9896603
213.67845 34.095417 1.8253851
215.1347 34.045887 1.8534565
217.33543 34.604153 1.8518448
218.99323 34.629513 1.7107615
221.09572 34.822819 1.5757819
222.98648 34.998905 1.3281327
224.87442 34.897213 1.1319327
226.94591 34.560116 1.5775361
228.52054 34.19482 1.6696081
231.35507 34.071629 0.6847744
233.48854 34.374149 0.50190288
235.16292 34.749195 0.65706253
236.63075 35.449066 0.45571402
238.53207 35.607422 0.13246918
219.97272 36.033813 1.9556885
221.12215 36.315586 1.7063808
223.34659 36.815643 1.7482637
224.49838 36.377296 1.5975709
235.89604 36.133331 1.1808729
237.18065 36.990799 1.0870031
238.83525 37.08783 0.24135351
240.65167 37.361412 0.26803085
242.08836 37.4818 0.062186558
221.0481 38.162712 1.9440899
237.49861 38.77317 1.7198766
238.90303 39.050762 0.84258395
240.89247 39.032688 0.5431397
242.83864 39.079922 0.48316482
244.97716 39.228458 0.27886862
246.71606 39.378067 0.16334504
249.03748 39.392723 0.22980309
237.58017 41.801102 1.4463043
238.92561 40.928654 1.4848825
240.93463 41.009171 1.2969015
242.90945 41.059902 1.0321352
244.89316 41.040485 0.83035541
246.92841 41.024799 0.70020181
248.95601 41.070297 0.49903962
250.89359 41.209709 0.18836571
252.94171 41.319458 0.1856087
254.68356 41.800526 0.087328337
257.13058 41.787975 0.18534724
258.04169 41.101719 0.23155117
239.05893 42.378384 1.8875297
240.99178 42.892769 1.8562596
243.00052 42.843998 1.62518
244.9789 42.948254 1.4272095
246.95662 42.942211 1.2177875
248.97606 42.960098 1.0371453
250.96904 43.007793 0.77924353
252.98309 43.032345 0.58121336
255.00693 43.243355 0.4009468
256.92749 43.111851 0.31101921
258.08224 43.002014 0.89547157
243.74826 44.248932 1.9521894
245.07671 44.345051 1.7991701
246.93309 44.542542 1.7968729
249.07855 44.867798 1.6698601
251.02846 44.964043 1.4173728
252.99693 44.959248 1.1690316
255.04254 44.950027 1.0595154
256.82925 45.000671 0.80722678
258.12485 44.997334 1.5925894
249.37976 46.0718 1.8745155
251.11166 46.544163 1.8225542
253.121 46.573505 1.6660476
255.05142 46.77618 1.6037648
256.90689 46.925076 1.5621539
252.97235 48.091881 1.9758129
254.61299 48.079773 1.9022917
257.09174 48.238262 1.8930244
99.381653 -2.3081799 3.243722
101.0592 -2.1978593 3.1980891
103.08069 -2.2509608 3.1664264
105.05626 -2.1604948 2.8136113
107.06338 -2.166069 2.6755631
109.07278 -2.1763332 2.5479622
119.75414 -2.8194122 3.2002945
126.94728 -2.2725408 2.4162569
133.19971 -2.7696743 3.0729542
163.86368 -2.5856307 2.3556824
164.86749 -2.5623047 2.227602
99.124863 -1.2200136 3.7532547
101.11977 -1.2287288 3.7004778
103.12707 -1.09637 3.4792082
105.09788 -1.0770248 3.3290582
107.08828 -1.0315616 3.0770674
109.08834 -1.0145553 2.8885784
111.08678 -0.99154955 2.6868536
113.05151 -0.90331078 2.3807957
114.90479 -0.69365567 2.2504368
116.99636 -0.4224062 2.1441879
118.5 -0.55024564 2.1235991
98.254761 0.63121486 3.9306307
100.29686 0.10307145 3.986743
103.27374 0.29214272 3.9561515
105.1797 0.59901834 3.7945557
107.13815 0.83332837 3.6620004
109.1327 0.88332278 3.458596
111.11983 0.92373633 3.3013477
113.10809 0.97569597 3.0346742
115.08189 1.0668788 2.6792145
117.08926 1.0662769 2.5309107
119.03255 1.2009555 2.3508615
121.09217 1.4080447 2.2200732
123.06168 1.7079277 2.1737695
124.57468 1.7648792 2.0419967
109.21726 2.3560622 3.8309011
111.20857 2.6924477 3.7757168
113.1293 2.8895683 3.5686865
115.1243 2.9555635 3.3528395
117.1019 3.0396307 3.1288202
119.11876 3.0096865 2.9322073
121.10994 3.0536301 2.6835761
123.1175 3.0556529 2.5301373
125.0787 3.1398706 2.3219025
127.12901 3.4452875 2.2740693
128.86049 3.6302471 2.1221254
131.15981 3.4470406 2.0386848
113.53701 4.3091183 3.8712094
115.22102 4.4938846 3.8238852
117.14587 4.919178 3.7070212
119.13802 4.8441715 3.5582716
121.15617 4.9329543 3.3794546
123.16323 4.9367752 3.2225473
125.14429 5.0068202 2.914036
127.14864 5.0189323 2.7381263
129.13936 5.0650201 2.4844437
131.03133 5.3225021 2.4025412
133.03499 5.5207648 2.152184
135.38455 5.8329916 2.2673254
119.32555 7.1925058 3.8345284
121.01228 6.3683271 3.8036983
123.16108 6.6257358 3.7316532
125.12294 6.8550739 3.570853
127.19743 6.9768596 3.3691506
129.12372 6.9974103 3.0202427
131.12183 7.0265732 2.8870888
133.16763 7.0370269 2.6733999
135.18465 7.1331019 2.3859603
136.99512 7.3369346 2.2910538
139.08415 7.8355408 2.207108
140.3701 7.5215387 2.0317116
125.58936 8.2900171 3.8647974
127.01383 8.3666754 3.7511673
128.99759 8.7959576 3.6206858
130.96461 8.8917046 3.4073203
132.98151 9.0295935 3.2631347
135.07417 9.0114603 3.0544927
137.01721 8.9864693 2.7650168
139.04544 9.0951176 2.5254915
141.06395 9.1771002 2.3985012
142.92879 9.3342123 2.264765
144.66832 9.4781475 2.092001
147.65318 9.4276304 2.1396446
129.99429 10.517273 3.9362354
131.21208 10.290172 3.8701088
133.17648 10.840947 3.7476296
134.92661 10.83583 3.6082244
136.90002 10.971961 3.4260695
139.01782 10.969111 3.2409017
140.9306 10.968079 3.057543
142.84546 11.029047 2.7418633
144.94495 11.148301 2.5844727
147.00476 11.105327 2.2843506
148.78053 11.473326 2.2398467
150.74638 11.732689 2.1271524
152.44801 11.883958 2.1610565
154.89256 11.634328 2.0596657
135.64301 12.0609 3.9910851
137.04857 12.503689 3.8702912
138.88062 12.682859 3.7375362
140.88934 12.809433 3.6645608
142.89079 12.959059 3.4389012
144.85875 12.994431 3.1294193
146.80727 12.997295 2.9054592
148.96074 13.024305 2.7310097
150.89688 13.07238 2.5056925
152.83243 13.196569 2.3503599
154.65912 13.343633 2.2542903
156.6077 13.60575 2.1625679
158.38977 13.669109 2.1422806
139.55162 14.293065 3.5667725
141.35649 14.290914 3.7881775
143.07333 14.360684 3.7450569
144.97438 14.692797 3.6872065
146.90773 14.926321 3.5608878
148.93181 15.0198 3.3980505
150.86992 15.037226 3.2819936
152.87363 15.000544 2.994276
154.86366 15.033735 2.6514816
156.90567 15.102018 2.5011439
158.89903 15.279336 2.2977049
160.66269 15.570623 2.2135408
162.58344 15.718436 2.1381035
165.7274 15.883358 2.0384598
145.62881 16.970478 3.9964485
147.11194 16.476099 3.9054489
148.91586 16.560656 3.8079472
150.93304 16.808466 3.7173386
152.95245 16.899439 3.5187867
154.94197 16.968651 3.4225368
156.89926 16.982738 3.1613407
158.8838 17.041611 2.8772342
160.91389 17.027775 2.6446867
162.8221 17.202963 2.4556794
164.87553 17.285139 2.2277331
166.89546 17.535669 2.1599293
168.72787 17.703083 2.1494474
150.87036 18.13895 3.9434395
153.30025 18.507734 3.9278984
155.07185 18.667934 3.833936
156.9534 18.793573 3.6759574
158.94218 18.901758 3.5351064
160.92177 18.971397 3.3130567
162.95607 19.080898 3.1367326
164.90948 19.054441 2.8276911
166.89098 19.045012 2.5880139
168.92615 19.186111 2.4051766
170.8349 19.371822 2.3599644
172.71359 19.530245 2.1706958
174.67499 19.938032 2.09497
157.27451 20.190519 3.7700462
159.33591 20.261055 3.8751845
161.21042 20.741743 3.7732744
163.03845 20.855669 3.67816
164.96017 20.931189 3.5343511
166.96365 20.95602 3.331856
168.9532 21.005764 3.069531
170.93002 21.077614 2.7537301
172.94406 21.08499 2.5933564
174.8387 21.130856 2.2910774
176.90221 21.30155 2.2201095
178.79065 21.79668 2.135643
180.57129 21.948624 2.0625839
163.51947 22.16441 3.7986269
165.06046 22.419806 3.8225174
167.12068 22.61907 3.7962112
169.02684 22.812967 3.5910921
170.96744 22.978113 3.4033015
172.96844 23.007978 3.1890583
174.98335 22.937174 2.8789983
176.96364 23.079981 2.7306268
178.97733 23.08971 2.5651014
180.95612 23.196886 2.3474298
182.83423 23.248587 2.3027887
185.03215 23.494032 2.2108617
186.63423 23.714516 2.08886
189.1181 23.821398 2.1861095
169.18593 24.476286 3.7469857
171.07661 24.535851 3.8245976
173.00847 24.668394 3.7899806
175.06065 24.915007 3.5386703
176.99094 24.99729 3.3395758
178.99817 25.017717 3.1486044
181.00319 25.042208 2.9476745
182.99091 25.095081 2.6774383
184.99043 25.091654 2.5910237
186.97504 25.267658 2.4544415
188.992 25.532995 2.2455125
191.03958 25.546099 2.0700126
174.91467 26.292583 3.9201424
177.19031 26.446905 3.7842512
179.12949 26.731857 3.6890974
181.05534 26.814291 3.5398803
183.03214 26.989365 3.3431427
185.05272 26.990095 3.2007356
187.06076 27.01128 3.0084774
189.03102 26.95133 2.7061856
191.01636 27.106012 2.4516428
192.93646 27.198191 2.3129473
194.95454 27.428362 2.2033892
197.14851 27.699879 2.1309266
179.80811 28.15213 3.9013901
181.18181 28.465542 3.8871758
183.09865 28.398315 3.8150773
185.11092 28.748383 3.6967072
187.12971 28.911104 3.5648286
189.01076 28.972765 3.2069192
191.03244 28.979832 3.1331267
193.08478 29.014172 2.8630297
195.06163 29.083153 2.5528233
197.07899 29.131409 2.4648488
198.90622 29.261583 2.3476353
201.0722 29.372875 2.3255246
202.50745 29.755421 2.1037283
204.32753 29.954861 2.0202808
187.47571 30.52038 3.9334018
189.17062 30.665665 3.6677489
191.02953 30.824137 3.6489017
193.06662 30.95933 3.4358468
195.11177 30.979181 3.249213
197.13393 30.989458 3.1756494
199.10815 31.017118 2.8436589
201.11768 31.083889 2.6626596
203.07918 31.231123 2.4674134
205.00726 31.485544 2.2665207
206.81346 31.354786 2.2107098
208.02432 31.449005 2.3586779
211.25092 31.473164 2.0761986
191.42387 32.230225 3.702549
193.21272 32.436966 3.7862566
195.15201 32.769024 3.7557185
197.11824 32.967369 3.6336551
199.13501 32.969563 3.3984301
201.09235 33.00951 3.208849
203.01485 33.01881 3.0079832
205.07014 33.092506 2.8941817
207.10631 33.036823 2.5544686
209.01836 33.297188 2.4753315
211.05518 33.250748 2.3035803
212.88794 33.256851 2.2195504
214.73035 33.332653 2.12921
216.01692 33.951881 2.0346451
196.94801 34.451492 3.891402
199.01881 34.660252 3.8603306
201.27512 34.708759 3.7806606
203.11172 34.88567 3.6330726
205.04884 34.99221 3.4292564
207.06435 35.016434 3.1481197
209.12199 35.040028 2.9838436
211.0713 35.00079 2.7524948
213.13913 35.126362 2.5784731
215.13541 35.121723 2.4125037
216.85028 35.262295 2.3261724
218.81976 35.460316 2.2304831
220.7673 35.535431 2.076086
225.44653 35.786041 2.2263584
226.71437 35.046959 2.6560724
201.52431 36.160042 3.9881916
203.35588 36.342545 3.9493408
205.10289 36.419018 3.8194988
207.0188 36.778057 3.7403555
209.07239 36.927792 3.6283047
210.98662 36.97887 3.5089111
212.89998 37.026321 3.2531669
214.91101 37.032909 3.0559554
216.96259 37.0639 2.754674
218.9045 37.085033 2.6033034
220.8373 37.099705 2.3822186
222.59981 37.260632 2.3201134
225.28348 36.905785 2.6883383
226.38229 36.802662 2.8821607
208.93001 38.254951 3.8611546
210.75934 38.400002 3.8371177
212.92516 38.647953 3.7303295
214.98096 38.947403 3.7212386
216.82755 39.022133 3.3513427
218.87459 38.998604 3.2761869
220.83414 38.968361 2.9992151
222.85132 39.043125 2.7735484
224.88618 38.906132 3.2636001
226.06323 38.839142 3.776546
237.18323 39.31781 2.3451273
238.07088 39.27948 2.3863354
215.22424 40.166435 3.8403111
217.14285 40.670509 3.7432106
219.15483 40.734165 3.6402326
220.93336 40.92535 3.5847356
223.03888 40.888973 3.4249802
224.44426 41.167747 3.5018475
226.46056 41.246094 3.6482372
237.16545 41.062977 2.7042642
238.00687 40.133842 2.409853
240.29115 41.875313 2.2061901
219.20282 42.213875 3.8420172
221.04149 42.197739 3.7632189
223.10449 42.744484 3.8412206
224.50334 42.670429 3.704531
228.85329 43.883583 3.332098
235.39841 43.313148 3.733953
236.93542 42.914246 2.9708724
238.82973 43.315208 2.3474028
240.92415 43.779137 2.3595157
242.71593 43.806263 2.1368091
225.69572 44.161865 3.9415913
226.88878 44.970718 3.9950523
229.65833 44.281342 3.3629112
235.24913 45.185806 3.5613513
237.00064 45.019737 3.0698812
239.01122 45.04631 2.8672285
240.98854 45.016788 2.6940291
242.96619 45.178711 2.482358
244.96057 45.099911 2.3169563
247.15636 45.282021 2.2667799
248.80502 45.431374 2.2478232
233.41472 46.670551 3.8410401
234.9922 46.740818 3.7625985
237.13539 46.757473 3.6476402
238.97803 46.965775 3.5121853
241.03357 47.012627 3.3488324
243.04944 47.033989 3.1602912
245.06804 47.042809 2.872
247.04778 47.052849 2.7164073
249.04688 47.042213 2.5171785
250.99464 47.392982 2.4473429
252.9108 47.323547 2.1596766
255.35828 47.645802 2.157547
256.56213 47.957497 2.106699
258.1796 47.562733 2.488884
239.28287 48.722218 3.8968759
241.27336 48.633385 3.8550868
242.98842 48.853527 3.5985198
245.05997 49.004276 3.4989002
247.06441 49.038788 3.276026
249.09196 49.020531 3.0604975
251.06979 49.033535 2.8976519
253.11598 48.999821 2.6334202
255.12431 49.07357 2.4289303
256.97772 49.166248 2.4130659
258.20795 48.892941 2.9536271
245.10156 50.32774 3.780118
247.14015 50.667362 3.7711291
249.22359 50.822945 3.7227256
251.11064 51.009315 3.4825873
253.09779 51.018124 3.1963933
255.04826 51.018688 3.0099723
256.89612 51.060909 3.0244384
258.24854 50.793243 3.6175485
249.4487 52.208656 3.8209209
251.30403 52.443531 3.8411458
253.33476 52.595718 3.792758
255.14803 52.806324 3.6106141
256.94293 52.853287 3.5534306
252.16911 54.286854 3.8120937
255.39912 54.304947 3.9527919
257.15887 54.415478 3.8513076
133.3311 -4.0590587 5.9823532
113.19396 -3.6150162 5.4915476
119.5932 -3.4663155 4.6750402
147.39281 -3.3503361 4.3227177
98.871857 -0.57791752 4.3168464
101.00582 -0.4292036 4.1506286
102.34763 -0.84870863 4.0098095
99.220474 0.95395327 4.7607193
101.17807 0.98562354 4.4858613
103.09644 1.2391305 4.358562
105.05111 1.3070972 4.1881027
107.0005 1.4240322 4.1771894
108.78532 1.5170965 4.1175356
110.38425 1.9385116 4.0344009
97.964096 3.3122096 5.3101597
99.113861 2.9572499 5.3487496
100.95467 3.0812685 5.2388892
103.01846 3.0739138 4.9450078
105.15884 3.0842402 4.6883922
107.16051 3.0391695 4.3936243
109.08809 3.2387872 4.3038435
111.07557 3.4265924 4.2016978
113.18631 3.7684231 4.1382427
97.988342 4.4479361 5.7069559
98.894348 4.601222 5.7898388
100.98061 4.7633867 5.6856551
102.84721 4.9777932 5.5444875
104.93586 4.9976282 5.3280416
106.99664 5.1601906 5.0288539
109.06078 4.9925385 4.8408551
111.16262 5.0080423 4.519887
113.04983 5.1303077 4.3688488
115.14717 5.305377 4.1723371
116.79391 5.320744 4.1501093
118.975 5.5554018 4.1199832
120.01544 5.9660416 4.1029367
101.202 6.2402201 5.8621197
103.07419 6.3023605 5.749063
105.07365 6.5341711 5.8065338
106.88975 6.9017305 5.6795964
108.99844 6.8799253 5.4912758
110.90657 7.0686522 5.382442
112.89552 7.0183563 5.0706353
114.84879 6.9942546 4.757659
116.9607 6.9314852 4.4355931
118.93688 7.1231537 4.4115596
120.94596 7.262826 4.2636428
122.58289 7.3581271 4.1416268
124.44199 7.6806684 4.1854234
108.97879 8.2469444 5.8609099
110.90385 8.6496029 5.8182807
112.92771 8.8854733 5.6552925
114.9131 8.9631844 5.3928523
116.83778 9.068388 5.1142645
118.84895 9.0265446 4.9791493
120.86272 8.9454889 4.7551885
122.86871 9.0300274 4.6170459
124.74686 9.0435677 4.3723559
126.84129 9.299345 4.2828517
128.70335 9.664896 4.2442532
130.19472 9.6971083 4.1452117
132.46774 9.9765053 4.0053349
113.26254 10.174963 5.9613132
114.95663 10.667294 5.7958269
116.95027 10.651298 5.7882562
118.88814 10.85086 5.6089511
120.87131 10.975352 5.3445282
122.87846 11.03001 5.29812
124.91267 10.946144 5.0181742
126.86444 11.109824 4.8198833
128.85286 11.072361 4.5353966
130.85902 11.227079 4.3994498
132.76022 11.488978 4.2669444
134.56662 11.69574 4.1614895
119.0672 12.416255 5.8956709
121.24586 12.614856 5.9119463
122.88786 12.708728 5.7163639
124.87801 12.893414 5.6096425
126.9028 13.009144 5.4702086
128.93768 13.074975 5.2060065
130.93571 13.066326 4.8769221
132.89766 13.039446 4.7349024
134.85747 13.087892 4.4779277
136.69186 13.315293 4.3214068
138.79945 13.367262 4.2181726
140.59497 13.597093 4.116652
142.12096 13.958193 4.1825352
125.56403 14.334683 5.8595009
127.12492 14.352295 5.8785257
129.0379 14.771931 5.7454782
130.92613 14.962341 5.5235014
132.92972 15.012515 5.3535919
134.90302 15.092528 5.1065955
136.94249 15.052928 4.9349723
138.8541 14.984144 4.5619783
140.85054 15.04184 4.4537559
142.88615 15.166058 4.3020334
144.6752 15.432146 4.215457
146.74921 15.94462 4.2967758
148.59923 15.869053 4.3462353
131.30711 16.62911 5.8444538
132.94568 16.691433 5.7731915
134.9726 16.963522 5.7353497
136.96912 16.99609 5.51408
138.92868 16.98172 5.2634501
140.89305 16.983608 5.0288172
142.90292 17.01865 4.7862349
144.93913 17.007267 4.6020589
146.81403 17.315866 4.3585334
148.83746 17.331249 4.2235074
150.86205 17.521149 4.1796584
152.58372 17.147409 4.1208324
135.06352 18.340542 5.9825616
137.09166 18.537655 5.76051
138.97653 18.558619 5.6852112
140.97902 18.848648 5.5562549
142.95091 19.054703 5.4421706
144.91339 19.04915 5.1945996
146.93542 19.052025 4.9312072
148.9772 18.982016 4.7610483
150.95348 18.995543 4.5811648
152.911 19.05154 4.3906226
154.80972 19.419685 4.3449421
156.64319 19.617481 4.1555696
158.40201 19.767117 4.1948357
160.24081 19.919964 4.2207565
139.73579 20.233629 5.9651146
141.25427 20.414042 5.8401451
143.21667 20.459484 5.8285122
145.05367 20.896715 5.7514153
146.99141 21.00363 5.599298
148.96104 21.014681 5.3992658
150.9772 21.086851 5.2023973
152.9874 21.09523 5.0400023
154.9641 21.168909 4.7195778
156.96405 21.009108 4.5375571
158.94441 21.186308 4.4403453
160.72331 21.120302 4.1423526
162.4962 21.422052 4.2758489
147.77635 22.624378 5.9055481
149.15552 22.604452 5.8576298
150.99667 22.77318 5.8178144
153.03737 22.936903 5.6469178
155.04723 23.013369 5.4138598
157.04112 23.036753 5.1820188
159.00459 23.122007 4.9568043
160.96049 22.951149 4.614975
163.02275 23.021051 4.4964452
164.96045 23.12133 4.2730765
166.89682 23.38015 4.264348
168.72664 23.589947 4.1881666
172.27512 23.991636 4.0170383
153.29773 24.432953 5.8597074
154.97749 24.551119 5.7906537
157.14893 24.686098 5.7675896
159.02608 25.019262 5.5250397
161.06224 25.026752 5.3298521
162.97151 25.06855 4.9776297
165.03592 24.955303 4.8165145
167.02933 25.12134 4.6779628
169.06088 25.016338 4.4070382
170.93074 25.27841 4.2159657
173.05731 25.371212 4.190455
174.98724 25.686153 4.1875114
157.78255 26.690514 5.8443203
159.16216 26.3617 5.8506608
161.35153 26.647263 5.7948723
163.17065 26.958078 5.6656008
165.03732 26.974827 5.4702477
167.05042 27.095896 5.2676497
168.97658 26.990942 4.9559846
171.03113 26.969858 4.7660174
173.07753 27.028198 4.5711608
174.94496 27.189783 4.376523
176.97144 27.158016 4.2326813
178.74095 27.503469 4.1576505
181.03841 27.36528 4.0558224
163.83047 28.655636 5.9115067
164.95424 28.426905 5.6853242
167.07481 28.764482 5.7972999
169.12012 28.895208 5.6523862
171.06654 28.951363 5.4376435
173.06876 29.121849 5.1871519
175.08952 28.983952 4.9519348
177.07457 28.979769 4.7246852
179.02196 29.003889 4.5295372
181.08397 29.018171 4.4007964
183.12477 29.318222 4.3425145
185.00371 29.468336 4.2166557
186.56622 29.580053 4.19067
189.23311 29.915264 4.2520313
190.00162 29.977659 4.0412083
168.65909 30.248491 5.9152479
171.33656 30.487797 5.808238
173.05612 30.979177 5.7841439
175.16576 30.951881 5.5539417
177.09644 31.056026 5.3501258
179.14871 31.054159 5.2143474
181.11967 30.980042 5.0416708
183.11064 31.072521 4.8033142
185.11394 31.023777 4.580133
187.04872 31.104427 4.4522967
188.99142 31.264086 4.2788906
191.45172 31.547871 4.0655499
192.77087 31.639742 4.0161037
194.47516 31.122143 4.1177559
175.15967 32.667061 5.8982115
177.42316 32.533188 5.810626
179.05141 32.774734 5.7021418
181.20258 32.973141 5.6056004
183.11749 32.995495 5.3981156
185.0459 32.976593 5.1385341
187.0192 33.01915 4.9880686
189.04974 33.016285 4.7049799
191.04253 33.013268 4.527637
192.97263 33.303864 4.3906355
194.87265 33.305161 4.3266678
196.00465 33.993755 4.3937531
198.82524 33.623096 4.0468235
200.13789 33.875153 4.4178486
232.47798 32.181816 5.4567375
181.754 34.219341 5.8885136
183.34265 34.619942 5.8583121
185.1622 34.752007 5.6722116
187.07655 34.99678 5.577877
189.0378 34.964668 5.4478173
191.07465 35.011215 5.1900878
192.99484 35.11684 5.0346909
194.94092 34.991982 4.6077118
197.07942 34.952717 4.5050869
198.97145 35.09795 4.3279338
200.88199 35.246422 4.1666064
203.02946 35.66853 4.2667661
228.23822 34.056885 4.2692165
184.30383 36.296341 5.9104824
187.17712 36.360661 5.922071
189.16426 36.785679 5.7487059
190.96559 36.765923 5.732131
193.09821 36.9785 5.3752437
195.13998 36.930397 5.2538557
196.99442 37.108025 5.0546842
198.95802 36.912216 4.8977685
200.89198 36.999481 4.6653218
202.87407 37.013325 4.4509716
204.77559 37.114086 4.3341384
206.59837 37.354298 4.2712083
208.30115 37.791267 4.3269367
214.20308 37.960625 4.0510807
191.55824 38.677235 5.9417906
193.47971 38.384521 5.7358627
195.09993 38.561279 5.633646
