# .PCD v0.7 - Point Cloud Data file format
VERSION 0.7
FIELDS x y z rgb
SIZE 4 4 4 4
TYPE F F F U
COUNT 1 1 1 1
WIDTH 1126
HEIGHT 1
VIEWPOINT 0 0 0 1 0 0 0
POINTS 1126
DATA ascii
9.7813463 99.505493 -18.595829 4294967295
9.8966246 98.997345 -18.767363 4294967295
9.9138947 98.850548 -18.665993 4294967295
9.915451 98.693024 -18.639359 4294967295
9.918087 98.377632 -18.58836 4294967295
9.9409256 99.50338 -18.614349 4294967295
10.046356 98.354317 -18.755589 4294967295
10.088882 98.700317 -18.591997 4294967295
10.107681 99.030334 -18.541138 4294967295
10.204344 98.351135 -18.781458 4294967295
10.211403 98.673042 -18.786385 4294967295
10.258152 98.546135 -18.545351 4294967295
10.388213 98.365425 -18.684681 4294967295
10.398817 98.531189 -18.653631 4294967295
10.438057 99.192314 -18.544512 4294967295
10.741463 98.701393 -18.598944 4294967295
10.925728 99.350555 -18.577877 4294967295
11.234711 98.863335 -18.606083 4294967295
11.561508 98.546738 -18.569721 4294967295
-2.9918435 106.05875 -20.673536 4294967295
-2.9762018 105.75666 -20.551504 4294967295
-2.9636054 106.23926 -20.544889 4294967295
-2.9442654 105.94014 -20.403397 4294967295
-2.9415226 105.62741 -20.349197 4294967295
-2.8269851 106.06206 -20.657921 4294967295
-2.8269753 106.3769 -20.697601 4294967295
-2.8058164 105.92188 -20.526857 4294967295
-2.8044641 105.60806 -20.480011 4294967295
-2.7985611 105.45538 -20.429127 4294967295
-2.7865443 105.78009 -20.40575 4294967295
-2.7754474 106.73402 -20.466703 4294967295
-2.7727773 106.89369 -20.472553 4294967295
-2.7573798 106.59136 -20.351938 4294967295
-2.7417934 107.23419 -20.349583 4294967295
-2.6581051 106.06863 -20.621332 4294967295
-2.6574242 105.75429 -20.578043 4294967295
-2.6263778 105.62201 -20.395315 4294967295
-2.623291 106.25447 -20.45858 4294967295
-2.6202557 107.67415 -20.621391 4294967295
-2.6082973 105.95169 -20.3402 4294967295
-2.6016941 107.53204 -20.504198 4294967295
-2.5857904 107.86017 -20.460524 4294967295
-2.5822155 107.07561 -20.342463 4294967295
-2.5799096 106.91999 -20.310501 4294967295
-2.5637269 107.24836 -20.265368 4294967295
-2.4893091 105.60271 -20.525814 4294967295
-2.4859629 105.92036 -20.547987 4294967295
-2.4811671 107.97104 -20.780851 4294967295
-2.4699097 107.82294 -20.702063 4294967295
-2.4614427 107.6725 -20.637882 4294967295
-2.4506314 106.26407 -20.402613 4294967295
-2.4458673 105.7954 -20.31809 4294967295
-2.4445395 105.48141 -20.271418 4294967295
-2.441937 107.37366 -20.49604 4294967295
-2.4357834 107.06374 -20.42411 4294967295
-2.4339759 107.22272 -20.434496 4294967295
-2.433598 106.43548 -20.333246 4294967295
-2.4182391 106.60555 -20.272655 4294967295
-2.4070687 106.92979 -20.253864 4294967295
-2.4016566 108.50954 -20.424068 4294967295
-2.4013069 108.35232 -20.402386 4294967295
-2.3809338 108.21173 -20.275858 4294967295
-2.3786571 108.68625 -20.323503 4294967295
-2.3578026 105.57895 -20.685137 4294967295
-2.3290815 105.44469 -20.515038 4294967295
-2.3216152 105.76569 -20.515659 4294967295
-2.3158524 106.40028 -20.564873 4294967295
-2.3138912 105.92944 -20.495092 4294967295
-2.3138504 106.87432 -20.613914 4294967295
-2.3135633 106.71709 -20.592575 4294967295
-2.3087032 107.03601 -20.606829 4294967295
-2.3078704 106.56427 -20.542959 4294967295
-2.2955089 106.10185 -20.418774 4294967295
-2.2928586 107.67892 -20.60331 4294967295
-2.289165 107.36701 -20.544319 4294967295
-2.2778733 108.95107 -20.683624 4294967295
-2.2451994 108.50588 -20.453285 4294967295
-2.244792 107.24599 -20.29241 4294967295
-2.2437758 108.19203 -20.40616 4294967295
-2.2279396 108.36272 -20.343197 4294967295
-2.2264678 109.15159 -20.434711 4294967295
-2.2219326 108.68279 -20.351477 4294967295
-2.2017543 108.85718 -20.26582 4294967295
-2.1985216 109.33255 -20.308453 4294967295
-2.1456823 106.25035 -20.502268 4294967295
-2.1367922 105.46998 -20.356655 4294967295
-2.1260507 106.89637 -20.479044 4294967295
-2.120683 108.63315 -20.669106 4294967295
-2.1189232 105.95702 -20.322809 4294967295
-2.1165507 106.43156 -20.369923 4294967295
-2.1103332 107.38179 -20.456444 4294967295
-2.1083701 108.17094 -20.545338 4294967295
-2.1067612 108.48725 -20.57659 4294967295
-2.1063757 105.80962 -20.237419 4294967295
-2.0996182 107.23306 -20.380651 4294967295
-2.0990801 109.59603 -20.675253 4294967295
-2.0983109 107.86424 -20.453152 4294967295
-2.0964878 108.33829 -20.503119 4294967295
-2.0959561 106.1332 -20.222666 4294967295
-2.090373 109.9183 -20.669443 4294967295
-2.090014 106.61073 -20.251143 4294967295
-2.0724032 107.09782 -20.218674 4294967295
-2.0707293 109.30484 -20.487598 4294967295
-2.0651774 110.25455 -20.577572 4294967295
-2.058804 108.84222 -20.365847 4294967295
-2.0565226 108.05633 -20.254763 4294967295
-2.0360341 109.49147 -20.326298 4294967295
-2.0302529 109.81144 -20.335783 4294967295
-2.017487 105.43644 -20.579582 4294967295
-1.9785446 106.25541 -20.475517 4294967295
-1.9643703 106.73949 -20.46104 4294967295
-1.9591066 107.05882 -20.473227 4294967295
-1.9580908 107.8472 -20.567022 4294967295
-1.9523636 106.1191 -20.319111 4294967295
-1.9454536 105.96714 -20.263233 4294967295
-1.944972 105.80996 -20.240892 4294967295
-1.9444927 106.91325 -20.37718 4294967295
-1.9439808 105.65318 -20.215891 4294967295
-1.9433199 107.22928 -20.410709 4294967295
-1.929494 109.28844 -20.596251 4294967295
-1.9191251 110.55707 -20.700693 4294967295
-1.917344 107.40813 -20.295052 4294967295
-1.9158332 109.14235 -20.505211 4294967295
-1.9138441 109.61656 -20.554291 4294967295
-1.9105473 107.72885 -20.299255 4294967295
-1.9095738 108.35989 -20.373474 4294967295
-1.906999 108.51957 -20.379871 4294967295
-1.9012334 110.25722 -20.56781 4294967295
-1.9000335 109.47062 -20.462475 4294967295
-1.8937342 108.68815 -20.330526 4294967295
-1.891848 109.00484 -20.360336 4294967295
-1.8911771 107.58721 -20.178406 4294967295
-1.8858361 109.95515 -20.447916 4294967295
-1.8833233 110.42987 -20.494268 4294967295
-1.8717334 108.23364 -20.156324 4294967295
-1.8681332 108.86703 -20.216864 4294967295
-1.8662527 110.91695 -20.464745 4294967295
-1.8570499 111.08232 -20.436598 4294967295
-1.8477616 109.82962 -20.229612 4294967295
-1.8277194 110.79211 -20.244089 4294967295
-1.82429 105.93496 -20.476414 4294967295
-1.8232299 105.7783 -20.451077 4294967295
-1.8063565 105.47679 -20.323532 4294967295
-1.7875444 106.27978 -20.324604 4294967295
-1.7864584 108.48611 -20.596296 4294967295
-1.7833546 106.75585 -20.362225 4294967295
-1.7765596 106.44625 -20.287195 4294967295
-1.775494 107.55003 -20.420345 4294967295
-1.7753028 108.9679 -20.597624 4294967295
-1.774929 108.18063 -20.496645 4294967295
-1.7689806 107.39782 -20.36661 4294967295
-1.7529829 109.14402 -20.501215 4294967295
-1.7490447 107.09898 -20.223137 4294967295
-1.7384185 106.95007 -20.147966 4294967295
-1.7375779 107.26596 -20.183229 4294967295
-1.7344248 111.67982 -20.721457 4294967295
-1.734406 108.05653 -20.265799 4294967295
-1.7331673 109.31811 -20.417854 4294967295
-1.7279481 107.90427 -20.212349 4294967295
-1.7208518 110.58881 -20.512203 4294967295
-1.7201875 108.69864 -20.271021 4294967295
-1.7169837 110.43453 -20.472261 4294967295
-1.7061074 109.65588 -20.316593 4294967295
-1.7021486 111.07729 -20.474272 4294967295
-1.6949236 110.13802 -20.31781 4294967295
-1.6925718 109.50963 -20.226309 4294967295
-1.6739134 111.57402 -20.386747 4294967295
-1.671295 110.94592 -20.293879 4294967295
-1.6701498 109.84364 -20.149212 4294967295
-1.6697537 111.26241 -20.32548 4294967295
-1.6539599 106.2576 -20.472889 4294967295
-1.6528563 107.51863 -20.625536 4294967295
-1.650177 106.57573 -20.492811 4294967295
-1.6431786 105.47854 -20.317772 4294967295
-1.6404624 106.11097 -20.382864 4294967295
-1.6263405 106.43752 -20.349003 4294967295
-1.6258888 107.06812 -20.425869 4294967295
-1.622568 107.85854 -20.507599 4294967295
-1.6220567 106.91369 -20.386131 4294967295
-1.6213613 105.96883 -20.263678 4294967295
-1.6196452 107.38831 -20.432997 4294967295
-1.5963775 105.83136 -20.113876 4294967295
-1.5816354 106.789 -20.156054 4294967295
-1.5766242 110.41725 -20.585445 4294967295
-1.5744116 108.21333 -20.296753 4294967295
-1.5689422 107.2722 -20.149458 4294967295
-1.5659637 110.11116 -20.490438 4294967295
-1.5624781 110.58673 -20.531706 4294967295
-1.5604743 108.06722 -20.204464 4294967295
-1.5580775 112.00817 -20.68696 4294967295
-1.5578036 109.64534 -20.388618 4294967295
-1.554478 107.75692 -20.133659 4294967295
-1.5536849 111.22433 -20.565178 4294967295
-1.5531456 109.96438 -20.404003 4294967295
-1.5449505 112.17694 -20.638536 4294967295
-1.5445884 109.02602 -20.240694 4294967295
-1.5407897 111.86546 -20.577332 4294967295
-1.5350801 112.34294 -20.607037 4294967295
-1.5293493 108.5658 -20.102026 4294967295
-1.5190469 109.2049 -20.127695 4294967295
-1.5185685 111.41176 -20.402462 4294967295
-1.5140049 109.52437 -20.141098 4294967295
-1.5137643 111.57343 -20.397291 4294967295
-1.5094448 110.78915 -20.275839 4294967295
-1.5093651 106.08685 -20.543858 4294967295
-1.5060385 110.94964 -20.277937 4294967295
-1.5011314 112.52969 -20.450426 4294967295
-1.4844893 106.42203 -20.454199 4294967295
-1.4696865 107.06425 -20.456465 4294967295
-1.4682404 107.38052 -20.488533 4294967295
-1.4669539 111.771 -20.173819 4294967295
-1.4636912 108.32945 -20.583632 4294967295
-1.4523112 105.66008 -20.188025 4294967295
-1.4508744 108.81264 -20.576429 4294967295
-1.4507638 105.50371 -20.160183 4294967295
-1.446999 106.29478 -20.239624 4294967295
-1.4326532 108.51263 -20.44223 4294967295
-1.4308583 106.78068 -20.215166 4294967295
-1.4282997 107.72836 -20.32066 4294967295
-1.4276234 107.57132 -20.29735 4294967295
-1.4254917 107.25787 -20.246683 4294967295
-1.4127244 109.78967 -20.497059 4294967295
-1.4115053 111.05099 -20.649 4294967295
-1.4048649 111.21414 -20.634315 4294967295
-1.4039403 110.89986 -20.589952 4294967295
-1.4023243 111.37383 -20.640909 4294967295
-1.3997726 109.32778 -20.370443 4294967295
-1.3970056 110.43309 -20.4946 4294967295
-1.39542 111.85227 -20.664417 4294967295
-1.3935242 109.64816 -20.377583 4294967295
-1.3921561 108.70373 -20.251719 4294967295
-1.3837823 108.23779 -20.148838 4294967295
-1.3825606 110.28768 -20.399824 4294967295
-1.3804345 111.54999 -20.547081 4294967295
-1.369751 112.18931 -20.570768 4294967295
-1.3633851 110.61901 -20.339861 4294967295
-1.3478905 109.21337 -20.081253 4294967295
-1.3345263 106.09804 -20.477539 4294967295
-1.3320974 105.78488 -20.425369 4294967295
-1.3236459 110.8102 -20.153372 4294967295
-1.3225842 111.75689 -20.266628 4294967295
-1.3197496 112.38977 -20.331081 4294967295
-1.3093617 107.37884 -20.50523 4294967295
-1.3089861 112.08376 -20.235643 4294967295
-1.308966 105.96105 -20.32513 4294967295
-1.2985891 107.23006 -20.429567 4294967295
-1.2928915 105.65876 -20.202143 4294967295
-1.2880515 108.0265 -20.473812 4294967295
-1.2840188 106.92677 -20.314413 4294967295
-1.2800429 106.45718 -20.234425 4294967295
-1.2776686 107.5623 -20.360613 4294967295
-1.276861 112.58424 -20.128319 4294967295
-1.2758079 108.35171 -20.449871 4294967295
-1.2742264 107.7227 -20.362541 4294967295
-1.2583117 107.89334 -20.299778 4294967295
-1.2579045 108.20887 -20.337234 4294967295
-1.2569808 106.63346 -20.134563 4294967295
-1.2566017 109.31301 -20.468946 4294967295
-1.2548453 108.99933 -20.42028 4294967295
-1.2547632 106.7929 -20.142851 4294967295
-1.2505341 108.84532 -20.378141 4294967295
-1.2462081 110.58217 -20.573267 4294967295
-1.237913 108.54056 -20.273123 4294967295
-1.2335514 110.43526 -20.487879 4294967295
-1.2313894 111.69751 -20.634861 4294967295
-1.2286034 110.75457 -20.501781 4294967295
-1.2166677 108.71574 -20.18273 4294967295
-1.2158377 109.97739 -20.336706 4294967295
-1.214367 111.39689 -20.50709 4294967295
-1.2096326 110.14019 -20.324318 4294967295
-1.2071177 110.2999 -20.33106 4294967295
-1.1959423 110.93974 -20.352251 4294967295
-1.1933739 109.68092 -20.180666 4294967295
-1.1921844 109.83955 -20.194286 4294967295
-1.1796284 111.89921 -20.386372 4294967295
-1.1761094 109.53767 -20.07136 4294967295
-1.1668144 112.38297 -20.379299 4294967295
-1.1627319 112.07124 -20.318583 4294967295
-1.1511974 105.80083 -20.327934 4294967295
-1.1500708 106.11692 -20.361647 4294967295
-1.1468182 111.13894 -20.117397 4294967295
-1.1462723 105.96239 -20.322189 4294967295
-1.1442248 105.64883 -20.272022 4294967295
-1.1396524 111.618 -20.139616 4294967295
-1.1326048 107.5493 -20.449118 4294967295
-1.1272477 106.45052 -20.282944 4294967295
-1.1258132 112.26046 -20.147038 4294967295
-1.1235702 112.57771 -20.174984 4294967295
-1.1220795 108.50333 -20.513218 4294967295
-1.1197716 108.6628 -20.521034 4294967295
-1.1172678 108.19216 -20.448759 4294967295
-1.1163555 105.5135 -20.107817 4294967295
-1.1138479 106.30371 -20.193735 4294967295
-1.0992279 106.63078 -20.157549 4294967295
-1.0909076 107.26809 -20.193563 4294967295
-1.0893734 106.95406 -20.146055 4294967295
-1.0892245 109.00321 -20.402374 4294967295
-1.0836639 110.26847 -20.531727 4294967295
-1.0779204 107.7516 -20.185627 4294967295
-1.0746713 107.9119 -20.188576 4294967295
-1.0686024 110.75384 -20.51305 4294967295
-1.0662059 109.96793 -20.401804 4294967295
-1.0651358 108.07736 -20.158964 4294967295
-1.0477136 109.66815 -20.26651 4294967295
-1.0443799 109.19801 -20.189919 4294967295
-1.0358356 111.09668 -20.382961 4294967295
-1.0287451 111.7331 -20.425335 4294967295
-1.026894 112.20746 -20.475054 4294967295
-1.0232885 112.36813 -20.476158 4294967295
-1.0230755 109.84635 -20.158712 4294967295
-1.005605 110.96459 -20.206699 4294967295
-1.0049174 106.26173 -20.469284 4294967295
-1.003431 110.65112 -20.155891 4294967295
-0.99283612 105.48347 -20.307941 4294967295
-0.98795569 106.74815 -20.440807 4294967295
-0.97010303 107.70812 -20.467016 4294967295
-0.96935958 107.39357 -20.423647 4294967295
-0.96831429 111.31146 -20.053219 4294967295
-0.96750581 108.0254 -20.493101 4294967295
-0.9607054 111.47561 -20.033613 4294967295
-0.95693541 106.14272 -20.201235 4294967295
-0.95476532 105.67152 -20.130688 4294967295
-0.95382261 111.95454 -20.057327 4294967295
-0.95082593 106.93581 -20.268469 4294967295
-0.9492026 108.19799 -20.418188 4294967295
-0.94719779 106.62348 -20.210159 4294967295
-0.94261903 107.25771 -20.265545 4294967295
-0.93894958 105.84185 -20.068617 4294967295
-0.93705761 108.36557 -20.375132 4294967295
-0.93254048 109.47244 -20.490091 4294967295
-0.92756528 108.53098 -20.345798 4294967295
-0.92746103 106.00874 -20.02894 4294967295
-0.92404348 107.90338 -20.24852 4294967295
-0.90421063 107.13126 -20.047066 4294967295
-0.88217461 109.19901 -20.190107 4294967295
-0.88045591 109.67339 -20.24052 4294967295
-0.8799327 112.19559 -20.553965 4294967295
-0.87439078 110.46664 -20.30798 4294967295
-0.8726449 109.04924 -20.121056 4294967295
-0.87050062 111.57326 -20.426191 4294967295
-0.86973011 109.367 -20.145521 4294967295
-0.86108983 110.32016 -20.219446 4294967295
-0.85915422 111.26763 -20.32802 4294967295
-0.85124731 110.17074 -20.14879 4294967295
-0.8497287 112.06376 -20.378101 4294967295
-0.84768683 105.47077 -20.395813 4294967295
-0.84447008 110.96474 -20.212585 4294967295
-0.8420285 111.12447 -20.219727 4294967295
-0.84201652 110.02077 -20.081293 4294967295
-0.84082282 110.65249 -20.154196 4294967295
-0.83356267 112.39281 -20.334068 4294967295
-0.82944262 111.76575 -20.233727 4294967295
-0.82445949 112.55824 -20.306782 4294967295
-0.81906599 111.45922 -20.140558 4294967295
-0.81071001 110.8355 -20.018286 4294967295
-0.80997688 111.93996 -20.152878 4294967295
-0.80572408 105.81952 -20.218462 4294967295
-0.80124772 107.24174 -20.373148 4294967295
-0.79906797 106.14014 -20.223585 4294967295
-0.79875278 105.66745 -20.162672 4294967295
-0.79642367 106.61517 -20.269199 4294967295
-0.79253012 107.40644 -20.347864 4294967295
-0.79177493 105.98833 -20.166136 4294967295
-0.78263181 107.72974 -20.336237 4294967295
-0.78260571 108.04499 -20.375608 4294967295
-0.77596051 106.78933 -20.183224 4294967295
-0.76723957 107.1117 -20.177687 4294967295
-0.75268048 109.96098 -20.458065 4294967295
-0.74133092 108.86704 -20.261189 4294967295
-0.73395753 108.40015 -20.163832 4294967295
-0.73356539 109.0311 -20.240837 4294967295
-0.7306096 107.61449 -20.047728 4294967295
-0.72915858 108.71942 -20.178562 4294967295
-0.72805148 110.29678 -20.370394 4294967295
-0.71918118 111.72274 -20.502333 4294967295
-0.71497113 109.67712 -20.223835 4294967295
-0.70466971 108.58189 -20.032314 4294967295
-0.69676888 110.48061 -20.228626 4294967295
-0.69050199 111.27415 -20.29504 4294967295
-0.68652761 109.38538 -20.03743 4294967295
-0.68637657 105.78616 -20.439606 4294967295
-0.68563801 109.22841 -20.013073 4294967295
-0.68265742 105.47392 -20.38092 4294967295
-0.6798501 110.65247 -20.161028 4294967295
-0.67815351 111.12692 -20.211538 4294967295
-0.67395753 112.07642 -20.308397 4294967295
-0.6736896 109.86916 -20.03042 4294967295
-0.67185301 111.44758 -20.218521 4294967295
-0.65402102 106.44252 -20.35161 4294967295
-0.65198112 105.656 -20.242342 4294967295
-0.6455766 111.6275 -20.102636 4294967295
-0.64463568 106.92294 -20.362417 4294967295
-0.64205992 112.26126 -20.163513 4294967295
-0.62346262 107.57059 -20.332155 4294967295
-0.61779648 107.10228 -20.243679 4294967295
-0.61186832 106.31874 -20.114334 4294967295
-0.60588568 107.90019 -20.280966 4294967295
-0.59518468 112.45896 -19.941336 4294967295
-0.59359652 108.38318 -20.27681 4294967295
-0.58641398 109.01966 -20.318743 4294967295
-0.58604378 108.07405 -20.198355 4294967295
-0.58489567 106.81351 -20.034412 4294967295
-0.5843249 108.54844 -20.248732 4294967295
-0.58068269 109.49731 -20.348413 4294967295
-0.57241178 109.18887 -20.26627 4294967295
-0.57130837 107.29762 -20.023573 4294967295
-0.56211442 109.67036 -20.2724 4294967295
-0.55872577 108.72714 -20.136436 4294967295
-0.55082393 108.26054 -20.036421 4294967295
-0.54807103 107.78964 -19.962954 4294967295
-0.53182209 109.38012 -20.076679 4294967295
-0.53140152 110.95728 -20.271984 4294967295
-0.51997572 111.75522 -20.311794 4294967295
-0.50353938 106.59162 -20.431683 4294967295
-0.50352448 110.03446 -20.009756 4294967295
-0.4985553 110.66949 -20.063139 4294967295
-0.49210671 109.88624 -19.931122 4294967295
-0.4875055 110.36329 -19.96666 4294967295
-0.4836899 110.20873 -19.927231 4294967295
-0.4825063 111.15612 -20.039646 4294967295
-0.47967079 111.63166 -20.084278 4294967295
-0.4769021 106.77069 -20.314152 4294967295
-0.47665519 107.08616 -20.352352 4294967295
-0.47620139 106.92889 -20.330278 4294967295
-0.47532329 112.42387 -20.160604 4294967295
-0.47055861 111.48164 -20.017553 4294967295
-0.46823299 105.67402 -20.131292 4294967295
-0.46448609 107.72655 -20.368591 4294967295
-0.46431661 107.88432 -20.387451 4294967295
-0.46305671 111.33025 -19.959126 4294967295
-0.46052691 110.85912 -19.88682 4294967295
-0.45556149 108.04909 -20.36208 4294967295
-0.44689089 106.47951 -20.120018 4294967295
-0.44645429 106.16447 -20.078279 4294967295
-0.43607649 107.592 -20.202484 4294967295
-0.43568549 107.43464 -20.180729 4294967295
-0.43210769 107.27985 -20.142553 4294967295
-0.42306599 108.39095 -20.23415 4294967295
-0.41805971 110.1292 -20.425434 4294967295
-0.41490531 108.55531 -20.211849 4294967295
-0.41448 109.18632 -20.288605 4294967295
-0.4055059 110.7702 -20.439709 4294967295
-0.40310231 109.03803 -20.210266 4294967295
-0.3935554 108.25741 -20.062386 4294967295
-0.39253509 109.99281 -20.274258 4294967295
-0.39156479 110.62424 -20.348194 4294967295
-0.39083171 109.67888 -20.226015 4294967295
-0.3896918 110.9411 -20.378014 4294967295
-0.3889083 109.36511 -20.176634 4294967295
-0.38807759 108.89272 -20.113136 4294967295
-0.37541461 109.84936 -20.166353 4294967295
-0.37179899 112.05969 -20.424002 4294967295
-0.34885049 111.29079 -20.207203 4294967295
-0.33136109 110.35918 -19.998714 4294967295
-0.33080801 105.97044 -20.298517 4294967295
-0.32802081 111.15061 -20.080223 4294967295
-0.32280499 105.50384 -20.198132 4294967295
-0.32278389 107.08035 -20.395306 4294967295
-0.32088399 111.94521 -20.142172 4294967295
-0.31102961 105.67088 -20.157253 4294967295
-0.3050366 112.4318 -20.119808 4294967295
-0.29981369 106.15286 -20.158724 4294967295
-0.2866056 106.95188 -20.189409 4294967295
-0.28538421 106.4798 -20.123928 4294967295
-0.277605 106.32833 -20.064157 4294967295
-0.27062601 112.30334 -19.922943 4294967295
-0.2477635 109.97931 -20.364391 4294967295
-0.23908781 106.83244 -19.925146 4294967295
-0.23853271 107.62156 -20.020977 4294967295
-0.238158 108.25274 -20.097984 4294967295
-0.2377485 108.09536 -20.076145 4294967295
-0.2325044 110.46498 -20.345087 4294967295
-0.2230484 108.42281 -20.039986 4294967295
-0.22248399 107.47683 -19.918663 4294967295
-0.21950179 107.79475 -19.942795 4294967295
-0.2185891 108.74191 -20.056513 4294967295
-0.21769559 107.32295 -19.874285 4294967295
-0.215517 110.79451 -20.29718 4294967295
-0.21410909 111.11103 -20.329386 4294967295
-0.20949601 109.53798 -20.1084 4294967295
-0.20739301 109.69743 -20.117313 4294967295
-0.2066963 109.06712 -20.034803 4294967295
-0.19839101 110.65115 -20.189392 4294967295
-0.18213931 110.19157 -20.046629 4294967295
-0.1785612 112.56012 -20.324129 4294967295
-0.1770719 109.24928 -19.902159 4294967295
-0.175916 109.40799 -19.915951 4294967295
-0.1739646 112.40636 -20.280779 4294967295
-0.1694344 110.35989 -20.001026 4294967295
-0.15674441 106.61141 -20.316542 4294967295
-0.1507379 111.32201 -20.023283 4294967295
-0.1495299 111.48076 -20.036802 4294967295
-0.1460391 106.30465 -20.222084 4294967295
-0.13240249 107.8923 -20.349186 4294967295
-0.12728959 112.2883 -20.02112 4294967295
-0.1263779 111.65804 -19.937504 4294967295
-0.1219059 105.53535 -19.999413 4294967295
-0.1209487 108.53225 -20.369198 4294967295
-0.1200954 111.97888 -19.944674 4294967295
-0.1178375 105.69631 -19.998228 4294967295
-0.1133352 105.85762 -19.994814 4294967295
-0.1133324 112.14238 -19.92964 4294967295
-0.1122268 106.80484 -20.107475 4294967295
-0.1119762 108.69725 -20.342815 4294967295
-0.110587 106.17528 -20.020144 4294967295
-0.1104646 111.82925 -19.875427 4294967295
-0.1074162 106.02007 -19.984119 4294967295
-0.1071458 106.49348 -20.041912 4294967295
-0.0910099 107.13735 -20.037889 4294967295
-0.082973197 107.30157 -20.016317 4294967295
-0.082695 106.98631 -19.975433 4294967295
-0.073357403 107.46708 -19.986631 4294967295
-0.064016297 108.26336 -20.037264 4294967295
-0.057413101 108.42648 -20.023064 4294967295
-0.0560572 109.21624 -20.114714 4294967295
-0.048596699 110.16868 -20.19471 4294967295
-0.047609299 109.38092 -20.091042 4294967295
-0.041625101 109.54359 -20.080025 4294967295
-0.040951401 109.07093 -20.017395 4294967295
-0.0300717 111.91882 -20.316448 4294967295
-0.0087754 111.14823 -20.108526 4294967295
-0.0018627 110.36528 -19.974419 4294967295
0.0069275 105.98276 -20.2304 4294967295
0.0102467 112.42609 -20.168608 4294967295
0.0125713 110.53506 -19.920019 4294967295
0.0136872 105.51505 -20.136562 4294967295
0.0168602 111.48525 -20.016338 4294967295
0.0179761 110.69735 -19.911989 4294967295
0.0271249 106.47195 -20.185865 4294967295
0.0289692 111.02211 -19.894989 4294967295
0.029799299 111.65391 -19.969627 4294967295
0.0345053 106.95095 -20.207121 4294967295
0.035658501 112.28992 -20.018435 4294967295
0.051647 107.28015 -20.158571 4294967295
0.053756502 105.86229 -19.970303 4294967295
0.062314499 106.65784 -20.024967 4294967295
0.062826499 111.36611 -19.760595 4294967295
0.064208403 105.71283 -19.896927 4294967295
0.070116103 107.6105 -20.10322 4294967295
0.074880697 108.40295 -20.177332 4294967295
0.089827903 106.83765 -19.903475 4294967295
0.092215203 107.94388 -20.029251 4294967295
0.094485998 110.31145 -20.313246 4294967295
0.1092153 107.48436 -19.882862 4294967295
0.1104006 107.80087 -19.91622 4294967295
0.1130786 109.38058 -20.099634 4294967295
0.13167819 108.76483 -19.92536 4294967295
0.1362447 109.08412 -19.941366 4294967295
0.13906831 108.29751 -19.828283 4294967295
0.13942081 109.2445 -19.94479 4294967295
0.1471065 110.98616 -20.122213 4294967295
0.1484485 110.6718 -20.075911 4294967295
0.14859021 108.62087 -19.818874 4294967295
0.1542424 110.20335 -19.987059 4294967295
0.1553845 111.15083 -20.099474 4294967295
0.1581205 108.94427 -19.809422 4294967295
0.15834481 112.41514 -20.241953 4294967295
0.16171379 111.31388 -20.086729 4294967295
0.1653274 109.73919 -19.871052 4294967295
0.16555201 111.47485 -20.086758 4294967295
0.170139 106.14207 -20.245295 4294967295
0.1720257 110.06032 -19.876133 4294967295
0.175081 109.90505 -19.840742 4294967295
0.1795426 109.59312 -19.778416 4294967295
0.18124519 106.7817 -20.267166 4294967295
0.1831353 107.09859 -20.296877 4294967295
0.18485519 105.52293 -20.091038 4294967295
0.1950002 111.97293 -19.9949 4294967295
0.20358101 110.55995 -19.773449 4294967295
0.2048053 110.87661 -19.80661 4294967295
0.2059036 106.32829 -20.081669 4294967295
0.20913009 106.01538 -20.025715 4294967295
0.21041469 105.7009 -19.979712 4294967295
0.218725 107.44264 -20.153883 4294967295
0.22395509 106.65818 -20.028553 4294967295
0.23481201 108.08655 -20.150253 4294967295
0.2353279 111.84914 -19.768417 4294967295
0.2399191 107.93296 -20.104382 4294967295
0.24085429 112.32729 -19.79924 4294967295
0.2486307 107.30901 -19.980915 4294967295
0.25118959 108.88851 -20.164845 4294967295
0.25684169 107.00007 -19.899414 4294967295
0.26046431 108.58063 -20.077921 4294967295
0.27001739 107.79958 -19.930439 4294967295
0.27244461 107.64377 -19.898291 4294967295
0.27728039 109.6986 -20.129686 4294967295
0.278532 110.9614 -20.280857 4294967295
0.2802977 110.01656 -20.153631 4294967295
0.28163069 111.12169 -20.284683 4294967295
0.28417251 109.86202 -20.114082 4294967295
0.29069769 108.28971 -19.883598 4294967295
0.2959992 109.55627 -20.014095 4294967295
0.2967329 109.24134 -19.970926 4294967295
0.30522221 110.82595 -20.124472 4294967295
0.30603409 111.29984 -20.179409 4294967295
0.31251419 110.67428 -20.067425 4294967295
0.31733641 110.36275 -20.003321 4294967295
0.33091769 111.79396 -20.111084 4294967295
0.3367182 106.93484 -20.321777 4294967295
0.34936541 105.84098 -20.119196 4294967295
0.35025981 110.23227 -19.814981 4294967295
0.35185269 106.1584 -20.145851 4294967295
0.35584009 107.10787 -20.243595 4294967295
0.35830641 107.58295 -20.290039 4294967295
0.36007181 106.63812 -20.162859 4294967295
0.36053851 106.48077 -20.140778 4294967295
0.3643651 112.45326 -20.018633 4294967295
0.3822743 111.67937 -19.828411 4294967295
0.38267699 106.02515 -19.968355 4294967295
0.40308481 106.83027 -19.962387 4294967295
0.4057785 109.35632 -20.263695 4294967295
0.40920851 112.17557 -19.749628 4294967295
0.41067791 112.33465 -19.761814 4294967295
0.41111651 107.31004 -19.980375 4294967295
0.4116537 109.83427 -20.292698 4294967295
0.41331899 106.36508 -19.850897 4294967295
0.4225049 108.42359 -20.059969 4294967295
0.4239648 110.00215 -20.249407 4294967295
0.4282434 110.16341 -20.24721 4294967295
0.43402231 109.22176 -20.099508 4294967295
0.43668619 108.5929 -20.007101 4294967295
0.43925139 108.12165 -19.934883 4294967295
0.44139591 108.28117 -19.943607 4294967295
0.4453803 109.5466 -20.080786 4294967295
0.4523854 107.97449 -19.847971 4294967295
0.45833039 109.71502 -20.034229 4294967295
0.4874399 108.94991 -19.786812 4294967295
0.48799351 106.1385 -20.279739 4294967295
0.49936149 110.69569 -19.942518 4294967295
0.50081432 110.53909 -19.915392 4294967295
0.50306523 111.17215 -19.982662 4294967295
0.51028812 105.683 -20.106705 4294967295
0.5109629 110.86314 -19.90288 4294967295
0.51699668 111.3416 -19.93111 4294967295
0.51881748 111.50092 -19.941494 4294967295
0.5191167 107.10957 -20.238724 4294967295
0.52144969 111.02969 -19.868942 4294967295
0.5217067 105.53426 -20.028635 4294967295
0.52195591 110.39881 -19.787556 4294967295
0.52261567 106.79693 -20.181475 4294967295
0.52355957 106.32448 -20.117598 4294967295
0.53153962 106.64632 -20.116175 4294967295
0.53187478 111.8275 -19.914114 4294967295
0.54209453 108.38981 -20.278725 4294967295
0.54736 106.02786 -19.956545 4294967295
0.54842627 112.31489 -19.888569 4294967295
0.55242938 106.50522 -19.989698 4294967295
0.55686009 112.00634 -19.806049 4294967295
0.56075817 111.69392 -19.746716 4294967295
0.56206322 112.48424 -19.838541 4294967295
0.56623077 107.62066 -20.056965 4294967295
0.56686139 105.88551 -19.837149 4294967295
0.5753082 108.89003 -20.168045 4294967295
0.57705438 112.18121 -19.72249 4294967295
0.58784407 109.05801 -20.123674 4294967295
0.59541011 107.48637 -19.888142 4294967295
0.59907937 109.69823 -20.144999 4294967295
0.5992102 107.33161 -19.849026 4294967295
0.60165012 109.8581 -20.151545 4294967295
0.60568738 109.54591 -20.091557 4294967295
0.60600668 108.12613 -19.912746 4294967295
0.61452949 111.13071 -20.243185 4294967295
0.61898887 107.97882 -19.82671 4294967295
0.62229228 110.03288 -20.065775 4294967295
0.63337582 110.98868 -20.127251 4294967295
0.63563281 108.78145 -19.840118 4294967295
0.63951272 108.62678 -19.8006 4294967295
0.64168841 108.31287 -19.750093 4294967295
0.64702362 109.42204 -19.86068 4294967295
0.65606302 105.98623 -20.230663 4294967295
0.65993261 105.5161 -20.151882 4294967295
0.65993673 110.853 -19.971905 4294967295
0.662314 110.69717 -19.940077 4294967295
0.66805673 111.33318 -19.989487 4294967295
0.66892862 105.68093 -20.125624 4294967295
0.67141461 111.80936 -20.031387 4294967295
0.67242092 107.10326 -20.284849 4294967295
0.67931211 111.50039 -19.951689 4294967295
0.68000329 107.26705 -20.265816 4294967295
0.68928379 112.13998 -19.979506 4294967295
0.69695312 110.41023 -19.723759 4294967295
0.69887233 106.17789 -20.031769 4294967295
0.71047211 105.87151 -19.933184 4294967295
0.7178303 106.82408 -20.013699 4294967295
0.72107333 106.66888 -19.977465 4294967295
0.72253621 106.98562 -20.009354 4294967295
0.72431821 107.93366 -20.118315 4294967295
0.72736961 111.69848 -19.72595 4294967295
0.73342413 112.01929 -19.734415 4294967295
0.73853862 112.49719 -19.767372 4294967295
0.74496329 109.68571 -20.229351 4294967295
0.74815661 108.58403 -20.075354 4294967295
0.74922037 106.37566 -19.794399 4294967295
0.75853091 108.27688 -19.983059 4294967295
0.77135628 109.39184 -20.055346 4294967295
0.7719214 107.81427 -19.855677 4294967295
0.78092831 108.45284 -19.888435 4294967295
0.79086077 109.09219 -19.91647 4294967295
0.80609858 108.94679 -19.819035 4294967295
0.80676109 110.20992 -19.973089 4294967295
0.80966359 112.42123 -20.233681 4294967295
0.81305021 109.89947 -19.901649 4294967295
0.82046747 106.3042 -20.259436 4294967295
0.83329511 109.60042 -19.758997 4294967295
0.83900642 105.84564 -20.105915 4294967295
0.84032738 110.71115 -19.860891 4294967295
0.84276402 111.97575 -20.005877 4294967295
0.84402198 111.50336 -19.940435 4294967295
0.84768432 105.53694 -20.022327 4294967295
0.85408509 110.5647 -19.771032 4294967295
0.86720359 106.97237 -20.099817 4294967295
0.86831391 106.02657 -19.976145 4294967295
0.86947811 106.81641 -20.068556 4294967295
0.8749727 105.71622 -19.902847 4294967295
0.87537849 106.66334 -20.018806 4294967295
0.87789941 112.16311 -19.846375 4294967295
0.88112319 111.06075 -19.692162 4294967295
0.88573182 107.61829 -20.084032 4294967295
0.88875788 111.85651 -19.751638 4294967295
0.89211398 111.38568 -19.675472 4294967295
0.89234853 107.15025 -19.991299 4294967295
0.89336848 108.4133 -20.143429 4294967295
0.89465642 109.20311 -20.235172 4294967295
0.90167999 112.34099 -19.744785 4294967295
0.90353209 107.317 -19.953959 4294967295
0.91393459 108.11437 -19.999281 4294967295
0.91586018 108.74709 -20.068132 4294967295
0.91688478 107.48551 -19.905563 4294967295
0.92593819 107.96625 -19.91843 4294967295
0.93142313 108.91754 -20.00849 4294967295
0.93235362 107.8136 -19.866058 4294967295
0.93331331 109.55025 -20.077518 4294967295
0.9380455 109.71192 -20.073071 4294967295
0.93875802 109.08132 -19.990778 4294967295
0.94316691 110.34727 -20.125629 4294967295
0.94594878 108.61372 -19.895126 4294967295
0.94643188 109.8766 -20.050005 4294967295
0.95158237 111.30087 -20.20072 4294967295
0.95688909 110.2008 -20.036057 4294967295
0.96443999 111.1538 -20.115568 4294967295
0.96547067 110.68128 -20.051331 4294967295
0.9728865 111.00303 -20.052881 4294967295
0.98036671 112.42935 -20.191729 4294967295
0.98049629 110.53591 -19.95512 4294967295
0.9828642 110.06438 -19.884052 4294967295
0.98375559 105.51711 -20.156384 4294967295
0.98630887 112.11879 -20.122149 4294967295
0.99873471 105.84442 -20.119417 4294967295
1.0000874 105.68772 -20.092871 4294967295
1.0052406 106.00732 -20.105946 4294967295
1.0086852 111.66412 -19.949196 4294967295
1.0169357 111.98669 -19.946508 4294967295
1.0217733 110.88579 -19.784184 4294967295
1.0221639 106.49404 -20.078747 4294967295
1.024039 111.8348 -19.890663 4294967295
1.0348973 107.92413 -20.190817 4294967295
1.0370048 106.97919 -20.062157 4294967295
1.0431784 108.08856 -20.168318 4294967295
1.0442469 106.35376 -19.946646 4294967295
1.0457023 107.30171 -20.057194 4294967295
1.0479127 108.40791 -20.183525 4294967295
1.0488427 106.67303 -19.962568 4294967295
1.0564331 112.33557 -19.784693 4294967295
1.064154 109.05215 -20.179476 4294967295
1.064705 108.89483 -20.157019 4294967295
1.0673808 106.21424 -19.809187 4294967295
1.0673853 106.8456 -19.887823 4294967295
1.0694389 109.84527 -20.250834 4294967295
1.0776354 107.80073 -19.953611 4294967295
1.087111 107.49268 -19.866053 4294967295
1.0904803 109.70475 -20.124117 4294967295
1.0912271 107.18028 -19.805769 4294967295
1.0913371 108.75867 -20.001825 4294967295
1.0918778 107.65434 -19.86145 4294967295
1.1041877 109.24256 -19.995399 4294967295
1.109912 110.19408 -20.084206 4294967295
1.1131911 110.03898 -20.047867 4294967295
1.1137511 110.35504 -20.084326 4294967295
1.1280011 108.63058 -19.795565 4294967295
1.1371558 111.47903 -20.102829 4294967295
1.1386064 110.69118 -19.997181 4294967295
1.1400322 110.85018 -20.009583 4294967295
1.1446519 105.99007 -20.222843 4294967295
1.147963 105.51941 -20.147066 4294967295
1.1534916 111.80827 -20.059042 4294967295
1.162182 112.13117 -20.054148 4294967295
1.1628885 109.60621 -19.73601 4294967295
1.1686605 111.34745 -19.922918 4294967295
1.1741296 112.29902 -20.013037 4294967295
1.1741803 106.4867 -20.131622 4294967295
1.1753874 112.4579 -20.026293 4294967295
1.1756387 105.69892 -20.025963 4294967295
1.1815053 107.43913 -20.212248 4294967295
1.1820074 111.2007 -19.835365 4294967295
1.1823082 110.56946 -19.755186 4294967295
1.1954199 111.68547 -19.826122 4294967295
1.1985562 107.29499 -20.105917 4294967295
1.2058092 107.93193 -20.147625 4294967295
1.2140924 105.88699 -19.850058 4294967295
1.2148228 107.6236 -20.062511 4294967295
1.2210369 106.366 -19.873709 4294967295
1.2225158 106.9985 -19.944801 4294967295
1.2318184 109.05742 -20.152929 4294967295
1.2353293 108.27129 -20.036858 4294967295
1.2371166 108.43054 -20.047421 4294967295
1.2400354 107.80163 -19.953989 4294967295
1.2462674 109.54255 -20.138428 4294967295
1.2471756 107.17599 -19.839077 4294967295
1.2520547 109.86286 -20.148304 4294967295
1.2535427 108.75946 -20.003225 4294967295
1.2647439 108.92637 -19.965944 4294967295
1.2756342 110.19781 -20.067776 4294967295
1.2760482 109.72471 -20.006735 4294967295
1.2806069 109.41277 -19.944273 4294967295
1.2886155 110.05066 -19.982168 4294967295
1.2894958 111.3139 -20.134851 4294967295
1.2964121 111.47746 -20.11936 4294967295
1.3015795 110.69266 -19.994886 4294967295
1.3040693 109.27405 -19.805384 4294967295
1.3113859 112.12117 -20.121864 4294967295
1.3285962 106.16571 -20.132978 4294967295
1.3300245 106.00906 -20.106089 4294967295
1.3343965 110.56189 -19.808502 4294967295
1.335178 106.9598 -20.197735 4294967295
1.3365412 110.40578 -19.777952 4294967295
1.3494596 107.76005 -20.223391 4294967295
1.3513813 111.20746 -19.800819 4294967295
1.3527973 111.84013 -19.872229 4294967295
1.3563216 111.6852 -19.834677 4294967295
1.3620046 108.08566 -20.198971 4294967295
1.3636953 106.35123 -19.974373 4294967295
1.3639232 110.90207 -19.697794 4294967295
1.3734037 106.67456 -19.964357 4294967295
1.3751276 107.62283 -20.073442 4294967295
1.3770503 105.73038 -19.827969 4294967295
1.3881714 107.15978 -19.948296 4294967295
1.3927375 109.53053 -20.219664 4294967295
1.4060429 112.04253 -19.621422 4294967295
1.4082193 107.965 -19.944719 4294967295
1.4105316 108.59818 -20.011541 4294967295
1.4116826 112.52105 -19.651747 4294967295
1.4132516 107.49548 -19.860243 4294967295
1.4220252 108.76531 -19.972839 4294967295
1.4263091 108.45309 -19.911814 4294967295
1.4282506 109.40169 -20.019796 4294967295
1.4511445 109.26248 -19.883963 4294967295
1.4604615 109.90151 -19.915243 4294967295
1.4608003 111.95356 -20.168783 4294967295
1.4702091 110.69878 -19.963976 4294967295
1.471872 105.99374 -20.210474 4294967295
1.4742631 108.9655 -19.727335 4294967295
1.4817942 106.15933 -20.179777 4294967295
1.4872906 112.29135 -20.073673 4294967295
1.4876424 111.02889 -19.914799 4294967295
1.4915581 109.76907 -19.737789 4294967295
1.4947469 110.08748 -19.760899 4294967295
1.5007514 110.88186 -19.828648 4294967295
1.5026098 112.46204 -20.015604 4294967295
1.5038129 105.54542 -19.989578 4294967295
1.5078467 111.51926 -19.871214 4294967295
1.5080187 110.25626 -19.713196 4294967295
1.5094944 107.12796 -20.157061 4294967295
1.5151618 111.68322 -19.853745 4294967295
1.5163947 106.97565 -20.102442 4294967295
1.5178554 108.23911 -20.252035 4294967295
1.5223371 107.29598 -20.111565 4294967295
1.5231448 111.21618 -19.754318 4294967295
1.5241358 112.16435 -19.867142 4294967295
1.5311776 108.72318 -20.243364 4294967295
1.5366296 111.859 -19.764482 4294967295
1.541751 105.89085 -19.83642 4294967295
1.5430182 108.57495 -20.163719 4294967295
1.5483723 106.68536 -19.90102 4294967295
1.5489607 108.42194 -20.11397 4294967295
1.5503097 107.63394 -20.008989 4294967295
1.5549738 106.53272 -19.847906 4294967295
1.5605096 107.79993 -19.976906 4294967295
1.5671817 106.38448 -19.766357 4294967295
1.5685368 108.12205 -19.97547 4294967295
1.5724909 108.9144 -20.05357 4294967295
1.5783672 109.70827 -20.121914 4294967295
1.6053545 109.41459 -19.945879 4294967295
1.6073461 109.10049 -19.896523 4294967295
1.6190242 109.26784 -19.85696 4294967295
1.6199456 110.68931 -20.028959 4294967295
1.6285591 111.48561 -20.083443 4294967295
1.6409879 109.60148 -19.784906 4294967295
1.6451713 111.97294 -20.058155 4294967295
1.6467253 111.02711 -19.932522 4294967295
1.6496102 110.55587 -19.859011 4294967295
1.6506095 112.451 -20.089478 4294967295
1.6577519 105.85524 -20.072012 4294967295
1.6587143 110.40546 -19.793243 4294967295
1.6607703 111.1966 -19.880987 4294967295
1.6635771 110.09364 -19.72933 4294967295
1.6684753 111.67664 -19.900841 4294967295
1.6691998 106.02204 -20.033646 4294967295
1.6729382 111.83823 -19.89786 4294967295
1.6746919 110.89233 -19.771183 4294967295
1.6777109 111.36853 -19.814787 4294967295
1.6788946 107.29221 -20.1415 4294967295
1.6806995 106.34675 -20.014645 4294967295
1.6846011 107.92796 -20.191069 4294967295
1.6924518 107.46082 -20.092466 4294967295
1.6968378 112.17394 -19.816048 4294967295
1.7019019 106.67916 -19.946507 4294967295
1.7064831 108.26112 -20.119509 4294967295
1.7151631 108.42593 -20.095181 4294967295
1.7158663 106.84807 -19.895411 4294967295
1.7173129 112.34898 -19.73196 4294967295
1.7199929 105.74615 -19.737112 4294967295
1.7204118 107.00954 -19.892015 4294967295
1.721223 106.22079 -19.789772 4294967295
1.7330909 108.91386 -20.063274 4294967295
1.7354432 107.17934 -19.83552 4294967295
1.7425311 106.55338 -19.721109 4294967295
1.7443064 109.39645 -20.065351 4294967295
1.7460228 107.66141 -19.840826 4294967295
1.7572039 110.03829 -20.078537 4294967295
1.7654049 108.78212 -19.880068 4294967295
1.7668213 107.83591 -19.755142 4294967295
1.7823093 109.26945 -19.853367 4294967295
1.7902747 108.17053 -19.675652 4294967295
1.7948592 108.64799 -19.71133 4294967295
1.7993217 111.96707 -20.100792 4294967295
1.8057845 105.8448 -20.145021 4294967295
1.8085986 105.53139 -20.091566 4294967295
1.8167013 112.45512 -20.071709 4294967295
1.8182878 110.87775 -19.867502 4294967295
1.8184444 110.24628 -19.788218 4294967295
1.8261062 106.17638 -20.081446 4294967295
1.831681 106.33858 -20.072857 4294967295
1.8330461 106.02399 -20.02673 4294967295
1.8355956 105.71031 -19.974606 4294967295
1.8384708 106.97523 -20.116953 4294967295
1.8420008 111.05521 -19.767132 4294967295
1.8528986 111.22213 -19.731613 4294967295
1.8556525 107.93579 -20.147711 4294967295
1.8563539 110.43528 -19.615988 4294967295
1.8602064 112.17571 -19.812386 4294967295
1.8675784 112.33978 -19.794714 4294967295
1.8728925 111.87044 -19.708954 4294967295
1.873768 111.71323 -19.684898 4294967295
1.8789043 107.63869 -19.990915 4294967295
1.8796905 108.42854 -20.08499 4294967295
1.8841201 111.56387 -19.612892 4294967295
1.8970093 106.5479 -19.762039 4294967295
1.8971345 108.75826 -20.036011 4294967295
1.8991212 106.86537 -19.790596 4294967295
1.8992472 109.07565 -20.064548 4294967295
1.9032973 110.02592 -20.161711 4294967295
1.9041879 107.81673 -19.882675 4294967295
1.909317 108.29447 -19.915583 4294967295
1.9094465 107.34726 -19.797234 4294967295
1.9113457 108.13822 -19.885712 4294967295
1.9143957 108.93004 -19.968355 4294967295
1.9292809 107.52094 -19.716549 4294967295
1.9298975 110.36334 -20.066475 4294967295
1.9403843 110.8455 -20.072296 4294967295
1.9505683 109.43297 -19.84433 4294967295
1.951497 110.69678 -19.996529 4294967295
1.9520373 109.59206 -19.856518 4294967295
1.9557698 111.01603 -20.014151 4294967295
1.9584533 109.75517 -19.8437 4294967295
1.9739804 111.66255 -20.000561 4294967295
1.9757882 106.00939 -20.12652 4294967295
1.9786896 109.92957 -19.761028 4294967295
1.9847314 110.56618 -19.808952 4294967295
1.9853238 105.54336 -20.019541 4294967295
1.9946126 112.46909 -19.994354 4294967295
1.9947395 106.33992 -20.069986 4294967295
1.997846 111.36654 -19.840748 4294967295
2.0031669 112.31836 -19.931528 4294967295
2.0051537 112.16212 -19.901882 4294967295
2.0096581 111.21838 -19.761444 4294967295
2.0106976 107.14169 -20.087385 4294967295
2.0267053 105.73351 -19.830082 4294967295
2.0290923 107.31412 -20.014082 4294967295
2.0303142 106.8415 -19.9491 4294967295
2.0305645 108.89363 -20.202629 4294967295
2.0345798 108.10772 -20.084372 4294967295
2.0351992 107.00323 -19.944031 4294967295
2.0406485 107.79688 -20.014526 4294967295
2.0419338 109.21844 -20.184418 4294967295
2.0523565 106.22729 -19.759327 4294967295
2.0524352 106.54317 -19.798151 4294967295
2.0607436 107.49713 -19.873835 4294967295
2.0677524 107.6606 -19.858046 4294967295
2.078074 109.87912 -20.080357 4294967295
2.0858033 110.51682 -20.119728 4294967295
2.1062124 108.0071 -19.703039 4294967295
2.1164751 108.64706 -19.72966 4294967295
2.1208513 110.38765 -19.923229 4294967295
2.128073 110.23565 -19.867174 4294967295
2.1351533 110.08352 -19.811831 4294967295
2.1458969 110.72398 -19.836023 4294967295
2.1519392 111.5185 -19.903543 4294967295
2.1644878 110.89717 -19.761799 4294967295
2.1749132 105.72318 -19.902475 4294967295
2.1788354 112.4883 -19.885437 4294967295
2.1794126 107.93672 -20.154076 4294967295
2.1804481 111.06824 -19.700857 4294967295
2.1816261 111.701 -19.773338 4294967295
2.1909623 112.18256 -19.785044 4294967295
2.1947322 107.63323 -20.037636 4294967295
2.1953394 106.05492 -19.838617 4294967295
2.1957054 106.371 -19.875969 4294967295
2.1982691 105.89931 -19.804235 4294967295
2.2073934 107.80118 -19.993372 4294967295
2.208833 106.2234 -19.790142 4294967295
2.2117543 111.25201 -19.562473 4294967295
2.2161274 105.59739 -19.674929 4294967295
2.2169654 108.4403 -20.023468 4294967295
2.2262969 111.89599 -19.567535 4294967295
2.2276571 109.55392 -20.106684 4294967295
2.2575173 109.42023 -19.936548 4294967295
2.2586534 109.73694 -19.970005 4294967295
2.2626238 111.00315 -20.106701 4294967295
2.2671461 108.63845 -19.79002 4294967295
2.2682996 107.53378 -19.646996 4294967295
2.2699378 110.8513 -20.050251 4294967295
2.2777858 110.22618 -19.932331 4294967295
2.2924347 109.13261 -19.721304 4294967295
2.2935574 110.08113 -19.833231 4294967295
2.2974875 111.50551 -19.989754 4294967295
2.3074739 110.40833 -19.802271 4294967295
2.3109643 110.56912 -19.804272 4294967295
2.3141861 109.93998 -19.709641 4294967295
2.3171985 111.83761 -19.9296 4294967295
2.3206332 111.20878 -19.83392 4294967295
2.3300955 112.16414 -19.903791 4294967295
2.3350518 105.56428 -19.89505 4294967295
2.3400555 106.04185 -19.928602 4294967295
2.3414824 105.72717 -19.882236 4294967295
2.3423259 106.35939 -19.956337 4294967295
2.3482466 106.20614 -19.906921 4294967295
2.3512497 110.76007 -19.620811 4294967295
2.355401 107.63269 -20.047142 4294967295
2.3578749 108.73962 -20.17174 4294967295
2.3593473 112.50434 -19.795582 4294967295
2.3664558 107.32571 -19.952293 4294967295
2.3763757 107.01775 -19.86315 4294967295
2.3778844 106.86102 -19.83596 4294967295
2.3801148 108.44175 -20.020582 4294967295
2.386071 109.70945 -20.147224 4294967295
2.3904922 109.55518 -20.105387 4294967295
2.4020064 107.51178 -19.79281 4294967295
2.4030499 109.0917 -19.983416 4294967295
2.4125316 108.62561 -19.876917 4294967295
2.4149966 107.83796 -19.76656 4294967295
2.4159534 105.94316 -19.526598 4294967295
2.4165871 109.26051 -19.934835 4294967295
2.4273055 109.42707 -19.90045 4294967295
2.4288809 108.95458 -19.833759 4294967295
2.4358594 111.01299 -20.053204 4294967295
2.4414032 107.22705 -19.555174 4294967295
2.4424481 110.54472 -19.961296 4294967295
2.4457431 108.33633 -19.670483 4294967295
2.4574697 110.08321 -19.826921 4294967295
2.4661534 110.24822 -19.802792 4294967295
2.4773695 109.94144 -19.707148 4294967295
2.4877737 110.73972 -19.752716 4294967295
2.4884737 111.53002 -19.847126 4294967295
2.4905055 111.37376 -19.817314 4294967295
2.4956901 112.32565 -19.908722 4294967295
2.4968128 112.01072 -19.863909 4294967295
2.511317 111.70683 -19.751741 4294967295
2.5196095 105.42427 -19.764801 4294967295
2.5251291 107.32355 -19.971985 4294967295
2.5257955 107.00828 -19.92948 4294967295
2.5359983 107.96372 -19.995607 4294967295
2.5390208 106.54493 -19.804205 4294967295
2.540998 108.1256 -19.990034 4294967295
2.543134 107.6536 -19.920565 4294967295
2.5452044 112.20882 -19.639965 4294967295
2.5464184 107.49829 -19.884466 4294967295
2.5467818 109.39326 -20.117516 4294967295
2.5484688 106.39439 -19.737085 4294967295
2.558249 105.92816 -19.629118 4294967295
2.561034 106.0883 -19.634691 4294967295
2.5650454 109.88165 -20.084389 4294967295
2.5658822 109.25079 -20.001898 4294967295
2.5706527 108.46508 -19.880035 4294967295
2.5743024 112.54902 -19.532721 4294967295
2.5767896 106.25858 -19.575001 4294967295
2.581562 109.73714 -19.981771 4294967295
2.5877469 108.3208 -19.774481 4294967295
2.590435 109.58642 -19.917582 4294967295
2.5969954 109.11793 -19.825865 4294967295
2.6105003 107.86502 -19.601286 4294967295
2.6173003 108.66035 -19.665009 4294967295
2.6254346 108.98283 -19.663267 4294967295
2.6288092 107.24749 -19.430828 4294967295
2.630178 110.72422 -19.854792 4294967295
2.6311755 110.56709 -19.8302 4294967295
2.6370411 110.88777 -19.839865 4294967295
2.6733074 112.49715 -19.853331 4294967295
2.6779394 112.18509 -19.790901 4294967295
2.6863933 111.71815 -19.689678 4294967295
2.6908979 111.24789 -19.608292 4294967295
2.6937058 106.22375 -19.80496 4294967295
2.6946092 111.88293 -19.667965 4294967295
2.6972017 111.09505 -19.55702 4294967295
2.6977208 106.06894 -19.765211 4294967295
2.7193081 112.3774 -19.602575 4294967295
2.7248368 105.45811 -19.550631 4294967295
2.7347269 112.07413 -19.485916 4294967295
2.7365572 108.46867 -19.863663 4294967295
2.7404835 109.57728 -19.980904 4294967295
2.7408028 108.94586 -19.901041 4294967295
2.7439678 108.00075 -19.767729 4294967295
2.7472527 108.31927 -19.790371 4294967295
2.7529414 109.74526 -19.93791 4294967295
2.7533677 109.42976 -19.896639 4294967295
2.753906 105.9547 -19.463287 4294967295
2.7542455 108.79871 -19.813957 4294967295
2.7555685 110.53696 -20.022533 4294967295
2.7582271 107.38015 -19.617798 4294967295
2.7682166 107.86203 -19.626345 4294967295
2.769038 109.28443 -19.798374 4294967295
2.7714136 107.07454 -19.512392 4294967295
2.7731588 106.75986 -19.464458 4294967295
2.7765663 106.92057 -19.466921 4294967295
2.7776909 109.92323 -19.833197 4294967295
2.7808568 106.44983 -19.38661 4294967295
2.7820394 110.0847 -19.830929 4294967295
