# .PCD v0.7 - Point Cloud Data file format
VERSION 0.7
FIELDS x y z rgb
SIZE 4 4 4 4
TYPE F F F U
COUNT 1 1 1 1
WIDTH 1146
HEIGHT 1
VIEWPOINT 0 0 0 1 0 0 0
POINTS 1146
DATA ascii
44.173687 62.762402 -14.916029 4294967295
44.173691 61.312511 -14.753813 4294967295
44.176373 61.474464 -14.761669 4294967295
44.182465 63.570633 -14.972832 4294967295
44.18248 61.959724 -14.792581 4294967295
44.187893 64.699867 -15.078353 4294967295
44.194157 62.285648 -14.784341 4294967295
44.194649 63.252426 -14.890594 4294967295
44.196301 65.346886 -15.118532 4294967295
44.199039 67.984024 -14.76315 4294967295
44.199421 62.609554 -14.80042 4294967295
44.206703 66.960793 -15.259179 4294967295
44.211952 64.224625 -14.933092 4294967295
44.214245 62.453171 -14.726176 4294967295
44.224545 64.550972 -14.921393 4294967295
44.224575 60.791935 -15.139688 4294967295
44.224686 64.873199 -14.956886 4294967295
44.2355 65.682251 -15.005964 4294967295
44.243069 63.912647 -14.779086 4294967295
44.252041 67.29863 -15.123388 4294967295
44.255234 66.816536 -15.057264 4294967295
44.259872 63.434715 -14.661297 4294967295
44.267235 65.854103 -14.903704 4294967295
44.274097 67.145226 -15.021795 4294967295
44.277241 61.291412 -14.994136 4294967295
44.281277 61.936905 -15.050891 4294967295
44.290634 62.906158 -15.123493 4294967295
44.294498 62.424259 -15.054823 4294967295
44.296749 65.058411 -14.701726 4294967295
44.304447 61.138813 -14.873015 4294967295
44.314724 66.192535 -14.759737 4294967295
44.318085 63.076057 -15.037507 4294967295
44.318871 61.787693 -14.890435 4294967295
44.32246 66.678619 -14.784479 4294967295
44.322578 66.517517 -14.766011 4294967295
44.322754 64.688049 -15.199893 4294967295
44.327225 64.850571 -15.200974 4294967295
44.329967 66.358902 -14.719993 4294967295
44.336132 62.276436 -14.879076 4294967295
44.337154 65.175957 -15.199369 4294967295
44.347313 67.492973 -14.780395 4294967295
44.349285 63.569386 -14.973357 4294967295
44.355526 63.410328 -14.931698 4294967295
44.35759 67.657715 -14.759471 4294967295
44.36937 62.770374 -14.807198 4294967295
44.373924 65.993591 -15.150159 4294967295
44.375877 62.12793 -14.710466 4294967295
44.377522 64.222992 -14.938448 4294967295
44.386646 64.064888 -14.885873 4294967295
44.390221 62.615921 -14.710183 4294967295
44.392513 64.55014 -14.917693 4294967295
44.395641 63.745605 -14.815779 4294967295
44.415783 62.247444 -15.209592 4294967295
44.418175 63.269512 -14.676361 4294967295
44.422455 65.526794 -14.912366 4294967295
44.422935 62.410744 -15.200513 4294967295
44.423271 61.12254 -15.055208 4294967295
44.424717 60.961933 -15.031731 4294967295
44.437618 67.142982 -15.035048 4294967295
44.441311 66.177635 -14.913019 4294967295
44.444954 65.856636 -14.863203 4294967295
44.447834 62.096569 -15.070271 4294967295
44.452839 60.809555 -14.907261 4294967295
44.453712 67.792961 -15.046141 4294967295
44.456165 66.988312 -14.946821 4294967295
44.457512 65.377472 -14.761605 4294967295
44.458385 61.294533 -14.940286 4294967295
44.460918 61.456409 -14.948705 4294967295
44.469345 67.476227 -14.950957 4294967295
44.471699 67.315933 -14.924037 4294967295
44.476112 66.834076 -14.853301 4294967295
44.482281 66.513924 -14.793921 4294967295
44.498226 63.079082 -14.987571 4294967295
44.49926 66.680908 -14.747653 4294967295
44.500866 64.368507 -15.121623 4294967295
44.501011 63.402145 -15.013051 4294967295
44.50301 67.649117 -14.841533 4294967295
44.519135 67.977074 -14.816521 4294967295
44.526958 63.893856 -14.968876 4294967295
44.528904 64.055588 -14.97952 4294967295
44.530178 65.344635 -15.118731 4294967295
44.531029 66.311249 -15.223492 4294967295
44.536816 61.802441 -14.697425 4294967295
44.544117 65.510391 -15.083994 4294967295
44.552338 63.579918 -14.836834 4294967295
44.560085 66.965439 -15.185588 4294967295
44.572357 64.714355 -14.887145 4294967295
44.577293 63.749184 -14.7604 4294967295
44.577572 64.877213 -14.885414 4294967295
44.581158 66.006187 -14.99789 4294967295
44.584518 66.168434 -15.003181 4294967295
44.587482 61.764584 -15.137444 4294967295
44.588413 64.236267 -14.772355 4294967295
44.591953 62.249119 -15.17453 4294967295
44.593796 67.782501 -15.148094 4294967295
44.594219 65.688393 -14.912478 4294967295
44.596004 61.606209 -15.08722 4294967295
44.597359 65.044937 -14.828569 4294967295
44.600269 67.140427 -15.051623 4294967295
44.601505 67.463036 -15.082943 4294967295
44.606308 64.564476 -14.740682 4294967295
44.612389 65.855675 -14.861756 4294967295
44.624516 60.970776 -14.90738 4294967295
44.625301 63.065002 -15.138432 4294967295
44.632751 61.456627 -14.930253 4294967295
44.637566 62.102501 -14.984053 4294967295
44.64658 61.299835 -14.859945 4294967295
44.648209 62.911304 -15.033819 4294967295
44.650246 63.395184 -15.080113 4294967295
44.652229 67.641861 -14.909132 4294967295
44.653316 63.557251 -15.086507 4294967295
44.655331 66.837219 -14.807373 4294967295
44.656158 62.430584 -14.949756 4294967295
44.661972 64.848572 -15.197753 4294967295
44.679501 67.329071 -14.769988 4294967295
44.689701 65.502068 -15.164939 4294967295
44.694572 63.892868 -14.966554 4294967295
44.696022 61.959843 -14.745005 4294967295
44.698032 65.021652 -15.079458 4294967295
44.70052 64.055916 -14.962068 4294967295
44.702698 63.251053 -14.863822 4294967295
44.708782 64.703049 -15.002832 4294967295
44.719173 62.611786 -14.729503 4294967295
44.722961 64.224396 -14.895246 4294967295
44.726971 61.271587 -15.187112 4294967295
44.732922 65.677719 -15.019593 4294967295
44.734413 66.483688 -15.103942 4294967295
44.735237 64.389572 -14.866845 4294967295
44.736111 67.933899 -15.259456 4294967295
44.736832 66.645607 -15.112792 4294967295
44.740948 67.130264 -15.151223 4294967295
44.749134 66.166527 -15.012332 4294967295
44.757587 65.363792 -14.890382 4294967295
44.763195 67.299065 -15.085175 4294967295
44.768059 66.817436 -15.01281 4294967295
44.773262 66.980347 -15.011155 4294967295
44.774719 65.208397 -14.807646 4294967295
44.776142 67.786865 -15.090243 4294967295
44.77829 67.465416 -15.046136 4294967295
44.781895 60.966484 -14.94361 4294967295
44.783772 65.856041 -14.845442 4294967295
44.79377 60.809044 -14.880737 4294967295
44.803009 62.584007 -15.043816 4294967295
44.805199 62.101437 -14.981564 4294967295
44.807026 66.025078 -14.77557 4294967295
44.807583 61.779987 -14.936563 4294967295
44.818325 67.640503 -14.912894 4294967295
44.842472 62.274338 -14.858752 4294967295
44.846439 65.658569 -15.221641 4294967295
44.85038 63.082478 -14.918883 4294967295
44.852551 65.177429 -15.144608 4294967295
44.854511 63.889366 -14.993274 4294967295
44.857441 65.984406 -15.216083 4294967295
44.857521 63.407017 -14.927906 4294967295
44.858688 64.212936 -15.013479 4294967295
44.864429 62.442444 -14.793822 4294967295
44.873535 63.734455 -14.903436 4294967295
44.874985 65.829277 -15.131868 4294967295
44.879688 64.703186 -14.988173 4294967295
44.882336 62.931606 -14.780188 4294967295
44.882622 63.576279 -14.85111 4294967295
44.883633 65.026711 -15.009272 4294967295
44.887634 64.061317 -14.886189 4294967295
44.89579 66.48069 -15.125294 4294967295
44.896622 66.642059 -15.140143 4294967295
44.901226 61.1115 -15.141432 4294967295
44.904419 63.261028 -14.732794 4294967295
44.907589 64.390152 -14.846835 4294967295
44.926285 65.524361 -14.902216 4294967295
44.93364 64.559898 -14.76646 4294967295
44.940502 67.946014 -15.11844 4294967295
44.950001 61.448807 -14.993315 4294967295
44.954693 61.933552 -15.029584 4294967295
44.956718 61.289795 -14.949968 4294967295
44.965313 60.809105 -14.863551 4294967295
44.967781 60.970993 -14.872225 4294967295
44.976521 61.618191 -14.911231 4294967295
44.9785 63.551991 -15.119641 4294967295
44.984318 62.265102 -14.953777 4294967295
44.99445 64.362579 -15.149404 4294967295
44.997925 67.805008 -14.88375 4294967295
44.999016 67.644226 -14.861633 4294967295
45.003891 67.323586 -14.807253 4294967295
45.007618 63.400326 -14.991806 4294967295
45.013351 67.488052 -14.789536 4294967295
45.025879 62.117104 -14.778942 4294967295
45.026024 64.856277 -15.084254 4294967295
45.034729 62.442215 -14.781547 4294967295
45.036114 65.342926 -15.100159 4294967295
45.040035 63.733082 -14.905483 4294967295
45.040581 65.666611 -15.119282 4294967295
45.046909 63.090729 -14.80757 4294967295
45.051659 66.475807 -15.167427 4294967295
45.053848 65.187752 -15.015285 4294967295
45.057999 65.994682 -15.089571 4294967295
45.070126 64.548637 -14.881936 4294967295
45.072792 64.066055 -14.817895 4294967295
45.074177 64.227669 -14.830667 4294967295
45.075451 61.112434 -15.113962 4294967295
45.085625 65.520645 -14.931417 4294967295
45.088985 60.794445 -15.026951 4294967295
45.092346 65.039452 -14.852102 4294967295
45.101528 60.959404 -14.99765 4294967295
45.103809 62.732014 -15.186868 4294967295
45.115929 61.44717 -14.997316 4294967295
45.118149 61.93116 -15.042908 4294967295
45.129524 62.901302 -15.10793 4294967295
45.134624 67.471085 -14.962511 4294967295
45.13504 67.79351 -14.996918 4294967295
45.136654 67.955215 -15.008816 4294967295
45.139507 66.344658 -14.81818 4294967295
45.14389 66.668503 -14.837633 4294967295
45.162506 61.300522 -14.803704 4294967295
45.163586 62.428837 -14.92557 4294967295
45.166912 62.107624 -14.877052 4294967295
45.166927 63.074394 -14.984925 4294967295
45.168812 62.26936 -14.887882 4294967295
45.170071 67.161041 -14.792895 4294967295
45.175106 64.204803 -15.07999 4294967295
45.177002 64.366524 -15.090823 4294967295
45.178421 62.594685 -14.887632 4294967295
45.187737 63.564468 -14.960447 4294967295
45.192425 67.007561 -14.690619 4294967295
45.194332 65.016655 -15.097448 4294967295
45.203255 67.656151 -14.721772 4294967295
45.208126 61.798252 -14.68569 4294967295
45.218098 64.057755 -14.899982 4294967295
45.218597 63.252148 -14.808157 4294967295
45.227585 63.41621 -14.792269 4294967295
45.231483 63.739807 -14.813567 4294967295
45.232224 65.351532 -14.990642 4294967295
45.235409 65.835983 -15.032591 4294967295
45.25198 64.713516 -14.844257 4294967295
45.252926 67.61422 -15.164371 4294967295
45.255249 67.937225 -15.191571 4294967295
45.26833 66.652824 -14.998483 4294967295
45.268948 66.491898 -14.978162 4294967295
45.270073 62.247314 -15.135632 4294967295
45.271259 66.331535 -14.951473 4294967295
45.274414 64.559746 -14.741725 4294967295
45.277149 62.088459 -15.091017 4294967295
45.281158 65.206726 -14.788279 4294967295
45.28257 65.690727 -14.836918 4294967295
45.283428 65.529846 -14.815697 4294967295
45.284512 66.174889 -14.883569 4294967295
45.286507 66.981346 -14.965979 4294967295
45.288845 66.820999 -14.939188 4294967295
45.288914 67.304466 -14.992876 4294967295
45.289337 62.575588 -15.099043 4294967295
45.294384 61.127174 -14.9182 4294967295
45.29446 67.145241 -14.953998 4294967295
45.297157 60.805759 -14.871784 4294967295
45.301365 66.019424 -14.802091 4294967295
45.310768 62.743511 -15.036327 4294967295
45.311073 62.421383 -14.999205 4294967295
45.318756 61.940426 -14.916333 4294967295
45.319118 61.779404 -14.896976 4294967295
45.323433 63.553116 -15.078526 4294967295
45.3255 61.620251 -14.854963 4294967295
45.335251 63.879162 -15.069986 4294967295
45.336594 61.301388 -14.777197 4294967295
45.338879 67.805328 -14.858641 4294967295
45.345093 61.465195 -14.763168 4294967295
45.35107 62.917507 -14.902545 4294967295
45.361088 67.490669 -14.739018 4294967295
45.364479 65.016548 -15.085795 4294967295
45.381985 63.733223 -14.876057 4294967295
45.392426 65.83149 -15.070488 4294967295
45.392662 64.864777 -14.961732 4294967295
45.395306 64.221039 -14.879853 4294967295
45.39896 64.544556 -14.90206 4294967295
45.402767 61.107742 -15.138901 4294967295
45.404675 64.707596 -14.898533 4294967295
45.406193 66.802872 -15.126522 4294967295
45.407368 63.41909 -14.744514 4294967295
45.408836 65.998154 -15.026702 4294967295
45.409721 65.515038 -14.969426 4294967295
45.410854 64.387306 -14.839303 4294967295
45.41843 66.645943 -15.062494 4294967295
45.421894 67.452744 -15.139332 4294967295
45.424744 60.792316 -15.020256 4294967295
45.427616 60.954308 -15.027413 4294967295
45.432964 61.761478 -15.097167 4294967295
45.449657 62.411118 -15.106258 4294967295
45.465282 66.339615 -14.850219 4294967295
45.46674 61.449772 -14.934134 4294967295
45.470905 66.502716 -14.847037 4294967295
45.474419 62.096703 -14.977152 4294967295
45.49255 61.296627 -14.819037 4294967295
45.493305 67.961052 -14.924571 4294967295
45.50787 67.160172 -14.779869 4294967295
45.510841 67.322395 -14.78668 4294967295
45.522125 63.239849 -14.92352 4294967295
45.533363 62.921131 -14.845284 4294967295
45.537666 63.889473 -14.936975 4294967295
45.540627 61.956333 -14.710066 4294967295
45.541401 62.278965 -14.743122 4294967295
45.549423 65.988106 -15.126398 4294967295
45.555805 64.37886 -14.92268 4294967295
45.559586 65.024719 -14.980364 4294967295
45.566589 63.092941 -14.738277 4294967295
45.567806 66.477707 -15.111197 4294967295
45.5681 64.221725 -14.858461 4294967295
45.569862 64.061127 -14.833857 4294967295
45.57428 65.190758 -14.943083 4294967295
45.580929 63.742348 -14.756273 4294967295
45.580963 65.67646 -14.971869 4294967295
45.584015 60.788605 -15.049357 4294967295
45.589981 66.968681 -15.081743 4294967295
45.593502 67.61441 -15.140372 4294967295
45.595474 61.436573 -15.078163 4294967295
45.602531 66.650696 -14.998622 4294967295
45.606037 67.457634 -15.075291 4294967295
45.608997 64.879929 -14.776583 4294967295
45.614304 61.120159 -14.971433 4294967295
45.616249 61.765266 -15.036018 4294967295
45.616547 60.959717 -14.945035 4294967295
45.61985 65.528328 -14.807686 4294967295
45.62455 67.141724 -14.969769 4294967295
45.627872 62.252274 -15.046228 4294967295
45.642136 62.095634 -14.974649 4294967295
45.647644 62.419643 -14.989902 4294967295
45.651154 65.861259 -14.72594 4294967295
45.661488 61.295887 -14.812047 4294967295
45.680149 67.322098 -14.778746 4294967295
45.683628 66.355934 -14.657785 4294967295
45.689308 61.626892 -14.743424 4294967295
45.694363 63.884903 -14.976075 4294967295
45.698269 63.563858 -14.925454 4294967295
45.70245 62.759342 -14.819871 4294967295
45.70731 67.815193 -14.730585 4294967295
45.708851 64.534233 -14.993511 4294967295
45.712181 62.92363 -14.801273 4294967295
45.714108 65.019409 -15.027665 4294967295
45.714413 65.341789 -15.062449 4294967295
45.722485 64.377548 -14.924328 4294967295
45.722881 67.981865 -14.690036 4294967295
45.723751 63.088516 -14.775769 4294967295
45.724815 63.411243 -14.80773 4294967295
45.725719 64.700943 -14.94811 4294967295
45.728203 63.251141 -14.777022 4294967295
45.729374 63.735092 -14.826545 4294967295
45.736973 65.671623 -15.013651 4294967295
45.740417 65.189301 -14.946798 4294967295
45.749527 66.803894 -15.092245 4294967295
45.762905 66.486168 -15.006083 4294967295
45.768761 64.07029 -14.714503 4294967295
45.777027 61.600895 -15.041584 4294967295
45.778759 67.297386 -15.036365 4294967295
45.781361 66.653625 -14.954736 4294967295
45.782501 66.976357 -14.986388 4294967295
45.784096 66.009827 -14.872588 4294967295
45.789719 65.850525 -14.833493 4294967295
45.791004 61.927513 -15.025031 4294967295
45.800034 67.465912 -14.974449 4294967295
45.811161 62.094971 -14.967317 4294967295
45.816051 61.45187 -14.877069 4294967295
45.817238 63.547119 -15.106179 4294967295
45.830811 62.584625 -14.947439 4294967295
45.834522 66.18808 -14.701158 4294967295
45.83659 60.974659 -14.746021 4294967295
45.843533 63.233299 -14.971544 4294967295
45.847485 64.040314 -15.046535 4294967295
45.848858 61.300838 -14.735904 4294967295
45.849319 67.805405 -14.82532 4294967295
45.865635 63.079212 -14.870606 4294967295
45.866707 62.434803 -14.794701 4294967295
45.868614 67.973351 -14.770847 4294967295
45.877144 63.888798 -14.917233 4294967295
45.885334 62.279472 -14.706784 4294967295
45.891014 62.764912 -14.739378 4294967295
45.894527 63.73325 -14.834014 4294967295
45.904224 66.31517 -15.085058 4294967295
45.90852 64.704948 -14.889304 4294967295
45.919449 64.224945 -14.794381 4294967295
45.921154 60.947998 -15.055767 4294967295
45.927074 64.388649 -14.783725 4294967295
45.931385 65.034889 -14.839425 4294967295
45.938385 66.649101 -14.9928 4294967295
45.938705 61.275661 -15.025848 4294967295
45.943695 64.877754 -14.775257 4294967295
45.95285 62.085732 -15.062582 4294967295
45.955307 65.365257 -14.785595 4294967295
45.960323 61.926933 -15.016596 4294967295
45.965412 66.980705 -14.927337 4294967295
45.966183 61.606461 -14.958689 4294967295
45.974213 66.822525 -14.876348 4294967295
45.977856 65.211533 -14.683 4294967295
45.978844 62.255035 -14.983043 4294967295
45.985104 61.128803 -14.833813 4294967295
45.985741 63.385239 -15.082894 4294967295
45.987068 61.451775 -14.862366 4294967295
45.987793 60.807251 -14.787789 4294967295
45.989552 61.774899 -14.888981 4294967295
45.992023 62.742664 -14.987495 4294967295
45.994209 63.710236 -15.087053 4294967295
46.002453 67.154633 -14.806344 4294967295
46.002502 66.187248 -14.698349 4294967295
46.018509 66.515175 -14.674228 4294967295
46.020554 65.007935 -15.131914 4294967295
46.028599 67.486115 -14.744186 4294967295
46.030075 67.647865 -14.756621 4294967295
46.031513 62.432808 -14.803453 4294967295
46.035278 65.657364 -15.148524 4294967295
46.049637 67.977158 -14.719181 4294967295
46.051247 64.212234 -14.927051 4294967295
46.061176 63.248268 -14.782033 4294967295
46.064724 65.344894 -15.00223 4294967295
46.068283 62.928101 -14.719442 4294967295
46.074207 66.637367 -15.110325 4294967295
46.075089 64.058807 -14.819683 4294967295
46.075802 60.781738 -15.084321 4294967295
46.081066 64.544373 -14.851163 4294967295
46.088318 64.869164 -14.859891 4294967295
46.099884 67.935394 -15.157713 4294967295
46.113483 65.199913 -14.801468 4294967295
46.113949 61.115711 -14.977257 4294967295
46.114918 60.954853 -14.955671 4294967295
46.115738 64.71698 -14.739128 4294967295
46.116173 66.006866 -14.881207 4294967295
46.127899 62.086948 -15.032721 4294967295
46.131641 65.850861 -14.805249 4294967295
46.136459 61.767315 -14.964719 4294967295
46.139103 61.284626 -14.900943 4294967295
46.144295 61.447407 -14.899439 4294967295
46.145847 66.500549 -14.823853 4294967295
46.153137 63.545261 -15.09973 4294967295
46.163231 63.226204 -15.026011 4294967295
46.166958 65.540199 -14.636936 4294967295
46.170883 61.939224 -14.853676 4294967295
46.17865 66.189171 -14.664974 4294967295
46.180748 61.619896 -14.780795 4294967295
46.186172 67.48175 -14.780487 4294967295
46.186218 63.07238 -14.921932 4294967295
46.187416 63.717468 -14.989267 4294967295
46.188232 62.750645 -14.878473 4294967295
46.190697 67.160812 -14.727612 4294967295
46.191574 67.322365 -14.742283 4294967295
46.195621 66.839989 -14.67323 4294967295
46.196819 62.914566 -14.864253 4294967295
46.197433 62.592361 -14.826034 4294967295
46.220806 62.27729 -14.702533 4294967295
46.228424 64.697899 -14.943388 4294967295
46.229324 64.537003 -14.922051 4294967295
46.241009 65.669174 -15.003977 4294967295
46.244022 63.413292 -14.741282 4294967295
46.255527 63.900696 -14.752073 4294967295
46.256832 65.190865 -14.890854 4294967295
46.257362 64.223747 -14.781116 4294967295
46.268753 65.356033 -14.864155 4294967295
46.283585 65.522194 -14.826573 4294967295
46.298126 67.784019 -15.023467 4294967295
46.302486 64.883507 -14.683936 4294967295
46.307518 65.852661 -14.772854 4294967295
46.312164 61.768692 -14.932555 4294967295
46.312584 61.124077 -14.859173 4294967295
46.315411 66.016556 -14.761264 4294967295
46.318794 63.382435 -15.08725 4294967295
46.324265 66.825752 -14.817895 4294967295
46.32732 67.47171 -14.878272 4294967295
46.327732 62.418285 -14.946095 4294967295
46.331287 61.452236 -14.825057 4294967295
46.331295 66.505661 -14.755659 4294967295
46.337784 61.293034 -14.782779 4294967295
46.338058 63.549782 -15.033085 4294967295
46.339005 62.905392 -14.957756 4294967295
46.344509 66.671402 -14.724137 4294967295
46.345684 60.811787 -14.699312 4294967295
46.351341 62.586918 -14.875673 4294967295
46.354351 61.943031 -14.792573 4294967295
46.354954 66.352417 -14.649115 4294967295
46.367054 67.001625 -14.675651 4294967295
46.367458 67.969337 -14.781878 4294967295
46.372028 65.011345 -15.067505 4294967295
46.378117 62.756599 -14.793405 4294967295
46.384598 62.274952 -14.715266 4294967295
46.384991 65.499146 -15.072834 4294967295
46.387585 64.694115 -14.973394 4294967295
46.393768 65.17971 -15.004096 4294967295
46.401508 63.892632 -14.831534 4294967295
46.404522 64.054825 -14.838214 4294967295
46.405136 60.777596 -15.102285 4294967295
46.413601 63.251591 -14.714458 4294967295
46.422749 67.284767 -15.128978 4294967295
46.436417 66.483521 -14.988137 4294967295
46.436451 60.948311 -15.003101 4294967295
46.436626 65.999992 -14.9335 4294967295
46.442699 66.808052 -15.000524 4294967295
46.448811 67.45491 -15.049445 4294967295
46.455273 64.232567 -14.666241 4294967295
46.458061 64.394737 -14.673776 4294967295
46.465229 62.568851 -15.074918 4294967295
46.465313 66.332092 -14.862084 4294967295
46.47039 61.925808 -14.98383 4294967295
46.474621 62.732979 -15.057738 4294967295
46.485897 63.058887 -15.051457 4294967295
46.490303 62.254398 -14.945257 4294967295
46.500065 66.666359 -14.767991 4294967295
46.505283 63.226242 -14.996911 4294967295
46.507404 61.131245 -14.75565 4294967295
46.510586 67.959938 -14.872253 4294967295
46.515888 61.295082 -14.741869 4294967295
46.520626 61.619011 -14.760051 4294967295
46.529751 66.192581 -14.603086 4294967295
46.530331 62.105721 -14.777612 4294967295
46.531979 62.91235 -14.861208 4294967295
46.531998 67.644859 -14.756277 4294967295
46.533115 65.008202 -15.090233 4294967295
46.533913 62.429298 -14.800125 4294967295
46.534321 63.719128 -14.942192 4294967295
46.546753 63.400703 -14.859814 4294967295
46.546944 64.690392 -15.002657 4294967295
46.551632 64.369537 -14.949254 4294967295
46.558029 64.049202 -14.889439 4294967295
46.559528 63.88847 -14.86589 4294967295
46.569611 64.859039 -14.935878 4294967295
46.588951 64.542938 -14.827687 4294967295
46.593601 65.511826 -14.917989 4294967295
46.601231 66.159225 -14.961246 4294967295
46.605862 65.677132 -14.890104 4294967295
46.609684 67.290512 -15.055248 4294967295
46.609978 65.356041 -14.83883 4294967295
46.624054 66.650589 -14.92979 4294967295
46.627052 61.921261 -15.022998 4294967295
46.628464 66.974533 -14.949193 4294967295
46.637024 67.783546 -15.00692 4294967295
46.637291 66.010124 -14.808543 4294967295
46.638039 65.204086 -14.716002 4294967295
46.640392 65.849915 -14.779003 4294967295
46.640751 61.764336 -14.953877 4294967295
46.641193 63.053886 -15.095734 4294967295
46.643444 67.463333 -14.947045 4294967295
46.644527 60.959492 -14.850045 4294967295
46.6478 66.336159 -14.805155 4294967295
46.649273 66.820404 -14.85349 4294967295
46.651234 67.143547 -14.882059 4294967295
46.658077 63.220432 -15.050607 4294967295
46.658218 67.95211 -14.945678 4294967295
46.659954 66.501526 -14.777688 4294967295
46.662167 61.448555 -14.83797 4294967295
46.675858 62.258888 -14.876543 4294967295
46.680691 63.711224 -15.019958 4294967295
46.685028 62.745411 -14.896114 4294967295
46.696728 62.426659 -14.81652 4294967295
46.699577 62.10508 -14.769978 4294967295
46.702641 62.589752 -14.812374 4294967295
46.706493 64.686729 -15.031222 4294967295
46.707886 61.623917 -14.685082 4294967295
46.714401 64.044502 -14.929938 4294967295
46.716228 62.916515 -14.797506 4294967295
46.718822 65.496735 -15.074866 4294967295
46.721622 64.530487 -14.956787 4294967295
46.727219 65.015938 -14.989707 4294967295
46.729107 63.888042 -14.857066 4294967295
46.738388 60.774632 -15.105799 4294967295
46.741913 65.343208 -14.97071 4294967295
46.744293 60.937584 -15.101681 4294967295
46.747292 64.2164 -14.825031 4294967295
46.751835 66.313751 -15.041286 4294967295
46.754673 63.57378 -14.725691 4294967295
46.761295 65.1884 -14.880392 4294967295
46.765697 61.74995 -15.111448 4294967295
46.770248 66.158745 -14.954605 4294967295
46.772877 61.268665 -15.030856 4294967295
46.788551 62.240562 -15.079952 4294967295
46.789555 66.810165 -14.954286 4294967295
46.798626 67.780586 -15.028032 4294967295
46.803841 67.62117 -14.990644 4294967295
46.804501 61.439587 -14.930745 4294967295
46.805443 67.138039 -14.930848 4294967295
46.805473 67.299278 -14.948675 4294967295
46.812244 62.409168 -15.009459 4294967295
46.812424 66.011665 -14.779209 4294967295
46.815571 63.216125 -15.08671 4294967295
46.818085 61.604984 -14.897972 4294967295
46.818195 61.927437 -14.933433 4294967295
46.826267 62.574768 -14.975056 4294967295
46.842793 67.473351 -14.827315 4294967295
46.851376 62.905113 -14.917233 4294967295
46.851387 62.098995 -14.827494 4294967295
46.855675 67.961586 -14.833053 4294967295
46.857468 63.713108 -14.984179 4294967295
46.859993 64.519905 -15.064423 4294967295
46.875736 66.516861 -14.59668 4294967295
46.875763 62.751598 -14.808282 4294967295
46.87817 66.679001 -14.605537 4294967295
46.886032 65.656815 -15.092798 4294967295
46.916542 63.570843 -14.745807 4294967295
46.917912 60.938232 -15.077463 4294967295
46.919273 65.990326 -15.00467 4294967295
46.927109 65.348038 -14.903708 4294967295
46.928864 64.219872 -14.771609 4294967295
46.939133 64.384468 -14.751231 4294967295
46.942219 61.106834 -15.004743 4294967295
46.947487 66.161011 -14.917377 4294967295
46.948502 65.193863 -14.80597 4294967295
46.950237 66.645645 -14.960918 4294967295
46.955795 63.906025 -14.635239 4294967295
46.966923 67.618706 -15.006286 4294967295
46.968914 61.437424 -14.941059 4294967295
46.97953 61.763123 -14.937327 4294967295
46.979549 61.924335 -14.955194 4294967295
46.981167 61.602417 -14.913292 4294967295
46.983974 67.302094 -14.906842 4294967295
46.984371 65.044411 -14.654233 4294967295
46.988754 66.336159 -14.781405 4294967295
46.991688 64.724205 -14.591042 4294967295
46.997204 63.219505 -15.032816 4294967295
47.002029 67.469551 -14.857451 4294967295
47.003376 67.147476 -14.81655 4294967295
47.007744 61.288132 -14.778316 4294967295
47.012672 66.989372 -14.763947 4294967295
47.02103 63.065872 -14.926067 4294967295
47.024948 65.86441 -14.592591 4294967295
47.026012 62.422516 -14.835749 4294967295
47.026867 67.800652 -14.800704 4294967295
47.026951 62.906521 -14.886059 4294967295
47.045418 64.685898 -15.014463 4294967295
47.048702 63.558388 -14.876697 4294967295
47.0509 67.970253 -14.729033 4294967295
47.063835 65.498016 -15.03546 4294967295
47.071163 63.888092 -14.828851 4294967295
47.071255 63.40435 -14.774693 4294967295
47.093136 64.21772 -14.782809 4294967295
47.098354 64.864471 -14.835104 4294967295
47.100151 65.83255 -14.935989 4294967295
47.101292 61.58659 -15.088676 4294967295
47.104919 66.962761 -15.043709 4294967295
47.105671 65.673149 -14.897487 4294967295
47.108223 64.545166 -14.762451 4294967295
47.111477 62.073284 -15.104505 4294967295
47.114922 67.28862 -15.042293 4294967295
47.123543 62.238228 -15.077477 4294967295
47.126099 66.647484 -14.928955 4294967295
47.169052 61.929974 -14.87211 4294967295
47.174717 66.825241 -14.765756 4294967295
47.17588 65.373878 -14.599998 4294967295
47.178806 63.545288 -15.015054 4294967295
47.182156 62.417774 -14.877085 4294967295
47.184586 62.579777 -14.88597 4294967295
47.188766 67.79776 -14.821008 4294967295
47.189503 61.291267 -14.724195 4294967295
47.190731 60.807812 -14.66581 4294967295
47.194202 63.066521 -14.90394 4294967295
47.194447 67.477142 -14.763984 4294967295
47.201496 62.907589 -14.858849 4294967295
47.201794 63.391411 -14.911525 4294967295
47.217049 60.977108 -14.585706 4294967295
47.220577 64.5261 -14.967061 4294967295
47.223221 67.648338 -14.674736 4294967295
47.234406 61.78896 -14.610725 4294967295
47.235374 61.46664 -14.571247 4294967295
47.243484 64.211052 -14.845909 4294967295
47.245335 63.889122 -14.803164 4294967295
47.246849 64.373398 -14.851303 4294967295
47.256374 63.247532 -14.690329 4294967295
47.261406 66.47438 -15.030128 4294967295
47.274975 65.350189 -14.854152 4294967295
47.276619 64.060486 -14.704594 4294967295
47.280636 65.190788 -14.815152 4294967295
47.286705 65.837875 -14.86427 4294967295
47.289288 61.430496 -14.993253 4294967295
47.290035 66.322777 -14.90565 4294967295
47.296749 62.238834 -15.055093 4294967295
47.303085 65.682053 -14.785359 4294967295
47.307415 66.973694 -14.912657 4294967295
47.314651 64.879379 -14.652653 4294967295
47.319225 62.084621 -14.953539 4294967295
47.324009 61.279915 -14.846112 4294967295
47.32663 61.925694 -14.908057 4294967295
47.341183 66.662582 -14.751131 4294967295
47.344269 67.4701 -14.82927 4294967295
47.345253 65.050743 -14.55666 4294967295
47.346737 67.148369 -14.784236 4294967295
47.347004 60.964413 -14.724676 4294967295
47.349682 66.020195 -14.647778 4294967295
47.351681 67.633934 -14.819623 4294967295
47.361816 67.960014 -14.817744 4294967295
47.363441 63.549644 -14.950308 4294967295
47.365257 63.066494 -14.889791 4294967295
47.374493 60.811474 -14.604418 4294967295
47.375038 62.74707 -14.81755 4294967295
47.375633 62.424721 -14.779476 4294967295
47.37751 61.135002 -14.629052 4294967295
47.381313 61.781357 -14.686629 4294967295
47.395287 64.04361 -14.885607 4294967295
47.399754 65.01255 -14.976518 4294967295
47.415977 63.727722 -14.772782 4294967295
47.417286 63.889423 -14.785842 4294967295
47.42215 62.923214 -14.66019 4294967295
47.44392 64.381889 -14.740546 4294967295
47.451145 61.588757 -15.031075 4294967295
47.453323 66.642868 -14.956475 4294967295
47.462894 60.786221 -14.897798 4294967295
47.463104 61.269985 -14.950772 4294967295
47.463459 64.549545 -14.685789 4294967295
47.468285 64.228477 -14.631989 4294967295
47.472702 65.359108 -14.741055 4294967295
47.47382 60.950779 -14.875092 4294967295
47.484482 61.921497 -14.942972 4294967295
47.485981 67.299019 -14.906726 4294967295
47.486088 65.524841 -14.709193 4294967295
47.494492 64.882317 -14.606227 4294967295
47.503548 65.853271 -14.680109 4294967295
47.51265 61.446419 -14.784493 4294967295
47.516495 67.14814 -14.775367 4294967295
47.517265 61.125275 -14.731479 4294967295
47.520004 63.383781 -14.972183 4294967295
47.521614 67.633797 -14.8101 4294967295
47.525417 65.699211 -14.580849 4294967295
47.535492 66.347954 -14.615102 4294967295
47.540604 62.261452 -14.770169 4294967295
47.542248 66.188873 -14.572056 4294967295
47.552101 62.103741 -14.70951 4294967295
47.556282 67.807045 -14.699142 4294967295
47.563717 63.720249 -14.845548 4294967295
47.565693 63.075756 -14.766521 4294967295
47.56831 64.528061 -14.918074 4294967295
47.568928 67.97274 -14.670049 4294967295
47.591026 65.341805 -14.923232 4294967295
47.592617 64.697243 -14.845655 4294967295
47.594975 66.471893 -15.03396 4294967295
47.596905 62.601665 -14.596735 4294967295
47.601624 64.216301 -14.75844 4294967295
47.604485 63.249359 -14.640259 4294967295
47.614983 64.381927 -14.726712 4294967295
47.619843 62.931553 -14.547329 4294967295
47.619946 64.060905 -14.672431 4294967295
47.621426 64.867943 -14.756539 4294967295
47.62376 62.771439 -14.514844 4294967295
47.625725 63.578777 -14.597173 4294967295
47.632122 65.032753 -14.734707 4294967295
47.634041 67.130135 -14.960491 4294967295
47.63583 65.840492 -14.810534 4294967295
47.638409 65.518745 -14.765118 4294967295
47.640102 61.916611 -14.986165 4294967295
47.642426 63.906807 -14.570959 4294967295
47.644161 62.401558 -15.024824 4294967295
47.645702 62.079578 -14.983272 4294967295
47.647472 61.757648 -14.940884 4294967295
47.652313 67.781464 -14.964273 4294967295
47.659359 62.245064 -14.950474 4294967295
47.661888 65.20385 -14.642032 4294967295
47.667576 67.302849 -14.853857 4294967295
47.674583 61.60474 -14.82227 4294967295
47.677383 66.176979 -14.691996 4294967295
47.682281 66.985245 -14.763393 4294967295
47.692822 61.449059 -14.736604 4294967295
47.696205 67.473938 -14.765432 4294967295
47.701473 62.742012 -14.847811 4294967295
47.702858 67.960175 -14.79448 4294967295
47.704967 67.638268 -14.75081 4294967295
47.709557 66.349106 -14.590406 4294967295
47.712334 62.584141 -14.789572 4294967295
47.718994 62.908806 -14.800667 4294967295
47.720047 64.199326 -14.940067 4294967295
47.730301 60.815205 -14.525698 4294967295
47.739578 64.528183 -14.903379 4294967295
47.74279 63.884102 -14.819799 4294967295
47.75272 63.564686 -14.747111 4294967295
47.76236 63.729073 -14.729227 4294967295
47.776691 64.056297 -14.711864 4294967295
47.780994 64.380318 -14.731719 4294967295
47.789993 67.125221 -15.002803 4294967295
47.791203 61.426636 -14.992384 4294967295
47.803223 66.484589 -14.88208 4294967295
47.804283 61.591892 -14.961745 4294967295
47.805668 66.001511 -14.819282 4294967295
47.80809 65.841019 -14.792372 4294967295
47.809738 66.97065 -14.911629 4294967295
47.811848 61.271702 -14.897863 4294967295
47.814941 65.198006 -14.69529 4294967295
47.818733 64.876579 -14.64537 4294967295
47.823498 65.039474 -14.645602 4294967295
47.828365 64.718369 -14.591702 4294967295
47.828854 61.11562 -14.816847 4294967295
47.832813 67.462379 -14.879745 4294967295
47.836742 66.173203 -14.721858 4294967295
47.845772 66.821548 -14.760017 4294967295
47.856045 67.309006 -14.775634 4294967295
47.860233 65.696983 -14.580936 4294967295
47.862526 60.964554 -14.673984 4294967295
47.865273 67.796135 -14.795132 4294967295
47.870049 63.224995 -14.896839 4294967295
47.874493 62.419975 -14.790806 4294967295
47.876213 66.347763 -14.593293 4294967295
47.876625 60.807503 -14.603738 4294967295
47.889027 61.940571 -14.683146 4294967295
47.889824 67.643227 -14.686123 4294967295
47.89119 63.392982 -14.836333 4294967295
47.898026 66.677841 -14.548186 4294967295
47.904774 62.10677 -14.642637 4294967295
47.923298 62.596542 -14.627663 4294967295
47.940277 63.89257 -14.707994 4294967295
47.940968 65.183289 -14.848711 4294967295
47.945511 63.087555 -14.599001 4294967295
47.946701 62.281139 -14.504992 4294967295
47.946957 62.926659 -14.575722 4294967295
47.951107 63.734707 -14.649907 4294967295
47.953522 61.746284 -15.046496 4294967295
47.959778 61.425728 -14.987498 4294967295
47.963436 64.06134 -14.640006 4294967295
47.974072 66.32338 -14.851314 4294967295
47.976746 64.87236 -14.68021 4294967295
47.977779 66.001999 -14.801746 4294967295
47.977882 60.947464 -14.866666 4294967295
47.981968 64.390015 -14.607112 4294967295
47.983768 65.681343 -14.743729 4294967295
47.987411 65.84388 -14.748128 4294967295
47.992188 63.586456 -14.479611 4294967295
47.992462 65.038841 -14.639845 4294967295
48.000851 65.364296 -14.644573 4294967295
48.005756 62.729996 -14.960299 4294967295
48.019196 66.177139 -14.666108 4294967295
48.023136 63.057995 -14.931686 4294967295
48.029343 67.148636 -14.735957 4294967295
48.032021 67.31089 -14.743939 4294967295
48.032883 67.472519 -14.75865 4294967295
48.032967 67.795219 -14.794149 4294967295
48.033058 65.536285 -14.54305 4294967295
48.033375 61.125607 -14.678864 4294967295
48.042973 62.096455 -14.750741 4294967295
48.049679 63.711525 -14.904943 4294967295
48.052563 66.833794 -14.614056 4294967295
48.052719 66.511101 -14.577649 4294967295
48.05687 61.294094 -14.60968 4294967295
48.057648 66.99688 -14.613116 4294967295
48.066338 67.645317 -14.652555 4294967295
48.068649 62.911037 -14.745118 4294967295
48.07589 61.622608 -14.574993 4294967295
48.09301 62.273312 -14.583187 4294967295
48.093529 64.370796 -14.814083 4294967295
48.115124 63.248375 -14.608702 4294967295
48.115826 61.582226 -15.04697 4294967295
48.128029 65.027283 -14.757876 4294967295
48.13316 64.222252 -14.64933 4294967295
48.135712 65.67511 -14.801039 4294967295
48.138313 62.072887 -15.017385 4294967295
48.138626 64.869408 -14.70071 4294967295
48.138969 63.417297 -14.53825 4294967295
48.142941 65.838829 -14.792158 4294967295
48.148594 66.486 -14.842836 4294967295
48.150875 66.648087 -14.852282 4294967295
48.151352 63.582611 -14.510283 4294967295
48.154209 67.617058 -14.947327 4294967295
48.169052 65.202065 -14.623809 4294967295
48.170044 66.009171 -14.70968 4294967295
48.172028 67.139191 -14.827653 4294967295
48.17234 65.36451 -14.62954 4294967295
48.181236 60.957047 -14.733132 4294967295
48.183632 67.949768 -14.874175 4294967295
48.186855 61.281384 -14.74813 4294967295
48.189346 61.766075 -14.792619 4294967295
48.195648 66.340431 -14.650656 4294967295
48.20042 62.737316 -14.859023 4294967295
48.205196 65.536705 -14.525748 4294967295
23.933834 70.774597 -17.229361 4294967295
23.937355 71.095177 -17.251499 4294967295
23.940968 70.139359 -17.12402 4294967295
23.941494 72.054131 -17.345572 4294967295
23.941807 71.416145 -17.269632 4294967295
23.944649 71.576897 -17.276049 4294967295
23.954298 74.611732 -17.588726 4294967295
23.956303 72.220039 -17.30047 4294967295
23.971033 72.545486 -17.274355 4294967295
23.97777 73.346115 -17.338593 4294967295
23.978352 74.143982 -17.429304 4294967295
23.980808 73.826035 -17.381445 4294967295
23.981722 74.4645 -17.452085 4294967295
23.985994 74.306892 -17.415052 4294967295
23.986044 68.972504 -17.507879 4294967295
23.997684 69.615173 -17.532347 4294967295
23.99931 68.180435 -17.35758 4294967295
24.004082 69.93676 -17.542105 4294967295
24.019129 74.959846 -17.347048 4294967295
24.031296 69.15052 -17.331818 4294967295
24.033716 73.68985 -17.135096 4294967295
24.036724 68.674149 -17.25252 4294967295
24.038157 72.414963 -16.966743 4294967295
24.039257 70.589371 -17.465343 4294967295
24.039951 69.792145 -17.36916 4294967295
24.040951 70.271088 -17.42078 4294967295
24.042372 73.214867 -17.041883 4294967295
24.04491 69.475159 -17.31053 4294967295
24.052517 68.042328 -17.109955 4294967295
24.056067 74.018921 -17.076214 4294967295
24.064779 68.525986 -17.113148 4294967295
24.069384 70.761543 -17.354403 4294967295
24.075834 71.083305 -17.363937 4294967295
24.095886 70.932243 -17.259052 4294967295
24.105656 69.340591 -17.030539 4294967295
24.115446 71.259628 -17.212214 4294967295
24.127443 71.424286 -17.179266 4294967295
24.129993 70.467865 -17.056406 4294967295
24.136246 72.385437 -17.253281 4294967295
24.137802 73.662453 -17.395702 4294967295
24.138853 71.588722 -17.148846 4294967295
24.144676 74.144066 -17.422058 4294967295
24.150669 74.465775 -17.433567 4294967295
24.158216 73.033218 -17.233381 4294967295
24.162487 73.35421 -17.252302 4294967295
24.163069 68.6577 -17.416889 4294967295
24.166199 71.759987 -17.049891 4294967295
24.173521 68.980965 -17.409241 4294967295
24.17662 73.839127 -17.247467 4294967295
24.179113 72.244347 -17.050297 4294967295
24.187914 74.641953 -17.292122 4294967295
24.194822 69.149185 -17.33633 4294967295
24.194834 70.265778 -17.46673 4294967295
24.200977 68.034882 -17.179384 4294967295
24.204586 73.53228 -17.089958 4294967295
24.210041 72.736572 -16.973261 4294967295
24.215382 73.217781 -17.00625 4294967295
24.222534 69.479637 -17.254515 4294967295
24.22331 68.522591 -17.139322 4294967295
24.224297 75.137009 -17.191664 4294967295
24.226135 74.818649 -17.146477 4294967295
24.241352 70.125626 -17.248209 4294967295
24.246719 71.404213 -17.374249 4294967295
24.246805 69.968338 -17.206139 4294967295
24.259005 68.856262 -17.023207 4294967295
24.273705 70.45826 -17.146481 4294967295
24.276747 72.693336 -17.394325 4294967295
24.281183 71.099709 -17.188911 4294967295
24.288027 70.62384 -17.103584 4294967295
24.308764 73.345444 -17.331358 4294967295
24.309505 74.303009 -17.439945 4294967295
24.312132 71.591599 -17.111885 4294967295
24.315331 72.869637 -17.24725 4294967295
24.315817 72.071953 -17.151974 4294967295
24.318365 68.1745 -17.400772 4294967295
24.319815 73.031158 -17.24663 4294967295
24.320414 73.190987 -17.262691 4294967295
24.330019 71.918442 -17.072332 4294967295
24.333569 72.239174 -17.094362 4294967295
24.340464 68.342926 -17.324528 4294967295
24.352272 73.524101 -17.163149 4294967295
24.35404 69.784172 -17.433916 4294967295
24.358501 68.98838 -17.321613 4294967295
24.364105 74.646446 -17.242788 4294967295
24.36632 74.807014 -17.251919 4294967295
24.37401 74.49128 -17.181625 4294967295
24.374363 68.037453 -17.141705 4294967295
24.374968 74.172508 -17.140249 4294967295
24.376116 74.970993 -17.228487 4294967295
24.377224 69.155571 -17.259878 4294967295
24.391212 70.278175 -17.330259 4294967295
24.393093 69.640755 -17.247658 4294967295
24.40333 68.687477 -17.091894 4294967295
24.41333 70.127823 -17.216696 4294967295
24.416172 69.490685 -17.129957 4294967295
24.417582 70.76786 -17.272976 4294967295
24.422903 69.333855 -17.08242 4294967295
24.434202 70.615257 -17.183018 4294967295
24.447748 70.940117 -17.162149 4294967295
24.448212 71.259483 -17.19743 4294967295
24.448214 72.216896 -17.309198 4294967295
24.448872 69.982979 -17.045511 4294967295
24.4592 72.540749 -17.299322 4294967295
24.477886 72.389236 -17.200527 4294967295
24.483011 71.593437 -17.085369 4294967295
24.483948 74.944847 -17.472527 4294967295
24.486122 71.913986 -17.109295 4294967295
24.494398 71.757904 -17.055147 4294967295
24.501904 68.819305 -17.393921 4294967295
24.502462 69.13858 -17.428772 4294967295
24.502714 73.357552 -17.205801 4294967295
24.503084 74.793877 -17.371838 4294967295
24.503981 72.081245 -17.051302 4294967295
24.507248 72.721123 -17.111826 4294967295
24.508018 73.838638 -17.23893 4294967295
24.509985 71.445267 -16.950994 4294967295
24.516134 74.1614 -17.241377 4294967295
24.521452 73.046516 -17.088158 4294967295
24.521591 73.68502 -17.162085 4294967295
24.52722 68.350914 -17.229475 4294967295
24.530252 74.486847 -17.218082 4294967295
24.531536 69.629089 -17.35998 4294967295
24.532417 72.891655 -17.022484 4294967295
24.536098 68.194916 -17.172768 4294967295
24.53693 74.649422 -17.208076 4294967295
24.556381 74.019592 -17.050131 4294967295
24.561872 68.045662 -17.043598 4294967295
24.568485 69.803879 -17.220188 4294967295
24.58629 69.332428 -17.087957 4294967295
24.587103 68.534676 -16.991299 4294967295
24.593264 70.452492 -17.188461 4294967295
24.59341 71.250443 -17.280962 4294967295
24.595844 69.495956 -17.06562 4294967295
24.596294 72.368561 -17.398943 4294967295
24.603851 72.052704 -17.329323 4294967295
24.60467 71.095619 -17.214079 4294967295
24.605442 72.851143 -17.415596 4294967295
24.609465 70.618851 -17.13764 4294967295
24.610573 71.417282 -17.226021 4294967295
24.610994 71.896194 -17.280085 4294967295
24.615528 70.940598 -17.148901 4294967295
24.62212 69.985657 -17.008862 4294967295
24.62925 73.021034 -17.332205 4294967295
24.65033 68.173729 -17.388737 4294967295
24.654385 70.797295 -16.963707 4294967295
24.656422 71.596344 -17.04814 4294967295
24.661467 73.832993 -17.287262 4294967295
24.669159 68.659927 -17.363935 4294967295
24.671604 73.358665 -17.187967 4294967295
24.67466 73.519608 -17.193495 4294967295
24.679911 74.798653 -17.319962 4294967295
24.680046 73.202744 -17.133171 4294967295
24.689238 72.248917 -16.982016 4294967295
24.691757 69.147758 -17.322989 4294967295
24.695543 74.326836 -17.19714 4294967295
24.696564 68.990158 -17.283789 4294967295
24.700283 69.310799 -17.305098 4294967295
24.708145 74.651657 -17.180401 4294967295
24.708323 74.013252 -17.105145 4294967295
24.711227 70.113083 -17.351309 4294967295
24.7146 69.795364 -17.299637 4294967295
24.716061 74.974419 -17.183735 4294967295
24.720827 70.914825 -17.403276 4294967295
24.72438 74.179985 -17.054976 4294967295
24.727039 68.52375 -17.097376 4294967295
24.727631 74.50071 -17.07831 4294967295
24.730785 68.365646 -17.062706 4294967295
24.741299 69.965965 -17.203915 4294967295
24.742645 70.445274 -17.254005 4294967295
24.742865 68.84938 -17.066847 4294967295
24.743166 69.487946 -17.140055 4294967295
24.745676 69.648575 -17.147924 4294967295
24.754217 70.769272 -17.241693 4294967295
24.754803 72.046066 -17.388111 4294967295
24.760065 72.526978 -17.421421 4294967295
24.768669 71.573273 -17.272907 4294967295
24.770733 71.254974 -17.226831 4294967295
24.780687 73.333664 -17.426201 4294967295
24.788441 72.220039 -17.262726 4294967295
24.789589 73.816216 -17.443937 4294967295
24.793306 70.626015 -17.055698 4294967295
24.804815 73.184616 -17.304325 4294967295
24.805302 73.663559 -17.358086 4294967295
24.809566 72.707909 -17.228151 4294967295
24.818113 73.50959 -17.284639 4294967295
24.820641 71.435692 -17.031782 4294967295
24.8209 71.116508 -16.993423 4294967295
24.826294 72.395897 -17.11931 4294967295
24.830734 74.95137 -17.39813 4294967295
24.831039 68.019684 -17.301208 4294967295
24.834236 68.34008 -17.324759 4294967295
24.847477 71.766388 -16.95414 4294967295
24.847528 68.185852 -17.249268 4294967295
24.859715 68.669487 -17.25297 4294967295
24.861917 72.890182 -17.022694 4294967295
24.865328 69.469627 -17.322016 4294967295
24.868231 74.489311 -17.181862 4294967295
24.868586 73.052727 -17.012772 4294967295
24.871805 68.993553 -17.238464 4294967295
24.876329 75.131386 -17.221668 4294967295
24.876921 70.112656 -17.346869 4294967295
24.879841 74.334831 -17.113569 4294967295
24.882328 74.655205 -17.140154 4294967295
24.889238 68.841034 -17.145258 4294967295
24.891489 68.52272 -17.0984 4294967295
24.900576 69.324463 -17.152613 4294967295
24.903824 69.964203 -17.213175 4294967295
24.907225 74.825943 -17.052252 4294967295
24.913004 70.765968 -17.266972 4294967295
24.919886 69.172729 -17.05138 4294967295
24.927546 70.293236 -17.148935 4294967295
24.942514 70.459076 -17.103523 4294967295
24.946571 71.737686 -17.235077 4294967295
24.947582 71.259293 -17.174919 4294967295
24.94768 73.653076 -17.453617 4294967295
24.949287 69.663681 -16.981455 4294967295
24.956806 73.497513 -17.396 4294967295
24.968679 73.183533 -17.308029 4294967295
24.968973 71.587578 -17.120668 4294967295
24.970837 71.907616 -17.149933 4294967295
24.981516 73.987076 -17.346184 4294967295
24.983503 72.551529 -17.170216 4294967295
24.985708 70.956055 -16.974638 4294967295
24.987879 72.074524 -17.095667 4294967295
24.989981 75.107857 -17.440218 4294967295
24.990145 74.150467 -17.327908 4294967295
24.990698 72.714249 -17.158073 4294967295
24.995184 68.337662 -17.340538 4294967295
24.997379 72.876762 -17.148117 4294967295
25.003296 73.837059 -17.234482 4294967295
25.004681 68.1819 -17.28134 4294967295
25.01358 74.958839 -17.320759 4294967295
25.015841 69.143829 -17.34528 4294967295
25.022917 74.643791 -17.243652 4294967295
25.02318 68.029709 -17.183662 4294967295
25.027304 68.988914 -17.277691 4294967295
25.028982 68.830009 -17.251907 4294967295
25.030704 73.05085 -17.024254 4294967295
25.048054 69.316544 -17.226225 4294967295
25.048952 69.636093 -17.2596 4294967295
25.049801 69.796028 -17.274584 4294967295
25.051493 74.337204 -17.084295 4294967295
25.053125 68.680168 -17.130119 4294967295
25.058434 70.278351 -17.293509 4294967295
25.072226 70.443672 -17.253187 4294967295
25.076223 69.966515 -17.180286 4294967295
25.077135 70.764908 -17.269426 4294967295
25.090988 71.887863 -17.340464 4294967295
25.093031 69.494545 -17.052635 4294967295
25.093683 71.41024 -17.273146 4294967295
25.114515 71.259415 -17.165552 4294967295
25.120958 72.858231 -17.324064 4294967295
25.121332 70.623734 -17.061996 4294967295
25.124247 72.221245 -17.235619 4294967295
25.125011 72.540787 -17.26956 4294967295
25.133923 71.107948 -17.064041 4294967295
25.135857 73.343475 -17.316244 4294967295
25.139877 73.983597 -17.37347 4294967295
25.139923 71.589409 -17.094236 4294967295
25.144735 72.389641 -17.166714 4294967295
25.149422 74.147385 -17.351311 4294967295
25.15358 73.830025 -17.296364 4294967295
25.163261 72.716873 -17.124807 4294967295
25.171856 73.039871 -17.125311 4294967295
25.172466 74.317162 -17.271524 4294967295
25.181257 68.824074 -17.304886 4294967295
25.184008 74.481888 -17.240852 4294967295
25.186354 68.66655 -17.264528 4294967295
25.189121 73.685966 -17.126011 4294967295
25.18915 73.526337 -17.107279 4294967295
25.203976 68.194809 -17.133482 4294967295
25.205925 74.651245 -17.165882 4294967295
25.20948 74.812462 -17.169306 4294967295
25.211195 68.516945 -17.139875 4294967295
25.215481 75.134422 -17.180897 4294967295
25.217621 68.998398 -17.168259 4294967295
25.220484 69.638016 -17.23044 4294967295
25.22073 69.478508 -17.210789 4294967295
25.227329 74.980072 -17.111713 4294967295
25.249336 69.969109 -17.144503 4294967295
25.265224 70.1353 -17.095289 4294967295
25.269775 71.573853 -17.24328 4294967295
25.275656 69.341286 -16.957737 4294967295
25.279169 73.173859 -17.389143 4294967295
25.284103 69.823761 -16.977507 4294967295
25.285446 70.462975 -17.0462 4294967295
25.286146 72.219261 -17.247822 4294967295
25.291842 71.423546 -17.130524 4294967295
25.292936 71.104713 -17.088654 4294967295
25.29468 71.903656 -17.174219 4294967295
