# .PCD v0.7 - Point Cloud Data file format
VERSION 0.7
FIELDS x y z rgb
SIZE 4 4 4 4
TYPE F F F U
COUNT 1 1 1 1
WIDTH 1143
HEIGHT 1
VIEWPOINT 0 0 0 1 0 0 0
POINTS 1143
DATA ascii
-6.1633315 93.339539 -22.25284 4294967295
-6.1603308 97.26075 -22.736673 4294967295
-6.1567583 96.166397 -22.577478 4294967295
-6.156219 93.031067 -22.174465 4294967295
-6.155623 93.658798 -22.251303 4294967295
-6.153573 94.914688 -22.400312 4294967295
-6.1436009 96.333069 -22.526581 4294967295
-6.1415353 94.766823 -22.315426 4294967295
-6.1386919 97.590721 -22.660088 4294967295
-6.1351643 97.123207 -22.581106 4294967295
-6.1293216 94.305397 -22.189566 4294967295
-6.1144948 98.079498 -22.589727 4294967295
-6.1142735 95.100693 -22.208511 4294967295
-6.114048 98.236588 -22.607313 4294967295
-6.1099782 98.396469 -22.605385 4294967295
-6.1076651 96.673782 -22.372959 4294967295
-6.1043653 99.027771 -22.655117 4294967295
-6.0955424 97.466965 -22.407654 4294967295
-6.0951557 96.840065 -22.325565 4294967295
-6.0929804 96.998528 -22.333847 4294967295
-6.0906839 99.508644 -22.641411 4294967295
-6.0901146 95.589233 -22.138344 4294967295
-6.086184 98.885155 -22.537214 4294967295
-6.0840425 99.357086 -22.585659 4294967295
-6.0673223 97.958992 -22.315643 4294967295
-6.0662785 93.763512 -22.656971 4294967295
-6.0648522 98.588127 -22.382339 4294967295
-6.0570574 93.456779 -22.567352 4294967295
-6.0402727 93.939293 -22.536964 4294967295
-6.0370455 94.255165 -22.55957 4294967295
-6.0364785 99.237396 -22.309534 4294967295
-6.0273013 99.715027 -22.320114 4294967295
-6.0249357 93.166611 -22.354425 4294967295
-6.0210075 94.423729 -22.493231 4294967295
-6.0064969 93.650444 -22.315147 4294967295
-5.995472 94.128944 -22.315792 4294967295
-5.9938374 96.325066 -22.586868 4294967295
-5.9936676 96.63868 -22.625923 4294967295
-5.9844403 93.352875 -22.156401 4294967295
-5.9758182 97.592682 -22.649788 4294967295
-5.9692874 98.381355 -22.714556 4294967295
-5.9660234 95.562035 -22.337254 4294967295
-5.9650831 96.817078 -22.492119 4294967295
-5.9628134 97.289108 -22.539867 4294967295
-5.962244 94.780731 -22.216927 4294967295
-5.9580812 95.254318 -22.25452 4294967295
-5.9568748 97.920685 -22.587856 4294967295
-5.9479179 94.634476 -22.119818 4294967295
-5.945837 95.89077 -22.268614 4294967295
-5.9456658 99.183296 -22.687408 4294967295
-5.9452958 98.086334 -22.545557 4294967295
-5.9398189 98.560844 -22.576048 4294967295
-5.9356928 96.996155 -22.353989 4294967295
-5.9354491 97.466751 -22.412649 4294967295
-5.9345741 97.153809 -22.367962 4294967295
-5.9331918 97.782059 -22.440481 4294967295
-5.9324718 98.723289 -22.556517 4294967295
-5.9316187 95.744576 -22.172106 4294967295
-5.9312196 95.431168 -22.129955 4294967295
-5.9300213 99.665718 -22.663216 4294967295
-5.9298019 96.530151 -22.262314 4294967295
-5.9209185 99.516075 -22.59429 4294967295
-5.8981342 99.377075 -22.451794 4294967295
-5.8814468 92.997452 -22.428394 4294967295
-5.8686042 94.888054 -22.599123 4294967295
-5.8571844 96.620651 -22.75745 4294967295
-5.8563175 96.151131 -22.692884 4294967295
-5.8427939 93.809563 -22.320517 4294967295
-5.8425045 93.966591 -22.338945 4294967295
-5.8422604 95.221115 -22.497494 4294967295
-5.8402891 97.1036 -22.726585 4294967295
-5.8392677 96.947647 -22.701132 4294967295
-5.8344464 97.264771 -22.715168 4294967295
-5.8337436 94.443451 -22.351809 4294967295
-5.833662 96.324905 -22.591125 4294967295
-5.8318357 95.542435 -22.481428 4294967295
-5.8284998 93.192635 -22.163706 4294967295
-5.8257136 95.703789 -22.468508 4294967295
-5.8249769 97.585449 -22.704233 4294967295
-5.8239851 95.861862 -22.479198 4294967295
-5.8219113 94.608986 -22.308197 4294967295
-5.8185878 95.081894 -22.350288 4294967295
-5.8169274 93.671608 -22.16147 4294967295
-5.812458 96.811203 -22.537125 4294967295
-5.8091135 94.304733 -22.199429 4294967295
-5.7925339 98.550797 -22.64979 4294967295
-5.7878318 96.516212 -22.364857 4294967295
-5.7870131 98.084763 -22.560226 4294967295
-5.7834005 96.049072 -22.281099 4294967295
-5.7608786 98.888794 -22.519728 4294967295
-5.7598076 98.732834 -22.494003 4294967295
-5.7567744 99.205544 -22.537628 4294967295
-5.7498422 93.13327 -22.605959 4294967295
-5.7471123 92.978493 -22.571333 4294967295
-5.738472 98.435677 -22.339464 4294967295
-5.7288914 99.070389 -22.367924 4294967295
-5.7227154 99.545654 -22.394688 4294967295
-5.7054935 94.733261 -22.567562 4294967295
-5.7009692 94.109482 -22.463402 4294967295
-5.696054 93.799477 -22.397072 4294967295
-5.6959748 93.485916 -22.356695 4294967295
-5.6947155 93.643646 -22.369911 4294967295
-5.693058 94.428864 -22.460878 4294967295
-5.688839 93.961555 -22.378313 4294967295
-5.6832924 93.338303 -22.268631 4294967295
-5.6813169 97.2593 -22.757219 4294967295
-5.6810684 96.319046 -22.636131 4294967295
-5.678555 96.007408 -22.58272 4294967295
-5.6776032 95.067436 -22.457809 4294967295
-5.6696472 94.289246 -22.315243 4294967295
-5.664876 98.212204 -22.788763 4294967295
-5.651825 94.61602 -22.259531 4294967295
-5.6495328 97.753731 -22.646597 4294967295
-5.646419 97.129036 -22.550049 4294967295
-5.6441221 97.601097 -22.597612 4294967295
-5.6392322 98.545403 -22.691137 4294967295
-5.6173792 97.935089 -22.494087 4294967295
-5.609519 98.725082 -22.551744 4294967295
-5.6042757 99.6698 -22.643379 4294967295
-5.6031361 98.886795 -22.537474 4294967295
-5.590683 99.366821 -22.530577 4294967295
-5.5821247 98.432571 -22.364897 4294967295
-5.580792 93.139435 -22.562414 4294967295
-5.5690546 99.226807 -22.394632 4294967295
-5.5591278 93.311897 -22.466223 4294967295
-5.5575356 94.253754 -22.577444 4294967295
-5.5512958 99.554283 -22.339336 4294967295
-5.528244 94.432022 -22.440393 4294967295
-5.5147791 94.598724 -22.388182 4294967295
-5.5144281 93.814835 -22.286478 4294967295
-5.5021896 94.764816 -22.340668 4294967295
-5.4600992 99.343742 -22.693842 4294967295
-5.454432 98.250656 -22.523855 4294967295
-5.4492111 99.665733 -22.675432 4294967295
-5.4396634 99.046021 -22.544516 4294967295
-5.4389987 99.203323 -22.560905 4294967295
-5.4329 98.737625 -22.468391 4294967295
-5.4306254 98.582558 -22.436258 4294967295
-5.4274454 98.428177 -22.399271 4294967295
-5.4103165 93.146599 -22.511442 4294967295
-5.4092884 99.540009 -22.441713 4294967295
-5.407454 93.305458 -22.516066 4294967295
-5.3843298 93.479012 -22.412216 4294967295
-5.3634615 94.435135 -22.420216 4294967295
-5.3621264 93.808792 -22.333254 4294967295
-5.3477502 93.976112 -22.276251 4294967295
-5.3427444 93.666031 -22.209538 4294967295
-5.3393111 94.295982 -22.270988 4294967295
-5.3378725 93.04203 -22.103607 4294967295
-5.288969 99.665695 -22.679792 4294967295
-5.2773738 98.890709 -22.518101 4294967295
-5.2737203 99.36396 -22.55838 4294967295
-5.2650962 99.213829 -22.492325 4294967295
-5.2346106 93.157509 -22.432728 4294967295
-5.2194638 93.325272 -22.371687 4294967295
-5.2160425 93.484581 -22.373341 4294967295
-5.2124953 99.568298 -22.25094 4294967295
-5.169569 93.047508 -22.06502 4294967295
-5.1369057 99.345741 -22.688049 4294967295
-5.0884728 93.147079 -22.512182 4294967295
-5.0870895 99.227455 -22.402102 4294967295
-5.0861483 99.541878 -22.436939 4294967295
-5.0747051 93.627464 -22.498463 4294967295
-5.023931 93.350456 -22.187521 4294967295
-5.0121851 93.045113 -22.084927 4294967295
-4.8975077 99.72065 -22.310261 4294967295
-4.8493872 93.203522 -22.095921 4294967295
-4.7467351 93.161812 -22.407318 4294967295
-4.5435152 93.035408 -22.163305 4294967295
5.6914158 93.143433 -20.295431 4294967295
5.8147035 93.117859 -20.48772 4294967295
5.9614754 99.692108 -20.563473 4294967295
6.0121799 93.141098 -20.316839 4294967295
6.0316825 99.583893 -20.200817 4294967295
6.0336795 93.471161 -20.25045 4294967295
6.0440073 93.319992 -20.180584 4294967295
6.0444736 93.794228 -20.236406 4294967295
6.0550065 99.442368 -20.067392 4294967295
6.1613202 92.974594 -20.363159 4294967295
6.1659951 99.406395 -20.320261 4294967295
6.1852422 93.148239 -20.265692 4294967295
6.1993265 99.587936 -20.176842 4294967295
6.213407 93.798698 -20.205595 4294967295
6.2193694 99.127968 -20.020866 4294967295
6.2248583 94.122269 -20.1884 4294967295
6.287149 99.061798 -20.484293 4294967295
6.3054643 99.706482 -20.472332 4294967295
6.3226752 93.60582 -20.446552 4294967295
6.3390837 93.30072 -20.327841 4294967295
6.342886 92.987274 -20.270601 4294967295
6.3504472 99.422279 -20.214245 4294967295
6.3535032 93.468163 -20.276865 4294967295
6.3580279 99.58564 -20.196621 4294967295
6.3620911 98.482254 -20.041319 4294967295
6.3624506 99.272713 -20.136343 4294967295
6.3624549 98.640556 -20.058901 4294967295
6.3735614 94.113327 -20.256445 4294967295
6.382041 93.960953 -20.195747 4294967295
6.4271541 99.204361 -20.614092 4294967295
6.4279227 94.307419 -20.010723 4294967295
6.436389 98.894981 -20.530443 4294967295
6.4464545 99.691734 -20.578068 4294967295
6.4533701 99.064827 -20.467049 4294967295
6.4759989 92.968246 -20.414373 4294967295
6.4770036 99.555336 -20.409931 4294967295
6.4891987 93.76664 -20.446756 4294967295
6.5048594 93.619003 -20.351147 4294967295
6.5097227 94.254059 -20.404804 4294967295
6.5176921 93.469467 -20.269306 4294967295
6.5302644 98.80265 -20.053762 4294967295
6.537189 94.430267 -20.290386 4294967295
6.5413585 93.327003 -20.134693 4294967295
6.557529 93.969734 -20.133308 4294967295
6.5646052 94.606506 -20.17622 4294967295
6.565414 94.132973 -20.114252 4294967295
6.5657926 94.923317 -20.209116 4294967295
6.603138 99.3722 -20.568624 4294967295
6.6109538 95.111565 -20.00856 4294967295
6.6139126 97.484047 -20.284254 4294967295
6.622333 98.911789 -20.417257 4294967295
6.6231031 98.754349 -20.394184 4294967295
6.6241221 97.807091 -20.273237 4294967295
6.6315951 99.708153 -20.468832 4294967295
6.6379361 97.974655 -20.225348 4294967295
6.6450543 93.446594 -20.440979 4294967295
6.6463156 98.296501 -20.22324 4294967295
6.6554241 93.137459 -20.351881 4294967295
6.6555486 99.567047 -20.332973 4294967295
6.6584558 93.61335 -20.395117 4294967295
6.6643686 98.625114 -20.174067 4294967295
6.6647043 98.151222 -20.11442 4294967295
6.6756134 99.107086 -20.177359 4294967295
6.6779923 98.476555 -20.088438 4294967295
6.6796412 94.417175 -20.388706 4294967295
6.6846399 95.052368 -20.441694 4294967295
6.6990314 95.377937 -20.410362 4294967295
6.7001362 93.956779 -20.231037 4294967295
6.7042594 93.801483 -20.191648 4294967295
6.7066569 95.541031 -20.392607 4294967295
6.7122207 94.122772 -20.191593 4294967295
6.7259583 97.449684 -20.530622 4294967295
6.726459 96.02832 -20.354296 4294967295
6.7308712 94.767235 -20.178215 4294967295
6.7339544 95.717384 -20.279202 4294967295
6.7521133 94.939438 -20.094246 4294967295
6.7689319 99.53289 -20.572887 4294967295
6.769732 97.16375 -20.279205 4294967295
6.7709298 99.376343 -20.543867 4294967295
6.7724009 97.323593 -20.285557 4294967295
6.7806149 99.0672 -20.458176 4294967295
6.7852616 98.912468 -20.416277 4294967295
6.7853479 98.59655 -20.377218 4294967295
6.7876501 97.966133 -20.288738 4294967295
6.7877841 97.018082 -20.172127 4294967295
6.7886224 96.702568 -20.129391 4294967295
6.7901969 96.861687 -20.141068 4294967295
6.7939897 93.59584 -20.526798 4294967295
6.7946377 98.128983 -20.274103 4294967295
6.7981963 98.289467 -20.276133 4294967295
6.8003159 93.284096 -20.457434 4294967295
6.8035154 98.45118 -20.269608 4294967295
6.8125544 93.765991 -20.455927 4294967295
6.8204489 94.560974 -20.514153 4294967295
6.822659 98.780556 -20.215227 4294967295
6.8255615 99.730736 -20.317066 4294967295
6.8278618 97.835854 -20.073971 4294967295
6.8299279 99.259735 -20.237883 4294967295
6.8338127 93.937958 -20.371975 4294967295
6.8373003 95.677841 -20.567493 4294967295
6.8396635 95.363533 -20.517395 4294967295
6.8447242 94.103142 -20.338287 4294967295
6.8466821 95.842094 -20.541245 4294967295
6.8471155 92.99868 -20.191414 4294967295
6.8474345 95.526703 -20.498968 4294967295
6.8503938 95.212761 -20.445971 4294967295
6.8545089 94.267609 -20.310078 4294967295
6.8549151 93.161789 -20.172844 4294967295
6.864603 94.432289 -20.280367 4294967295
6.8661757 95.065331 -20.350006 4294967295
6.8746061 96.492813 -20.482899 4294967295
6.8844714 94.919533 -20.241829 4294967295
6.8958302 97.92897 -20.55365 4294967295
6.8977752 97.614395 -20.50559 4294967295
6.8993425 97.29953 -20.459362 4294967295
6.9026494 99.5131 -20.713594 4294967295
6.908299 94.777367 -20.106775 4294967295
6.9088554 96.042023 -20.258654 4294967295
6.9097109 98.096519 -20.505583 4294967295
6.9193435 99.208931 -20.593981 4294967295
6.9242682 99.370331 -20.589386 4294967295
6.9346843 97.165718 -20.268475 4294967295
6.9349937 98.903938 -20.479416 4294967295
6.9363627 97.008842 -20.241009 4294967295
6.9396701 99.697067 -20.553259 4294967295
6.9455786 93.273026 -20.541714 4294967295
6.9508777 97.492874 -20.228498 4294967295
6.9510217 96.386627 -20.092552 4294967295
6.9615941 92.967552 -20.425385 4294967295
6.9752603 93.924301 -20.474926 4294967295
6.9846363 93.772491 -20.410128 4294967295
6.9866495 93.615837 -20.38105 4294967295
6.9924183 93.145622 -20.295124 4294967295
7.003479 96.154434 -20.608292 4294967295
7.0104389 94.579445 -20.381495 4294967295
7.0170569 94.741829 -20.368698 4294967295
7.0263214 93.483818 -20.16925 4294967295
7.0435963 96.023544 -20.394438 4294967295
7.0474334 94.287903 -20.163404 4294967295
7.0480628 97.132454 -20.507906 4294967295
7.0489335 95.237091 -20.272009 4294967295
7.0558915 98.559448 -20.643639 4294967295
7.058156 97.613274 -20.516874 4294967295
7.0582414 96.349434 -20.362032 4294967295
7.0585351 99.666809 -20.765877 4294967295
7.0653009 95.564102 -20.231247 4294967295
7.0676889 95.091583 -20.161724 4294967295
7.068521 99.357964 -20.678898 4294967295
7.0694809 98.094986 -20.519873 4294967295
7.0711784 98.72802 -20.588837 4294967295
7.0735354 94.937424 -20.114048 4294967295
7.0744476 95.886314 -20.22551 4294967295
7.0773335 96.836418 -20.327374 4294967295
7.0832882 97.472527 -20.375727 4294967295
7.0860977 97.000412 -20.304184 4294967295
7.0904274 95.42289 -20.090065 4294967295
7.0977387 97.798477 -20.344278 4294967295
7.1002293 98.274223 -20.39012 4294967295
7.1099582 99.070992 -20.439474 4294967295
7.1125879 99.230827 -20.446028 4294967295
7.1134944 99.547447 -20.480236 4294967295
7.1212568 98.4468 -20.307493 4294967295
7.1220846 98.92144 -20.361395 4294967295
7.1263614 93.917007 -20.530914 4294967295
7.1290402 94.550575 -20.595114 4294967295
7.1432443 93.138168 -20.352606 4294967295
7.1512976 93.459419 -20.352182 4294967295
7.1523232 93.618088 -20.366516 4294967295
7.1596026 93.780861 -20.350544 4294967295
7.164567 92.994026 -20.229965 4294967295
7.1648641 94.890274 -20.46015 4294967295
7.1740055 94.738358 -20.396566 4294967295
7.1766815 95.056122 -20.422197 4294967295
7.1801972 93.320274 -20.192831 4294967295
7.1859884 97.431885 -20.666515 4294967295
7.1867895 96.168777 -20.508308 4294967295
7.1958995 95.542946 -20.386999 4294967295
7.1990581 97.124916 -20.564648 4294967295
7.1992617 94.122986 -20.196987 4294967295
7.2073803 94.444427 -20.196264 4294967295
7.2090063 97.289673 -20.535769 4294967295
7.2094989 94.287781 -20.166693 4294967295
7.2144465 96.661446 -20.432249 4294967295
7.2199345 99.192688 -20.714312 4294967295
7.2225299 95.402748 -20.238699 4294967295
7.2237616 99.037415 -20.676504 4294967295
7.2263951 95.247292 -20.200672 4294967295
7.2274389 97.934219 -20.523685 4294967295
7.2313142 96.988914 -20.389154 4294967295
7.2315979 96.35704 -20.310589 4294967295
7.2381659 98.415565 -20.529621 4294967295
7.2498503 95.89521 -20.164276 4294967295
7.2515931 93.261024 -20.63489 4294967295
7.2539039 98.900436 -20.511305 4294967295
7.2555852 98.585617 -20.464582 4294967295
7.2584014 98.113548 -20.393068 4294967295
7.2589512 96.059402 -20.139502 4294967295
7.2628336 99.380623 -20.525951 4294967295
7.2635021 95.746315 -20.078846 4294967295
7.2644243 96.853409 -20.209517 4294967295
7.2736053 97.649918 -20.261564 4294967295
7.2855015 97.816132 -20.223265 4294967295
7.2914581 98.294395 -20.252325 4294967295
7.2919092 94.235138 -20.555498 4294967295
7.2931437 93.130119 -20.414495 4294967295
7.2952905 93.921432 -20.500561 4294967295
7.2953753 93.763512 -20.480862 4294967295
7.2964497 93.606232 -20.456373 4294967295
7.2986317 94.713463 -20.580828 4294967295
7.3011136 99.723457 -20.379253 4294967295
7.3094988 95.036598 -20.566818 4294967295
7.3118477 99.572952 -20.308002 4294967295
7.3128929 94.40696 -20.473248 4294967295
7.3159852 95.514801 -20.593288 4294967295
7.3236332 95.677887 -20.575575 4294967295
7.3241348 94.098381 -20.380268 4294967295
7.3329539 95.21019 -20.472624 4294967295
7.3369517 93.474693 -20.24106 4294967295
7.3370223 96.634666 -20.626503 4294967295
7.3527584 96.961266 -20.588959 4294967295
7.3590527 97.12352 -20.577799 4294967295
7.3625541 94.913864 -20.290831 4294967295
7.3663068 96.022507 -20.407715 4294967295
7.3715582 97.290024 -20.536604 4294967295
7.3718357 95.394135 -20.303804 4294967295
7.3723063 98.712212 -20.706501 4294967295
7.3760381 97.609047 -20.553503 4294967295
7.3853006 95.877251 -20.296543 4294967295
7.3873954 96.352753 -20.344286 4294967295
7.4030418 96.837433 -20.326477 4294967295
7.4054017 96.206863 -20.237892 4294967295
7.4083734 98.263237 -20.474276 4294967295
7.41398 96.528755 -20.234985 4294967295
7.4146833 98.109581 -20.42448 4294967295
7.4161596 97.4785 -20.340193 4294967295
7.4226918 97.957069 -20.366468 4294967295
7.4255629 99.22316 -20.506865 4294967295
7.4278831 98.908768 -20.457083 4294967295
7.428545 98.593201 -20.415314 4294967295
7.4344234 99.703354 -20.521875 4294967295
7.4388547 97.810127 -20.269024 4294967295
7.4403057 99.075424 -20.416309 4294967295
7.4458733 99.553368 -20.447247 4294967295
7.4672112 94.085785 -20.47518 4294967295
7.4723444 99.413841 -20.299995 4294967295
7.4727454 94.247421 -20.467714 4294967295
7.4777851 93.934731 -20.404795 4294967295
7.4804583 96.622063 -20.719576 4294967295
7.4958005 93.156349 -20.221283 4294967295
7.49822 95.054253 -20.441013 4294967295
7.5018411 94.582619 -20.365667 4294967295
7.5051913 93.320511 -20.195181 4294967295
7.5088511 95.851349 -20.48604 4294967295
7.5129728 96.012108 -20.485407 4294967295
7.5139914 96.486771 -20.538317 4294967295
7.5142641 94.432793 -20.286346 4294967295
7.5146728 93.484749 -20.168638 4294967295
7.515101 97.435364 -20.648594 4294967295
7.5214572 94.911659 -20.309443 4294967295
7.5274487 96.179848 -20.43475 4294967295
7.5279245 96.970169 -20.528837 4294967295
7.5370212 99.503853 -20.793217 4294967295
7.537437 95.238358 -20.270798 4294967295
7.541326 99.03302 -20.714638 4294967295
7.5442352 95.717033 -20.295803 4294967295
7.5496864 98.722893 -20.635735 4294967295
7.5567036 98.885735 -20.62112 4294967295
7.560688 99.362427 -20.659689 4294967295
7.5609965 97.624725 -20.446203 4294967295
7.566669 97.786629 -20.438082 4294967295
7.567596 99.209267 -20.607067 4294967295
7.5676656 97.155197 -20.356155 4294967295
7.5678849 97.313385 -20.374374 4294967295
7.5691314 98.26236 -20.484018 4294967295
7.5704541 99.685196 -20.651075 4294967295
7.5829258 98.587906 -20.455957 4294967295
7.5857606 97.957748 -20.365158 4294967295
7.5866842 96.3778 -20.167868 4294967295
7.5927558 93.271904 -20.558208 4294967295
7.6050458 94.543663 -20.65303 4294967295
7.6141562 92.96981 -20.416346 4294967295
7.6215835 93.448647 -20.438314 4294967295
7.632133 94.245552 -20.483753 4294967295
7.6355262 93.141678 -20.332451 4294967295
7.6403384 95.988777 -20.656101 4294967295
7.6508431 95.521881 -20.547613 4294967295
7.6527719 97.260803 -20.750208 4294967295
7.6550784 95.682701 -20.546446 4294967295
7.6669512 95.216606 -20.431341 4294967295
7.6707387 94.112892 -20.278135 4294967295
7.6729712 95.378632 -20.421564 4294967295
7.6754546 96.328339 -20.525198 4294967295
7.6825948 97.913002 -20.683395 4294967295
7.6883678 98.548813 -20.73259 4294967295
7.6884384 98.074982 -20.674469 4294967295
7.6949768 93.970718 -20.141859 4294967295
7.6951046 95.867493 -20.372576 4294967295
7.6963325 98.396347 -20.674919 4294967295
7.7004385 96.187134 -20.385384 4294967295
7.7040725 94.925163 -20.213642 4294967295
7.7076011 96.666054 -20.408642 4294967295
7.7115531 99.670616 -20.755587 4294967295
7.7140484 97.776566 -20.512421 4294967295
7.7195268 96.990189 -20.38965 4294967295
7.721385 97.465546 -20.438496 4294967295
7.7297192 95.100243 -20.109152 4294967295
7.7306237 98.894005 -20.567327 4294967295
7.7417727 96.847221 -20.263056 4294967295
7.7480793 99.064125 -20.502417 4294967295
7.7488074 98.27449 -20.402571 4294967295
7.7496438 93.268417 -20.586149 4294967295
7.7627335 92.960922 -20.484507 4294967295
7.7754097 94.075127 -20.558233 4294967295
7.7906227 94.243095 -20.504156 4294967295
7.7939343 95.03524 -20.584496 4294967295
7.7977629 93.141624 -20.334871 4294967295
7.8031673 95.673309 -20.617029 4294967295
7.8034105 95.515488 -20.5966 4294967295
7.8060927 94.41127 -20.448847 4294967295
7.8086195 94.570953 -20.455929 4294967295
7.8116751 95.836975 -20.595285 4294967295
7.8204312 93.946587 -20.321924 4294967295
7.8269515 97.427032 -20.714224 4294967295
7.8293967 96.006836 -20.529142 4294967295
7.8336773 97.747551 -20.720325 4294967295
7.8401113 98.383797 -20.766331 4294967295
7.8408937 97.594505 -20.666307 4294967295
7.8423762 96.80558 -20.562889 4294967295
7.8430605 93.645233 -20.174286 4294967295
7.8432159 97.912041 -20.693626 4294967295
7.8500853 98.864548 -20.776037 4294967295
7.8705254 99.352623 -20.73534 4294967295
7.8763623 94.931786 -20.167931 4294967295
7.8814688 98.728279 -20.605631 4294967295
7.8929505 98.262161 -20.492561 4294967295
7.8989277 93.259995 -20.650707 4294967295
7.8991675 97.318169 -20.347048 4294967295
7.9004087 99.215408 -20.572172 4294967295
7.915647 94.218689 -20.685701 4294967295
7.9199986 99.070984 -20.45857 4294967295
7.9222007 93.433083 -20.557894 4294967295
7.9307809 94.544571 -20.651339 4294967295
7.9309144 93.912727 -20.573692 4294967295
7.9351187 99.555618 -20.443527 4294967295
7.9402857 93.760849 -20.509317 4294967295
7.9555597 92.980637 -20.339478 4294967295
7.9600215 99.731049 -20.342863 4294967295
7.9614897 95.196793 -20.580505 4294967295
7.9730973 95.678497 -20.582382 4294967295
7.9854555 94.422516 -20.368862 4294967295
7.9881921 95.530548 -20.490477 4294967295
7.9889035 93.634483 -20.25596 4294967295
7.9941382 96.324585 -20.558111 4294967295
7.9980249 95.853142 -20.481655 4294967295
8.0028563 94.908127 -20.342869 4294967295
8.0037918 93.169899 -20.126474 4294967295
8.0043726 96.015411 -20.470356 4294967295
8.0128956 96.495209 -20.487095 4294967295
8.0155182 98.393021 -20.705437 4294967295
8.0168285 97.129944 -20.545168 4294967295
8.0234156 98.556442 -20.686687 4294967295
8.0276527 96.979256 -20.473831 4294967295
8.0314322 99.351883 -20.744331 4294967295
8.0379171 98.724434 -20.636173 4294967295
8.0461617 95.411041 -20.192184 4294967295
8.0484123 94.780113 -20.104298 4294967295
8.0501947 97.310616 -20.403864 4294967295
8.0591984 97.948944 -20.437555 4294967295
8.0632582 99.057968 -20.552767 4294967295
8.0735817 98.274895 -20.40686 4294967295
8.0818033 96.857796 -20.193998 4294967295
8.0878448 97.652367 -20.261223 4294967295
8.0939665 93.597244 -20.533619 4294967295
8.0963211 99.555038 -20.451483 4294967295
8.096755 99.713387 -20.468645 4294967295
8.101099 99.242241 -20.390001 4294967295
8.1047907 93.130203 -20.423819 4294967295
8.119133 94.0877 -20.470335 4294967295
8.1236858 93.458519 -20.371445 4294967295
8.1270342 93.93483 -20.413092 4294967295
8.1311178 93.305283 -20.316452 4294967295
8.1417751 97.104774 -20.727062 4294967295
8.1420155 95.366959 -20.514277 4294967295
8.1453934 95.843254 -20.555765 4294967295
8.1474361 97.424568 -20.738327 4294967295
8.1485863 97.267372 -20.713566 4294967295
8.1574287 95.693253 -20.478668 4294967295
8.1626072 94.2742 -20.280537 4294967295
8.1631365 97.751213 -20.701351 4294967295
8.1702538 94.595367 -20.282274 4294967295
8.1762753 95.231621 -20.330326 4294967295
8.1780281 96.813271 -20.514355 4294967295
8.189249 96.504753 -20.42194 4294967295
8.1931171 98.403717 -20.634237 4294967295
8.193532 94.926872 -20.208857 4294967295
8.1954536 98.089294 -20.584538 4294967295
8.195879 96.193085 -20.351578 4294967295
8.196023 99.353699 -20.73568 4294967295
8.1985598 98.723473 -20.646561 4294967295
8.2001047 96.986221 -20.4275 4294967295
8.2001963 97.618454 -20.50403 4294967295
8.2022638 95.565025 -20.243887 4294967295
8.2037077 94.459236 -20.102163 4294967295
8.2050657 95.09259 -20.172657 4294967295
8.2055607 97.938179 -20.516731 4294967295
8.207612 94.778046 -20.121906 4294967295
8.2097435 98.889198 -20.612066 4294967295
8.2329454 99.221298 -20.539076 4294967295
8.2422495 98.279396 -20.378929 4294967295
8.2509003 99.549843 -20.491304 4294967295
8.2543879 94.070045 -20.602472 4294967295
8.2581635 94.546509 -20.642036 4294967295
8.2635784 98.610199 -20.314945 4294967295
8.2733479 94.240448 -20.530649 4294967295
8.2761784 93.926247 -20.478584 4294967295
8.2784834 99.727104 -20.37805 4294967295
8.2851295 93.61599 -20.39711 4294967295
8.2864046 94.407021 -20.487185 4294967295
8.2966394 95.519943 -20.572683 4294967295
8.2991238 96.627625 -20.69537 4294967295
8.3027554 95.049911 -20.485613 4294967295
8.3058386 97.106117 -20.720823 4294967295
8.3060608 93.313416 -20.258085 4294967295
8.3153496 98.060463 -20.790525 4294967295
8.3200569 96.799713 -20.614119 4294967295
8.3236513 93.008575 -20.135094 4294967295
8.3241282 95.380142 -20.421469 4294967295
8.3267269 93.484894 -20.178072 4294967295
8.3386517 97.444344 -20.601788 4294967295
8.3397036 99.341003 -20.827442 4294967295
8.3493013 96.187195 -20.396799 4294967295
8.3508701 94.923584 -20.235338 4294967295
8.3531256 98.244293 -20.628473 4294967295
8.3531981 97.928307 -20.589668 4294967295
8.3543787 96.980888 -20.468611 4294967295
8.3554726 95.875168 -20.328693 4294967295
8.3559332 97.614113 -20.53808 4294967295
8.3690557 98.571266 -20.590488 4294967295
8.3725462 96.044647 -20.26597 4294967295
8.3731833 95.254532 -20.166689 4294967295
8.3756351 95.730499 -20.212652 4294967295
8.3778658 96.522484 -20.298155 4294967295
8.3920765 98.429031 -20.460791 4294967295
8.3943501 96.375435 -20.199783 4294967295
8.3948936 97.798676 -20.370335 4294967295
8.3997164 99.698692 -20.577978 4294967295
8.4019594 99.226112 -20.509529 4294967295
8.4085178 98.756454 -20.420366 4294967295
8.4085665 93.432747 -20.566675 4294967295
8.4180918 93.280876 -20.501749 4294967295
8.4208403 99.0811 -20.399712 4294967295
8.4222212 98.923973 -20.373846 4294967295
8.4465666 95.353783 -20.615124 4294967295
8.4533033 94.410042 -20.467457 4294967295
8.4578943 94.571098 -20.464666 4294967295
8.4615345 92.992767 -20.254871 4294967295
8.4689341 93.155632 -20.238607 4294967295
8.4758358 97.269447 -20.705448 4294967295
8.4780483 96.322853 -20.579512 4294967295
8.4812851 93.637909 -20.237074 4294967295
8.4818201 95.060997 -20.407612 4294967295
8.4866514 94.748039 -20.345978 4294967295
8.4903717 93.80191 -20.212721 4294967295
8.4951162 97.124466 -20.593801 4294967295
8.4973764 96.809921 -20.544523 4294967295
8.5037537 95.86586 -20.398588 4294967295
8.5113068 96.503174 -20.439285 4294967295
8.5118694 94.922707 -20.244272 4294967295
8.5133753 99.507088 -20.794556 4294967295
8.5153255 98.086349 -20.612263 4294967295
8.5153465 96.663948 -20.439144 4294967295
8.5155602 93.97641 -20.111141 4294967295
8.5178738 99.352211 -20.753788 4294967295
8.5234909 99.19809 -20.707657 4294967295
8.5281315 95.723984 -20.262461 4294967295
8.5298681 99.044479 -20.657879 4294967295
8.5305738 97.622604 -20.481506 4294967295
8.5309439 98.255058 -20.556625 4294967295
8.5314074 95.568054 -20.227522 4294967295
8.5340366 96.992668 -20.388002 4294967295
8.5372648 97.78521 -20.468662 4294967295
8.550581 96.055153 -20.193291 4294967295
8.5526962 96.214691 -20.202381 4294967295
8.5594912 98.748795 -20.477484 4294967295
8.5641508 98.435844 -20.416704 4294967295
8.5732155 94.066322 -20.634499 4294967295
8.5986967 98.933861 -20.30883 4294967295
8.5991058 93.609039 -20.452806 4294967295
8.6014547 92.978302 -20.364656 4294967295
8.6021376 93.452942 -20.41906 4294967295
8.6068506 93.139847 -20.358027 4294967295
8.6071157 94.404495 -20.51054 4294967295
8.6104994 93.30027 -20.35977 4294967295
8.6165819 94.568733 -20.484419 4294967295
8.6294622 95.999603 -20.595686 4294967295
8.6438713 93.796135 -20.257568 4294967295
8.657032 97.914429 -20.694235 4294967295
8.659338 97.125862 -20.587133 4294967295
8.6594934 94.754936 -20.298096 4294967295
8.6606321 95.546135 -20.388758 4294967295
8.6633768 94.283157 -20.221809 4294967295
8.6640673 95.232239 -20.333858 4294967295
8.6661463 97.604576 -20.612181 4294967295
8.6662531 96.656364 -20.496382 4294967295
8.6722918 96.344276 -20.429029 4294967295
8.6729174 96.818901 -20.483688 4294967295
8.6736584 95.396667 -20.307148 4294967295
8.6824284 94.928116 -20.207468 4294967295
8.6827812 99.038177 -20.705446 4294967295
8.6828156 97.773926 -20.551594 4294967295
8.6852694 98.565811 -20.635908 4294967295
8.686944 96.986404 -20.435747 4294967295
8.6907072 98.727577 -20.629095 4294967295
8.6990414 98.891342 -20.608416 4294967295
8.7102203 97.476372 -20.381968 4294967295
8.713048 98.268707 -20.46452 4294967295
8.7252293 98.43512 -20.425432 4294967295
8.7410784 97.339127 -20.215015 4294967295
8.742672 94.545044 -20.660137 4294967295
8.7432327 98.13121 -20.300819 4294967295
8.7499933 99.242592 -20.402992 4294967295
8.7539234 99.403404 -20.4034 4294967295
8.7743683 95.67205 -20.642962 4294967295
8.7793722 93.462532 -20.350058 4294967295
8.7931604 92.997101 -20.226419 4294967295
8.7937088 96.63308 -20.665688 4294967295
8.7955618 93.156761 -20.23415 4294967295
8.7976313 93.632431 -20.281908 4294967295
8.8015337 96.006157 -20.551447 4294967295
8.801631 95.373993 -20.47414 4294967295
8.8025446 93.793716 -20.277618 4294967295
8.8040085 94.268974 -20.328268 4294967295
8.8089523 95.536896 -20.45833 4294967295
8.8158474 96.173744 -20.502197 4294967295
8.8179426 97.597565 -20.66503 4294967295
8.8183908 95.068871 -20.355545 4294967295
8.8293457 94.759857 -20.264706 4294967295
8.8299904 93.337059 -20.088623 4294967295
8.8333588 94.446236 -20.207066 4294967295
8.8344021 97.924805 -20.624741 4294967295
8.8365421 94.132042 -20.153393 4294967295
8.8445959 96.35099 -20.383917 4294967295
8.858717 98.573586 -20.585314 4294967295
8.8648167 98.893875 -20.594561 4294967295
8.8662176 97.472168 -20.415005 4294967295
8.8742714 95.263794 -20.107458 4294967295
8.8762636 98.269432 -20.46302 4294967295
8.8763609 95.897781 -20.174347 4294967295
8.8837786 97.325928 -20.311825 4294967295
8.8845711 97.800797 -20.365675 4294967295
8.8860703 97.16935 -20.281654 4294967295
8.8877239 98.119156 -20.389021 4294967295
8.8924913 96.541115 -20.17408 4294967295
8.8926601 99.071091 -20.480677 4294967295
8.897459 99.706718 -20.534559 4294967295
8.8977098 96.860909 -20.187561 4294967295
8.9032278 97.022766 -20.180391 4294967295
8.9084721 99.39817 -20.44351 4294967295
8.9349356 99.258316 -20.297813 4294967295
8.9508066 94.574997 -20.44348 4294967295
8.9559259 93.313538 -20.265347 4294967295
8.9660892 93.161949 -20.197563 4294967295
8.9661226 93.00383 -20.178186 4294967295
8.9710932 95.062546 -20.404167 4294967295
8.9717522 94.746788 -20.36261 4294967295
8.9727659 95.695984 -20.472994 4294967295
8.9895658 96.813683 -20.527153 4294967295
8.9936934 94.128609 -20.180927 4294967295
8.9968481 98.241104 -20.665142 4294967295
8.9974594 93.972908 -20.143715 4294967295
8.9986925 96.02935 -20.38755 4294967295
9.0024595 95.557518 -20.311939 4294967295
9.0025988 98.877182 -20.714455 4294967295
9.009409 95.403984 -20.259533 4294967295
9.0144491 96.988464 -20.427513 4294967295
9.0175991 97.781021 -20.508471 4294967295
9.0200806 94.936577 -20.150911 4294967295
9.0243206 97.469398 -20.437975 4294967295
9.0291653 95.891457 -20.222782 4294967295
9.0294294 97.947128 -20.471184 4294967295
9.0305357 98.580208 -20.542694 4294967295
9.0362749 96.370598 -20.246449 4294967295
9.0363712 96.686935 -20.284403 4294967295
9.0365572 97.635765 -20.398745 4294967295
9.0369062 95.263954 -20.108953 4294967295
9.0451031 99.380585 -20.569126 4294967295
9.0461292 97.16787 -20.295422 4294967295
9.0551052 98.122681 -20.367786 4294967295
9.0574284 96.542862 -20.164621 4294967295
9.0599566 99.232735 -20.479023 4294967295
9.0649204 99.710434 -20.51292 4294967295
9.0659857 93.59597 -20.555876 4294967295
9.0906115 94.560287 -20.553511 4294967295
9.1016235 92.986549 -20.308975 4294967295
9.1020937 93.30307 -20.345133 4294967295
9.103857 95.043144 -20.547882 4294967295
9.1093559 94.256348 -20.425669 4294967295
9.1141405 95.840218 -20.594774 4294967295
9.1145868 95.524391 -20.554262 4294967295
9.1391182 95.698669 -20.456413 4294967295
9.1414881 97.913139 -20.71376 4294967295
9.1419868 94.910049 -20.346743 4294967295
9.1479158 94.123276 -20.222441 4294967295
9.1482296 96.653221 -20.528105 4294967295
9.1488457 94.440155 -20.256411 4294967295
9.1493654 96.021637 -20.445915 4294967295
9.1609869 96.503654 -20.448057 4294967295
9.1701117 93.821335 -20.078096 4294967295
9.1727552 97.77626 -20.545458 4294967295
9.1766596 95.249062 -20.219702 4294967295
9.1841021 99.522705 -20.702396 4294967295
9.1886549 96.205841 -20.277676 4294967295
9.1928158 98.73838 -20.564924 4294967295
9.195282 96.842804 -20.322857 4294967295
9.2012377 99.692604 -20.639885 4294967295
9.2028093 96.373405 -20.229349 4294967295
9.2043819 99.378632 -20.586523 4294967295
9.2045383 98.904488 -20.528215 4294967295
9.211154 99.067116 -20.515862 4294967295
9.2208118 98.441299 -20.393049 4294967295
9.2298269 98.131172 -20.311668 4294967295
9.2372055 93.759743 -20.535061 4294967295
9.2476749 95.031021 -20.638632 4294967295
9.2542753 99.254868 -20.329454 4294967295
9.2627163 94.882805 -20.547764 4294967295
9.2707844 93.307076 -20.317419 4294967295
9.2727938 95.205559 -20.538109 4294967295
9.2772751 93.153107 -20.267282 4294967295
9.2792349 93.470627 -20.296326 4294967295
9.2831812 94.263779 -20.373476 4294967295
9.2897854 94.742409 -20.39957 4294967295
9.2902203 96.955818 -20.666071 4294967295
9.2997799 94.116417 -20.275169 4294967295
9.3041067 93.644783 -20.196955 4294967295
9.3115864 95.86348 -20.429996 4294967295
9.314847 93.019005 -20.068956 4294967295
9.317173 97.13195 -20.55685 4294967295
9.3227463 95.396484 -20.319252 4294967295
9.3247871 93.974457 -20.13677 4294967295
9.3288927 94.451622 -20.174795 4294967295
9.3361025 96.037834 -20.332371 4294967295
9.3388472 96.672157 -20.396044 4294967295
9.3391371 98.411423 -20.605671 4294967295
9.3418188 99.519699 -20.727131 4294967295
9.3515778 95.573616 -20.201054 4294967295
9.3604689 97.635391 -20.408159 4294967295
9.3618374 96.84565 -20.305706 4294967295
9.3636751 98.744331 -20.527168 4294967295
9.3728561 96.378532 -20.195637 4294967295
9.3849411 99.075096 -20.464262 4294967295
9.388772 99.23584 -20.4652 4294967295
9.3894815 98.603828 -20.385086 4294967295
9.3914223 98.288879 -20.337473 4294967295
9.3943272 92.965942 -20.466448 4294967295
9.39958 98.136269 -20.279432 4294967295
9.4070377 99.722778 -20.43577 4294967295
9.4129572 93.135948 -20.396925 4294967295
9.415184 94.244057 -20.520584 4294967295
9.4199781 94.089073 -20.478584 4294967295
9.4272976 95.042351 -20.558809 4294967295
9.4312592 93.305794 -20.328964 4294967295
9.4360619 95.838486 -20.612965 4294967295
9.4498396 93.792137 -20.298059 4294967295
9.4508696 93.950935 -20.31234 4294967295
9.4650707 95.225197 -20.398197 4294967295
9.4687929 93.488029 -20.169443 4294967295
9.4694996 94.595573 -20.30039 4294967295
9.473937 94.914742 -20.317633 4294967295
9.4789219 96.499245 -20.485708 4294967295
9.483551 97.134727 -20.540382 4294967295
9.495183 95.719391 -20.312429 4294967295
9.495575 98.407524 -20.636547 4294967295
9.5006247 96.98806 -20.43997 4294967295
9.5030155 99.044891 -20.677834 4294967295
9.5047827 96.358315 -20.343473 4294967295
9.5190773 95.576973 -20.179527 4294967295
9.5190916 98.265411 -20.505516 4294967295
9.5210505 99.689575 -20.66873 4294967295
9.5286837 99.378662 -20.594091 4294967295
9.5317287 98.11586 -20.426228 4294967295
9.5413923 97.806122 -20.341906 4294967295
9.5478888 98.917496 -20.44524 4294967295
9.5504246 96.705009 -20.164658 4294967295
9.5536547 97.972557 -20.302753 4294967295
9.554224 98.763687 -20.395933 4294967295
9.5648928 99.245407 -20.402718 4294967295
9.5735512 93.767174 -20.484541 4294967295
9.5867376 93.301308 -20.364315 4294967295
9.5981159 95.838326 -20.616941 4294967295
9.5991821 94.57428 -20.458529 4294967295
9.5994225 94.732544 -20.476559 4294967295
9.6007872 92.994011 -20.259146 4294967295
9.6010084 99.586548 -20.269314 4294967295
9.6032906 94.260712 -20.400656 4294967295
9.6074104 95.686371 -20.5536 4294967295
9.6108837 95.372459 -20.498751 4294967295
9.6252012 93.484108 -20.200588 4294967295
9.6350241 93.64859 -20.173058 4294967295
9.635952 93.965538 -20.207006 4294967295
9.6368427 96.021996 -20.45204 4294967295
9.6376591 96.180656 -20.467329 4294967295
9.6403008 94.442848 -20.243868 4294967295
9.6435156 97.607475 -20.611988 4294967295
9.6572628 95.561043 -20.297468 4294967295
9.6598864 97.776596 -20.553368 4294967295
9.6601372 94.930267 -20.207098 4294967295
9.6603031 96.511925 -20.398052 4294967295
9.6632433 98.411255 -20.614073 4294967295
9.6635437 97.304726 -20.478498 4294967295
9.6641359 96.356331 -20.360664 4294967295
9.6685438 95.093933 -20.186312 4294967295
9.6783752 96.99839 -20.36968 4294967295
9.6823025 98.266083 -20.504362 4294967295
9.707881 97.49263 -20.286989 4294967295
9.7118731 98.602425 -20.402216 4294967295
9.7207708 99.082932 -20.417448 4294967295
9.7263527 99.244896 -20.410103 4294967295
9.7288551 98.772148 -20.340712 4294967295
9.7438641 97.991425 -20.173546 4294967295
9.7445621 98.941032 -20.285269 4294967295
9.7487297 92.984711 -20.330378 4294967295
9.7495871 93.459671 -20.383812 4294967295
9.7499084 93.301743 -20.363117 4294967295
9.7677822 94.103912 -20.374069 4294967295
9.7712173 95.21302 -20.491899 4294967295
9.7741222 93.791702 -20.305622 4294967295
9.7746096 95.689575 -20.533276 4294967295
9.7826777 94.271683 -20.3225 4294967295
9.7844362 93.956505 -20.27581 4294967295
9.7849941 99.601509 -20.16991 4294967295
9.7850666 93.640579 -20.234476 4294967295
9.7856445 94.589905 -20.346743 4294967295
9.7889414 96.331459 -20.541878 4294967295
9.793211 95.543678 -20.42581 4294967295
9.797966 94.439735 -20.269072 4294967295
9.8009377 94.916153 -20.312464 4294967295
9.8013983 94.758293 -20.291111 4294967295
9.805253 96.026001 -20.42613 4294967295
9.8058996 95.077545 -20.308073 4294967295
9.8143425 98.087547 -20.632036 4294967295
9.8183479 96.983475 -20.478937 4294967295
9.8241463 97.619843 -20.528049 4294967295
9.8262205 98.569885 -20.633137 4294967295
9.8313065 95.410507 -20.225782 4294967295
9.8373175 96.679832 -20.350576 4294967295
9.8444529 97.15905 -20.374205 4294967295
9.8446875 97.949928 -20.468889 4294967295
9.8460436 95.894745 -20.213329 4294967295
9.8469105 96.528038 -20.285885 4294967295
9.8471098 98.742195 -20.553177 4294967295
9.8489599 96.845741 -20.314482 4294967295
9.8534117 97.481361 -20.370008 4294967295
9.8668652 96.224884 -20.15283 4294967295
9.884861 98.451561 -20.335747 4294967295
9.8885632 99.086739 -20.394821 4294967295
9.8952007 93.606987 -20.485115 4294967295
9.8966494 98.93409 -20.337299 4294967295
9.9054384 98.30732 -20.218948 4294967295
9.9060287 93.139526 -20.376278 4294967295
9.9073524 93.456642 -20.408318 4294967295
9.9113445 99.418663 -20.325068 4294967295
9.9335909 95.529251 -20.532888 4294967295
9.9341269 94.106415 -20.357956 4294967295
9.9434814 99.598907 -20.191778 4294967295
9.9689846 93.021446 -20.058468 4294967295
9.9712467 93.81395 -20.143572 4294967295
9.9750681 95.240112 -20.297909 4294967295
9.9786167 96.191406 -20.396021 4294967295
9.9800529 95.876045 -20.350901 4294967295
9.9803677 94.76902 -20.215296 4294967295
9.9806252 97.141586 -20.501415 4294967295
9.9898071 98.570824 -20.630222 4294967295
9.9909954 96.832222 -20.413954 4294967295
9.9913511 93.352165 -19.990707 4294967295
9.9939051 97.941132 -20.534216 4294967295
9.9949141 93.987381 -20.050486 4294967295
9.9954777 95.411636 -20.220291 4294967295
10.000607 98.261909 -20.540754 4294967295
10.008073 96.052673 -20.237215 4294967295
10.021018 97.484909 -20.348261 4294967295
10.027205 97.014503 -20.261465 4294967295
10.029452 96.699608 -20.212498 4294967295
10.029862 98.756157 -20.459562 4294967295
10.031654 97.333855 -20.278694 4294967295
10.035242 96.387032 -20.14673 4294967295
10.035573 97.652847 -20.298431 4294967295
10.039128 99.553207 -20.511396 4294967295
10.039515 97.813683 -20.298906 4294967295
10.040111 99.079437 -20.449301 4294967295
10.044263 99.240433 -20.448772 4294967295
10.049463 99.402145 -20.443285 4294967295
10.060391 99.72596 -20.429808 4294967295
10.060945 98.460907 -20.273966 4294967295
10.080775 98.948982 -20.237461 4294967295
10.086856 94.732681 -20.483044 4294967295
10.0936 94.578918 -20.431952 4294967295
10.093883 93.788338 -20.334869 4294967295
10.097359 93.94873 -20.337553 4294967295
10.101233 93.31852 -20.242588 4294967295
10.115379 93.011139 -20.137251 4294967295
10.115715 95.384041 -20.422947 4294967295
10.122451 96.811691 -20.563343 4294967295
10.125704 94.441528 -20.26074 4294967295
10.126494 94.125656 -20.218689 4294967295
10.130363 93.178886 -20.085421 4294967295
10.142052 93.661018 -20.087524 4294967295
10.151815 96.198547 -20.347733 4294967295
10.155641 97.150063 -20.444494 4294967295
10.155727 97.466415 -20.48237 4294967295
10.157446 95.09491 -20.187016 4294967295
10.163079 97.945786 -20.504992 4294967295
10.165252 94.308861 -20.054256 4294967295
10.17529 94.948296 -20.083347 4294967295
10.180673 97.008568 -20.306845 4294967295
10.182201 97.325958 -20.337902 4294967295
10.182868 96.535446 -20.239 4294967295
10.186628 95.588623 -20.106274 4294967295
10.189055 95.748444 -20.113937 4294967295
10.197932 96.703636 -20.186831 4294967295
10.200406 98.44545 -20.385744 4294967295
10.206828 98.924324 -20.412779 4294967295
10.209538 97.818848 -20.265938 4294967295
10.211313 99.401886 -20.44898 4294967295
10.212371 99.718933 -20.482254 4294967295
10.218523 98.299507 -20.280849 4294967295
10.239743 94.093956 -20.454155 4294967295
10.245088 92.99025 -20.294872 4294967295
10.25178 94.892433 -20.492907 4294967295
10.266153 93.320023 -20.233488 4294967295
10.274474 95.381645 -20.44297 4294967295
10.27683 99.130188 -20.100647 4294967295
10.278111 93.169426 -20.157761 4294967295
10.286709 99.611694 -20.111349 4294967295
10.288597 96.023514 -20.452721 4294967295
10.29347 94.761314 -20.276554 4294967295
10.295009 93.496635 -20.116098 4294967295
10.30007 96.979988 -20.513279 4294967295
10.302519 95.083572 -20.272034 4294967295
10.304655 96.192245 -20.395918 4294967295
10.310287 93.664627 -20.062958 4294967295
10.313599 93.983231 -20.085596 4294967295
10.317919 96.517349 -20.371469 4294967295
10.319231 97.150894 -20.441813 4294967295
10.320695 94.304268 -20.090322 4294967295
10.326289 94.46611 -20.083008 4294967295
10.329262 95.259193 -20.164686 4294967295
10.329853 96.367043 -20.295895 4294967295
10.341791 95.742058 -20.162863 4294967295
10.346651 98.118263 -20.426985 4294967295
10.35118 95.589966 -20.099308 4294967295
10.35122 94.640472 -19.984219 4294967295
10.359424 99.392227 -20.51967 4294967295
10.361617 97.337341 -20.26054 4294967295
10.364373 97.655602 -20.285791 4294967295
10.369201 98.449837 -20.35866 4294967295
10.3766 98.771225 -20.361954 4294967295
10.382213 97.983994 -20.239729 4294967295
10.384094 96.71936 -20.077682 4294967295
10.388192 96.880333 -20.077452 4294967295
10.389499 97.830658 -20.186146 4294967295
10.399864 98.628784 -20.232851 4294967295
10.410593 97.52829 -20.048126 4294967295
10.415692 99.588882 -20.272871 4294967295
10.422853 94.898033 -20.454664 4294967295
10.428629 94.585449 -20.389112 4294967295
10.430275 99.282379 -20.165672 4294967295
10.431171 95.061592 -20.434494 4294967295
10.435221 99.127495 -20.123152 4294967295
10.443741 93.329567 -20.164614 4294967295
10.451097 99.771362 -20.124687 4294967295
10.454497 96.02581 -20.439085 4294967295
10.45939 94.763527 -20.262913 4294967295
10.459626 94.447258 -20.223522 4294967295
10.464634 94.134048 -20.161583 4294967295
10.469092 93.503952 -20.063951 4294967295
10.471255 97.144028 -20.493826 4294967295
10.474579 96.513557 -20.401623 4294967295
10.479732 93.668991 -20.032818 4294967295
10.485603 93.989265 -20.043358 4294967295
10.49122 96.682739 -20.342159 4294967295
10.492517 95.259682 -20.16382 4294967295
10.493886 95.577026 -20.195629 4294967295
10.497036 93.838326 -19.970188 4294967295
10.497228 96.370308 -20.27552 4294967295
10.500259 95.739418 -20.18466 4294967295
10.501904 97.638985 -20.406475 4294967295
10.504555 94.317963 -19.992098 4294967295
10.505042 96.217239 -20.219473 4294967295
10.516232 95.433372 -20.070925 4294967295
10.525082 95.913925 -20.086548 4294967295
10.532807 96.8685 -20.164885 4294967295
10.544424 98.933167 -20.358747 4294967295
10.5467 99.092918 -20.367128 4294967295
10.547377 97.352913 -20.153488 4294967295
10.549829 98.30397 -20.25671 4294967295
10.550994 97.038818 -20.098133 4294967295
10.569538 98.791977 -20.221058 4294967295
10.570905 93.623398 -20.37224 4294967295
10.574116 98.162079 -20.12291 4294967295
10.57972 94.103569 -20.388018 4294967295
10.580349 99.748718 -20.284809 4294967295
10.583632 98.010208 -20.058836 4294967295
10.589382 95.216995 -20.476276 4294967295
10.590247 99.59726 -20.218958 4294967295
10.593946 93.321678 -20.225231 4294967295
10.595407 93.48082 -20.237469 4294967295
10.598091 94.27356 -20.320442 4294967295
10.599308 94.432533 -20.333828 4294967295
10.601228 94.90834 -20.382139 4294967295
10.615862 99.45649 -20.078915 4294967295
10.625769 96.347984 -20.438456 4294967295
10.632234 96.194054 -20.388838 4294967295
10.633949 93.188843 -20.017282 4294967295
10.636273 93.032043 -19.987173 4294967295
10.63661 96.038734 -20.349068 4294967295
10.65 94.781677 -20.132877 4294967295
10.656631 94.627708 -20.082447 4294967295
10.657228 93.836754 -19.983953 4294967295
10.665283 95.741074 -20.175545 4294967295
10.678092 97.173584 -20.287262 4294967295
10.680246 97.966072 -20.372709 4294967295
10.683031 98.600731 -20.436054 4294967295
10.684598 95.595428 -20.065289 4294967295
10.686751 96.546387 -20.16991 4294967295
10.689475 97.022911 -20.214445 4294967295
10.702568 97.664574 -20.229198 4294967295
10.703632 95.924423 -20.013756 4294967295
10.706655 96.876045 -20.114288 4294967295
10.711167 98.777954 -20.322504 4294967295
10.71176 97.35421 -20.147593 4294967295
10.72049 98.151306 -20.202051 4294967295
10.724627 98.312332 -20.201672 4294967295
10.724957 99.261971 -20.314854 4294967295
10.733103 98.951035 -20.238205 4294967295
10.739445 93.7854 -20.365316 4294967295
10.74176 97.532471 -20.02523 4294967295
10.745448 94.421989 -20.413485 4294967295
10.747707 94.265259 -20.383724 4294967295
10.750537 99.754112 -20.251619 4294967295
10.752019 93.318794 -20.248682 4294967295
10.756994 93.954811 -20.301714 4294967295
10.760242 98.494583 -20.05286 4294967295
10.761732 99.445244 -20.160599 4294967295
10.763121 99.604454 -20.173176 4294967295
10.770226 93.013863 -20.124599 4294967295
10.772293 94.122818 -20.248722 4294967295
10.774343 93.174721 -20.124323 4294967295
10.775367 93.491859 -20.157742 4294967295
10.77617 99.138512 -20.054276 4294967295
10.7938 96.035278 -20.376776 4294967295
10.797157 94.613487 -20.188894 4294967295
10.806255 94.935844 -20.184261 4294967295
10.807818 96.202682 -20.329844 4294967295
10.812396 97.154922 -20.42296 4294967295
10.814391 96.998047 -20.394447 4294967295
10.821793 96.370079 -20.283121 4294967295
10.834397 95.58712 -20.128134 4294967295
10.835224 96.695389 -20.258076 4294967295
10.835726 95.113182 -20.064499 4294967295
10.843913 97.492294 -20.312721 4294967295
10.844431 97.334412 -20.291168 4294967295
10.849353 97.812363 -20.325329 4294967295
10.851868 95.281937 -20.007559 4294967295
10.854017 94.808441 -19.940044 4294967295
10.854543 95.916809 -20.071451 4294967295
10.865873 98.614571 -20.343084 4294967295
10.87536 96.880157 -20.088112 4294967295
10.876691 98.305389 -20.25391 4294967295
10.878438 98.148315 -20.226564 4294967295
10.879732 97.990929 -20.201353 4294967295
10.89411 99.266602 -20.286566 4294967295
10.895696 99.425919 -20.298212 4294967295
10.903096 99.114456 -20.22514 4294967295
10.906183 99.74955 -20.287056 4294967295
