# .PCD v0.7 - Point Cloud Data file format
VERSION 0.7
FIELDS x y z rgb
SIZE 4 4 4 4
TYPE F F F U
COUNT 1 1 1 1
WIDTH 1146
HEIGHT 1
VIEWPOINT 0 0 0 1 0 0 0
POINTS 1146
DATA ascii
35.78849 67.362457 -14.994616 4294967295
35.795116 63.770603 -15.229428 4294967295
35.816891 68.015671 -14.954333 4294967295
35.816902 62.493042 -14.996124 4294967295
35.818546 67.052101 -14.837946 4294967295
35.828506 64.263992 -15.150962 4294967295
35.842064 65.874855 -15.27965 4294967295
35.86607 67.489479 -15.366614 4294967295
35.869835 66.84848 -15.278478 4294967295
35.870361 65.563728 -15.13013 4294967295
35.872997 63.476089 -14.881864 4294967295
35.875809 63.637737 -14.888928 4294967295
35.876129 66.208305 -15.180237 4294967295
35.883621 63.158333 -14.802843 4294967295
35.885349 65.247765 -15.033729 4294967295
35.888165 64.445419 -14.931047 4294967295
35.891216 67.819954 -15.302816 4294967295
35.895866 65.733467 -15.046611 4294967295
35.897591 66.376678 -15.112865 4294967295
35.902992 65.41468 -14.981592 4294967295
35.91441 65.097359 -14.899443 4294967295
35.920143 67.188103 -15.114269 4294967295
35.920189 66.063499 -14.986101 4294967295
35.942139 67.035492 -15.008209 4294967295
35.943676 66.714691 -14.965504 4294967295
35.953148 68.003548 -15.073991 4294967295
35.95937 63.286961 -15.18196 4294967295
35.964809 67.365158 -14.954316 4294967295
35.970852 63.612122 -15.172722 4294967295
35.97097 68.170845 -15.021155 4294967295
35.979961 67.692123 -14.930422 4294967295
35.985729 64.099113 -15.168216 4294967295
35.988377 65.224319 -15.285583 4294967295
35.993046 65.707764 -15.321789 4294967295
35.998833 62.979107 -14.987977 4294967295
36.002483 64.265556 -15.119667 4294967295
36.003979 65.069214 -15.205095 4294967295
36.009872 62.822178 -14.925643 4294967295
36.026615 64.434601 -15.041702 4294967295
36.033089 66.203926 -15.21695 4294967295
36.042618 63.958138 -14.923021 4294967295
36.045238 63.798351 -14.894284 4294967295
36.048359 64.924194 -15.009829 4294967295
36.055428 66.693886 -15.182711 4294967295
36.065407 66.858147 -15.161205 4294967295
36.066956 65.894791 -15.045358 4294967295
36.067986 67.983505 -15.278825 4294967295
36.073608 65.575821 -14.982268 4294967295
36.078564 68.148056 -15.25494 4294967295
36.08152 65.417938 -14.932434 4294967295
36.115475 63.121723 -15.203597 4294967295
36.115955 62.961269 -15.183404 4294967295
36.119186 67.681145 -15.038206 4294967295
36.126846 66.559082 -14.879697 4294967295
36.129837 67.363693 -14.959191 4294967295
36.135612 66.401535 -14.826469 4294967295
36.136509 67.044724 -14.896029 4294967295
36.144321 67.529716 -14.919724 4294967295
36.171562 65.229225 -15.217652 4294967295
36.180897 63.304642 -14.961168 4294967295
36.182739 65.072533 -15.154859 4294967295
36.185871 64.59169 -15.087568 4294967295
36.186783 63.467331 -14.955996 4294967295
36.188965 64.271446 -15.038682 4294967295
36.191593 65.718224 -15.192675 4294967295
36.198921 63.953545 -14.962459 4294967295
36.203316 66.204323 -15.200796 4294967295
36.209045 66.527657 -15.214509 4294967295
36.21093 64.439758 -14.969451 4294967295
36.22002 62.835804 -14.750408 4294967295
36.224514 64.123085 -14.878762 4294967295
36.229805 65.892509 -15.058737 4294967295
36.23304 67.982101 -15.283367 4294967295
36.23473 68.143349 -15.294891 4294967295
36.234917 65.572975 -15.001825 4294967295
36.238373 67.823441 -15.243861 4294967295
36.24337 63.808151 -14.767076 4294967295
36.248531 67.345245 -15.148611 4294967295
36.255157 67.026344 -15.085686 4294967295
36.278603 64.945557 -14.75468 4294967295
36.290173 66.074799 -14.836569 4294967295
36.293427 63.28516 -15.174788 4294967295
36.294228 63.767315 -15.226401 4294967295
36.299839 63.929871 -15.222326 4294967295
36.301071 67.525208 -14.957661 4294967295
36.304211 67.687065 -14.963438 4294967295
36.312725 63.452381 -15.116237 4294967295
36.312866 62.649139 -15.024319 4294967295
36.319729 62.812122 -15.015267 4294967295
36.334801 65.387711 -15.247577 4294967295
36.346367 65.713074 -15.238069 4294967295
36.354359 66.037186 -15.242799 4294967295
36.360836 64.75428 -15.070902 4294967295
36.36702 66.684265 -15.265471 4294967295
36.370064 63.150543 -14.85144 4294967295
36.371586 64.597359 -15.009842 4294967295
36.373138 66.204552 -15.186342 4294967295
36.381012 64.118546 -14.917514 4294967295
36.393616 63.640739 -14.812513 4294967295
36.402439 64.447395 -14.868786 4294967295
36.405602 65.091354 -14.929296 4294967295
36.408344 67.502541 -15.192398 4294967295
36.41214 67.825241 -15.213825 4294967295
36.426567 66.866508 -15.046841 4294967295
36.427853 64.295486 -14.749364 4294967295
36.444527 67.194435 -15.011928 4294967295
36.445438 67.998215 -15.099631 4294967295
36.453712 66.554924 -14.902316 4294967295
36.455807 66.394958 -14.875712 4294967295
36.465805 65.916321 -14.781106 4294967295
36.473969 63.770798 -15.17236 4294967295
36.478966 64.093803 -15.189006 4294967295
36.479206 67.046356 -14.855708 4294967295
36.484676 62.649796 -15.001914 4294967295
36.486778 63.293205 -15.066627 4294967295
36.488483 67.371223 -14.855348 4294967295
36.499191 62.976059 -14.980731 4294967295
36.501896 63.941051 -15.079579 4294967295
36.504181 64.423836 -15.125276 4294967295
36.504482 65.227203 -15.215379 4294967295
36.505768 64.263725 -15.100703 4294967295
36.511547 62.498116 -14.876777 4294967295
36.521187 63.144203 -14.911535 4294967295
36.521896 62.823021 -14.872171 4294967295
36.537292 63.631821 -14.902301 4294967295
36.544964 66.205498 -15.164028 4294967295
36.551765 65.083168 -15.009167 4294967295
36.55191 65.404602 -15.045106 4294967295
36.567234 65.892113 -15.038986 4294967295
36.570633 66.857422 -15.135049 4294967295
36.57373 66.697868 -15.104486 4294967295
36.584496 67.987167 -15.207759 4294967295
36.593304 67.187027 -15.081476 4294967295
36.607777 67.031601 -15.005703 4294967295
36.622192 67.679703 -15.021461 4294967295
36.622906 65.751205 -14.799446 4294967295
36.625938 66.556015 -14.878732 4294967295
36.62727 67.360138 -14.964775 4294967295
36.643337 62.806705 -15.050139 4294967295
36.648994 64.41526 -15.210237 4294967295
36.649632 66.08226 -14.729763 4294967295
36.662769 63.938042 -15.100755 4294967295
36.67194 63.298439 -14.991302 4294967295
36.681187 65.390442 -15.191925 4294967295
36.68256 63.623455 -14.985635 4294967295
36.683811 64.105972 -15.035452 4294967295
36.688492 67.864853 -14.776298 4294967295
36.692497 64.591042 -15.055718 4294967295
36.696075 63.788788 -14.95021 4294967295
36.701981 62.987186 -14.83543 4294967295
36.719112 66.689285 -15.187365 4294967295
36.721428 66.208099 -15.123413 4294967295
36.737556 65.57106 -14.986344 4294967295
36.738346 66.535545 -15.092745 4294967295
36.743637 62.679699 -14.633394 4294967295
36.744507 64.287651 -14.81264 4294967295
36.746655 67.984673 -15.224043 4294967295
36.752457 63.486576 -14.689721 4294967295
36.755871 65.738266 -14.931886 4294967295
36.784069 66.873474 -14.947752 4294967295
36.78487 67.355942 -14.999333 4294967295
36.791409 65.268585 -14.735973 4294967295
36.798698 66.39653 -14.834886 4294967295
36.804474 67.041618 -14.884995 4294967295
36.805141 67.684814 -14.955386 4294967295
36.813885 63.449669 -15.105926 4294967295
36.82848 65.92485 -14.661854 4294967295
36.828758 62.972641 -14.992142 4294967295
36.841187 67.215736 -14.757524 4294967295
36.850903 63.783691 -14.995546 4294967295
36.866905 65.235527 -15.096334 4294967295
36.869373 64.432884 -14.995281 4294967295
36.891117 63.154446 -14.762934 4294967295
36.895893 64.602814 -14.908335 4294967295
36.897026 64.281731 -14.867315 4294967295
36.897156 66.69249 -15.140594 4294967295
36.904022 65.409302 -14.967359 4294967295
36.912807 63.644119 -14.731657 4294967295
36.919647 62.681709 -14.594924 4294967295
36.92284 62.521973 -14.563985 4294967295
36.944801 67.191872 -15.006406 4294967295
36.946476 66.228058 -14.890248 4294967295
36.950558 64.7826 -14.709728 4294967295
36.954052 67.998863 -15.060979 4294967295
36.958054 64.946007 -14.698247 4294967295
36.963882 66.39505 -14.83947 4294967295
36.964523 65.912979 -14.782146 4294967295
36.973446 63.12484 -15.095832 4294967295
36.981392 63.609589 -15.119078 4294967295
36.98465 67.688652 -14.903154 4294967295
36.986542 66.081604 -14.713085 4294967295
36.996407 65.763512 -14.637429 4294967295
37.021786 67.541481 -14.737652 4294967295
37.024105 67.863922 -14.764967 4294967295
37.035297 62.984997 -14.832399 4294967295
37.036209 64.110481 -14.956555 4294967295
37.037941 64.432526 -14.986191 4294967295
37.039345 65.075874 -15.053612 4294967295
37.047237 66.364243 -15.168289 4294967295
37.049248 65.882881 -15.105595 4294967295
37.051052 62.507988 -14.715161 4294967295
37.053642 64.277222 -14.905714 4294967295
37.068943 65.568436 -14.991072 4294967295
37.073544 63.319462 -14.717288 4294967295
37.07679 63.963676 -14.777454 4294967295
37.080597 63.804207 -14.744103 4294967295
37.087925 65.253639 -14.879359 4294967295
37.090775 64.933128 -14.831553 4294967295
37.096066 62.683846 -14.554972 4294967295
37.102028 67.669693 -15.097183 4294967295
37.104824 66.70636 -14.976643 4294967295
37.111843 67.030373 -14.985324 4294967295
37.114658 64.780678 -14.718651 4294967295
37.121853 66.551743 -14.890926 4294967295
37.125565 66.231544 -14.83973 4294967295
37.140572 67.362312 -14.908027 4294967295
37.141743 63.124321 -15.087657 4294967295
37.143433 63.446278 -15.11745 4294967295
37.169716 63.615921 -15.03162 4294967295
37.181351 66.89476 -14.691732 4294967295
37.185314 67.539429 -14.749035 4294967295
37.209988 65.558418 -15.09109 4294967295
37.211212 64.755249 -14.995031 4294967295
37.211227 64.112312 -14.922002 4294967295
37.211456 63.951645 -14.902839 4294967295
37.231697 62.672321 -14.676685 4294967295
37.23394 62.994663 -14.704306 4294967295
37.237198 65.246544 -14.946893 4294967295
37.245689 64.928009 -14.876786 4294967295
37.258694 66.700829 -15.025994 4294967295
37.261345 66.058807 -14.94253 4294967295
37.262405 63.808308 -14.682866 4294967295
37.262615 65.737755 -14.901022 4294967295
37.265167 65.41713 -14.854421 4294967295
37.265533 64.452576 -14.743488 4294967295
37.281174 66.226639 -14.882297 4294967295
37.284412 67.835312 -15.051889 4294967295
37.295795 66.553413 -14.860923 4294967295
37.325668 63.932629 -15.10893 4294967295
37.335228 62.489338 -14.906972 4294967295
37.337631 64.418854 -15.116324 4294967295
37.339294 65.925728 -14.615765 4294967295
37.340889 67.695251 -14.810184 4294967295
37.341766 63.134499 -14.954062 4294967295
37.350609 66.894745 -14.680493 4294967295
37.358093 62.818489 -14.852989 4294967295
37.361263 64.90918 -15.077572 4294967295
37.365944 67.54361 -14.692806 4294967295
37.36792 62.982552 -14.832371 4294967295
37.382076 63.308872 -14.81285 4294967295
37.382904 62.666016 -14.736602 4294967295
37.383251 64.59536 -14.95414 4294967295
37.383595 65.077698 -15.0075 4294967295
37.389042 64.758118 -14.949474 4294967295
37.395927 63.635128 -14.794549 4294967295
37.401615 64.280182 -14.845024 4294967295
37.401711 64.119438 -14.826411 4294967295
37.40567 65.728424 -14.993148 4294967295
37.405994 63.799343 -14.772977 4294967295
37.412216 65.891487 -14.985496 4294967295
37.42828 65.414871 -14.867275 4294967295
37.433666 67.828041 -15.119498 4294967295
37.440342 66.383766 -14.929003 4294967295
37.441441 65.258713 -14.796986 4294967295
37.448818 65.582886 -14.804295 4294967295
37.454468 66.067253 -14.83668 4294967295
37.462662 66.874092 -14.89548 4294967295
37.473797 67.038895 -14.8697 4294967295
37.488659 62.805279 -14.994308 4294967295
37.498299 63.129986 -14.992682 4294967295
37.498718 66.72628 -14.734705 4294967295
37.517849 62.975819 -14.897177 4294967295
37.524498 64.424797 -15.035013 4294967295
37.524532 66.253021 -14.577919 4294967295
37.524788 66.574814 -14.613408 4294967295
37.535603 62.499432 -14.772302 4294967295
37.538925 63.786755 -14.905085 4294967295
37.544094 67.225174 -14.610065 4294967295
37.546165 67.708466 -14.656606 4294967295
37.550747 64.755371 -14.967778 4294967295
37.551567 65.398636 -15.037467 4294967295
37.553852 65.720909 -15.064895 4294967295
37.554092 63.470367 -14.808674 4294967295
37.555626 63.631668 -14.820862 4294967295
37.571251 66.530769 -15.08732 4294967295
37.584866 66.053391 -14.978864 4294967295
37.595879 67.825531 -15.135866 4294967295
37.598335 64.611084 -14.761536 4294967295
37.602749 62.68264 -14.525187 4294967295
37.604073 64.291443 -14.702393 4294967295
37.607368 67.508255 -15.054044 4294967295
37.638672 65.268394 -14.675155 4294967295
37.641975 65.591209 -14.698589 4294967295
37.645786 66.235847 -14.756489 4294967295
37.650562 67.363197 -14.865268 4294967295
37.651947 64.951347 -14.586227 4294967295
37.652885 65.112526 -14.600774 4294967295
37.673977 67.693336 -14.809278 4294967295
37.676128 62.971889 -14.928965 4294967295
37.680012 67.213074 -14.730739 4294967295
37.680695 62.65189 -14.87447 4294967295
37.701012 66.738121 -14.593104 4294967295
37.701786 67.060112 -14.626527 4294967295
37.707726 64.268707 -14.950079 4294967295
37.711208 63.948368 -14.899876 4294967295
37.718948 63.468655 -14.814625 4294967295
37.719013 63.790253 -14.850832 4294967295
37.727631 64.597107 -14.907982 4294967295
37.733166 64.920578 -14.922585 4294967295
37.736244 64.117722 -14.819288 4294967295
37.740002 65.726807 -14.986745 4294967295
37.745121 62.834213 -14.638376 4294967295
37.746468 65.246765 -14.906548 4294967295
37.750263 63.318432 -14.672787 4294967295
37.752556 65.570457 -14.918982 4294967295
37.757233 66.054436 -14.95521 4294967295
37.765903 64.449524 -14.738698 4294967295
37.768696 67.666153 -15.092208 4294967295
37.777184 64.775063 -14.730646 4294967295
37.778412 63.167076 -14.543431 4294967295
37.786991 66.386597 -14.874259 4294967295
37.802402 65.105492 -14.667596 4294967295
37.807709 67.35881 -14.90189 4294967295
37.818802 65.915451 -14.694066 4294967295
37.820255 67.20256 -14.834164 4294967295
37.831726 62.645546 -14.934864 4294967295
37.837204 66.243668 -14.657925 4294967295
37.848976 67.534622 -14.75734 4294967295
37.860298 62.976643 -14.858644 4294967295
37.860943 66.573853 -14.60074 4294967295
37.868408 62.818565 -14.808438 4294967295
37.86961 66.737823 -14.584787 4294967295
37.886066 66.904617 -14.538099 4294967295
37.886078 62.502831 -14.702296 4294967295
37.892288 63.308998 -14.768953 4294967295
37.895588 65.078842 -14.956417 4294967295
37.899799 64.437172 -14.866916 4294967295
37.909649 63.797321 -14.755177 4294967295
37.924034 64.284698 -14.753148 4294967295
37.929962 64.769196 -14.784453 4294967295
37.934223 67.504082 -15.077415 4294967295
37.939053 65.254799 -14.803308 4294967295
37.939156 63.485657 -14.602381 4294967295
37.942158 63.164951 -14.554071 4294967295
37.944 66.542969 -14.929579 4294967295
37.945469 66.221901 -14.887353 4294967295
37.948864 66.866287 -14.946858 4294967295
37.949383 66.384094 -14.890141 4294967295
37.950417 63.650333 -14.5762 4294967295
37.967751 64.621429 -14.61725 4294967295
37.969444 65.426262 -14.701735 4294967295
37.978374 64.946823 -14.611844 4294967295
37.984921 67.20089 -14.841209 4294967295
37.994255 65.917542 -14.658621 4294967295
38.00193 67.689522 -14.828844 4294967295
38.003307 67.36837 -14.786982 4294967295
38.022392 62.652397 -14.839052 4294967295
38.023808 66.732368 -14.633293 4294967295
38.040573 67.060135 -14.603675 4294967295
38.048908 64.10849 -14.898582 4294967295
38.065372 64.43573 -14.870173 4294967295
38.07658 62.831284 -14.643804 4294967295
38.081135 66.049126 -14.990271 4294967295
38.089062 64.604698 -14.795104 4294967295
38.089874 65.248238 -14.864783 4294967295
38.090157 63.318386 -14.645004 4294967295
38.093777 66.857521 -15.031552 4294967295
38.094933 64.767548 -14.790206 4294967295
38.096291 62.516121 -14.529697 4294967295
38.097584 63.803448 -14.67043 4294967295
38.10041 63.643555 -14.64107 4294967295
38.107929 63.485241 -14.593226 4294967295
38.107979 63.163521 -14.556564 4294967295
38.110706 66.38121 -14.910271 4294967295
38.112133 65.899292 -14.850012 4294967295
38.117527 65.579552 -14.792323 4294967295
38.121376 66.224197 -14.850045 4294967295
38.122601 64.294556 -14.626566 4294967295
38.131771 65.102005 -14.681582 4294967295
38.138538 66.551949 -14.818913 4294967295
38.139008 65.426239 -14.68953 4294967295
38.157272 65.754364 -14.654058 4294967295
38.159225 66.720184 -14.755698 4294967295
38.161102 67.52504 -14.839387 4294967295
38.165073 67.204811 -14.787332 4294967295
38.186531 67.051697 -14.684644 4294967295
38.188854 63.615952 -14.948031 4294967295
38.228378 62.825169 -14.701427 4294967295
38.230339 67.711075 -14.585096 4294967295
38.231194 62.98695 -14.708568 4294967295
38.234398 64.917885 -14.914541 4294967295
38.235668 62.666748 -14.654514 4294967295
38.240143 67.39283 -14.510057 4294967295
38.243664 63.795341 -14.750597 4294967295
38.249004 65.726974 -14.948144 4294967295
38.250446 64.601807 -14.814981 4294967295
38.256443 62.512779 -14.554534 4294967295
38.268894 66.055595 -14.906332 4294967295
38.277695 63.324272 -14.562028 4294967295
38.279587 66.863434 -14.955325 4294967295
38.288403 66.544968 -14.884238 4294967295
38.28933 65.097778 -14.716674 4294967295
38.291519 63.972473 -14.580515 4294967295
38.292942 65.420738 -14.738897 4294967295
38.311722 66.714127 -14.81074 4294967295
38.312096 67.357582 -14.882115 4294967295
38.321381 65.9133 -14.681687 4294967295
38.325333 64.305809 -14.483928 4294967295
38.333782 65.595909 -14.596462 4294967295
38.345886 66.243713 -14.621732 4294967295
38.357723 67.534958 -14.720904 4294967295
38.366688 63.457817 -14.88487 4294967295
38.366852 67.699142 -14.70323 4294967295
38.390755 63.305099 -14.772046 4294967295
38.392586 67.064888 -14.529176 4294967295
38.395977 64.754265 -14.915404 4294967295
38.410755 65.724236 -14.966555 4294967295
38.424305 65.085709 -14.840495 4294967295
38.425491 65.890228 -14.926858 4294967295
38.428745 63.156998 -14.604491 4294967295
38.430851 62.835938 -14.559786 4294967295
38.434166 66.53653 -14.965591 4294967295
38.443306 63.96629 -14.638349 4294967295
38.444733 65.253654 -14.778427 4294967295
38.444744 64.127647 -14.650902 4294967295
38.45594 67.348381 -14.971066 4294967295
38.457642 64.936424 -14.691276 4294967295
38.460354 63.650299 -14.534905 4294967295
38.463779 66.06456 -14.794632 4294967295
38.464352 64.616997 -14.628479 4294967295
38.466202 66.226265 -14.803315 4294967295
38.476845 64.299507 -14.54295 4294967295
38.496971 66.880646 -14.755267 4294967295
38.505344 64.470184 -14.449168 4294967295
38.50732 66.72348 -14.696402 4294967295
38.522907 62.649109 -14.833909 4294967295
38.532173 67.536819 -14.689833 4294967295
38.532619 67.054314 -14.633444 4294967295
38.53899 66.412971 -14.535571 4294967295
38.556858 62.499512 -14.682367 4294967295
38.566628 63.307053 -14.735044 4294967295
38.571518 64.434608 -14.843284 4294967295
38.588394 63.153488 -14.631366 4294967295
38.590191 63.636711 -14.67894 4294967295
38.599773 64.122566 -14.69594 4294967295
38.600208 65.08786 -14.803461 4294967295
38.604076 64.928352 -14.770073 4294967295
38.609383 64.769325 -14.731031 4294967295
38.61058 66.217361 -14.890156 4294967295
38.616421 64.289124 -14.648781 4294967295
38.622021 66.703926 -14.89985 4294967295
38.634224 65.582283 -14.724548 4294967295
38.635162 64.617325 -14.611618 4294967295
38.644142 63.815861 -14.485308 4294967295
38.650627 63.013378 -14.368759 4294967295
38.652504 66.875664 -14.798417 4294967295
38.666992 67.202591 -14.777968 4294967295
38.669197 66.399002 -14.678308 4294967295
38.669716 65.4338 -14.567021 4294967295
38.675968 66.562294 -14.66993 4294967295
38.677681 65.7584 -14.57217 4294967295
38.680386 67.368294 -14.743619 4294967295
38.694717 67.534355 -14.705578 4294967295
38.700108 62.812275 -14.809879 4294967295
38.717628 66.094315 -14.451812 4294967295
38.746826 63.14957 -14.663002 4294967295
38.749622 65.241646 -14.888637 4294967295
38.752651 65.081863 -14.858562 4294967295
38.778721 63.964745 -14.628921 4294967295
38.784286 64.44931 -14.661706 4294967295
38.786945 65.737221 -14.796866 4294967295
38.79007 66.54258 -14.875595 4294967295
38.800922 64.937698 -14.65106 4294967295
38.801712 64.294373 -14.57516 4294967295
38.806648 62.686745 -14.373701 4294967295
38.807507 64.618172 -14.588842 4294967295
38.829201 63.499035 -14.376296 4294967295
38.835453 66.397827 -14.679472 4294967295
38.836082 65.915352 -14.6224 4294967295
38.847645 66.241241 -14.613475 4294967295
38.847679 65.436661 -14.522318 4294967295
38.849972 65.598389 -14.531541 4294967295
38.8535 64.794922 -14.426671 4294967295
38.860771 67.533157 -14.707618 4294967295
38.863533 66.08593 -14.532982 4294967295
38.873802 67.05513 -14.601937 4294967295
38.884861 62.817116 -14.738194 4294967295
38.889275 67.221611 -14.559486 4294967295
38.902695 62.501263 -14.631898 4294967295
38.919147 62.667599 -14.585619 4294967295
38.920616 64.598679 -14.798235 4294967295
38.92672 65.56591 -14.883457 4294967295
38.92691 65.244278 -14.846335 4294967295
38.927013 65.405167 -14.86412 4294967295
38.935749 65.086487 -14.793528 4294967295
38.936176 63.638695 -14.628093 4294967295
38.948391 64.125526 -14.634827 4294967295
38.950676 63.804493 -14.589477 4294967295
38.957706 64.289604 -14.616527 4294967295
38.96376 63.326134 -14.483593 4294967295
38.972008 65.742615 -14.724266 4294967295
38.982502 63.171459 -14.39196 4294967295
38.991955 64.462227 -14.500549 4294967295
38.993332 65.910988 -14.658934 4294967295
38.997524 66.556068 -14.715292 4294967295
39.006908 63.501568 -14.332722 4294967295
39.007355 66.720459 -14.69498 4294967295
39.008965 67.364616 -14.761446 4294967295
39.010723 64.79055 -14.463421 4294967295
39.017952 63.988216 -14.34408 4294967295
39.0191 66.402809 -14.612597 4294967295
39.03056 66.889648 -14.622305 4294967295
39.031055 64.958511 -14.40197 4294967295
39.042309 67.537544 -14.649069 4294967295
39.055447 66.25473 -14.452043 4294967295
39.066223 67.063347 -14.500835 4294967295
39.070499 67.22583 -14.502294 4294967295
39.107426 64.604485 -14.718803 4294967295
39.121254 63.000008 -14.482752 4294967295
39.124969 65.414993 -14.741096 4294967295
39.125515 62.518578 -14.411462 4294967295
39.127449 66.059387 -14.804143 4294967295
39.134354 64.130951 -14.558839 4294967295
39.138145 63.327534 -14.45302 4294967295
39.149284 63.814129 -14.464013 4294967295
39.150726 65.102112 -14.603933 4294967295
39.151611 66.550575 -14.764165 4294967295
39.156036 66.873932 -14.783226 4294967295
39.156128 63.655483 -14.419027 4294967295
39.156841 63.172821 -14.361636 4294967295
39.180721 64.790573 -14.450161 4294967295
39.182728 62.698448 -14.205683 4294967295
39.204342 66.730232 -14.576066 4294967295
39.206944 65.282532 -14.402129 4294967295
39.20734 64.477745 -14.309586 4294967295
39.210972 67.054474 -14.586507 4294967295
39.21339 65.60672 -14.413308 4294967295
39.220016 67.218658 -14.569316 4294967295
39.221653 66.414467 -14.471949 4294967295
39.231892 66.257118 -14.413693 4294967295
39.234974 65.775238 -14.347048 4294967295
39.247772 67.389587 -14.478931 4294967295
39.283707 63.158348 -14.517096 4294967295
39.290485 64.126228 -14.599722 4294967295
39.291878 63.482964 -14.521524 4294967295
39.298389 62.841324 -14.42329 4294967295
39.311539 65.42083 -14.662898 4294967295
39.317581 64.779205 -14.566544 4294967295
39.317696 64.296417 -14.511518 4294967295
39.340675 64.626175 -14.458059 4294967295
39.345425 63.339924 -14.293934 4294967295
39.350063 62.536411 -14.184798 4294967295
39.353001 66.079041 -14.573579 4294967295
39.360825 65.75988 -14.506623 4294967295
39.361923 67.047829 -14.647812 4294967295
39.364986 65.278427 -14.435793 4294967295
39.368622 66.56739 -14.567082 4294967295
39.373341 64.959343 -14.36675 4294967295
39.373928 63.993538 -14.255272 4294967295
39.424046 64.113853 -14.72873 4294967295
39.434692 67.395844 -14.399824 4294967295
39.435879 66.913261 -14.340618 4294967295
39.449703 62.674068 -14.464862 4294967295
39.456406 64.929443 -14.69325 4294967295
39.460148 65.413475 -14.733159 4294967295
39.467861 64.28965 -14.575779 4294967295
39.468685 63.96804 -14.536197 4294967295
39.481468 65.742722 -14.68627 4294967295
39.490856 62.526649 -14.285881 4294967295
39.49229 63.01012 -14.334863 4294967295
39.503464 63.49683 -14.345784 4294967295
39.509914 65.108826 -14.50246 4294967295
39.51128 63.821445 -14.351638 4294967295
39.513653 63.661247 -14.324178 4294967295
39.516331 66.8815 -14.677396 4294967295
39.521641 63.180885 -14.238394 4294967295
39.530773 62.861862 -14.166327 4294967295
39.544571 64.476753 -14.294367 4294967295
39.547112 66.731499 -14.539046 4294967295
39.553928 64.640968 -14.276009 4294967295
39.555756 65.607658 -14.378015 4294967295
39.558796 66.091705 -14.420692 4294967295
39.560345 67.058144 -14.523744 4294967295
39.574364 66.419182 -14.396287 4294967295
39.581135 65.294434 -14.242526 4294967295
39.582634 67.227097 -14.454923 4294967295
39.58345 62.661991 -14.593128 4294967295
39.59676 66.26606 -14.290658 4294967295
39.616962 63.155926 -14.516877 4294967295
39.634228 65.254028 -14.685802 4294967295
39.639431 63.485352 -14.465553 4294967295
39.642773 65.900696 -14.725171 4294967295
39.647202 64.936623 -14.59885 4294967295
39.652885 63.006882 -14.358505 4294967295
39.653282 63.328999 -14.393325 4294967295
39.654587 62.524433 -14.297308 4294967295
39.663097 64.13723 -14.44594 4294967295
39.667477 63.977722 -14.410664 4294967295
39.670574 66.715118 -14.707585 4294967295
39.67804 64.464272 -14.424007 4294967295
39.679909 63.659912 -14.325786 4294967295
39.69194 63.824966 -14.297036 4294967295
39.691978 67.366486 -14.696794 4294967295
39.693542 66.562309 -14.599831 4294967295
39.693737 64.791626 -14.399126 4294967295
39.696011 64.309387 -14.335695 4294967295
39.708355 66.084618 -14.487537 4294967295
39.718334 64.63903 -14.28498 4294967295
39.720398 65.122803 -14.331478 4294967295
39.721107 66.250084 -14.455969 4294967295
39.722313 65.606499 -14.378552 4294967295
39.738464 67.061188 -14.479175 4294967295
39.739273 66.900482 -14.45784 4294967295
39.742001 63.140884 -14.679003 4294967295
39.746887 62.820644 -14.623613 4294967295
39.763027 65.781708 -14.237917 4294967295
39.778419 67.236473 -14.341537 4294967295
39.801464 62.677677 -14.392654 4294967295
39.819122 63.971474 -14.469228 4294967295
39.823135 64.616745 -14.526279 4294967295
39.827709 65.745049 -14.635658 4294967295
39.83654 64.138344 -14.419511 4294967295
39.84182 63.013031 -14.271687 4294967295
39.842152 64.301247 -14.415814 4294967295
39.853886 64.466232 -14.388261 4294967295
39.855915 64.949936 -14.434875 4294967295
39.861324 63.502617 -14.250191 4294967295
39.867455 66.241852 -14.535301 4294967295
39.869442 63.827412 -14.25491 4294967295
39.874355 65.27829 -14.399364 4294967295
39.877026 63.346813 -14.170806 4294967295
39.877686 64.796387 -14.331867 4294967295
39.889462 66.410583 -14.467732 4294967295
39.890614 65.122879 -14.317839 4294967295
39.897625 65.930428 -14.381397 4294967295
39.903065 67.22039 -14.505584 4294967295
39.903988 66.093674 -14.374784 4294967295
39.91396 66.902267 -14.426796 4294967295
39.923416 62.661728 -14.566788 4294967295
39.971127 64.287292 -14.562666 4294967295
39.971588 63.643543 -14.488209 4294967295
39.973099 63.322071 -14.445982 4294967295
39.973396 64.931915 -14.6265 4294967295
39.981266 65.900337 -14.704832 4294967295
39.986465 64.614456 -14.539287 4294967295
39.989677 63.488598 -14.399593 4294967295
40.008614 65.587936 -14.562054 4294967295
40.012913 64.140442 -14.381798 4294967295
40.014256 66.716682 -14.667241 4294967295
40.02771 66.882416 -14.633036 4294967295
40.039124 65.759529 -14.461459 4294967295
40.054249 66.086823 -14.438913 4294967295
40.061039 63.995644 -14.176233 4294967295
40.062016 65.284393 -14.317842 4294967295
40.06686 67.218315 -14.517 4294967295
40.084877 64.486931 -14.137954 4294967295
40.090347 65.455231 -14.225718 4294967295
40.094921 65.134674 -14.171561 4294967295
40.110481 63.472084 -14.578109 4294967295
40.118103 63.79657 -14.584778 4294967295
40.1203 66.271011 -14.200004 4294967295
40.128792 66.596153 -14.203298 4294967295
40.129032 67.079445 -14.256889 4294967295
40.129333 62.995392 -14.450283 4294967295
40.13422 62.513985 -14.376767 4294967295
40.141903 64.931412 -14.619337 4294967295
40.145302 65.093544 -14.624271 4294967295
40.152039 62.841877 -14.343774 4294967295
40.154411 65.57959 -14.64332 4294967295
40.160599 62.683666 -14.292305 4294967295
40.164604 63.329113 -14.349403 4294967295
40.168251 65.745361 -14.607666 4294967295
40.184185 64.140808 -14.364071 4294967295
40.184212 63.657719 -14.309457 4294967295
40.184757 65.429108 -14.507154 4294967295
40.184914 63.980022 -14.343068 4294967295
40.186794 66.556725 -14.626341 4294967295
40.205662 66.724373 -14.571143 4294967295
40.207649 64.792908 -14.345469 4294967295
40.208183 67.047241 -14.597667 4294967295
40.208313 66.081306 -14.488199 4294967295
40.226208 65.926537 -14.400455 4294967295
40.229275 64.639229 -14.243194 4294967295
40.236389 65.285896 -14.288211 4294967295
40.244347 66.254944 -14.366255 4294967295
40.252884 62.979919 -14.617919 4294967295
40.259914 66.904602 -14.378386 4294967295
40.278469 63.471317 -14.572958 4294967295
40.28204 63.79446 -14.595403 4294967295
40.299313 62.512207 -14.382998 4294967295
40.300209 67.241043 -14.25807 4294967295
40.323257 63.969296 -14.453388 4294967295
40.329475 63.166252 -14.338413 4294967295
40.335934 62.685246 -14.258832 4294967295
40.342514 63.653702 -14.34224 4294967295
40.356659 64.141571 -14.341768 4294967295
40.357155 64.463814 -14.37616 4294967295
40.363224 66.076096 -14.534158 4294967295
40.384777 65.922592 -14.432274 4294967295
40.385742 65.117729 -14.337735 4294967295
40.398708 65.283241 -14.305531 4294967295
40.40303 64.318291 -14.179738 4294967295
40.405815 64.641403 -14.205265 4294967295
40.409172 66.41423 -14.39199 4294967295
40.412121 65.448929 -14.271579 4294967295
40.415207 65.772125 -14.29592 4294967295
40.417686 66.739319 -14.395243 4294967295
40.419319 66.256744 -14.334433 4294967295
40.422024 64.808006 -14.160454 4294967295
40.452847 67.073891 -14.29501 4294967295
40.458031 63.957378 -14.577406 4294967295
40.460762 66.593445 -14.209785 4294967295
40.467262 63.316463 -14.468955 4294967295
40.472683 66.919846 -14.199812 4294967295
40.4744 67.242638 -14.229463 4294967295
40.487011 64.611153 -14.537515 4294967295
40.488846 63.484657 -14.403331 4294967295
40.490776 63.807358 -14.432136 4294967295
40.502377 62.844959 -14.278162 4294967295
40.52504 62.691334 -14.172012 4294967295
40.538246 62.534565 -14.102569 4294967295
40.544018 64.952637 -14.352571 4294967295
40.558212 65.440674 -14.351954 4294967295
40.570595 64.800644 -14.23127 4294967295
40.57061 66.089188 -14.376454 4294967295
40.571735 65.928528 -14.35394 4294967295
40.573753 66.734482 -14.436872 4294967295
40.57436 65.768379 -14.325595 4294967295
40.576057 65.285751 -14.264538 4294967295
40.578659 64.320107 -14.14548 4294967295
40.579823 65.6092 -14.286239 4294967295
40.595333 64.486855 -14.098921 4294967295
40.602104 62.499691 -14.501863 4294967295
40.615002 66.26577 -14.222356 4294967295
40.617889 63.631912 -14.567658 4294967295
40.631672 67.07711 -14.248462 4294967295
40.633442 66.433334 -14.168967 4294967295
40.645931 66.921059 -14.17499 4294967295
40.659531 63.323719 -14.369878 4294967295
40.661003 63.002106 -14.327864 4294967295
40.661533 63.163334 -14.343959 4294967295
40.663441 63.486061 -14.372866 4294967295
40.675495 62.84581 -14.253504 4294967295
40.682938 65.908112 -14.569473 4294967295
40.685711 63.976654 -14.340962 4294967295
40.699741 62.69268 -14.14131 4294967295
40.706356 64.144661 -14.279058 4294967295
40.725101 66.727982 -14.496761 4294967295
40.726337 65.440018 -14.346795 4294967295
40.737549 64.477356 -14.194417 4294967295
40.738235 66.249451 -14.39142 4294967295
40.763485 66.419357 -14.311687 4294967295
40.764462 64.808708 -14.126374 4294967295
40.776817 66.907295 -14.314461 4294967295
40.782597 65.781631 -14.165001 4294967295
40.823299 62.838345 -14.327037 4294967295
40.849541 62.685867 -14.207206 4294967295
40.852581 63.814434 -14.322473 4294967295
40.855389 63.171055 -14.239012 4294967295
40.857761 63.010746 -14.211669 4294967295
40.857998 65.426804 -14.482935 4294967295
40.864475 63.657326 -14.258248 4294967295
40.864918 65.107086 -14.419843 4294967295
40.865173 64.301872 -14.328136 4294967295
40.872395 64.948586 -14.372745 4294967295
40.879997 65.917542 -14.45216 4294967295
40.888557 65.759453 -14.400874 4294967295
40.889072 64.632111 -14.271865 4294967295
40.890759 65.599144 -14.374207 4294967295
40.896275 63.990147 -14.171371 4294967295
40.902977 66.24765 -14.399453 4294967295
40.90337 64.475853 -14.198325 4294967295
40.907452 63.349384 -14.055454 4294967295
40.917107 66.413666 -14.362883 4294967295
40.917263 64.15831 -14.108217 4294967295
40.923008 66.737885 -14.376328 4294967295
40.929249 67.062233 -14.388439 4294967295
40.948387 66.585716 -14.259906 4294967295
40.95042 64.814064 -14.052389 4294967295
40.976757 62.993793 -14.396733 4294967295
40.976921 62.67173 -14.359828 4294967295
40.983021 62.512657 -14.31807 4294967295
40.98457 64.123695 -14.493476 4294967295
40.997528 63.161694 -14.334493 4294967295
40.999737 63.967739 -14.416638 4294967295
41.012241 63.649784 -14.331966 4294967295
41.018845 63.813061 -14.324553 4294967295
41.026402 63.332314 -14.240882 4294967295
41.029922 65.588501 -14.481205 4294967295
41.043941 62.854763 -14.118563 4294967295
41.05098 64.790375 -14.309058 4294967295
41.065311 66.406075 -14.434989 4294967295
41.071953 65.119713 -14.264197 4294967295
41.077454 66.088158 -14.351753 4294967295
41.077915 63.510502 -14.059662 4294967295
41.083332 66.895607 -14.419698 4294967295
41.088444 65.769783 -14.272954 4294967295
41.097542 64.483925 -14.092599 4294967295
41.100826 64.968445 -14.134328 4294967295
41.106171 64.325691 -14.041063 4294967295
41.113922 65.456329 -14.138102 4294967295
41.123772 65.298569 -14.081856 4294967295
41.136715 66.269913 -14.140647 4294967295
41.137287 62.668388 -14.384639 4294967295
41.146534 63.154606 -14.403289 4294967295
41.156727 66.760353 -14.117677 4294967295
41.162933 67.084839 -14.129951 4294967295
41.178631 63.648445 -14.333593 4294967295
41.196735 63.493362 -14.245474 4294967295
41.197899 62.527058 -14.132128 4294967295
41.199062 63.333027 -14.218336 4294967295
41.203415 64.139984 -14.292202 4294967295
41.218925 64.306297 -14.250374 4294967295
41.223549 64.791176 -14.286911 4294967295
41.228127 65.598206 -14.359893 4294967295
41.242176 65.441948 -14.287457 4294967295
41.243427 64.47567 -14.1738 4294967295
41.24469 65.765015 -14.31401 4294967295
41.24509 62.864758 -13.985945 4294967295
41.247826 66.088295 -14.338166 4294967295
41.254383 64.640503 -14.149593 4294967295
41.267223 65.289413 -14.17252 4294967295
41.285007 65.134354 -14.085649 4294967295
41.294239 66.910088 -14.249492 4294967295
41.305569 62.989765 -14.415136 4294967295
41.314674 63.63702 -14.452488 4294967295
41.319221 62.833164 -14.344269 4294967295
41.323902 66.275894 -14.062317 4294967295
41.338837 63.483959 -14.341033 4294967295
41.33931 62.517525 -14.230422 4294967295
41.347324 62.681248 -14.217587 4294967295
41.348682 66.606903 -14.00285 4294967295
41.363152 66.77317 -13.965088 4294967295
41.370918 64.783417 -14.362185 4294967295
41.380116 63.175365 -14.145344 4294967295
41.390186 63.98436 -14.19713 4294967295
41.398811 64.631752 -14.236354 4294967295
41.40239 63.343853 -14.077454 4294967295
41.404873 63.828125 -14.122273 4294967295
41.416752 64.960091 -14.203345 4294967295
41.427193 66.252663 -14.308077 4294967295
41.429482 65.125565 -14.172326 4294967295
41.436607 64.483376 -14.07227 4294967295
41.441364 65.290764 -14.144584 4294967295
41.451126 66.422127 -14.233816 4294967295
41.464478 66.749069 -14.218535 4294967295
41.464886 62.825012 -14.425912 4294967295
41.481007 65.949051 -14.064077 4294967295
41.48716 65.628815 -14.004043 4294967295
41.496887 63.963085 -14.429311 4294967295
41.504452 62.67683 -14.255123 4294967295
41.507751 63.322338 -14.314899 4294967295
41.511951 64.45137 -14.425563 4294967295
41.515564 66.605812 -14.00322 4294967295
41.515606 63.647141 -14.320848 4294967295
41.52993 66.93325 -13.984038 4294967295
41.544567 64.301239 -14.281611 4294967295
41.562305 62.534512 -14.013743 4294967295
41.564465 63.018723 -14.059813 4294967295
41.572289 65.921799 -14.355934 4294967295
41.574692 64.794777 -14.219791 4294967295
41.588051 63.510002 -14.023218 4294967295
41.59174 64.639397 -14.135897 4294967295
41.601513 65.77076 -14.225107 4294967295
41.606895 65.128006 -14.131828 4294967295
41.609371 66.095757 -14.231052 4294967295
41.611084 66.579758 -14.278809 4294967295
41.615406 66.742401 -14.280271 4294967295
41.617279 65.615036 -14.146165 4294967295
41.621647 65.455376 -14.111189 4294967295
41.635185 66.427032 -14.167757 4294967295
41.644424 65.301987 -14.005216 4294967295
41.64769 62.506798 -14.328054 4294967295
41.670097 63.319637 -14.332285 4294967295
41.691799 66.285553 -13.931314 4294967295
41.706921 66.935715 -13.945538 4294967295
41.709858 63.493877 -14.197148 4294967295
41.710514 62.849503 -14.122127 4294967295
41.719971 62.691422 -14.067538 4294967295
41.723778 64.143066 -14.215998 4294967295
41.746857 64.634254 -14.181422 4294967295
41.749172 66.407509 -14.371821 4294967295
41.76255 64.800713 -14.139075 4294967295
41.773544 63.998516 -14.006084 4294967295
41.774708 65.127174 -14.128475 4294967295
41.783661 65.774902 -14.166482 4294967295
41.784115 64.485634 -14.019737 4294967295
41.785446 63.841278 -13.942084 4294967295
41.786785 64.325333 -13.991315 4294967295
41.795555 66.584824 -14.211263 4294967295
41.815826 62.505959 -14.323092 4294967295
41.836662 66.92157 -14.089165 4294967295
41.836933 62.996178 -14.296167 4294967295
41.838287 66.277344 -14.010407 4294967295
41.841991 65.472534 -13.905499 4294967295
41.845097 63.64333 -14.337198 4294967295
41.846176 65.635201 -13.907504 4294967295
41.848526 66.119682 -13.95283 4294967295
41.852631 65.959877 -13.918885 4294967295
41.884151 66.777008 -13.888115 4294967295
41.887287 65.429787 -14.37402 4294967295
41.888096 63.818722 -14.189759 4294967295
41.890289 64.141754 -14.217547 4294967295
41.894062 62.692505 -14.039939 4294967295
41.901646 63.984386 -14.155718 4294967295
41.910172 64.470718 -14.177249 4294967295
41.917313 65.762344 -14.294685 4294967295
41.918861 64.634811 -14.161913 4294967295
41.922234 65.119431 -14.203278 4294967295
41.925545 65.926315 -14.281116 4294967295
41.937977 62.868011 -13.888959 4294967295
41.944996 63.515194 -13.934438 4294967295
41.955025 64.969391 -14.058939 4294967295
41.967308 66.263084 -14.156617 4294967295
41.990948 65.304016 -13.956919 4294967295
41.991798 64.820625 -13.899272 4294967295
42.019329 62.677719 -14.200283 4294967295
42.020229 65.636497 -13.880464 4294967295
42.021065 62.839432 -14.211715 4294967295
42.02108 66.604195 -13.985929 4294967295
42.045525 63.330906 -14.171973 4294967295
42.058743 65.107956 -14.320359 4294967295
42.06459 66.78064 -13.836615 4294967295
42.067936 64.305313 -14.194459 4294967295
42.071751 62.533539 -13.980502 4294967295
42.081989 65.277016 -14.249075 4294967295
42.083427 66.083237 -14.334094 4294967295
42.083511 64.471703 -14.152667 4294967295
42.08424 64.633125 -14.167974 4294967295
42.096851 63.508991 -13.992662 4294967295
42.099945 63.832428 -14.017004 4294967295
42.118855 63.193775 -13.871796 4294967295
42.126438 65.453346 -14.096287 4294967295
42.13905 64.974022 -13.993449 4294967295
42.141758 64.813713 -13.964917 4294967295
42.14571 62.663315 -14.356078 4294967295
42.150826 65.94532 -14.056863 4294967295
42.152618 65.623512 -14.013735 4294967295
42.158176 66.270279 -14.064831 4294967295
42.158798 63.473175 -14.396288 4294967295
42.204151 66.769958 -13.942433 4294967295
42.221184 64.460716 -14.265225 4294967295
42.227844 64.301788 -14.221531 4294967295
42.232616 63.65868 -14.130763 4294967295
42.237873 65.433266 -14.309731 4294967295
42.245754 62.856995 -13.989718 4294967295
42.263489 64.152504 -14.066482 4294967295
42.264263 62.540543 -13.882365 4294967295
42.267372 66.571495 -14.323151 4294967295
42.268585 64.799004 -14.119337 4294967295
42.269634 64.960548 -14.133415 4294967295
42.273911 63.188633 -13.917763 4294967295
42.276447 65.124054 -14.125361 4294967295
42.277054 64.640656 -14.068702 4294967295
42.285778 66.094376 -14.19815 4294967295
42.286949 65.288818 -14.103128 4294967295
42.293739 63.840115 -13.91403 4294967295
42.29924 65.93782 -14.12835 4294967295
42.336983 62.669968 -14.262481 4294967295
42.337921 62.992569 -14.295081 4294967295
42.351788 66.762115 -14.017086 4294967295
42.361469 65.636719 -13.853109 4294967295
42.370605 63.970226 -14.278228 4294967295
42.373791 64.293594 -14.302207 4294967295
42.374611 66.286308 -13.875104 4294967295
42.381725 62.845665 -14.108821 4294967295
42.382725 63.49073 -14.177405 4294967295
42.384483 62.524166 -14.06202 4294967295
42.399448 63.818619 -14.149418 4294967295
42.406765 64.143425 -14.157552 4294967295
42.416031 63.340477 -14.031463 4294967295
42.41954 65.920662 -14.307612 4294967295
42.447258 66.574913 -14.273661 4294967295
42.452583 64.964798 -14.072227 4294967295
42.457989 66.256271 -14.196301 4294967295
42.477554 65.618172 -14.048821 4294967295
42.483341 65.458916 -14.008512 4294967295
42.488628 65.138229 -13.952009 4294967295
42.491478 64.816689 -13.90486 4294967295
42.500546 65.303528 -13.92439 4294967295
42.501328 62.829033 -14.290523 4294967295
42.504158 62.991108 -14.297767 4294967295
42.522903 66.762474 -14.001561 4294967295
42.526787 63.320824 -14.247179 4294967295
42.552677 63.168114 -14.1298 4294967295
42.578983 63.821571 -14.101328 4294967295
42.591167 64.309242 -14.1089 4294967295
42.598801 64.634216 -14.115828 4294967295
42.603767 63.668533 -13.988192 4294967295
42.617092 65.28524 -14.118108 4294967295
42.619869 65.769814 -14.161746 4294967295
42.623997 62.7076 -13.80197 4294967295
42.625126 64.965515 -14.05111 4294967295
42.643719 66.261658 -14.12462 4294967295
42.644539 64.810822 -13.958582 4294967295
42.646526 65.940178 -14.077674 4294967295
42.647461 65.456795 -14.019794 4294967295
42.648056 64.005692 -13.854577 4294967295
42.65287 66.748482 -14.143836 4294967295
42.654675 65.620499 -14.010238 4294967295
42.663334 62.503868 -14.273273 4294967295
42.671772 63.151249 -14.313306 4294967295
42.68045 66.596848 -14.020048 4294967295
42.693302 65.149826 -13.807864 4294967295
42.695251 66.118187 -13.909019 4294967295
42.710091 63.969692 -14.256968 4294967295
42.735302 64.300438 -14.196587 4294967295
42.736774 62.850018 -14.028101 4294967295
42.754734 62.694595 -13.941187 4294967295
42.759724 64.469803 -14.121139 4294967295
42.772507 63.506638 -13.963597 4294967295
42.773399 64.958046 -14.12304 4294967295
42.774509 64.635971 -14.082606 4294967295
42.787956 63.027901 -13.850111 4294967295
42.796093 65.28817 -14.072316 4294967295
42.798409 63.676418 -13.882487 4294967295
42.81786 64.166679 -13.862281 4294967295
42.818951 65.940918 -14.057174 4294967295
42.837151 65.140823 -13.896993 4294967295
42.84074 66.270912 -14.009919 4294967295
42.862957 63.319111 -14.238693 4294967295
42.86739 66.602669 -13.944087 4294967295
42.87262 66.120628 -13.869769 4294967295
42.880455 63.647232 -14.207903 4294967295
42.889065 62.68277 -14.066435 4294967295
42.896427 66.451447 -13.81481 4294967295
42.903179 63.171036 -14.06668 4294967295
42.904526 64.622406 -14.224316 4294967295
42.910347 63.979511 -14.1297 4294967295
42.912518 64.786285 -14.21183 4294967295
42.917366 63.820606 -14.084757 4294967295
42.920765 64.144188 -14.107934 4294967295
42.928593 63.018066 -13.951339 4294967295
42.93483 62.858829 -13.909376 4294967295
42.938389 62.537434 -13.859551 4294967295
42.954823 64.31675 -13.995698 4294967295
42.961109 65.447586 -14.098271 4294967295
42.963322 66.093262 -14.162157 4294967295
42.966232 66.255486 -14.169107 4294967295
42.976204 63.517445 -13.823422 4294967295
42.981495 66.421982 -14.128819 4294967295
42.991226 65.780342 -14.019246 4294967295
43.001663 64.493645 -13.834577 4294967295
43.003342 64.978088 -13.882442 4294967295
43.021729 65.306892 -13.848289 4294967295
43.024311 62.510056 -14.169883 4294967295
43.044559 66.605087 -13.905711 4294967295
43.070049 63.65345 -14.12161 4294967295
43.070881 64.459816 -14.208843 4294967295
43.083275 63.496555 -14.052965 4294967295
43.101322 62.857395 -13.911623 4294967295
43.110546 63.989285 -14.002979 4294967295
43.1119 64.79599 -14.088216 4294967295
43.119228 62.701897 -13.825063 4294967295
43.124699 64.96154 -14.057398 4294967295
43.126919 65.123543 -14.066991 4294967295
43.128654 63.188843 -13.843304 4294967295
43.129005 63.35025 -13.860062 4294967295
43.142502 66.096329 -14.115935 4294967295
43.157509 65.778961 -14.022418 4294967295
43.171547 64.332085 -13.805987 4294967295
43.173046 65.461693 -13.926875 4294967295
43.182671 65.948837 -13.944354 4294967295
43.185745 66.272461 -13.968788 4294967295
43.188335 64.660324 -13.777994 4294967295
43.203033 65.310555 -13.794185 4294967295
43.224468 62.680695 -14.061402 4294967295
43.227345 66.448112 -13.827919 4294967295
43.248562 64.300964 -14.150176 4294967295
43.25811 64.949074 -14.18602 4294967295
43.259747 63.659679 -14.035156 4294967295
43.267723 65.274773 -14.185467 4294967295
43.278992 63.020863 -13.889322 4294967295
43.300491 66.253357 -14.168827 4294967295
43.302933 62.867313 -13.779797 4294967295
43.306583 65.449173 -14.055184 4294967295
43.310123 65.934158 -14.095912 4294967295
43.323544 63.196648 -13.737259 4294967295
43.33474 66.103859 -14.02002 4294967295
43.336025 64.652649 -13.852378 4294967295
43.337807 64.007973 -13.773231 4294967295
43.338215 65.621193 -13.952518 4294967295
43.34021 63.524761 -13.709781 4294967295
43.34108 64.493027 -13.814995 4294967295
43.357582 65.789093 -13.896661 4294967295
43.363434 63.154049 -14.222848 4294967295
43.377354 66.441116 -13.893513 4294967295
43.417103 64.622749 -14.180749 4294967295
43.41737 62.687763 -13.962836 4294967295
43.420715 62.527557 -13.931996 4294967295
43.422859 63.012093 -13.97804 4294967295
43.435543 63.822601 -14.020037 4294967295
43.44392 65.115471 -14.132671 4294967295
43.451298 63.505203 -13.923784 4294967295
43.465439 64.155029 -13.942143 4294967295
43.467384 64.800819 -14.00703 4294967295
43.471405 65.931068 -14.118198 4294967295
43.47414 62.867382 -13.764301 4294967295
43.484741 63.354813 -13.778113 4294967295
43.487862 64.001129 -13.838527 4294967295
43.49902 64.488785 -13.850206 4294967295
43.502419 65.457779 -13.945716 4294967295
43.507069 66.265839 -14.01835 4294967295
43.515625 65.784874 -13.931499 4294967295
43.571289 63.327332 -14.0854 4294967295
43.582546 66.130417 -13.712465 4294967295
43.588753 63.171741 -14.000767 4294967295
43.594776 64.947624 -14.176554 4294967295
43.604713 62.693024 -13.885712 4294967295
43.605709 63.661121 -13.990351 4294967295
43.61356 65.437698 -14.159185 4294967295
43.617596 64.471458 -14.035417 4294967295
43.621792 65.763 -14.163949 4294967295
43.633778 62.863708 -13.793012 4294967295
43.640915 66.414574 -14.163365 4294967295
43.641804 63.027634 -13.780494 4294967295
43.642467 62.543827 -13.72373 4294967295
43.658768 63.83984 -13.806226 4294967295
43.659245 65.937042 -14.039341 4294967295
43.667358 64.64933 -13.863869 4294967295
43.686722 66.269043 -13.970801 4294967295
43.70274 64.338409 -13.692883 4294967295
43.733253 62.518085 -14.014656 4294967295
43.752705 62.846909 -13.976723 4294967295
43.756138 63.654446 -14.053985 4294967295
43.756542 63.332016 -14.016312 4294967295
43.76067 64.139755 -14.090924 4294967295
43.766567 64.302979 -14.086525 4294967295
43.775612 63.822113 -13.997907 4294967295
43.785164 65.76062 -14.178289 4294967295
43.789337 64.955673 -14.072112 4294967295
43.79874 65.281403 -14.072433 4294967295
43.801022 64.798294 -14.009566 4294967295
43.817604 65.932938 -14.072885 4294967295
43.822697 63.192188 -13.746368 4294967295
43.824909 64.483635 -13.88251 4294967295
43.834545 63.518753 -13.737394 4294967295
43.837399 64.649117 -13.853037 4294967295
43.840137 64.004654 -13.770325 4294967295
43.84803 65.136681 -13.866763 4294967295
43.849495 66.42775 -14.005721 4294967295
43.866894 66.272408 -13.921447 4294967295
43.882946 65.632507 -13.788082 4294967295
43.899002 62.516384 -14.019897 4294967295
43.902287 63.968899 -14.169925 4294967295
43.909229 62.842243 -14.017114 4294967295
