# .PCD v0.7 - Point Cloud Data file format
VERSION 0.7
FIELDS x y z rgb
SIZE 4 4 4 4
TYPE F F F U
COUNT 1 1 1 1
WIDTH 1147
HEIGHT 1
VIEWPOINT 0 0 0 1 0 0 0
POINTS 1147
DATA ascii
49.774086 120.48538 -17.252522 4294967295
49.801544 120.98675 -17.205557 4294967295
49.849091 118.11518 -16.711512 4294967295
49.867172 119.31059 -17.401564 4294967295
49.877354 119.63938 -17.399935 4294967295
49.931419 120.96349 -17.34477 4294967295
49.941174 119.51926 -17.149147 4294967295
49.944485 118.71539 -17.048138 4294967295
49.945946 119.84471 -17.16729 4294967295
49.957661 120.33585 -17.177868 4294967295
49.961437 118.40374 -16.950665 4294967295
49.975979 118.89671 -16.950926 4294967295
49.992756 118.2624 -16.818489 4294967295
49.993183 120.52006 -17.065968 4294967295
50.024029 118.12096 -16.686485 4294967295
50.055004 119.32484 -17.32902 4294967295
50.072723 119.65852 -17.29994 4294967295
50.089935 120.47543 -17.326021 4294967295
50.105053 118.06723 -17.004223 4294967295
50.105232 119.19583 -17.128035 4294967295
50.159718 120.84307 -17.107098 4294967295
50.166103 118.58973 -16.834837 4294967295
50.255699 119.83083 -17.263126 4294967295
50.262386 118.70675 -17.114346 4294967295
50.285023 118.23746 -16.978519 4294967295
50.28764 119.36773 -17.093422 4294967295
50.30368 120.829 -17.194925 4294967295
50.309826 120.34933 -17.119226 4294967295
50.312531 120.5123 -17.127146 4294967295
50.315975 119.70837 -17.025711 4294967295
50.325562 119.0695 -16.919674 4294967295
50.3386 119.2391 -16.889927 4294967295
50.381882 119.48316 -17.379919 4294967295
50.385433 118.84077 -17.29594 4294967295
50.441452 120.16615 -17.234125 4294967295
50.494518 118.42641 -16.845449 4294967295
50.507042 120.04716 -16.977604 4294967295
50.51812 118.11876 -16.723949 4294967295
50.53672 119.74367 -16.834023 4294967295
50.542515 117.65016 -16.581764 4294967295
50.543468 120.3932 -16.88056 4294967295
50.563614 118.52633 -17.223423 4294967295
50.57394 120.6283 -17.416733 4294967295
50.58717 118.38005 -17.119987 4294967295
50.588665 119.34829 -17.221123 4294967295
50.604805 118.7137 -17.091364 4294967295
50.608822 120.16725 -17.236618 4294967295
50.613838 119.20315 -17.111799 4294967295
50.619816 119.85188 -17.161118 4294967295
50.621376 118.07921 -16.960022 4294967295
50.648216 119.54761 -17.022297 4294967295
50.656296 117.77867 -16.797443 4294967295
50.668205 117.94748 -16.771883 4294967295
50.668907 121.01222 -17.106964 4294967295
50.673199 119.07974 -16.878132 4294967295
50.685596 120.53924 -16.992975 4294967295
50.690693 120.38125 -16.956671 4294967295
50.723644 119.8122 -17.394564 4294967295
50.732063 118.68925 -17.239704 4294967295
50.764458 120.48319 -17.317316 4294967295
50.857273 118.60741 -16.766941 4294967295
50.87117 119.26154 -16.787529 4294967295
50.898319 120.73087 -16.848806 4294967295
50.911518 119.34281 -17.269323 4294967295
50.932976 119.67896 -17.226938 4294967295
50.942924 117.91157 -16.995516 4294967295
50.947956 120.33347 -17.243576 4294967295
50.95623 119.21008 -17.089277 4294967295
50.957886 117.7597 -16.923437 4294967295
50.965755 120.18368 -17.161226 4294967295
50.970341 120.50912 -17.180096 4294967295
50.977219 118.09445 -16.888769 4294967295
50.980576 120.83821 -17.178457 4294967295
50.995377 118.58982 -16.876131 4294967295
51.016396 119.57102 -16.906404 4294967295
51.028061 119.9011 -16.89958 4294967295
51.04446 118.9436 -16.733465 4294967295
51.044609 118.29829 -16.66186 4294967295
51.072205 119.82322 -17.349369 4294967295
51.077065 118.37534 -17.172022 4294967295
51.081539 120.47401 -17.386492 4294967295
51.096539 119.03263 -17.17239 4294967295
51.103008 120.81027 -17.344149 4294967295
51.112526 118.72027 -17.078917 4294967295
51.128273 117.43993 -16.879753 4294967295
51.176258 117.63132 -16.723448 4294967295
51.197548 119.74213 -16.877121 4294967295
51.20892 119.26538 -16.782598 4294967295
51.212555 120.07439 -16.858212 4294967295
51.228252 118.52735 -17.25104 4294967295
51.24268 120.3099 -17.393911 4294967295
51.251266 117.73562 -17.078924 4294967295
51.269295 119.84329 -17.244286 4294967295
51.271965 118.07116 -17.039419 4294967295
51.279797 117.26964 -16.922289 4294967295
51.299088 117.60431 -16.887884 4294967295
51.315006 119.06608 -16.98996 4294967295
51.320812 119.55366 -17.022167 4294967295
51.324699 117.45901 -16.777317 4294967295
51.337101 118.43481 -16.838898 4294967295
51.342304 119.40604 -16.926558 4294967295
51.360592 119.25636 -16.842554 4294967295
51.36895 120.55232 -16.954302 4294967295
51.37191 118.7795 -16.748289 4294967295
51.380825 117.71287 -17.218555 4294967295
51.397476 118.85198 -17.282436 4294967295
51.408119 120.73887 -16.830191 4294967295
51.423138 117.09427 -16.994394 4294967295
51.439198 118.71713 -17.113684 4294967295
51.457996 118.24514 -16.992414 4294967295
51.505802 116.9844 -16.677343 4294967295
51.511639 119.89223 -16.975712 4294967295
51.514851 117.95822 -16.751102 4294967295
51.520107 120.3816 -16.998304 4294967295
51.562656 118.20663 -17.222116 4294967295
51.562935 120.57043 -16.861071 4294967295
51.580662 117.89542 -17.121521 4294967295
51.58165 117.25094 -17.047009 4294967295
51.589573 117.73973 -17.07156 4294967295
51.592937 118.54823 -17.148073 4294967295
51.595955 120.00145 -17.296768 4294967295
51.604145 119.68417 -17.231701 4294967295
51.60437 119.52306 -17.213146 4294967295
51.607311 117.10562 -16.936443 4294967295
51.620033 119.37175 -17.138777 4294967295
51.631863 116.79823 -16.812143 4294967295
51.635002 120.99403 -17.262011 4294967295
51.637501 118.89895 -17.022408 4294967295
51.654869 117.61927 -16.817654 4294967295
51.666267 120.5303 -17.095789 4294967295
51.674507 120.85821 -17.101479 4294967295
51.67469 120.21309 -17.029865 4294967295
51.687862 119.09216 -16.85804 4294967295
51.786339 116.95242 -16.879524 4294967295
51.804783 120.6741 -17.220778 4294967295
51.831394 117.94859 -16.823154 4294967295
51.833752 118.59547 -16.885592 4294967295
51.850052 116.50779 -16.596037 4294967295
51.865955 117.32465 -16.627304 4294967295
51.87001 116.84296 -16.559408 4294967295
51.894176 121.05423 -16.933418 4294967295
51.900764 120.09025 -16.803194 4294967295
51.90361 117.72864 -17.15206 4294967295
51.907997 116.60233 -17.012127 4294967295
51.908188 120.25637 -16.794119 4294967295
51.918102 117.09251 -17.02883 4294967295
51.923733 116.45074 -16.937582 4294967295
51.935658 119.20031 -17.195932 4294967295
51.949413 118.40252 -17.057644 4294967295
51.952541 120.01744 -17.223627 4294967295
51.95377 116.79198 -16.864599 4294967295
51.959442 118.57014 -17.039171 4294967295
51.966152 119.54223 -17.12134 4294967295
51.970402 118.09305 -16.946424 4294967295
51.984352 119.87643 -17.091116 4294967295
51.99958 120.37009 -17.089355 4294967295
52.002544 120.53331 -17.096394 4294967295
52.007751 117.47095 -16.740673 4294967295
52.017406 116.99279 -16.652594 4294967295
52.022316 119.09383 -16.865461 4294967295
52.036915 116.35919 -16.511189 4294967295
52.135223 120.83468 -17.260035 4294967295
52.171825 116.33997 -16.631672 4294967295
52.206596 118.78264 -16.772295 4294967295
52.211781 116.42365 -17.111885 4294967295
52.212429 120.07741 -16.89312 4294967295
52.21254 119.59334 -16.839533 4294967295
52.219059 117.71843 -17.2274 4294967295
52.23526 118.21239 -17.222176 4294967295
52.237221 119.12476 -16.697359 4294967295
52.250214 117.09262 -17.044275 4294967295
52.25267 119.19104 -17.265747 4294967295
52.254639 115.96603 -16.904284 4294967295
52.264019 119.84335 -17.295734 4294967295
45.393147 124.45448 -17.770443 4294967295
45.396137 122.36535 -17.526543 4294967295
45.407837 124.78631 -17.751198 4294967295
45.409706 124.30504 -17.690504 4294967295
45.416874 123.34474 -17.556236 4294967295
45.449692 123.68898 -17.469036 4294967295
45.454357 121.16747 -17.810732 4294967295
45.461647 122.89253 -17.334703 4294967295
45.469139 121.65981 -17.809031 4294967295
45.469952 124.0247 -17.428919 4294967295
45.511131 121.84891 -17.669651 4294967295
45.515022 124.26396 -17.923435 4294967295
45.519478 123.46294 -17.81731 4294967295
45.526443 122.82435 -17.719662 4294967295
45.57547 122.69676 -17.51819 4294967295
45.631962 123.86166 -17.431965 4294967295
45.693577 123.3083 -17.774771 4294967295
45.698421 124.75911 -17.917612 4294967295
45.704227 124.44146 -17.860132 4294967295
45.705303 122.19023 -17.605686 4294967295
45.711685 123.48151 -17.72492 4294967295
45.719986 123.00455 -17.640205 4294967295
45.726025 121.88242 -17.492373 4294967295
45.739254 122.37405 -17.496557 4294967295
45.769913 122.87757 -17.435545 4294967295
45.786259 124.1761 -17.51757 4294967295
45.81662 122.63644 -17.869484 4294967295
45.816761 124.35799 -17.421385 4294967295
45.830463 123.88453 -17.316448 4294967295
45.835865 121.68436 -17.690281 4294967295
45.845428 121.85165 -17.672407 4294967295
45.861519 121.21892 -17.540731 4294967295
45.919418 122.54512 -17.467432 4294967295
45.937271 123.36186 -17.49016 4294967295
45.937653 123.68397 -17.524515 4294967295
45.952808 121.16958 -17.82555 4294967295
46.018009 123.46529 -17.832367 4294967295
46.029972 122.02558 -17.626804 4294967295
46.041683 123.96402 -17.797623 4294967295
46.048019 123.32486 -17.702469 4294967295
46.074726 124.63017 -17.74581 4294967295
46.076488 121.735 -17.417355 4294967295
46.111385 122.88514 -17.412256 4294967295
46.124962 124.34288 -17.522547 4294967295
46.136192 122.57999 -17.283873 4294967295
46.147602 122.1545 -17.830975 4294967295
46.14867 124.19818 -17.416176 4294967295
46.151108 123.71695 -17.35342 4294967295
46.15604 122.48188 -17.835238 4294967295
46.173374 121.52834 -17.663353 4294967295
46.181873 121.21223 -17.595894 4294967295
46.206234 122.99842 -17.701651 4294967295
46.233051 124.14291 -17.726757 4294967295
46.23328 121.72935 -17.457752 4294967295
46.249756 124.95883 -17.753843 4294967295
46.302296 124.8341 -17.540081 4294967295
46.352203 122.34194 -17.710728 4294967295
46.356808 123.79293 -17.854374 4294967295
46.36581 121.70747 -17.588552 4294967295
46.366928 122.83454 -17.709463 4294967295
46.371613 121.87228 -17.584801 4294967295
46.376446 122.68008 -17.656137 4294967295
46.401596 124.94974 -17.812603 4294967295
46.404442 123.34267 -17.62331 4294967295
46.419281 124.47919 -17.693132 4294967295
46.424141 123.19511 -17.532047 4294967295
46.43578 122.07626 -17.363564 4294967295
46.44556 123.53155 -17.488003 4294967295
46.450184 122.56888 -17.363523 4294967295
46.494102 124.20853 -17.378681 4294967295
46.525738 121.38212 -17.581415 4294967295
46.607998 122.72486 -17.418139 4294967295
46.609421 124.33542 -17.591543 4294967295
46.672619 122.01351 -17.729975 4294967295
46.673611 123.09119 -17.209671 4294967295
46.680618 122.34068 -17.73595 4294967295
46.703213 121.22935 -17.52689 4294967295
46.715004 121.55908 -17.518761 4294967295
46.722637 124.13904 -17.776146 4294967295
46.729378 122.53438 -17.572483 4294967295
46.744419 123.02735 -17.570147 4294967295
46.752998 124.80347 -17.734713 4294967295
46.763203 124.4886 -17.661066 4294967295
46.766716 123.84722 -17.576551 4294967295
46.788651 123.54019 -17.459288 4294967295
46.790459 123.21945 -17.416822 4294967295
46.805393 124.03453 -17.450632 4294967295
46.820709 123.72295 -17.357962 4294967295
46.871834 123.48459 -17.773241 4294967295
46.928493 122.23521 -17.419928 4294967295
46.930641 121.91467 -17.376225 4294967295
46.955124 122.73608 -17.374582 4294967295
46.961796 122.41855 -17.31406 4294967295
46.964218 121.45401 -17.197863 4294967295
46.971527 124.67912 -17.527994 4294967295
46.97934 121.78616 -17.177423 4294967295
47.001995 123.4118 -17.271935 4294967295
47.013119 122.18121 -17.728281 4294967295
47.052025 123.17293 -17.690992 4294967295
47.055477 121.88765 -17.535381 4294967295
47.065002 121.2501 -17.428598 4294967295
47.065617 123.9868 -17.729813 4294967295
47.077129 124.47745 -17.740644 4294967295
47.093384 123.03988 -17.519676 4294967295
47.100487 124.33244 -17.636141 4294967295
47.103855 122.72496 -17.445103 4294967295
47.116711 122.5726 -17.379539 4294967295
47.120987 124.18545 -17.542225 4294967295
47.137035 121.62002 -17.196945 4294967295
47.138126 123.71411 -17.425068 4294967295
47.156521 121.68391 -17.764656 4294967295
47.160858 122.11908 -17.162111 4294967295
47.165333 121.20701 -17.678444 4294967295
47.189377 122.83231 -17.767731 4294967295
47.258888 124.97165 -17.742033 4294967295
47.290195 122.25605 -17.322557 4294967295
47.2911 121.61251 -17.247786 4294967295
47.305569 124.52065 -17.515497 4294967295
47.312534 124.84741 -17.525389 4294967295
47.325352 122.1185 -17.174353 4294967295
47.338428 122.33872 -17.783167 4294967295
47.342628 122.50246 -17.785442 4294967295
47.379082 121.40012 -17.525532 4294967295
47.399921 123.18474 -17.644606 4294967295
47.412701 123.5153 -17.632963 4294967295
47.429569 122.23871 -17.427744 4294967295
47.43745 123.69302 -17.559164 4294967295
47.443279 122.73093 -17.430506 4294967295
47.44566 121.60533 -17.296743 4294967295
47.458183 124.19007 -17.535921 4294967295
47.474567 124.52324 -17.510948 4294967295
47.480034 121.95031 -17.205114 4294967295
47.494801 123.08763 -17.275385 4294967295
47.500824 121.37124 -17.695669 4294967295
47.513607 124.7109 -17.384247 4294967295
47.517082 123.90799 -17.282133 4294967295
47.546383 121.72341 -17.562748 4294967295
47.561424 124.14798 -17.774624 4294967295
47.604412 122.40611 -17.419365 4294967295
47.639061 121.14072 -17.14838 4294967295
47.639954 121.94668 -17.234324 4294967295
47.651772 125.01447 -17.529638 4294967295
47.656116 124.53436 -17.460032 4294967295
47.663197 123.895 -17.362476 4294967295
47.670902 123.57809 -17.298277 4294967295
47.674446 121.37677 -17.673721 4294967295
47.682224 123.10249 -17.20285 4294967295
47.719059 121.72831 -17.544443 4294967295
47.725647 122.37666 -17.591429 4294967295
47.734024 123.34818 -17.667452 4294967295
47.740883 122.54784 -17.55294 4294967295
47.741173 122.22603 -17.516203 4294967295
47.744053 124.48177 -17.755203 4294967295
47.782516 122.89776 -17.434729 4294967295
47.785458 124.18792 -17.566544 4294967295
47.790401 124.99632 -17.63743 4294967295
47.801365 124.84279 -17.579098 4294967295
47.829899 121.64082 -17.116838 4294967295
47.835243 123.09421 -17.257675 4294967295
47.858284 124.07625 -17.279573 4294967295
47.90556 123.99635 -17.724779 4294967295
47.90704 121.74335 -17.469727 4294967295
47.935619 122.56751 -17.45335 4294967295
47.9762 123.88312 -17.446167 4294967295
47.977509 121.95119 -17.22731 4294967295
47.982407 124.85358 -17.530237 4294967295
48.010796 122.77885 -17.193584 4294967295
48.036613 124.56834 -17.294474 4294967295
48.037518 122.52517 -17.696491 4294967295
48.046268 121.72604 -17.575096 4294967295
48.060738 124.31151 -17.80685 4294967295
48.061958 124.79523 -17.855797 4294967295
48.066349 124.47629 -17.803965 4294967295
48.067722 121.25716 -17.442467 4294967295
48.072559 121.58243 -17.460274 4294967295
48.077942 123.35722 -17.636475 4294967295
48.109375 122.89523 -17.467062 4294967295
48.142796 124.04505 -17.468567 4294967295
48.19627 123.11453 -17.164356 4294967295
48.270069 123.53629 -17.564629 4294967295
48.320698 122.1205 -17.217627 4294967295
48.321548 121.15435 -17.107513 4294967295
48.326851 122.60791 -17.248442 4294967295
48.340328 124.389 -17.394859 4294967295
48.341347 122.45646 -17.177189 4294967295
48.342083 122.77918 -17.210136 4294967295
48.350094 123.91232 -17.305405 4294967295
48.382023 123.12816 -17.098608 4294967295
48.385597 121.24866 -17.50778 4294967295
48.412735 121.74971 -17.461304 4294967295
48.430023 122.88854 -17.522356 4294967295
48.468704 123.07546 -17.397776 4294967295
48.492756 121.48038 -17.130987 4294967295
48.495243 123.57652 -17.353531 4294967295
48.4981 124.86713 -17.485569 4294967295
48.527344 124.08146 -17.288843 4294967295
48.539055 121.24081 -17.560595 4294967295
48.56641 121.58092 -17.495583 4294967295
48.568878 124.27064 -17.153791 4294967295
48.585155 124.97501 -17.800596 4294967295
48.639702 123.72357 -17.457561 4294967295
48.648376 124.5348 -17.514734 4294967295
48.650581 123.4087 -17.381926 4294967295
48.651001 122.76457 -17.309124 4294967295
48.675014 124.71393 -17.434597 4294967295
48.679493 123.10583 -17.239973 4294967295
48.698292 121.9903 -17.046072 4294967295
48.714516 123.61272 -17.164631 4294967295
48.721409 121.57406 -17.542782 4294967295
48.726154 122.06033 -17.578747 4294967295
48.751984 123.68793 -17.661882 4294967295
48.758263 123.20901 -17.585402 4294967295
48.758999 124.81985 -17.760714 4294967295
48.759426 121.27695 -17.367439 4294967295
48.774677 124.34737 -17.649727 4294967295
48.783001 122.42014 -17.405478 4294967295
48.786957 124.03355 -17.56901 4294967295
48.802589 121.94981 -17.280062 4294967295
48.807587 121.14748 -17.172626 4294967295
48.849606 124.23686 -17.356672 4294967295
48.863079 122.31216 -17.093401 4294967295
48.890266 123.94196 -17.17169 4294967295
48.93964 121.44775 -17.339977 4294967295
48.959377 122.26631 -17.356539 4294967295
48.972672 122.91958 -17.378962 4294967295
48.973198 123.24214 -17.412643 4294967295
48.978836 121.63467 -17.213879 4294967295
48.980125 124.69664 -17.547438 4294967295
48.99004 124.54225 -17.493259 4294967295
48.990879 122.60945 -17.276512 4294967295
48.991394 121.80409 -17.185574 4294967295
48.995098 123.74014 -17.385677 4294967295
49.01862 124.8838 -17.42399 4294967295
49.028049 123.6011 -17.246935 4294967295
49.041168 124.25451 -17.270029 4294967295
49.052593 121.25217 -17.523752 4294967295
49.062004 124.42972 -17.211374 4294967295
49.068314 121.58464 -17.501684 4294967295
49.088276 121.91996 -17.464067 4294967295
49.09182 124.49935 -17.735779 4294967295
49.10284 123.54042 -17.588625 4294967295
49.114029 124.19221 -17.618778 4294967295
49.170246 122.13522 -17.181242 4294967295
49.220695 121.57606 -17.558498 4294967295
49.293312 121.14037 -17.239031 4294967295
49.294315 124.8466 -17.644611 4294967295
49.298664 122.43298 -17.361794 4294967295
49.303097 124.20818 -17.541296 4294967295
49.311333 121.47449 -17.208584 4294967295
49.316685 124.37842 -17.509319 4294967295
49.322605 121.32072 -17.149483 4294967295
49.323883 123.89991 -17.429567 4294967295
49.323994 121.80513 -17.197803 4294967295
49.33075 125.03235 -17.528984 4294967295
49.338711 122.94298 -17.268475 4294967295
49.341469 123.10597 -17.276165 4294967295
49.345631 122.14173 -17.154116 4294967295
49.352207 124.72462 -17.414806 4294967295
49.354462 123.59811 -17.281977 4294967295
49.429897 122.08813 -17.460632 4294967295
49.457397 121.46172 -17.288813 4294967295
49.531361 123.2834 -17.213839 4294967295
49.53516 122.47997 -17.110949 4294967295
49.572613 123.63332 -17.098475 4294967295
49.619629 124.68192 -17.665474 4294967295
49.623894 121.14004 -17.258635 4294967295
49.627308 123.39823 -17.495153 4294967295
49.639717 124.051 -17.52092 4294967295
49.642933 122.76409 -17.366884 4294967295
49.651489 122.12511 -17.264452 4294967295
49.674351 122.46255 -17.216436 4294967295
49.680408 125.04517 -17.478888 4294967295
49.690632 124.40746 -17.370378 4294967295
49.697887 121.67204 -17.041409 4294967295
49.706726 123.28997 -17.187023 4294967295
49.726826 122.336 -17.006762 4294967295
49.736126 123.7932 -17.132925 4294967295
49.738842 124.92347 -17.247532 4294967295
49.743008 121.59308 -17.490541 4294967295
49.747559 124.60693 -17.180094 4294967295
49.765877 124.2968 -17.077549 4294967295
49.796085 124.52829 -17.616667 4294967295
49.798203 121.95158 -17.324465 4294967295
49.829449 121.81093 -17.192524 4294967295
49.841362 123.91411 -17.380215 4294967295
49.851521 121.34177 -17.058531 4294967295
49.881554 123.61858 -17.197865 4294967295
49.884785 122.65343 -17.079323 4294967295
49.935162 124.78305 -17.126617 4294967295
49.972336 122.11839 -17.319878 4294967295
49.993549 124.71099 -17.526896 4294967295
49.996861 122.94045 -17.319283 4294967295
49.999985 121.81418 -17.183409 4294967295
50.007763 124.23708 -17.421722 4294967295
50.008255 121.17474 -17.082102 4294967295
50.018002 123.7604 -17.331036 4294967295
50.02618 122.79867 -17.194504 4294967295
50.026848 123.44392 -17.263195 4294967295
50.031208 121.51218 -17.033886 4294967295
50.032703 124.57615 -17.366291 4294967295
50.045498 123.2951 -17.177364 4294967295
50.063503 122.50085 -17.022749 4294967295
50.102814 122.41764 -17.492317 4294967295
50.126263 123.23885 -17.495678 4294967295
50.127674 121.467 -17.295048 4294967295
50.152596 124.70671 -17.559629 4294967295
50.259735 122.68232 -16.938015 4294967295
50.275398 121.61652 -17.38681 4294967295
50.289818 124.96021 -17.077328 4294967295
50.309711 123.89541 -17.510553 4294967295
50.321774 122.77521 -17.342276 4294967295
50.331001 123.26488 -17.361965 4294967295
50.36034 124.09036 -17.343983 4294967295
50.371014 122.96895 -17.180712 4294967295
50.373035 122.32533 -17.102259 4294967295
50.386654 124.59159 -17.301491 4294967295
50.399258 123.14888 -17.095631 4294967295
50.400642 123.79479 -17.161686 4294967295
50.412075 124.28616 -17.173391 4294967295
50.41906 123.48453 -17.059074 4294967295
50.419476 122.03327 -16.897551 4294967295
50.479115 123.41453 -17.452347 4294967295
50.484123 121.80591 -17.256479 4294967295
50.518188 122.63435 -17.221367 4294967295
50.553253 124.91477 -17.342537 4294967295
50.581944 123.80527 -17.1138 4294967295
50.588184 124.13195 -17.126642 4294967295
50.606716 121.61663 -17.404116 4294967295
50.654694 124.54945 -17.549328 4294967295
50.6609 122.61929 -17.313696 4294967295
50.682766 122.79491 -17.251982 4294967295
50.692547 123.92995 -17.340761 4294967295
50.699635 123.12851 -17.226194 4294967295
50.699944 121.83871 -17.082951 4294967295
50.705856 122.97137 -17.185818 4294967295
50.711216 121.36223 -16.988668 4294967295
50.712784 124.74955 -17.356009 4294967295
50.726311 123.3074 -17.146999 4294967295
50.73661 121.21744 -16.878569 4294967295
50.753288 124.45417 -17.173309 4294967295
50.753963 122.35792 -16.939886 4294967295
50.766731 123.65673 -17.035631 4294967295
50.777477 124.95419 -17.138716 4294967295
50.836353 121.49712 -17.162704 4294967295
50.888515 124.11143 -17.257423 4294967295
50.903591 124.44398 -17.238216 4294967295
50.909695 122.67399 -17.020674 4294967295
50.914467 123.96743 -17.145456 4294967295
50.931797 123.33376 -17.011475 4294967295
50.936089 124.30439 -17.10248 4294967295
50.9533 123.02532 -16.897865 4294967295
50.96048 121.30889 -17.304646 4294967295
50.960674 122.92106 -17.481424 4294967295
50.969952 121.79871 -17.323519 4294967295
50.982773 122.12952 -17.312506 4294967295
51.006775 123.27388 -17.349682 4294967295
51.02132 123.44472 -17.314676 4294967295
51.039104 121.19864 -17.001587 4294967295
51.053604 123.7886 -17.233084 4294967295
51.069023 121.70199 -16.946304 4294967295
51.126076 121.6313 -17.349251 4294967295
51.128693 124.80633 -17.067295 4294967295
51.131794 124.64709 -17.038288 4294967295
51.18251 122.47433 -17.233423 4294967295
51.198055 122.32324 -17.159342 4294967295
51.217735 122.01352 -17.0525 4294967295
51.222702 123.62965 -17.212021 4294967295
51.247562 122.83958 -17.033167 4294967295
51.272659 124.46926 -17.119753 4294967295
51.279278 124.31236 -17.07802 4294967295
51.288017 123.99553 -17.010847 4294967295
51.300629 122.28201 -17.396925 4294967295
51.318504 123.42228 -17.456373 4294967295
51.319332 121.81049 -17.275967 4294967295
51.328846 124.82941 -16.951702 4294967295
51.351692 122.47664 -17.229774 4294967295
51.371254 124.58589 -17.389603 4294967295
51.376095 121.68613 -17.052668 4294967295
51.377045 122.17065 -17.102472 4294967295
51.390747 121.21168 -16.946367 4294967295
51.411068 122.03152 -16.961535 4294967295
51.421864 123.32919 -17.064434 4294967295
51.427662 122.6877 -16.972454 4294967295
51.516644 123.12125 -17.312428 4294967295
51.52343 124.09325 -17.3943 4294967295
51.567913 123.63886 -17.180223 4294967295
51.571922 123.80282 -17.183464 4294967295
51.576283 122.19251 -16.99025 4294967295
51.584808 123.00474 -17.048143 4294967295
51.584858 123.32742 -17.083454 4294967295
51.596561 124.62569 -17.183065 4294967295
51.601299 124.79015 -17.183672 4294967295
51.620335 121.46831 -17.368225 4294967295
51.623257 121.95391 -17.410852 4294967295
51.627331 122.70992 -16.858837 4294967295
51.63493 124.32854 -17.008833 4294967295
51.685413 121.18785 -17.097527 4294967295
51.694931 121.67793 -17.116339 4294967295
51.70052 123.13322 -17.255768 4294967295
51.704655 121.84554 -17.09893 4294967295
51.713055 123.62534 -17.26368 4294967295
51.747547 122.68012 -17.032627 4294967295
51.749237 124.93967 -17.274845 4294967295
51.804451 122.87874 -16.844738 4294967295
51.831772 124.18784 -16.887997 4294967295
51.890179 121.5357 -17.001066 4294967295
51.901276 122.99493 -17.120615 4294967295
51.910755 124.29173 -17.228247 4294967295
51.925587 123.4949 -17.086058 4294967295
51.927231 123.98 -17.133322 4294967295
51.929859 124.14307 -17.141565 4294967295
51.96587 124.65098 -17.064804 4294967295
51.969139 122.87802 -16.857897 4294967295
51.971783 122.55695 -16.812862 4294967295
51.976433 124.98073 -17.062166 4294967295
51.993282 122.78541 -17.377947 4294967295
52.00452 123.27657 -17.390587 4294967295
52.013866 122.47629 -17.268265 4294967295
52.01516 123.92865 -17.423105 4294967295
52.03339 122.32771 -17.180124 4294967295
52.061012 122.66836 -17.115952 4294967295
52.080387 124.617 -17.258818 4294967295
52.08213 121.22985 -16.880188 4294967295
52.132309 122.2307 -16.805613 4294967295
52.189659 123.61194 -17.365099 4294967295
52.189983 121.1925 -17.098114 4294967295
52.21286 122.1753 -17.122015 4294967295
52.212879 123.30459 -17.246008 4294967295
52.221844 122.66515 -17.142817 4294967295
52.221989 121.69719 -17.035946 4294967295
52.228844 121.37889 -16.975788 4294967295
52.231674 123.8009 -17.231453 4294967295
52.258003 124.62495 -17.225218 4294967295
52.269318 123.01888 -17.007227 4294967295
52.271053 123.18138 -17.018686 4294967295
52.287453 99.250252 -16.795902 4294967295
52.297012 100.38393 -16.885445 4294967295
52.303402 98.29084 -16.632101 4294967295
52.32394 97.656105 -16.487175 4294967295
52.33596 99.759186 -16.674248 4294967295
52.358788 99.932358 -16.609703 4294967295
52.363701 98.483009 -16.432486 4294967295
52.395966 99.058876 -16.992197 4294967295
52.452213 100.2166 -16.913647 4294967295
52.502045 98.629608 -16.557117 4294967295
52.505104 98.147209 -16.492939 4294967295
52.525993 100.90029 -16.71892 4294967295
52.539318 98.971413 -16.458344 4294967295
52.551971 98.247192 -16.946516 4294967295
52.566631 99.308189 -16.395447 4294967295
52.570156 99.955444 -16.453644 4294967295
52.575264 99.065247 -16.951235 4294967295
52.637066 97.645386 -16.569548 4294967295
52.63781 98.774872 -16.690844 4294967295
52.663246 100.4009 -16.776445 4294967295
52.665981 99.757172 -16.695776 4294967295
52.670712 99.275703 -16.625637 4294967295
52.673084 98.954292 -16.581673 4294967295
52.675327 98.471466 -16.520456 4294967295
52.675697 100.08482 -16.696253 4294967295
52.698727 97.999352 -16.383131 4294967295
52.708298 100.74708 -16.649851 4294967295
52.774349 100.94308 -16.430052 4294967295
52.792206 98.284523 -16.686632 4294967295
52.798851 98.126602 -16.645042 4294967295
52.838696 97.662834 -16.448704 4294967295
52.897739 100.59752 -16.555326 4294967295
52.922421 98.910797 -16.893114 4294967295
52.934875 100.93969 -16.457335 4294967295
52.943703 99.566795 -16.887497 4294967295
52.965618 100.3845 -16.897301 4294967295
52.982883 97.973877 -16.569838 4294967295
52.98811 99.26712 -16.692688 4294967295
53.006023 98.146973 -16.504457 4294967295
53.009907 98.310295 -16.508209 4294967295
53.024799 99.124664 -16.543278 4294967295
53.033195 97.676643 -16.353752 4294967295
53.04015 99.939323 -16.576691 4294967295
53.04808 100.58883 -16.619038 4294967295
53.097176 98.914772 -16.868828 4294967295
53.098507 100.29238 -16.402632 4294967295
53.105499 100.13461 -16.359827 4294967295
53.107456 97.629684 -16.690405 4294967295
53.127407 98.285042 -16.689623 4294967295
53.139587 98.613876 -16.681322 4294967295
53.168701 100.24203 -16.753864 4294967295
53.190498 99.123947 -16.551823 4294967295
53.199726 99.290047 -16.536428 4294967295
53.200356 97.837997 -16.374842 4294967295
53.204666 99.938026 -16.58951 4294967295
53.20528 98.163269 -16.39258 4294967295
53.237469 99.63224 -16.436474 4294967295
53.25127 99.06942 -16.936363 4294967295
53.252686 100.44707 -16.470413 4294967295
53.262676 100.77506 -16.469995 4294967295
53.270683 98.434219 -16.796055 4294967295
53.27087 97.950417 -16.742323 4294967295
53.324879 99.429825 -16.708002 4294967295
53.331825 100.24002 -16.771572 4294967295
53.335743 100.88731 -16.828278 4294967295
53.339291 98.953217 -16.603283 4294967295
53.34502 98.310707 -16.511972 4294967295
53.347675 99.764252 -16.661709 4294967295
53.352943 100.73499 -16.748987 4294967295
53.424736 97.782402 -16.77537 4294967295
53.430283 100.12975 -16.401165 4294967295
53.452679 98.603111 -16.763756 4294967295
53.521076 98.476593 -16.501204 4294967295
53.525738 100.09264 -16.661413 4294967295
53.553493 98.977295 -16.438231 4294967295
53.556568 97.687546 -16.285656 4294967295
53.562489 100.91857 -16.618341 4294967295
53.583679 98.100861 -16.84326 4294967295
53.601452 99.970436 -16.372747 4294967295
53.604813 98.756798 -16.838385 4294967295
53.610195 98.275604 -16.766098 4294967295
53.611309 97.630867 -16.691395 4294967295
53.629807 100.46944 -16.32435 4294967295
53.648422 98.940384 -16.700111 4294967295
53.659607 99.591476 -16.730843 4294967295
53.67765 98.632576 -16.560205 4294967295
53.70636 100.42241 -16.652075 4294967295
53.741261 99.794914 -16.456554 4294967295
53.771687 99.487717 -16.312363 4294967295
53.776501 99.243073 -16.87845 4294967295
53.84613 97.987679 -16.488239 4294967295
53.854427 99.605751 -16.635399 4294967295
53.860485 100.41571 -16.702158 4294967295
53.884247 99.459679 -16.511189 4294967295
53.923077 100.28676 -16.460905 4294967295
53.923561 97.61972 -16.776773 4294967295
53.927963 98.428551 -16.849403 4294967295
53.944595 98.759644 -16.825373 4294967295
53.962944 98.930328 -16.777542 4294967295
53.973339 100.71026 -16.934801 4294967295
53.979031 98.131721 -16.631756 4294967295
54.078629 100.11935 -16.488398 4294967295
54.081707 100.60521 -16.530445 4294967295
54.161465 100.88259 -16.881109 4294967295
54.172577 97.983612 -16.523453 4294967295
54.181122 98.794937 -16.58135 4294967295
54.188297 100.57383 -16.750122 4294967295
54.197262 97.511765 -16.382378 4294967295
54.206665 98.969353 -16.507938 4294967295
54.226925 99.948227 -16.541727 4294967295
54.242683 98.664795 -16.344133 4294967295
54.267727 98.269989 -16.818977 4294967295
54.269875 99.485962 -16.335575 4294967295
54.278587 100.45921 -16.410576 4294967295
54.288746 97.635147 -16.673426 4294967295
54.293682 99.089874 -16.81481 4294967295
54.324238 99.750931 -16.776611 4294967295
54.344391 100.89088 -16.828459 4294967295
54.350761 98.473358 -16.540806 4294967295
54.368622 99.45092 -16.583183 4294967295
54.374256 99.938034 -16.61611 4294967295
54.403496 97.854187 -16.282211 4294967295
54.511356 99.7612 -16.709156 4294967295
54.511379 97.662895 -16.479454 4294967295
54.513954 100.40807 -16.770542 4294967295
54.527332 99.123764 -16.581654 4294967295
54.532433 99.449196 -16.598827 4294967295
54.554085 98.975952 -16.468767 4294967295
54.578773 99.311432 -16.416233 4294967295
54.610081 100.61922 -16.446169 4294967295
54.612076 97.952278 -16.754883 4294967295
54.627895 100.14399 -16.329771 4294967295
54.638065 100.06319 -16.891953 4294967295
54.642445 97.644737 -16.611568 4294967295
54.672688 98.466995 -16.59231 4294967295
54.679279 98.308907 -16.551203 4294967295
54.695091 98.801186 -16.54796 4294967295
54.718113 100.91146 -16.69566 4294967295
54.749306 98.182732 -16.284523 4294967295
54.765579 99.805847 -16.403305 4294967295
54.821503 98.45768 -16.66123 4294967295
54.823586 100.55679 -16.883259 4294967295
54.838818 97.820709 -16.529097 4294967295
54.879448 98.002541 -16.402393 4294967295
54.882446 100.91003 -16.709539 4294967295
54.885239 98.328392 -16.417141 4294967295
54.88974 99.299438 -16.507097 4294967295
54.895279 98.817871 -16.434452 4294967295
54.909855 100.117 -16.523937 4294967295
54.924698 100.44757 -16.506536 4294967295
54.928818 99.803802 -16.42127 4294967295
55.000416 97.979271 -16.570305 4294967295
55.002647 98.948952 -16.668278 4294967295
55.022053 99.927345 -16.705297 4294967295
55.056919 100.26811 -16.616879 4294967295
55.111328 99.165581 -16.30024 4294967295
55.12804 97.636551 -16.679056 4294967295
55.148701 98.77681 -16.72929 4294967295
55.158272 100.07289 -16.836481 4294967295
55.171654 100.56396 -16.841953 4294967295
55.174408 100.24258 -16.796919 4294967295
55.1898 99.443352 -16.654148 4294967295
55.211288 99.615746 -16.595621 4294967295
55.213684 98.325249 -16.445944 4294967295
55.214931 98.971771 -16.512112 4294967295
55.240253 98.015602 -16.316423 4294967295
55.249321 97.85862 -16.266624 4294967295
55.263962 98.673576 -16.302975 4294967295
55.311069 97.805809 -16.644245 4294967295
55.315567 97.96949 -16.645958 4294967295
55.3479 98.470047 -16.584333 4294967295
55.397717 99.46405 -16.513729 4294967295
55.397781 99.787041 -16.548775 4294967295
55.470135 100.47012 -16.363125 4294967295
55.480633 99.667801 -16.237707 4294967295
55.495888 99.998703 -16.218983 4294967295
55.51302 98.791847 -16.630793 4294967295
55.518787 98.471832 -16.575119 4294967295
55.525608 98.152321 -16.515696 4294967295
55.552605 99.942162 -16.614172 4294967295
55.557117 98.329613 -16.421818 4294967295
55.576447 100.76175 -16.618 4294967295
55.578453 100.11687 -16.540352 4294967295
55.587612 99.637054 -16.455027 4294967295
55.62112 99.169502 -16.283537 4294967295
55.631596 100.62867 -16.405254 4294967295
55.652142 100.31615 -16.297291 4294967295
55.659607 99.104271 -16.74279 4294967295
55.698788 98.639671 -16.551382 4294967295
55.715614 99.294098 -16.562429 4294967295
55.72168 97.682137 -16.364626 4294967295
55.749432 100.92622 -16.619209 4294967295
55.806976 100.4713 -16.362923 4294967295
55.809807 97.965569 -16.683313 4294967295
55.829212 99.105446 -16.738132 4294967295
55.833618 99.592003 -16.77544 4294967295
55.838963 98.30307 -16.615568 4294967295
55.839466 97.657417 -16.543283 4294967295
55.848095 98.630592 -16.618567 4294967295
55.863396 99.445671 -16.652651 4294967295
55.885479 98.487885 -16.468893 4294967295
55.890686 98.975021 -16.503384 4294967295
55.893875 100.91448 -16.703648 4294967295
55.898109 100.27075 -16.618198 4294967295
55.908585 100.76058 -16.634087 4294967295
55.923126 99.960541 -16.494596 4294967295
55.947159 98.841972 -16.286285 4294967295
55.950615 98.197441 -16.203527 4294967295
55.962067 97.635139 -16.704662 4294967295
55.965015 100.62809 -16.41721 4294967295
55.97282 99.33963 -16.24856 4294967295
56.017464 98.147148 -16.562017 4294967295
56.120579 98.360252 -16.21574 4294967295
56.130508 100.14252 -16.374657 4294967295
56.154068 99.023438 -16.168104 4294967295
56.156372 97.971443 -16.648193 4294967295
56.161949 98.458649 -16.681377 4294967295
56.168877 99.838921 -16.204025 4294967295
56.187241 100.4947 -16.209768 4294967295
56.193146 98.151276 -16.536148 4294967295
56.196972 99.606636 -16.681227 4294967295
56.228394 98.653465 -16.464748 4294967295
56.241447 97.85228 -16.330595 4294967295
56.245808 100.92351 -16.650042 4294967295
56.248646 99.79438 -16.516703 4294967295
56.249203 99.148537 -16.44426 4294967295
56.255985 98.3442 -16.332222 4294967295
56.260792 99.315933 -16.421026 4294967295
56.287159 100.29861 -16.433826 4294967295
56.302586 100.79118 -16.432323 4294967295
56.461761 99.817619 -16.359278 4294967295
56.462212 100.78724 -16.463408 4294967295
56.46682 99.981766 -16.359087 4294967295
56.481537 99.181274 -16.219139 4294967295
56.486595 100.31501 -16.324692 4294967295
56.505787 99.67836 -16.186619 4294967295
56.535492 97.670387 -16.463633 4294967295
56.537251 98.801949 -16.580734 4294967295
56.549194 97.515625 -16.397797 4294967295
56.562866 98.007072 -16.402523 4294967295
56.583244 98.663475 -16.401281 4294967295
56.600292 99.479858 -16.429371 4294967295
56.630489 99.010345 -16.270269 4294967295
56.641273 97.639824 -16.683849 4294967295
56.647079 100.95782 -16.423309 4294967295
56.652115 97.968178 -16.680939 4294967295
56.671597 100.00077 -16.231367 4294967295
56.686905 100.49343 -16.230368 4294967295
56.704708 98.317383 -16.53124 4294967295
56.782257 100.13351 -16.452333 4294967295
56.797493 100.78757 -16.469231 4294967295
56.801788 99.01226 -16.260403 4294967295
56.811382 99.663521 -16.297142 4294967295
56.81892 99.344109 -16.235415 4294967295
56.823399 98.699852 -16.1492 4294967295
56.842949 97.81826 -16.584448 4294967295
56.848621 99.844002 -16.183867 4294967295
56.891769 98.650253 -16.50098 4294967295
56.902023 97.685951 -16.359327 4294967295
56.902454 98.494034 -16.445847 4294967295
56.904701 98.010437 -16.385145 4294967295
56.927353 99.314362 -16.446436 4294967295
56.929657 100.93111 -16.61437 4294967295
56.936169 100.44979 -16.538706 4294967295
56.981689 99.180099 -16.238016 4294967295
57.024487 98.148285 -16.573591 4294967295
57.049133 99.775986 -16.663071 4294967295
57.102779 98.671997 -16.351667 4294967295
57.107761 99.159286 -16.38699 4294967295
57.115578 100.29435 -16.482788 4294967295
57.118694 100.13435 -16.454256 4294967295
57.120144 100.61983 -16.501972 4294967295
57.153263 98.858864 -16.192137 4294967295
57.165726 97.650665 -16.616171 4294967295
57.166409 98.13559 -16.666561 4294967295
57.172089 99.676544 -16.214128 4294967295
57.199333 99.444252 -16.69186 4294967295
57.208267 97.833237 -16.484623 4294967295
57.22179 99.778648 -16.648338 4294967295
57.224365 99.133751 -16.568939 4294967295
57.234318 98.330879 -16.446079 4294967295
57.235405 97.523468 -16.354275 4294967295
57.257404 100.28136 -16.576296 4294967295
57.269272 98.025024 -16.288343 4294967295
57.279755 99.646355 -16.42758 4294967295
57.329208 98.539726 -16.131033 4294967295
57.403671 99.301262 -16.548613 4294967295
57.424332 100.60426 -16.61698 4294967295
57.441212 100.77444 -16.575476 4294967295
57.442097 99.158951 -16.396465 4294967295
57.48402 99.503258 -16.284853 4294967295
57.514629 100.48862 -16.283258 4294967295
57.516445 99.681244 -16.188906 4294967295
57.542179 100.17928 -16.151596 4294967295
57.543045 97.833054 -16.492264 4294967295
57.549049 98.643913 -16.559193 4294967295
57.554676 100.10078 -16.69775 4294967295
57.564724 99.45961 -16.592268 4294967295
57.567982 98.006966 -16.422592 4294967295
57.594406 100.28248 -16.576365 4294967295
57.601353 99.639626 -16.48171 4294967295
57.621586 100.78107 -16.534052 4294967295
57.658871 99.99189 -16.315681 4294967295
57.715168 98.481636 -16.549942 4294967295
57.75771 100.2804 -16.594641 4294967295
57.76395 100.9299 -16.643145 4294967295
57.766544 99.638474 -16.493435 4294967295
57.782616 97.545227 -16.20863 4294967295
57.784084 97.707611 -16.221083 4294967295
57.791451 99.974258 -16.441563 4294967295
57.791508 99.16613 -16.353439 4294967295
57.797062 98.360657 -16.246077 4294967295
57.798969 99.493149 -16.362528 4294967295
57.820702 98.695732 -16.198626 4294967295
57.868221 98.474434 -16.603952 4294967295
57.879818 98.641777 -16.581024 4294967295
57.883396 100.82917 -16.208191 4294967295
57.884499 100.18294 -16.133974 4294967295
57.886532 97.513916 -16.434528 4294967295
57.891678 100.1019 -16.697786 4294967295
57.894112 99.295242 -16.601416 4294967295
57.894585 98.002708 -16.459152 4294967295
57.923756 97.855469 -16.33968 4294967295
57.94125 100.28856 -16.542282 4294967295
57.945675 98.836166 -16.368616 4294967295
57.969585 98.201401 -16.214775 4294967295
57.972267 100.62753 -16.469158 4294967295
58.019627 99.034706 -16.127953 4294967295
58.080585 98.173401 -16.415827 4294967295
58.080811 99.628059 -16.573204 4294967295
58.085693 99.468903 -16.538607 4294967295
58.100689 97.536713 -16.275366 4294967295
58.101086 98.506821 -16.379448 4294967295
58.10947 97.70269 -16.262295 4294967295
58.12151 99.971771 -16.466387 4294967295
58.133026 100.30086 -16.461367 4294967295
58.144535 98.043304 -16.175106 4294967295
58.160267 99.182922 -16.243296 4294967295
58.173 99.027588 -16.181282 4294967295
58.190472 100.81496 -16.313726 4294967295
58.193054 98.792496 -16.681692 4294967295
58.245277 99.464928 -16.569944 4294967295
58.276085 100.77336 -16.603113 4294967295
58.315716 99.823547 -16.359587 4294967295
58.339958 98.703827 -16.152063 4294967295
58.40588 99.946281 -16.650412 4294967295
58.410324 98.493935 -16.476864 4294967295
58.443848 99.157158 -16.430393 4294967295
58.445057 98.026115 -16.303188 4294967295
58.450394 100.93848 -16.600813 4294967295
58.45351 100.29353 -16.519712 4294967295
58.456127 99.486603 -16.422773 4294967295
58.461418 98.842575 -16.33407 4294967295
58.476864 99.82032 -16.385698 4294967295
58.483963 100.79388 -16.466393 4294967295
58.484825 98.369102 -16.199841 4294967295
58.498463 97.728943 -16.082041 4294967295
58.500938 98.700493 -16.178875 4294967295
58.521214 100.166 -16.266436 4294967295
58.525898 99.359787 -16.162254 4294967295
58.537979 99.689285 -16.155344 4294967295
58.551453 99.288879 -16.66024 4294967295
58.579819 97.848251 -16.403509 4294967295
58.665333 100.9626 -16.439734 4294967295
58.684624 99.193604 -16.179405 4294967295
58.721909 100.18267 -16.155128 4294967295
58.727047 98.96965 -16.600784 4294967295
58.729893 99.617546 -16.661112 4294967295
58.737823 98.005142 -16.457987 4294967295
58.743053 98.492676 -16.492477 4294967295
58.75536 97.690414 -16.361904 4294967295
58.761642 98.663513 -16.445429 4294967295
58.763573 99.95768 -16.579166 4294967295
58.778477 99.803505 -16.509827 4294967295
58.790062 99.324303 -16.416878 4294967295
58.807011 100.46451 -16.480898 4294967295
58.824924 100.95859 -16.471323 4294967295
58.826427 100.79767 -16.448544 4294967295
58.896839 99.455627 -16.649334 4294967295
58.960644 99.002403 -16.375134 4294967295
58.975735 97.877884 -16.199808 4294967295
58.984695 100.14625 -16.414516 4294967295
59.052944 99.857033 -16.142445 4294967295
59.080116 97.84684 -16.423027 4294967295
59.102009 98.504318 -16.41728 4294967295
59.126369 99.971558 -16.490713 4294967295
59.1292 97.547417 -16.217604 4294967295
59.151287 99.822342 -16.38674 4294967295
59.156448 100.63343 -16.456583 4294967295
59.157104 100.31037 -16.419205 4294967295
59.159885 98.371117 -16.198921 4294967295
52.291065 104.82428 -16.779829 4294967295
52.295841 103.21377 -16.585394 4294967295
52.30994 103.06003 -16.51685 4294967295
52.319874 104.67877 -16.658298 4294967295
52.32243 102.49334 -17.024117 4294967295
52.323849 104.35829 -16.608524 4294967295
52.32972 106.45863 -16.817736 4294967295
52.339447 103.39867 -16.445938 4294967295
52.344234 101.215 -16.80389 4294967295
52.382294 104.6217 -17.038748 4294967295
52.387829 106.32972 -16.590662 4294967295
52.392677 106.17107 -16.555464 4294967295
52.407265 105.44161 -17.037384 4294967295
52.470737 105.15405 -16.773457 4294967295
52.494312 105.81232 -16.759447 4294967295
52.497723 103.55544 -16.499104 4294967295
52.499706 101.85403 -16.919781 4294967295
52.512012 105.66079 -16.678017 4294967295
52.54073 103.81104 -16.984642 4294967295
52.544823 107.45377 -16.754803 4294967295
52.562969 102.53284 -16.762962 4294967295
52.563477 101.72659 -16.672575 4294967295
52.570683 106.82289 -16.590862 4294967295
52.573185 103.66736 -16.850178 4294967295
52.573349 102.37708 -16.707903 4294967295
52.594658 105.61439 -16.985409 4294967295
52.599766 104.16566 -16.807688 4294967295
52.606361 104.81444 -16.854795 4294967295
52.616379 103.04543 -16.623924 4294967295
52.618736 107.33401 -16.471087 4294967295
52.626759 105.95471 -16.905376 4294967295
52.634476 102.73245 -16.523384 4294967295
52.636658 101.35451 -16.978271 4294967295
52.649246 105.32191 -16.753681 4294967295
52.652008 102.90321 -16.478024 4294967295
52.65567 104.03473 -16.588858 4294967295
52.657875 103.39048 -16.510065 4294967295
52.662796 106.61995 -16.846615 4294967295
52.664894 106.29849 -16.803663 4294967295
52.695267 102.83695 -16.926876 4294967295
52.703556 101.22852 -16.720026 4294967295
52.704193 104.54527 -16.467468 4294967295
52.714958 105.51949 -16.535061 4294967295
52.719429 102.04343 -16.751503 4294967295
52.720215 105.84515 -16.551584 4294967295
52.73616 103.34277 -16.833002 4294967295
52.746014 107.15054 -16.600544 4294967295
52.756359 104.48276 -16.88434 4294967295
52.774509 101.58864 -16.500349 4294967295
52.798706 101.92419 -16.448778 4294967295
52.81768 106.77476 -16.91184 4294967295
52.833687 105.81573 -16.748119 4294967295
52.852558 101.05781 -16.770746 4294967295
52.864384 105.67134 -16.620127 4294967295
52.867573 105.0276 -16.537817 4294967295
52.872986 101.22986 -16.715073 4294967295
52.873379 106.16042 -16.640942 4294967295
52.891365 103.33656 -16.879177 4294967295
52.893982 106.49462 -16.602341 4294967295
52.894039 107.46287 -16.708391 4294967295
52.895111 105.36551 -16.474302 4294967295
52.901402 101.56749 -16.648413 4294967295
52.905048 102.6987 -16.759232 4294967295
52.908451 107.3096 -16.638906 4294967295
52.922634 103.99865 -16.837688 4294967295
52.929684 102.38919 -16.635353 4294967295
52.943165 107.16767 -16.496517 4294967295
52.943615 104.33267 -16.797764 4294967295
52.953484 102.24051 -16.532166 4294967295
52.956676 105.14639 -16.839378 4294967295
52.960693 103.6966 -16.665634 4294967295
52.962585 101.43842 -16.410927 4294967295
52.965569 106.76435 -16.98443 4294967295
52.982582 101.19972 -16.924885 4294967295
52.995712 104.52238 -16.628437 4294967295
53.012115 105.98361 -16.728884 4294967295
53.028225 101.06242 -16.743397 4294967295
53.038013 106.96613 -16.742147 4294967295
53.064983 102.04974 -16.717684 4294967295
53.086143 106.67023 -16.534025 4294967295
53.103653 101.58615 -16.525812 4294967295
53.104694 105.62009 -16.96452 4294967295
53.107655 105.29911 -16.918528 4294967295
53.109257 102.88004 -16.647329 4294967295
53.126652 106.11612 -16.938856 4294967295
53.157871 105.00397 -16.703043 4294967295
53.158752 103.5521 -16.540581 4294967295
53.165699 102.58743 -16.409431 4294967295
53.192245 104.05439 -16.473547 4294967295
53.200089 106.96362 -16.76404 4294967295
53.200439 101.54916 -16.781614 4294967295
53.202534 103.73712 -16.401239 4294967295
53.215569 102.04111 -16.78046 4294967295
53.21817 106.65096 -16.66382 4294967295
53.219307 104.87618 -16.465014 4294967295
53.219967 102.36609 -16.800083 4294967295
53.235268 102.85821 -16.798302 4294967295
53.239017 107.30814 -16.659874 4294967295
53.246067 105.12234 -17.007254 4294967295
53.250366 103.67293 -16.832655 4294967295
53.263065 104.00244 -16.822523 4294967295
53.276497 107.65198 -16.560915 4294967295
53.278606 101.10619 -16.448288 4294967295
53.287189 101.27209 -16.435217 4294967295
53.288921 104.66181 -16.800636 4294967295
53.289406 105.95268 -16.940411 4294967295
53.295742 103.21329 -16.616953 4294967295
53.296917 106.44078 -16.966576 4294967295
53.297913 102.56894 -16.538378 4294967295
53.300819 104.18423 -16.704927 4294967295
53.308418 105.47918 -16.819242 4294967295
53.308811 104.99535 -16.764763 4294967295
53.312943 101.93131 -16.413696 4294967295
53.314114 105.80499 -16.834223 4294967295
53.319611 106.77604 -16.920662 4294967295
53.331669 106.29873 -16.824404 4294967295
53.332607 103.39449 -16.502527 4294967295
53.333729 101.85403 -16.941614 4294967295
53.351093 101.21798 -16.808676 4294967295
53.354084 105.34289 -16.637951 4294967295
53.382053 103.81533 -16.980766 4294967295
53.388062 102.52808 -16.81778 4294967295
53.39864 104.63078 -17.009798 4294967295
53.408493 107.47115 -16.67309 4294967295
53.422577 106.67196 -16.534174 4294967295
53.427349 106.99747 -16.552467 4294967295
53.446484 107.33101 -16.519342 4294967295
53.48856 107.10002 -16.953205 4294967295
53.504398 107.59288 -16.949579 4294967295
53.519058 101.21853 -16.809113 4294967295
53.523602 102.76168 -16.350126 4294967295
53.524349 102.02791 -16.878595 4294967295
53.530548 106.1552 -16.696836 4294967295
53.532238 107.28577 -16.814611 4294967295
53.534531 103.41331 -16.381788 4294967295
53.538204 105.99804 -16.651749 4294967295
53.55069 103.33244 -16.925802 4294967295
53.550892 104.8751 -16.482485 4294967295
53.565037 104.39847 -16.378759 4294967295
53.565754 105.20609 -16.464691 4294967295
53.566906 105.69102 -16.513655 4294967295
53.568996 103.18093 -16.842636 4294967295
53.569435 101.72904 -16.681915 4294967295
53.572365 104.15069 -16.936678 4294967295
53.575401 106.98709 -16.624796 4294967295
53.578545 102.54066 -16.737747 4294967295
53.582001 107.47501 -16.654249 4294967295
