# .PCD v0.7 - Point Cloud Data file format
VERSION 0.7
FIELDS x y z rgb
SIZE 4 4 4 4
TYPE F F F U
COUNT 1 1 1 1
WIDTH 1120
HEIGHT 1
VIEWPOINT 0 0 0 1 0 0 0
POINTS 1120
DATA ascii
-72.843628 59.321232 -32.357964 4294967295
-72.819092 60.549801 -32.289066 4294967295
-72.803566 62.971611 -32.575493 4294967295
-72.803329 62.37075 -32.4519 4294967295
-72.801758 61.771183 -32.311291 4294967295
-72.800789 63.2752 -32.600735 4294967295
-72.793732 63.583576 -32.571888 4294967295
-72.791603 62.233246 -32.273506 4294967295
-72.775612 63.45356 -32.312687 4294967295
-72.748039 56.707474 -32.55405 4294967295
-72.737396 57.018646 -32.479992 4294967295
-72.73455 57.773273 -32.594807 4294967295
-72.729141 58.830952 -32.737415 4294967295
-72.726112 57.631325 -32.458134 4294967295
-72.722313 57.183884 -32.319786 4294967295
-72.714165 57.342361 -32.247009 4294967295
-72.710594 58.398773 -32.41304 4294967295
-72.707771 58.100838 -32.317066 4294967295
-72.704361 58.705853 -32.394642 4294967295
-72.697716 59.314125 -32.431389 4294967295
-72.69622 59.014919 -32.352192 4294967295
-72.694221 58.565746 -32.236557 4294967295
-72.690002 59.622818 -32.394291 4294967295
-72.686317 60.97963 -32.618904 4294967295
-72.685333 60.229095 -32.455902 4294967295
-72.681236 60.534073 -32.464504 4294967295
-72.673416 59.790401 -32.215256 4294967295
-72.672523 61.595547 -32.565517 4294967295
-72.67157 60.393894 -32.312469 4294967295
-72.664352 60.702248 -32.281788 4294967295
-72.660477 63.561996 -32.804974 4294967295
-72.659439 63.262722 -32.731678 4294967295
-72.659248 61.309139 -32.337963 4294967295
-72.659164 61.76025 -32.427227 4294967295
-72.651062 62.520626 -32.47567 4294967295
-72.648315 63.725811 -32.681881 4294967295
-72.632866 62.841244 -32.306587 4294967295
-72.627327 63.148033 -32.29705 4294967295
-72.574364 58.081318 -32.547611 4294967295
-72.56823 58.237835 -32.500519 4294967295
-72.553612 57.650772 -32.196259 4294967295
-72.53788 58.87009 -32.23914 4294967295
-72.53257 59.477184 -32.292686 4294967295
-72.52597 61.138065 -32.540459 4294967295
-72.524635 60.08699 -32.31319 4294967295
-72.471092 63.602993 -32.331917 4294967295
-72.426598 57.474716 -32.476646 4294967295
-72.425682 58.528198 -32.675297 4294967295
-72.422348 58.230846 -32.573467 4294967295
-72.418526 56.880894 -32.255306 4294967295
-72.411301 57.640228 -32.314877 4294967295
-72.400444 57.951889 -32.238731 4294967295
-72.399338 59.30669 -32.495113 4294967295
-72.387489 58.86755 -32.256493 4294967295
-72.382973 59.624245 -32.349995 4294967295
-72.381203 59.926857 -32.387829 4294967295
-72.379478 60.680481 -32.516251 4294967295
-72.37484 59.783035 -32.278034 4294967295
-72.366325 60.393505 -32.291462 4294967295
-72.358589 61.303974 -32.374611 4294967295
-72.35817 61.154045 -32.339336 4294967295
-72.357361 61.606003 -32.41925 4294967295
-72.354675 61.759235 -32.415546 4294967295
-72.354675 62.961742 -32.65554 4294967295
-72.354469 62.36079 -32.532986 4294967295
-72.352692 61.009449 -32.240685 4294967295
-72.347397 61.917412 -32.354389 4294967295
-72.340309 61.473831 -32.175552 4294967295
-72.337883 62.228409 -32.295269 4294967295
-72.3237 62.845345 -32.237686 4294967295
-72.322098 63.14785 -32.277611 4294967295
-72.252068 56.592876 -32.011307 4294967295
-72.244034 58.55714 -32.300655 4294967295
-72.241913 59.612144 -32.483971 4294967295
-72.217697 60.088303 -32.27121 4294967295
-72.198822 62.664642 -32.544651 4294967295
-72.196136 63.268799 -32.630795 4294967295
-72.185608 62.528645 -32.349754 4294967295
-72.176826 63.440372 -32.419773 4294967295
-72.123367 58.073727 -32.598801 4294967295
-72.114311 57.932293 -32.456024 4294967295
-72.107475 58.540741 -32.490467 4294967295
-72.104218 57.490871 -32.24044 4294967295
-72.102257 58.696377 -32.455341 4294967295
-72.098862 56.894051 -32.053959 4294967295
-72.098793 59.602207 -32.591579 4294967295
-72.097595 56.594177 -31.97827 4294967295
-72.093544 57.80233 -32.167278 4294967295
-72.08847 58.860668 -32.31348 4294967295
-72.083267 59.166805 -32.308456 4294967295
-72.081108 60.221886 -32.490849 4294967295
-72.080055 59.922192 -32.417908 4294967295
-72.079781 60.975052 -32.623783 4294967295
-72.07785 58.269386 -32.061428 4294967295
-72.076263 59.775673 -32.340813 4294967295
-72.068718 60.535522 -32.396332 4294967295
-72.066048 60.387894 -32.333157 4294967295
-72.060524 61.747135 -32.533398 4294967295
-72.057831 61.59964 -32.470051 4294967295
-72.056961 61.299812 -32.39941 4294967295
-72.048721 60.104916 -32.057541 4294967295
-72.048195 60.70734 -32.170689 4294967295
-72.044991 61.162022 -32.220535 4294967295
-72.0448 62.515743 -32.487091 4294967295
-72.040161 61.467991 -32.220135 4294967295
-72.038231 62.071697 -32.315693 4294967295
-72.031319 63.13179 -32.438889 4294967295
-72.024269 63.740913 -32.470638 4294967295
-72.023674 63.440876 -32.403534 4294967295
-72.017174 62.996853 -32.23304 4294967295
-72.016594 63.59903 -32.345356 4294967295
-71.966263 57.17524 -32.352711 4294967295
-71.963837 56.726128 -32.232876 4294967295
-71.943581 59.003021 -32.429138 4294967295
-71.923897 58.420826 -32.065208 4294967295
-71.897682 62.359337 -32.515793 4294967295
-71.809654 57.630146 -32.382187 4294967295
-71.79718 58.695621 -32.436287 4294967295
-71.795494 58.095459 -32.296165 4294967295
-71.794769 59.149319 -32.495792 4294967295
-71.793449 57.495445 -32.151646 4294967295
-71.792648 58.549686 -32.350361 4294967295
-71.788727 57.801098 -32.152802 4294967295
-71.788475 59.606918 -32.507282 4294967295
-71.766922 60.230637 -32.359577 4294967295
-71.757126 61.744881 -32.53619 4294967295
-71.756302 60.392017 -32.257946 4294967295
-71.754707 59.791737 -32.119022 4294967295
-71.751472 60.998817 -32.31728 4294967295
-71.751312 61.149414 -32.345108 4294967295
-71.747101 62.657726 -32.590759 4294967295
-71.741302 62.212849 -32.429729 4294967295
-71.740685 63.115685 -32.600685 4294967295
-71.731133 62.975693 -32.45282 4294967295
-71.717865 63.441265 -32.378017 4294967295
-71.660118 57.024803 -32.290966 4294967295
-71.658653 57.628185 -32.391903 4294967295
-71.653152 58.385876 -32.472729 4294967295
-71.651398 56.732094 -32.123722 4294967295
-71.634735 57.199776 -32.007214 4294967295
-71.632812 58.706978 -32.281105 4294967295
-71.628532 59.012215 -32.287781 4294967295
-71.626389 59.46579 -32.350456 4294967295
-71.581978 62.37022 -32.367493 4294967295
-71.564812 62.839909 -32.244995 4294967295
-71.561806 63.444862 -32.326744 4294967295
-71.559135 63.297348 -32.264137 4294967295
-71.487579 56.892845 -32.006046 4294967295
-71.484482 58.250839 -32.235279 4294967295
-71.462486 57.820652 -31.875393 4294967295
-71.456612 60.385708 -32.30798 4294967295
-71.454155 60.990051 -32.396503 4294967295
-71.450111 60.241879 -32.198315 4294967295
-71.449562 62.047752 -32.547626 4294967295
-71.445816 60.697758 -32.234516 4294967295
-71.442612 61.904697 -32.432484 4294967295
-71.433945 60.107849 -31.969751 4294967295
-71.431427 61.314621 -32.176308 4294967295
-71.428673 62.821987 -32.439167 4294967295
-71.425163 61.622154 -32.158607 4294967295
-71.420677 61.175308 -32.014442 4294967295
-71.42057 62.98111 -32.369205 4294967295
-71.419624 61.778469 -32.120174 4294967295
-71.411987 63.140789 -32.293365 4294967295
-71.410469 63.744106 -32.393364 4294967295
-71.405685 63.448483 -32.275242 4294967295
-71.353905 57.927876 -32.437233 4294967295
-71.346054 57.333416 -32.22234 4294967295
-71.341721 58.240749 -32.347046 4294967295
-71.3414 56.886173 -32.076214 4294967295
-71.340706 57.187992 -32.127014 4294967295
-71.339912 58.543514 -32.384129 4294967295
-71.331047 57.046638 -31.978828 4294967295
-71.328072 57.802456 -32.090538 4294967295
-71.326363 58.857906 -32.277107 4294967295
-71.325371 56.75079 -31.849819 4294967295
-71.323235 59.011524 -32.268345 4294967295
-71.322845 59.914799 -32.441364 4294967295
-71.304611 61.287464 -32.484318 4294967295
-71.301163 59.786236 -32.145767 4294967295
-71.296387 61.446465 -32.413063 4294967295
-71.289001 59.497364 -31.937311 4294967295
-71.270142 63.128971 -32.41711 4294967295
-71.263649 63.436813 -32.396725 4294967295
-71.262444 62.234463 -32.145073 4294967295
-71.259521 62.689022 -32.19812 4294967295
-71.190475 58.690479 -32.443142 4294967295
-71.181068 59.301712 -32.446396 4294967295
-71.167236 58.412258 -32.099716 4294967295
-71.160667 60.375572 -32.40387 4294967295
-71.15789 58.572002 -32.014996 4294967295
-71.156395 59.627399 -32.203846 4294967295
-71.139969 59.79446 -32.03252 4294967295
-71.120461 60.717693 -31.971481 4294967295
-71.119675 61.320709 -32.080254 4294967295
-71.112617 62.833126 -32.289623 4294967295
-71.103569 62.240749 -32.060795 4294967295
-71.102448 63.144947 -32.224464 4294967295
-71.099411 62.094589 -31.980438 4294967295
-71.094032 63.605431 -32.210419 4294967295
-71.079826 63.319759 -31.977716 4294967295
-71.060318 56.862213 -32.353428 4294967295
-71.046028 57.628536 -32.326736 4294967295
-71.044357 57.931202 -32.365498 4294967295
-71.033051 57.038628 -32.05032 4294967295
-71.032761 56.737659 -31.987652 4294967295
-71.030853 58.546444 -32.318855 4294967295
-71.025383 59.153896 -32.370247 4294967295
-71.013443 58.864635 -32.165585 4294967295
-71.012695 58.112446 -32.008778 4294967295
-71.010254 57.210945 -31.801714 4294967295
-71.006096 60.678177 -32.430248 4294967295
-71.005821 59.4744 -32.190784 4294967295
-71.003746 60.078602 -32.28355 4294967295
-71.001976 59.929863 -32.232445 4294967295
-70.993591 60.841457 -32.307339 4294967295
-70.989929 60.54417 -32.203701 4294967295
-70.984329 59.345226 -31.899181 4294967295
-70.979332 62.210545 -32.399185 4294967295
-70.973618 61.464073 -32.182007 4294967295
-70.971039 62.67067 -32.386612 4294967295
-70.968742 61.920685 -32.211182 4294967295
-70.943985 62.398273 -31.998158 4294967295
-70.877876 56.739193 -31.951797 4294967295
-70.874031 58.098404 -32.170517 4294967295
-70.858391 57.66161 -31.89183 4294967295
-70.84481 58.879898 -31.962591 4294967295
-70.841782 61.291752 -32.397324 4294967295
-70.830254 61.905613 -32.375114 4294967295
-70.817947 60.412834 -31.930952 4294967295
-70.816849 62.822529 -32.388916 4294967295
-70.812935 62.525719 -32.282486 4294967295
-70.780083 63.31319 -32.030926 4294967295
-70.77932 63.615086 -32.080513 4294967295
-70.74144 56.874012 -32.16954 4294967295
-70.731804 56.732433 -32.023216 4294967295
-70.730705 58.390041 -32.333668 4294967295
-70.725586 58.093861 -32.212814 4294967295
-70.72538 57.039761 -32.00428 4294967295
-70.71714 57.951401 -32.080952 4294967295
-70.716957 57.499683 -31.990435 4294967295
-70.716148 59.157001 -32.30434 4294967295
-70.711784 57.805912 -31.986601 4294967295
-70.711685 58.860271 -32.191349 4294967295
-70.710556 56.601635 -31.73604 4294967295
-70.702141 58.267124 -31.957958 4294967295
-70.699188 58.721889 -32.010468 4294967295
-70.697205 60.380173 -32.310055 4294967295
-70.697067 59.47699 -32.131882 4294967295
-70.695007 59.78019 -32.165775 4294967295
-70.688538 60.238361 -32.175674 4294967295
-70.685226 59.338104 -31.958975 4294967295
-70.680328 60.999439 -32.223248 4294967295
-70.67569 61.455791 -32.25531 4294967295
-70.674911 59.950851 -31.951752 4294967295
-70.668274 60.108135 -31.900694 4294967295
-70.666443 62.368465 -32.319706 4294967295
-70.665184 62.670769 -32.363239 4294967295
-70.663284 61.318005 -32.075645 4294967295
-70.652412 62.834743 -32.238049 4294967295
-70.651466 63.588192 -32.373573 4294967295
-70.644958 62.089848 -32.000782 4294967295
-70.642624 63.146156 -32.178314 4294967295
-70.545616 58.420979 -31.932678 4294967295
-70.515785 61.914532 -32.247799 4294967295
-70.511505 60.563686 -31.93191 4294967295
-70.498344 61.179565 -31.890446 4294967295
-70.45932 63.630184 -31.889122 4294967295
-70.418625 57.491932 -32.05843 4294967295
-70.417961 57.191235 -31.991825 4294967295
-70.417702 58.998863 -32.340553 4294967295
-70.416565 56.891182 -31.916298 4294967295
-70.416031 57.795685 -32.08585 4294967295
-70.416 57.343754 -31.997507 4294967295
-70.409164 57.651562 -31.973726 4294967295
-70.408066 56.597672 -31.755108 4294967295
-70.396561 58.868877 -32.056538 4294967295
-70.391403 59.9282 -32.199642 4294967295
-70.386978 59.480774 -32.058392 4294967295
-70.384964 58.277428 -31.799492 4294967295
-70.382935 59.183468 -31.951035 4294967295
-70.380363 58.733963 -31.832052 4294967295
-70.378403 60.242348 -32.101677 4294967295
-70.376915 58.435894 -31.731806 4294967295
-70.376656 60.394699 -32.109936 4294967295
-70.371834 59.646366 -31.90522 4294967295
-70.36792 61.608158 -32.239201 4294967295
-70.365166 60.707474 -32.03019 4294967295
-70.360413 61.164112 -32.060902 4294967295
-70.358475 60.563591 -31.920298 4294967295
-70.35553 61.771465 -32.119354 4294967295
-70.353279 62.526585 -32.23875 4294967295
-70.347885 61.327496 -31.939423 4294967295
-70.340721 62.087944 -31.999691 4294967295
-70.337921 62.843781 -32.112534 4294967295
-70.323906 62.707901 -31.914549 4294967295
-70.323715 63.310493 -32.02943 4294967295
-70.270233 56.733959 -31.95533 4294967295
-70.260353 58.099293 -32.100124 4294967295
-70.236931 57.217239 -31.64296 4294967295
-70.235542 57.369312 -31.655523 4294967295
-70.230995 57.675121 -31.659527 4294967295
-70.217331 60.250282 -31.993134 4294967295
-70.210892 61.009888 -32.062115 4294967295
-70.198303 61.474541 -31.998774 4294967295
-70.180359 61.944847 -31.871204 4294967295
-70.108345 56.892593 -31.866283 4294967295
-70.102943 57.801907 -31.976942 4294967295
-70.095802 58.260754 -31.979092 4294967295
-70.093208 58.71526 -32.03569 4294967295
-70.088928 59.020714 -32.0429 4294967295
-70.080711 58.4259 -31.827543 4294967295
-70.08007 57.371258 -31.615173 4294967295
-70.074425 58.88409 -31.839945 4294967295
-70.074394 59.486881 -31.956455 4294967295
-70.072014 60.543728 -32.132423 4294967295
-70.070938 59.791607 -31.973541 4294967295
-70.064651 58.59206 -31.664412 4294967295
-70.061142 59.198421 -31.739332 4294967295
-70.051216 61.01651 -31.971144 4294967295
-70.047653 62.526215 -32.220524 4294967295
-70.046768 60.267582 -31.771856 4294967295
-70.043579 62.229275 -32.113407 4294967295
-70.042732 60.120876 -31.694267 4294967295
-70.04155 61.930149 -32.030743 4294967295
-70.039093 61.179424 -31.855255 4294967295
-70.038536 61.481312 -31.907078 4294967295
-70.027817 62.396191 -31.954042 4294967295
-70.019821 63.007027 -31.975178 4294967295
-70.018883 62.104111 -31.788679 4294967295
-70.007126 63.47226 -31.910887 4294967295
-69.998451 63.330757 -31.778017 4294967295
-69.945236 57.35387 -31.821777 4294967295
-69.919731 58.131699 -31.663128 4294967295
-69.919624 60.693604 -32.157726 4294967295
-69.918816 60.242523 -32.060555 4294967295
-69.902824 60.559738 -31.928062 4294967295
-69.8909 61.927647 -32.048172 4294967295
-69.873024 61.192432 -31.689114 4294967295
-69.866058 63.610226 -32.072472 4294967295
-69.8078 57.037552 -31.938068 4294967295
-69.776917 59.478115 -32.03632 4294967295
-69.772072 58.729279 -31.833067 4294967295
-69.770653 60.53883 -32.165516 4294967295
-69.767258 59.788906 -31.979576 4294967295
-69.765991 58.43359 -31.702372 4294967295
-69.765907 57.981319 -31.613943 4294967295
-69.761978 60.698105 -32.091366 4294967295
-69.760773 59.64455 -31.87328 4294967295
-69.758118 61.153877 -32.132759 4294967295
-69.756233 60.251808 -31.935722 4294967295
-69.756195 58.895279 -31.67314 4294967295
-69.755127 59.197838 -31.718672 4294967295
-69.753967 60.404739 -31.937866 4294967295
-69.752739 61.46056 -32.126904 4294967295
-69.751984 59.050106 -31.652174 4294967295
-69.750496 59.353088 -31.692644 4294967295
-69.742981 60.867744 -31.894423 4294967295
-69.73497 61.026463 -31.828279 4294967295
-69.732437 62.836895 -32.147255 4294967295
-69.731377 61.783531 -31.931046 4294967295
-69.727699 61.937946 -31.916428 4294967295
-69.727325 63.595173 -32.231918 4294967295
-69.725807 62.090553 -31.922991 4294967295
-69.719337 62.699848 -31.962452 4294967295
-69.714073 63.006611 -31.958065 4294967295
-69.708092 63.314156 -31.945076 4294967295
-69.696312 63.477158 -31.8342 4294967295
-69.651985 57.341267 -31.951773 4294967295
-69.642822 58.103474 -31.98834 4294967295
-69.63765 57.203815 -31.752432 4294967295
-69.635101 56.904572 -31.664019 4294967295
-69.632568 57.96241 -31.837477 4294967295
-69.62867 59.623936 -32.110981 4294967295
-69.598038 62.064651 -32.212315 4294967295
-69.584213 61.476097 -31.932213 4294967295
-69.578552 62.536491 -32.068371 4294967295
-69.507591 56.729965 -31.926746 4294967295
-69.468788 60.082443 -32.105824 4294967295
-69.435738 59.964046 -31.685793 4294967295
-69.431839 61.023148 -31.842758 4294967295
-69.429108 62.833988 -32.158459 4294967295
-69.428421 59.820385 -31.57023 4294967295
-69.424889 61.934368 -31.934666 4294967295
-69.420937 61.636967 -31.829872 4294967295
-69.413933 63.602871 -32.124001 4294967295
-69.410606 62.250309 -31.823759 4294967295
-69.410019 61.497223 -31.671785 4294967295
-69.408501 62.553883 -31.856829 4294967295
-69.408104 63.006348 -31.939165 4294967295
-69.405632 63.310249 -31.967968 4294967295
-69.386765 63.480602 -31.773991 4294967295
-69.357613 56.877548 -31.980722 4294967295
-69.342461 57.192997 -31.859781 4294967295
-69.33744 58.403687 -32.032307 4294967295
-69.331764 57.504452 -31.791489 4294967295
-69.33046 57.656456 -31.805048 4294967295
-69.326027 57.057301 -31.636808 4294967295
-69.325546 59.168587 -32.036766 4294967295
-69.319862 59.023304 -31.940758 4294967295
-69.318108 58.72348 -31.86212 4294967295
-69.314896 60.233776 -32.113762 4294967295
-69.307983 59.939129 -31.974371 4294967295
-69.29612 58.895199 -31.63163 4294967295
-69.292519 58.596962 -31.531183 4294967295
-69.29216 60.708233 -31.932503 4294967295
-69.290329 61.915527 -32.142513 4294967295
-69.287201 59.657795 -31.671232 4294967295
-69.278618 60.118523 -31.65691 4294967295
-69.171906 58.264381 -31.84548 4294967295
-69.167305 58.117905 -31.76239 4294967295
-69.159492 57.974384 -31.641539 4294967295
-69.141418 60.25354 -31.862741 4294967295
-69.135994 61.615368 -32.059093 4294967295
-69.128036 60.568169 -31.763193 4294967295
-69.109909 63.299351 -32.070278 4294967295
-69.092316 62.71463 -31.748041 4294967295
-69.088058 62.568226 -31.669046 4294967295
-69.084404 63.174999 -31.741766 4294967295
-69.052544 56.725075 -31.941784 4294967295
-69.038857 57.039124 -31.838903 4294967295
-69.017159 58.114819 -31.786348 4294967295
-69.015411 57.663963 -31.679253 4294967295
-69.014412 59.323616 -31.985142 4294967295
-69.012886 57.967972 -31.707405 4294967295
-69.004387 58.880844 -31.780954 4294967295
-69.003189 58.580353 -31.709162 4294967295
-68.998726 59.790943 -31.887733 4294967295
-68.998108 59.640774 -31.851622 4294967295
-68.997833 58.434563 -31.617365 4294967295
-68.995186 58.286186 -31.557442 4294967295
-68.989555 60.553627 -31.924467 4294967295
-68.986893 60.706978 -31.922163 4294967295
-68.985672 59.501926 -31.676901 4294967295
-68.974716 61.623444 -31.952494 4294967295
-68.968552 61.780342 -31.909084 4294967295
-68.96579 60.275261 -31.588127 4294967295
-68.965103 60.426758 -31.608927 4294967295
-68.964859 62.688335 -32.038853 4294967295
-68.962128 62.088264 -31.891529 4294967295
-68.957047 63.299072 -32.062695 4294967295
-68.954399 63.452488 -32.060455 4294967295
-68.947479 61.349056 -31.575518 4294967295
-68.943687 63.614269 -31.963839 4294967295
-68.869911 57.204033 -31.671354 4294967295
-68.83757 61.155281 -32.042294 4294967295
-68.810753 61.332565 -31.757734 4294967295
-68.806664 62.391991 -31.911482 4294967295
-68.797516 61.798119 -31.689472 4294967295
-68.736771 56.883789 -31.836445 4294967295
-68.723282 57.650242 -31.822927 4294967295
-68.722542 56.745781 -31.641602 4294967295
-68.721085 57.501423 -31.768513 4294967295
-68.716904 58.561008 -31.921209 4294967295
-68.711617 57.359222 -31.629244 4294967295
-68.706184 57.21328 -31.537125 4294967295
-68.705276 57.817661 -31.641651 4294967295
-68.69873 59.935257 -31.968094 4294967295
-68.695595 58.279236 -31.61512 4294967295
-68.695595 58.731808 -31.701466 4294967295
-68.692245 59.187477 -31.748663 4294967295
-68.688202 59.49297 -31.759045 4294967295
-68.688118 60.397804 -31.930672 4294967295
-68.684608 59.043861 -31.630848 4294967295
-68.682777 59.347298 -31.667055 4294967295
-68.681328 60.102806 -31.794044 4294967295
-68.680023 58.444641 -31.462242 4294967295
-68.674767 60.712357 -31.832586 4294967295
-68.668228 61.472652 -31.900181 4294967295
-68.66333 61.779041 -31.900553 4294967295
-68.657578 60.879982 -31.66095 4294967295
-68.655174 60.580643 -31.575455 4294967295
-68.653412 60.280628 -31.497368 4294967295
-68.652771 63.146282 -32.036243 4294967295
-68.651436 61.036831 -31.618212 4294967295
-68.643463 62.854321 -31.870321 4294967295
-68.638504 62.708595 -31.783825 4294967295
-68.634941 63.315269 -31.857344 4294967295
-68.634346 62.411217 -31.677931 4294967295
-68.632446 61.658974 -31.511995 4294967295
-68.630135 63.470959 -31.830076 4294967295
-68.627678 62.26712 -31.571428 4294967295
-68.614815 63.637505 -31.680449 4294967295
-68.572739 56.591457 -31.641205 4294967295
-68.522461 58.750206 -31.458681 4294967295
-68.518402 59.961132 -31.641306 4294967295
-68.517441 61.168617 -31.859879 4294967295
-68.505394 62.085209 -31.892134 4294967295
-68.464714 62.88018 -31.563091 4294967295
-68.421631 56.589191 -31.65435 4294967295
-68.413818 57.501564 -31.735889 4294967295
-68.41053 56.900963 -31.582993 4294967295
-68.402901 57.360603 -31.580521 4294967295
-68.399902 57.212399 -31.517078 4294967295
-68.399055 58.872879 -31.822784 4294967295
-68.398544 57.968182 -31.644793 4294967295
-68.392845 58.426098 -31.664753 4294967295
-68.39164 59.332352 -31.822786 4294967295
-68.386421 58.281158 -31.561567 4294967295
-68.378975 59.042572 -31.618607 4294967295
-68.378922 60.24939 -31.847424 4294967295
-68.376434 60.854988 -31.933193 4294967295
-68.373352 59.500511 -31.639458 4294967295
-68.357391 61.175182 -31.769886 4294967295
-68.357361 60.722717 -31.683546 4294967295
-68.356407 59.969292 -31.5291 4294967295
-68.355736 60.573444 -31.635984 4294967295
-68.353455 60.123016 -31.523548 4294967295
-68.35009 62.087208 -31.857246 4294967295
-68.344696 61.33847 -31.651445 4294967295
-68.342857 61.64196 -31.687508 4294967295
-68.341988 61.793655 -31.706018 4294967295
-68.341965 62.396908 -31.820446 4294967295
-68.333389 62.85791 -31.807072 4294967295
-68.332718 63.461685 -31.913809 4294967295
-68.329071 62.259003 -31.642427 4294967295
-68.324104 62.716484 -31.670822 4294967295
-68.323563 62.5662 -31.63592 4294967295
-68.320328 63.323563 -31.741697 4294967295
-68.317261 61.969051 -31.448273 4294967295
-68.305717 63.640121 -31.629864 4294967295
-68.250633 58.113865 -31.724062 4294967295
-68.228844 58.888489 -31.61529 4294967295
-68.209572 61.471363 -31.879068 4294967295
-68.1577 63.33305 -31.62322 4294967295
-68.080307 58.88382 -31.65889 4294967295
-68.077652 59.48983 -31.742676 4294967295
-68.072899 59.192532 -31.630716 4294967295
-68.066353 58.594917 -31.440929 4294967295
-68.063828 59.351948 -31.554756 4294967295
-68.063103 59.956234 -31.660698 4294967295
-68.060631 60.260342 -31.68939 4294967295
-68.059776 60.713741 -31.765251 4294967295
-68.054756 61.472794 -31.850149 4294967295
-68.042961 61.03175 -31.628622 4294967295
-68.042213 61.635925 -31.734238 4294967295
-68.039406 62.091194 -31.787642 4294967295
-68.03447 63.000965 -31.902052 4294967295
-68.033875 62.398338 -31.781067 4294967295
-68.03186 61.947823 -31.672188 4294967295
-68.021027 62.260284 -31.604498 4294967295
-68.020096 62.562931 -31.650948 4294967295
-68.016731 62.717155 -31.640762 4294967295
-68.005287 63.482952 -31.651735 4294967295
-67.995544 63.341976 -31.511072 4294967295
-67.962914 57.190811 -31.746714 4294967295
-67.958496 56.741978 -31.610281 4294967295
-67.946426 58.262051 -31.75691 4294967295
-67.94487 57.056034 -31.510687 4294967295
-67.931671 57.67178 -31.473093 4294967295
-67.888596 60.428978 -31.491655 4294967295
-67.885857 60.733452 -31.517284 4294967295
-67.884537 61.94183 -31.730242 4294967295
-67.784592 57.363861 -31.476686 4294967295
-67.778496 58.12421 -31.549326 4294967295
-67.746902 59.813957 -31.500547 4294967295
-67.745895 59.663948 -31.460569 4294967295
-67.738686 60.878273 -31.605776 4294967295
-67.73774 60.124519 -31.452545 4294967295
-67.735825 61.484615 -31.686903 4294967295
-67.729248 61.792793 -31.668581 4294967295
-67.723587 61.194687 -31.489813 4294967295
-67.717155 62.709972 -31.700838 4294967295
-67.71479 62.108788 -31.559908 4294967295
-67.711174 62.565048 -31.603952 4294967295
-67.708443 63.322128 -31.714966 4294967295
-67.70211 63.026756 -31.585552 4294967295
-67.68457 63.195267 -31.413246 4294967295
-67.681946 63.499752 -31.440191 4294967295
-67.641685 57.203201 -31.556467 4294967295
-67.635971 56.755287 -31.405741 4294967295
-67.634666 58.56805 -31.732212 4294967295
-67.630455 58.722836 -31.712519 4294967295
-67.623123 57.521793 -31.40114 4294967295
-67.619026 58.431431 -31.525051 4294967295
-67.615227 58.283928 -31.453114 4294967295
-67.600739 60.41066 -31.685711 4294967295
-67.600288 60.863762 -31.765837 4294967295
-67.59816 59.05455 -31.400349 4294967295
-67.487656 58.109234 -31.707897 4294967295
-67.42585 61.940258 -31.713274 4294967295
-67.404732 62.111832 -31.501183 4294967295
-67.395447 63.026566 -31.565779 4294967295
-67.392731 63.481998 -31.61994 4294967295
-67.388969 63.334869 -31.548759 4294967295
-67.346207 56.890579 -31.605093 4294967295
-67.336067 56.597462 -31.433098 4294967295
-67.326012 57.05941 -31.403868 4294967295
-67.325531 57.663914 -31.511805 4294967295
-67.313232 58.429993 -31.513769 4294967295
-67.312721 59.034359 -31.621384 4294967295
-67.311661 58.280422 -31.467558 4294967295
-67.307068 58.737598 -31.500416 4294967295
-67.295448 59.503235 -31.51018 4294967295
-67.294716 60.107777 -31.615181 4294967295
-67.287285 59.963791 -31.502451 4294967295
-67.283295 60.420456 -31.542124 4294967295
-67.282211 60.723392 -31.586466 4294967295
-67.281746 61.025711 -31.637878 4294967295
-67.254745 61.504532 -31.416306 4294967295
-67.251358 62.56451 -31.576157 4294967295
-67.186768 57.348557 -31.609943 4294967295
-67.174911 57.812111 -31.560429 4294967295
-67.109589 61.79834 -31.556143 4294967295
-67.100555 63.165539 -31.70829 4294967295
-67.071365 63.496487 -31.434538 4294967295
-67.027733 57.353214 -31.534859 4294967295
-67.027077 57.051727 -31.470976 4294967295
-67.025764 56.901836 -31.427805 4294967295
-67.00061 58.88773 -31.510904 4294967295
-66.994431 59.1954 -31.497633 4294967295
-66.979561 60.115189 -31.499182 4294967295
-66.977585 59.96603 -31.448595 4294967295
-66.968727 60.578362 -31.461567 4294967295
-66.964966 61.034908 -31.503761 4294967295
-66.959839 60.888783 -31.417648 4294967295
-66.958977 62.097404 -31.633842 4294967295
-66.956284 61.496162 -31.490463 4294967295
-66.953964 62.555099 -31.661926 4294967295
-66.951157 61.954033 -31.517355 4294967295
-66.934448 63.329021 -31.58284 4294967295
-66.929314 63.0322 -31.468437 4294967295
-66.83065 59.355659 -31.398443 4294967295
-66.727127 56.591759 -31.442007 4294967295
-66.709854 57.664349 -31.445023 4294967295
-66.702606 58.123966 -31.448101 4294967295
-66.698074 58.88324 -31.538015 4294967295
-66.679832 59.655052 -31.473875 4294967295
-66.666023 60.72504 -31.515869 4294967295
-66.64035 62.108547 -31.480961 4294967295
-66.626122 62.877388 -31.461914 4294967295
-66.616829 63.490509 -31.470215 4294967295
-66.615952 63.189381 -31.404076 4294967295
-66.497841 61.795879 -31.537268 4294967295
-66.416588 57.047352 -31.463753 4294967295
-66.365707 60.56744 -31.540855 4294967295
-66.35096 60.732254 -31.404245 4294967295
-66.350426 61.336918 -31.510532 4294967295
-66.335976 62.256824 -31.517488 4294967295
-66.327393 62.869164 -31.533878 4294967295
-66.197075 61.487648 -31.529825 4294967295
-66.192688 61.793861 -31.53701 4294967295
-66.157181 63.640499 -31.477831 4294967295
-66.112793 56.741611 -31.42123 4294967295
-66.098083 57.50993 -31.397696 4294967295
-66.056412 60.267044 -31.438368 4294967295
-66.052162 61.026287 -31.531033 4294967295
-66.052032 60.875359 -31.501637 4294967295
-66.037766 61.492973 -31.455046 4294967295
-66.027542 62.257938 -31.481426 4294967295
-66.017151 62.570011 -31.422031 4294967295
-66.013702 62.875443 -31.439684 4294967295
-66.009163 63.181938 -31.445234 4294967295
-65.908638 59.808262 -31.407991 4294967295
-65.796234 57.353539 -31.405844 4294967295
-65.722511 61.802498 -31.400263 4294967295
-65.544556 63.638702 -31.455774 4294967295
-65.271843 61.339199 -31.397621 4294967295
-80.134712 63.979218 -33.759083 4294967295
-80.132591 63.832699 -33.694202 4294967295
-80.130356 64.432991 -33.794376 4294967295
-80.126862 64.288361 -33.708973 4294967295
-80.118011 64.598907 -33.644104 4294967295
-79.980667 64.281319 -33.777538 4294967295
-79.830078 63.832054 -33.681332 4294967295
-79.699745 63.804226 -33.983273 4294967295
-79.691704 64.412071 -33.997398 4294967295
-79.687981 64.267693 -33.909508 4294967295
-79.542511 63.811768 -33.888668 4294967295
-79.536362 64.267883 -33.897648 4294967295
-79.524315 63.984985 -33.65485 4294967295
-79.517662 64.591347 -33.689518 4294967295
-79.373184 64.283234 -33.717213 4294967295
-79.217766 63.989414 -33.585415 4294967295
-79.217621 64.288483 -33.649185 4294967295
-79.085533 63.814857 -33.82383 4294967295
-79.068161 64.435135 -33.703171 4294967295
-78.927612 64.12191 -33.787601 4294967295
-78.916641 64.58448 -33.727295 4294967295
-78.776573 64.121201 -33.785664 4294967295
-78.767792 64.282005 -33.691906 4294967295
-78.760201 63.84333 -33.484486 4294967295
-78.760017 64.441559 -33.612583 4294967295
-78.749557 64.006546 -33.363934 4294967295
-78.464943 64.430939 -33.711048 4294967295
-78.464058 63.834057 -33.568314 4294967295
-78.459404 64.139061 -33.566814 4294967295
-78.296143 64.00425 -33.35973 4294967295
-78.286156 64.615387 -33.347336 4294967295
-78.161987 63.832329 -33.56749 4294967295
-78.156334 64.288162 -33.584373 4294967295
-78.153152 64.44178 -33.571545 4294967295
-78.144699 64.003838 -33.354347 4294967295
-78.137779 64.162239 -33.288551 4294967295
-77.98127 64.617119 -33.309021 4294967295
-77.864815 63.824383 -33.636456 4294967295
-77.863174 64.275108 -33.710011 4294967295
-77.834587 64.161697 -33.27483 4294967295
-77.831894 64.614029 -33.333588 4294967295
-77.695221 64.445206 -33.504498 4294967295
-77.688988 64.004196 -33.320377 4294967295
-77.531273 64.310898 -33.292484 4294967295
-77.519188 64.475815 -33.155407 4294967295
-77.24012 64.295158 -33.447922 4294967295
-77.237587 64.44799 -33.444607 4294967295
-77.090034 63.993603 -33.398857 4294967295
-77.089981 63.843975 -33.36623 4294967295
-77.088165 64.145607 -33.404808 4294967295
-77.081108 64.30407 -33.338989 4294967295
-77.071564 64.465691 -33.238647 4294967295
-76.943245 64.436302 -33.554798 4294967295
-76.790573 64.58699 -33.565586 4294967295
-76.786598 64.14286 -33.415688 4294967295
-76.779701 64.001633 -33.289059 4294967295
-76.768707 64.464447 -33.232998 4294967295
-76.768692 64.31472 -33.201015 4294967295
-76.617577 64.163887 -33.171268 4294967295
-76.48616 63.839199 -33.379326 4294967295
-76.482674 64.442398 -33.458134 4294967295
-76.460518 64.619484 -33.187023 4294967295
-76.454857 64.177025 -33.014782 4294967295
-76.328224 64.295738 -33.382629 4294967295
-76.296242 64.484756 -32.978611 4294967295
-76.182999 64.287506 -33.464409 4294967295
-76.179199 63.992615 -33.349831 4294967295
-76.170067 64.153503 -33.257355 4294967295
-76.166122 64.607681 -33.298321 4294967295
-76.014122 63.858585 -33.131542 4294967295
-75.99472 64.481552 -32.994785 4294967295
-75.843079 64.331116 -32.959785 4294967295
-75.717194 64.59903 -33.365192 4294967295
-75.707741 64.310822 -33.175655 4294967295
-75.557487 63.858974 -33.096741 4294967295
-75.417397 63.994499 -33.278603 4294967295
-75.397408 63.868423 -32.980598 4294967295
-75.397285 64.618118 -33.134823 4294967295
-75.39592 64.319969 -33.054249 4294967295
-75.389008 64.178337 -32.930737 4294967295
-75.388802 64.478439 -32.99036 4294967295
-75.113457 63.994152 -33.262417 4294967295
-75.10434 64.454674 -33.23457 4294967295
-75.096924 64.163689 -33.074226 4294967295
-75.078354 64.335754 -32.859005 4294967295
-74.938255 64.471291 -33.040516 4294967295
-74.932533 64.02816 -32.871983 4294967295
-74.924698 64.187431 -32.7994 4294967295
-74.792633 63.863625 -32.993813 4294967295
-74.78286 64.475082 -32.988697 4294967295
-74.782486 64.175552 -32.921936 4294967295
-74.768341 64.042206 -32.704727 4294967295
-74.642151 64.311485 -33.099419 4294967295
-74.604317 64.656296 -32.664337 4294967295
-74.483994 64.018456 -32.950302 4294967295
-74.474892 64.479187 -32.923634 4294967295
-74.471512 64.183105 -32.817818 4294967295
-74.302895 64.502373 -32.656681 4294967295
-74.154663 63.897068 -32.577953 4294967295
-74.036842 63.857094 -33.01627 4294967295
-74.033852 64.610664 -33.130501 4294967295
-74.031792 64.163017 -33.011986 4294967295
-74.014938 64.482765 -32.854744 4294967295
-73.849625 64.347725 -32.646954 4294967295
-73.731216 63.858189 -32.983624 4294967295
-73.721077 64.320091 -32.944534 4294967295
-73.694542 64.6511 -32.663837 4294967295
-73.689407 63.75597 -32.414684 4294967295
-73.558136 64.632515 -32.859787 4294967295
-73.545563 64.346802 -32.637539 4294967295
-73.533897 63.759388 -32.365936 4294967295
-73.41552 64.47113 -32.944752 4294967295
-73.411667 64.0252 -32.804371 4294967295
-73.38398 64.207085 -32.48048 4294967295
-73.368378 64.675735 -32.371998 4294967295
-73.26442 64.169411 -32.890862 4294967295
-73.097504 64.185913 -32.696747 4294967295
-73.087029 64.498268 -32.624062 4294967295
-72.959419 64.319687 -32.899628 4294967295
-72.916496 64.218292 -32.325462 4294967295
-72.800163 63.876816 -32.713451 4294967295
-72.785728 64.343803 -32.621479 4294967295
-72.771179 64.660851 -32.497967 4294967295
-72.767555 63.763218 -32.271294 4294967295
-72.605598 64.224693 -32.234074 4294967295
-72.601822 64.679955 -32.276894 4294967295
-72.467834 64.207924 -32.411163 4294967295
-72.460968 64.666588 -32.415047 4294967295
-72.454636 64.523453 -32.305511 4294967295
-72.452843 64.375145 -32.252949 4294967295
-72.327316 63.893745 -32.492863 4294967295
-72.316406 63.755577 -32.326302 4294967295
-72.023727 64.192474 -32.553505 4294967295
-72.012611 64.505531 -32.475002 4294967295
-71.995644 64.674919 -32.293808 4294967295
-71.995102 64.374771 -32.227375 4294967295
-71.730263 63.878719 -32.620583 4294967295
-71.720146 64.190544 -32.555027 4294967295
-71.704193 63.757038 -32.268524 4294967295
-71.700966 64.51255 -32.377468 4294967295
-71.696335 64.367325 -32.290443 4294967295
-71.696167 64.668274 -32.347931 4294967295
-71.401352 63.904484 -32.310986 4294967295
-71.395927 64.361694 -32.333252 4294967295
-71.389435 64.519279 -32.283188 4294967295
-71.251144 64.202499 -32.39156 4294967295
-71.088181 63.912727 -32.19799 4294967295
-71.07737 64.526428 -32.184216 4294967295
-71.066612 64.387764 -32.023266 4294967295
-70.957161 64.189857 -32.512577 4294967295
-70.948486 64.650558 -32.495373 4294967295
-70.938606 64.059639 -32.257187 4294967295
-70.783676 63.760902 -32.162903 4294967295
-70.776459 64.069725 -32.134129 4294967295
-70.766777 64.531792 -32.104984 4294967295
-70.463196 64.077751 -32.023987 4294967295
-70.456963 63.783302 -31.890038 4294967295
-70.337852 64.649971 -32.463039 4294967295
-70.328262 63.757332 -32.172009 4294967295
-70.314369 64.524956 -32.151382 4294967295
-70.313141 64.074638 -32.048672 4294967295
-70.31002 63.927414 -31.981873 4294967295
-70.301186 64.238075 -31.934248 4294967295
-70.019768 64.211746 -32.208046 4294967295
-70.002762 63.928749 -31.946318 4294967295
-70.0009 64.533142 -32.040756 4294967295
-69.86924 63.908028 -32.16864 4294967295
-69.725723 64.048538 -32.300133 4294967295
-69.69455 63.931004 -31.900457 4294967295
-69.691315 64.38636 -31.949293 4294967295
-69.683792 64.545044 -31.889002 4294967295
-69.55896 64.213745 -32.155479 4294967295
-69.549637 64.675468 -32.132099 4294967295
-69.409599 63.758041 -32.101727 4294967295
-69.398674 63.920155 -32.001686 4294967295
-69.393417 64.37764 -32.026459 4294967295
-69.246407 64.521866 -32.116695 4294967295
-69.088104 63.924736 -31.929667 4294967295
-69.085144 64.078529 -31.923744 4294967295
-69.078758 64.537308 -31.935373 4294967295
-69.070595 63.792316 -31.695068 4294967295
-68.941406 64.219368 -32.052479 4294967295
-68.758774 64.250244 -31.697706 4294967295
-68.758377 64.552177 -31.750591 4294967295
-68.643768 63.909031 -32.075089 4294967295
-68.619606 63.783333 -31.764992 4294967295
-68.603661 64.403 -31.694269 4294967295
-68.455139 63.945721 -31.652876 4294967295
-68.445129 64.257721 -31.594042 4294967295
-68.334328 63.76152 -31.989714 4294967295
-68.291 64.107765 -31.545481 4294967295
-68.169327 64.376656 -31.957603 4294967295
-68.02092 63.768631 -31.888836 4294967295
-68.001938 64.089691 -31.727409 4294967295
-68.001534 64.542519 -31.808401 4294967295
-67.991791 64.401794 -31.667702 4294967295
-67.991074 64.251701 -31.630926 4294967295
-67.706932 64.228622 -31.868345 4294967295
-67.701195 63.782005 -31.717388 4294967295
-67.695534 64.541954 -31.794872 4294967295
-67.684319 64.402664 -31.638031 4294967295
-67.6782 64.107185 -31.511099 4294967295
-67.53746 63.79253 -31.588455 4294967295
-67.386772 63.789791 -31.608837 4294967295
-67.37606 64.555122 -31.628811 4294967295
-67.210732 64.265465 -31.42667 4294967295
-67.070038 64.554367 -31.617414 4294967295
-67.069618 63.800144 -31.471373 4294967295
-66.926308 64.393631 -31.688515 4294967295
-66.596893 64.416359 -31.415377 4294967295
-66.451019 64.25769 -31.462776 4294967295
-66.302132 64.555023 -31.560505 4294967295
-66.296204 64.107956 -31.410295 4294967295
-66.003159 63.79195 -31.490427 4294967295
-65.381989 64.100632 -31.430811 4294967295
-72.211143 36.487431 -31.332319 4294967295
-71.913002 36.027176 -31.306412 4294967295
-71.752861 36.482788 -31.290815 4294967295
-71.588379 37.243038 -31.281702 4294967295
-71.291161 36.479885 -31.209618 4294967295
-71.284264 37.390247 -31.303141 4294967295
-71.282715 37.844318 -31.373205 4294967295
-71.149513 36.170082 -31.273979 4294967295
-71.001968 36.316788 -31.354748 4294967295
-70.986099 36.778656 -31.249786 4294967295
-70.808952 38.301815 -31.236412 4294967295
-70.797707 39.517086 -31.335918 4294967295
-70.789116 39.975437 -31.32007 4294967295
-70.773941 41.042156 -31.342234 4294967295
-70.683235 37.227356 -31.346617 4294967295
-70.674301 37.685616 -31.326693 4294967295
-70.664787 38.295383 -31.329182 4294967295
-70.655304 38.603012 -31.273155 4294967295
-70.649757 38.757324 -31.235401 4294967295
-70.628189 40.583252 -31.327677 4294967295
-70.614899 41.497879 -31.343378 4294967295
-70.542259 36.463787 -31.330109 4294967295
-70.49131 39.363571 -31.273212 4294967295
-70.384911 36.615726 -31.292387 4294967295
-70.38311 36.314365 -31.211887 4294967295
-70.382874 36.919106 -31.326532 4294967295
-70.368279 37.229309 -31.209368 4294967295
-70.359398 37.687668 -31.190456 4294967295
-70.351151 38.599167 -31.267256 4294967295
-70.347809 37.996456 -31.109438 4294967295
-70.34774 39.205585 -31.343655 4294967295
-70.203499 38.141289 -31.229864 4294967295
-70.192513 39.054394 -31.273737 4294967295
-70.188835 39.509899 -31.317507 4294967295
-70.179314 39.968876 -31.291039 4294967295
-70.171349 40.426991 -31.283356 4294967295
-70.154984 41.796925 -31.350582 4294967295
-70.073555 36.464317 -31.17054 4294967295
-70.068489 37.3741 -31.285484 4294967295
-70.068169 36.315937 -31.076681 4294967295
-70.058777 38.286339 -31.344759 4294967295
-70.055977 37.683285 -31.194113 4294967295
-70.053146 38.591785 -31.335777 4294967295
-70.04644 38.897873 -31.314026 4294967295
-70.043938 39.352676 -31.371845 4294967295
-70.042488 37.841927 -31.061707 4294967295
-70.031548 39.662182 -31.28194 4294967295
-70.027313 39.211216 -31.143427 4294967295
-70.02729 39.815826 -31.260201 4294967295
-70.019508 40.122723 -31.225519 4294967295
-70.010368 41.186092 -31.320906 4294967295
-70.004829 41.49173 -31.313103 4294967295
-69.997734 41.949463 -31.31596 4294967295
-69.99424 42.253857 -31.332638 4294967295
-69.923454 37.368275 -31.36702 4294967295
-69.917397 36.766834 -31.17767 4294967295
-69.913689 36.163876 -31.01646 4294967295
-69.861504 40.880047 -31.298948 4294967295
-69.849144 41.492138 -31.26824 4294967295
-69.767174 36.158905 -31.080721 4294967295
-69.764641 37.521099 -31.313192 4294967295
-69.762466 36.917511 -31.170599 4294967295
-69.755623 37.072384 -31.118198 4294967295
-69.75312 36.619995 -31.000841 4294967295
-69.749237 38.134262 -31.246359 4294967295
-69.747437 38.73991 -31.341597 4294967295
-69.74485 37.985508 -31.164896 4294967295
-69.73571 39.502346 -31.34775 4294967295
-69.731606 39.807007 -31.35721 4294967295
-69.722305 40.114769 -31.3048 4294967295
-69.719162 38.907196 -31.034008 4294967295
-69.71843 39.210033 -31.083683 4294967295
-69.707108 40.728451 -31.240498 4294967295
-69.699203 41.33783 -31.263054 4294967295
-69.69854 40.884808 -31.167694 4294967295
-69.69548 41.793507 -31.306185 4294967295
-69.625534 36.45385 -31.261108 4294967295
-69.593575 37.075657 -30.99785 4294967295
-69.433975 38.59005 -31.198208 4294967295
-69.431992 39.34708 -31.319969 4294967295
-69.422066 39.806324 -31.289705 4294967295
-69.421646 40.108875 -31.342852 4294967295
-69.42141 39.65554 -31.252901 4294967295
-69.415382 40.717155 -31.384884 4294967295
-69.408218 41.023746 -31.358208 4294967295
-69.400009 40.575241 -31.174006 4294967295
-69.393883 41.183632 -31.217726 4294967295
-69.39122 41.487583 -31.244286 4294967295
-69.379272 42.250767 -31.248264 4294967295
-69.368698 42.106277 -31.09409 4294967295
-69.310684 36.455269 -31.13032 4294967295
-69.308357 37.212669 -31.248005 4294967295
-69.307251 36.154499 -31.031738 4294967295
-69.306763 36.91106 -31.171116 4294967295
-69.300102 36.309467 -30.976311 4294967295
-69.298515 37.671612 -31.218836 4294967295
-69.295219 37.824623 -31.208893 4294967295
-69.293396 38.732784 -31.361488 4294967295
-69.286812 36.618977 -30.877407 4294967295
-69.280853 38.286194 -31.126341 4294967295
-69.277138 37.531921 -30.937391 4294967295
-69.26973 38.141087 -30.96604 4294967295
-69.259125 39.054592 -31.014992 4294967295
-69.242989 41.029839 -31.201778 4294967295
-69.128487 38.889214 -31.237743 4294967295
-69.072838 41.643734 -31.104267 4294967295
-69.064041 41.951595 -31.058784 4294967295
-69.059387 42.256916 -31.061996 4294967295
-69.010269 36.146591 -31.113531 4294967295
-69.006859 36.904675 -31.218082 4294967295
-69.003891 37.662388 -31.327854 4294967295
-69.002914 37.360474 -31.258562 4294967295
-69.000778 36.454033 -31.059872 4294967295
-68.994217 38.121269 -31.301035 4294967295
-68.988174 36.611858 -30.940821 4294967295
-68.977501 37.222717 -30.931274 4294967295
-68.969757 39.042191 -31.187389 4294967295
-68.967171 37.984798 -30.954578 4294967295
-68.965096 39.347282 -31.190567 4294967295
-68.961655 38.4417 -30.97665 4294967295
-68.959297 39.653049 -31.18033 4294967295
-68.956573 39.805843 -31.177299 4294967295
-68.952675 40.110546 -31.189356 4294967295
-68.943253 40.872139 -31.223389 4294967295
-68.942314 40.7215 -31.183527 4294967295
-68.922806 41.186897 -31.041418 4294967295
-68.833069 38.577892 -31.280148 4294967295
-68.830093 37.974567 -31.129831 4294967295
-68.815514 37.52853 -30.872559 4294967295
-68.811569 38.135944 -30.94187 4294967295
-68.770515 40.882561 -30.981337 4294967295
-68.700714 36.59898 -31.134613 4294967295
-68.696327 36.298618 -31.025753 4294967295
-68.695992 36.147465 -30.993023 4294967295
-68.693184 38.417931 -31.39259 4294967295
-68.69088 37.814297 -31.250381 4294967295
-68.689636 37.663712 -31.207113 4294967295
-68.682838 37.364784 -31.070107 4294967295
-68.682549 38.1213 -31.210867 4294967295
-68.681641 38.726734 -31.315498 4294967295
-68.680542 37.214699 -31.014439 4294967295
-68.675705 36.460506 -30.813831 4294967295
-68.663605 39.190529 -31.191553 4294967295
-68.658768 39.042004 -31.106283 4294967295
-68.656685 40.404236 -31.341255 4294967295
-68.649055 39.501293 -31.079466 4294967295
-68.648125 38.896683 -30.953281 4294967295
-68.646851 40.863625 -31.312967 4294967295
-68.644951 39.957428 -31.118004 4294967295
-68.644608 40.562553 -31.22924 4294967295
-68.626625 41.48061 -31.192369 4294967295
-68.620857 41.937759 -31.21154 4294967295
-68.616096 41.033245 -30.983269 4294967295
-68.597878 42.103199 -30.972523 4294967295
-68.586853 42.261318 -30.87281 4294967295
-68.550301 37.201103 -31.268263 4294967295
-68.527321 37.061855 -30.971977 4294967295
-68.524025 37.517563 -31.019949 4294967295
-68.510666 37.827351 -30.922112 4294967295
-68.506287 40.401295 -31.360182 4294967295
-68.469643 40.271473 -30.905338 4294967295
-68.447929 41.646103 -30.911802 4294967295
-68.42292 42.266708 -30.736273 4294967295
-68.395271 36.59539 -31.118141 4294967295
-68.390656 37.354263 -31.208199 4294967295
-68.387848 36.296509 -30.974503 4294967295
-68.386948 36.902309 -31.078938 4294967295
-68.383102 37.509544 -31.149231 4294967295
-68.377487 38.571449 -31.285147 4294967295
-68.367981 37.971519 -31.060001 4294967295
-68.367218 37.669289 -30.993698 4294967295
-68.367218 39.333355 -31.309586 4294967295
-68.363434 36.763107 -30.777294 4294967295
-68.359581 39.488911 -31.249706 4294967295
-68.35878 37.219685 -30.809595 4294967295
-68.357529 37.825806 -30.909986 4294967295
-68.353798 38.281834 -30.952913 4294967295
-68.349403 38.889526 -31.016811 4294967295
-68.344826 40.70726 -31.308311 4294967295
-68.338799 38.441364 -30.807663 4294967295
-68.337212 39.198967 -30.932919 4294967295
-68.335548 39.653851 -30.999714 4294967295
-68.33242 40.109524 -31.04962 4294967295
-68.330772 39.80788 -30.973074 4294967295
-68.324112 41.022007 -31.125612 4294967295
-68.316444 40.875298 -31.008038 4294967295
-68.305046 41.184673 -30.933338 4294967295
-68.305031 41.487263 -30.990572 4294967295
-68.30365 42.244404 -31.118132 4294967295
-68.301758 41.791801 -31.010086 4294967295
-68.220978 36.453217 -30.831823 4294967295
-68.212311 38.122673 -31.047079 4294967295
-68.207336 40.091919 -31.362242 4294967295
-68.201263 39.792942 -31.234653 4294967295
-68.178017 41.318943 -31.252478 4294967295
-68.115288 41.962132 -30.642311 4294967295
-68.106026 42.270565 -30.592691 4294967295
-68.083488 37.049004 -31.115238 4294967295
-68.078072 36.294998 -30.909504 4294967295
-68.07637 36.447243 -30.91852 4294967295
-68.073471 37.508213 -31.085531 4294967295
-68.071976 38.114254 -31.18273 4294967295
-68.070686 36.752899 -30.910181 4294967295
-68.064758 38.723324 -31.213972 4294967295
-68.064537 37.664265 -31.011108 4294967295
-68.06414 37.967148 -31.063793 4294967295
-68.061432 37.363194 -30.91795 4294967295
-68.05619 39.635689 -31.286921 4294967295
-68.053619 40.2421 -31.37166 4294967295
-68.04921 38.580544 -31.006021 4294967295
-68.045708 40.397911 -31.309095 4294967295
-68.044014 38.28067 -30.888885 4294967295
-68.044014 40.550129 -31.318172 4294967295
-68.043953 39.793907 -31.174372 4294967295
-68.037628 39.040932 -30.95834 4294967295
-68.029945 39.347897 -30.927065 4294967295
-68.025459 41.166023 -31.218744 4294967295
-68.019485 40.867035 -31.09263 4294967295
-68.018143 41.472897 -31.191654 4294967295
-68.015404 40.112862 -30.902496 4294967295
-68.013756 39.962463 -30.854898 4294967295
-67.991814 42.093948 -31.002676 4294967295
-67.982956 41.64539 -30.814823 4294967295
-67.927994 36.140411 -30.904263 4294967295
-67.925217 37.352753 -31.101068 4294967295
-67.865898 38.59547 -30.647419 4294967295
-67.864464 39.656071 -30.831087 4294967295
-67.83741 40.88266 -30.748814 4294967295
-67.834366 40.733059 -30.685196 4294967295
-67.81221 41.957394 -30.659266 4294967295
-67.798065 42.268822 -30.553974 4294967295
-67.743813 39.636269 -31.192825 4294967295
-67.733109 39.339638 -31.013054 4294967295
-67.733093 38.280048 -30.813158 4294967295
-67.731148 37.826832 -30.705217 4294967295
-67.730591 38.4328 -30.813017 4294967295
-67.729439 37.676289 -30.657064 4294967295
-67.728401 40.552795 -31.18733 4294967295
-67.72776 39.039894 -30.894686 4294967295
-67.718826 39.953053 -30.96343 4294967295
-67.718269 37.985111 -30.586096 4294967295
-67.711327 38.594666 -30.620665 4294967295
-67.709984 41.168755 -31.090279 4294967295
-67.708656 39.504681 -30.761271 4294967295
-67.706482 40.111454 -30.850494 4294967295
-67.703682 39.204624 -30.647139 4294967295
-67.691162 40.877174 -30.817566 4294967295
