# .PCD v0.7 - Point Cloud Data file format
VERSION 0.7
FIELDS x y z rgb
SIZE 4 4 4 4
TYPE F F F U
COUNT 1 1 1 1
WIDTH 1148
HEIGHT 1
VIEWPOINT 0 0 0 1 0 0 0
POINTS 1148
DATA ascii
55.587662 81.549271 -11.435935 4294967295
55.602711 81.486244 -11.985339 4294967295
55.609238 83.671898 -11.590549 4294967295
55.624966 80.845291 -11.834837 4294967295
55.629482 81.009621 -11.836543 4294967295
55.64357 80.690254 -11.75073 4294967295
55.702435 82.989708 -11.790197 4294967295
55.717457 79.744316 -11.380533 4294967295
55.73222 80.563263 -11.416985 4294967295
55.743565 78.712196 -11.783397 4294967295
55.754036 82.523346 -11.552958 4294967295
55.75441 83.173843 -11.622839 4294967295
55.755871 79.367065 -11.81076 4294967295
55.770725 84.643837 -11.724949 4294967295
55.771584 79.048203 -11.719203 4294967295
55.787254 84.488258 -11.648274 4294967295
55.790283 79.705696 -11.723802 4294967295
55.793278 80.844559 -11.837721 4294967295
55.797699 82.053421 -11.34396 4294967295
55.801941 84.982246 -11.649373 4294967295
55.805748 81.824669 -11.900086 4294967295
55.821674 80.205795 -11.665427 4294967295
55.821789 79.555603 -11.593809 4294967295
55.827892 81.021027 -11.73228 4294967295
55.832909 81.510681 -11.767818 4294967295
55.850807 80.542564 -11.597288 4294967295
55.860386 83.797379 -11.919127 4294967295
55.863079 84.123535 -11.945128 4294967295
55.88163 83.481201 -11.807936 4294967295
55.882973 79.905006 -11.411535 4294967295
55.889099 78.86499 -11.885067 4294967295
55.889271 82.183891 -11.638375 4294967295
55.898392 83.32563 -11.730494 4294967295
55.910503 84.793686 -11.847545 4294967295
55.915203 80.730988 -11.38581 4294967295
55.933025 79.857315 -11.835527 4294967295
55.965614 82.540451 -11.402233 4294967295
55.966988 83.67942 -11.52197 4294967295
55.970364 78.571609 -11.560308 4294967295
55.979996 80.688683 -11.757398 4294967295
55.983345 82.152794 -11.905598 4294967295
55.986225 82.711586 -11.346678 4294967295
56.027706 81.845833 -11.712255 4294967295
56.030834 79.083015 -11.398552 4294967295
56.041862 82.826988 -11.768671 4294967295
56.059547 84.459846 -11.88368 4294967295
56.084423 82.519371 -11.581737 4294967295
56.092442 81.384323 -11.428637 4294967295
56.093075 81.709839 -11.461985 4294967295
56.093864 83.824028 -11.690533 4294967295
56.102665 83.177315 -11.588067 4294967295
56.116013 82.044449 -11.416012 4294967295
56.118092 83.346329 -11.551016 4294967295
56.127422 78.566383 -11.603397 4294967295
56.128891 84.001297 -11.583805 4294967295
56.129005 84.976959 -11.690149 4294967295
56.139904 83.030121 -11.43786 4294967295
56.143833 80.686134 -11.776354 4294967295
56.165707 79.069077 -11.520691 4294967295
56.168774 79.88324 -11.598771 4294967295
56.16935 78.745293 -11.472149 4294967295
56.17123 80.046799 -11.607825 4294967295
56.176868 81.18708 -11.712338 4294967295
56.180805 79.562805 -11.520415 4294967295
56.184441 78.913795 -11.436295 4294967295
56.194164 84.679337 -11.422957 4294967295
56.203968 80.385017 -11.527067 4294967295
56.204258 78.270958 -11.294644 4294967295
56.214474 85.175941 -11.404166 4294967295
56.214928 82.665703 -11.737206 4294967295
56.224533 79.742683 -11.382792 4294967295
56.233204 84.624039 -11.885715 4294967295
56.234161 82.348434 -11.633292 4294967295
56.259884 85.123016 -11.844306 4294967295
56.266876 80.247437 -11.285694 4294967295
56.269718 82.037743 -11.47139 4294967295
56.289391 80.90712 -11.276894 4294967295
56.29575 84.487869 -11.645799 4294967295
56.303867 82.539658 -11.403446 4294967295
56.320328 82.871758 -11.380568 4294967295
56.360371 85.003113 -11.469695 4294967295
56.363678 84.353844 -11.386764 4294967295
56.367691 78.593475 -11.350935 4294967295
56.410915 80.562256 -11.410988 4294967295
56.421444 81.542343 -11.480376 4294967295
56.424206 79.26619 -11.221424 4294967295
56.430557 83.009705 -11.608121 4294967295
56.433746 81.059364 -11.383323 4294967295
56.436752 81.385887 -11.408233 4294967295
56.43774 82.524788 -11.529272 4294967295
56.451981 83.506439 -11.58546 4294967295
56.458542 78.562538 -11.629184 4294967295
56.459034 83.672005 -11.578217 4294967295
56.461872 84.648911 -11.674859 4294967295
56.462406 81.721596 -11.352764 4294967295
56.468754 82.700172 -11.436994 4294967295
56.472477 84.165512 -11.583879 4294967295
56.497936 81.341873 -11.791711 4294967295
56.520298 82.001205 -11.783526 4294967295
56.520374 81.676086 -11.747704 4294967295
56.527725 78.752022 -11.401499 4294967295
56.53088 78.265289 -11.336922 4294967295
56.535023 80.543808 -11.571273 4294967295
56.535957 80.218948 -11.532382 4294967295
56.53783 84.355614 -11.36978 4294967295
56.550461 79.411491 -11.391989 4294967295
56.558144 79.089188 -11.329145 4294967295
56.560261 80.716515 -11.499542 4294967295
56.569481 82.671669 -11.680239 4294967295
56.592361 80.078667 -11.314516 4294967295
56.59874 79.755829 -11.2563 4294967295
56.606312 80.409569 -11.300623 4294967295
56.638706 80.910583 -11.2391 4294967295
56.657051 84.496956 -11.565395 4294967295
56.661819 83.034973 -11.388424 4294967295
56.668526 79.22831 -11.555774 4294967295
56.670036 78.578407 -11.47928 4294967295
56.671406 84.990967 -11.567857 4294967295
56.672428 82.225861 -11.261851 4294967295
56.683239 81.835716 -11.788084 4294967295
56.726898 81.36557 -11.580061 4294967295
56.734898 84.692444 -11.307244 4294967295
56.772026 79.919624 -11.26009 4294967295
56.778885 79.596916 -11.200201 4294967295
56.789783 83.830811 -11.623975 4294967295
56.791637 84.319481 -11.670731 4294967295
56.798672 79.862869 -11.765361 4294967295
56.800865 78.888206 -11.650968 4294967295
56.801781 82.859886 -11.474803 4294967295
56.803783 84.649849 -11.663275 4294967295
56.807652 81.235428 -11.276151 4294967295
56.811825 82.375977 -11.385879 4294967295
56.820667 82.704971 -11.390116 4294967295
56.820683 78.408058 -11.527449 4294967295
56.823452 81.567207 -11.255745 4294967295
56.830948 84.986603 -11.602636 4294967295
56.850628 80.371223 -11.634731 4294967295
56.857098 78.25946 -11.380705 4294967295
56.862503 84.511909 -11.437561 4294967295
56.885296 80.710274 -11.547554 4294967295
56.886276 82.499496 -11.739587 4294967295
56.890472 84.035515 -11.285149 4294967295
56.894417 79.087288 -11.337461 4294967295
56.898914 78.600975 -11.268178 4294967295
56.908466 85.182129 -11.345925 4294967295
56.909405 84.857086 -11.307035 4294967295
56.912052 81.046272 -11.48839 4294967295
56.913971 79.257607 -11.285999 4294967295
56.922775 81.538551 -11.503765 4294967295
56.930321 82.029572 -11.530382 4294967295
56.932358 80.566376 -11.363158 4294967295
56.934925 80.892761 -11.389634 4294967295
56.958824 82.203835 -11.44728 4294967295
56.969276 83.184143 -11.516955 4294967295
56.98008 81.887093 -11.336483 4294967295
56.984398 79.381104 -11.653716 4294967295
56.993389 83.51947 -11.467179 4294967295
57.013958 83.039879 -11.341057 4294967295
57.018883 79.231964 -11.513949 4294967295
57.046597 80.056084 -11.504793 4294967295
57.058926 78.271454 -11.265609 4294967295
57.108711 78.387535 -11.706032 4294967295
57.115196 83.499481 -11.63539 4294967295
57.119324 81.386459 -11.389769 4294967295
57.120018 82.525513 -11.511727 4294967295
57.122215 83.990326 -11.663879 4294967295
57.124096 81.713768 -11.408443 4294967295
57.144424 79.051788 -11.650862 4294967295
57.151409 84.327835 -11.596228 4294967295
57.160713 79.708626 -11.66435 4294967295
57.165367 78.734665 -11.541292 4294967295
57.198204 82.231987 -11.199718 4294967295
57.202038 85.162544 -11.506132 4294967295
57.207249 83.863068 -11.345527 4294967295
57.208881 84.67733 -11.42863 4294967295
57.218132 83.216629 -11.235953 4294967295
57.219036 85.007027 -11.42829 4294967295
57.226398 80.059776 -11.46776 4294967295
57.253193 84.533218 -11.254242 4294967295
57.265419 81.539398 -11.489808 4294967295
57.268974 80.727394 -11.38839 4294967295
57.272362 82.030228 -11.518589 4294967295
57.277702 80.405449 -11.322012 4294967295
57.277775 81.056297 -11.392838 4294967295
57.27784 82.845802 -11.588065 4294967295
57.286568 78.944366 -11.130674 4294967295
57.300785 83.668587 -11.595852 4294967295
57.308693 79.929504 -11.159167 4294967295
57.326355 82.540283 -11.381166 4294967295
57.333553 83.356773 -11.444588 4294967295
57.350872 82.713028 -11.312327 4294967295
57.354824 84.829926 -11.529373 4294967295
57.370739 80.374779 -11.591573 4294967295
57.374397 81.02681 -11.649703 4294967295
57.380566 84.189873 -11.367408 4294967295
57.387985 79.568237 -11.44186 4294967295
57.397457 81.849289 -11.65711 4294967295
57.408009 79.901474 -11.406708 4294967295
57.446613 82.194542 -11.519155 4294967295
57.455273 82.848793 -11.559638 4294967295
57.456371 83.987907 -11.680078 4294967295
57.457779 81.222855 -11.373145 4294967295
57.459679 82.52523 -11.508567 4294967295
57.460255 81.711983 -11.417706 4294967295
57.474102 80.090225 -11.191127 4294967295
57.475693 83.833275 -11.594155 4294967295
57.47781 80.579933 -11.231357 4294967295
57.508606 83.35881 -11.424734 4294967295
57.513332 82.709854 -11.336997 4294967295
57.51841 79.552536 -11.579209 4294967295
57.530262 83.205009 -11.330553 4294967295
57.534462 84.834 -11.493384 4294967295
57.535721 84.346382 -11.435651 4294967295
57.552223 79.077698 -11.406646 4294967295
57.556847 80.868988 -11.585716 4294967295
57.569042 85.011292 -11.389162 4294967295
57.573303 80.224808 -11.456628 4294967295
57.57814 84.201355 -11.268229 4294967295
57.586906 83.716682 -11.184001 4294967295
57.591045 78.604568 -11.216394 4294967295
57.596848 79.257759 -11.267003 4294967295
57.607964 80.726646 -11.387675 4294967295
57.610989 81.866783 -11.501339 4294967295
57.628334 83.50071 -11.617759 4294967295
57.651535 83.022186 -11.482696 4294967295
57.669632 82.541428 -11.365621 4294967295
57.674553 78.245598 -11.483682 4294967295
57.696644 81.413048 -11.146008 4294967295
57.697987 79.718742 -11.560901 4294967295
57.714127 78.098061 -11.326427 4294967295
57.733402 78.430893 -11.294009 4294967295
57.763176 79.907005 -11.348938 4294967295
57.779659 78.611443 -11.148734 4294967295
57.786728 82.845161 -11.585577 4294967295
57.790112 81.056747 -11.378348 4294967295
57.796749 79.594666 -11.195102 4294967295
57.798752 82.036545 -11.454453 4294967295
57.803982 80.736794 -11.293961 4294967295
57.810291 83.180206 -11.53809 4294967295
57.822311 85.209198 -11.111697 4294967295
57.83165 84.978729 -11.658128 4294967295
57.853886 79.062325 -11.537309 4294967295
57.854362 78.411758 -11.464628 4294967295
57.856663 84.501114 -11.516813 4294967295
57.857807 83.362473 -11.388494 4294967295
57.857952 81.572166 -11.192621 4294967295
57.862446 83.852608 -11.425428 4294967295
57.879898 78.09613 -11.339192 4294967295
57.904701 84.358437 -11.329912 4294967295
57.918301 78.273567 -11.221708 4294967295
57.918709 80.06382 -11.415602 4294967295
57.920368 81.854187 -11.605024 4294967295
57.925182 84.855324 -11.311069 4294967295
57.927921 79.579247 -11.329907 4294967295
57.931423 84.206795 -11.218045 4294967295
57.934723 85.184883 -11.312996 4294967295
57.935658 80.55867 -11.409197 4294967295
57.943542 78.771553 -11.186108 4294967295
57.968719 78.944054 -11.115214 4294967295
57.968754 83.663498 -11.629976 4294967295
57.983273 82.367752 -11.436902 4294967295
58.019558 82.219719 -11.291451 4294967295
58.034092 78.740623 -11.463715 4294967295
58.035637 80.923874 -11.092786 4294967295
58.050106 83.046021 -11.27273 4294967295
58.062912 79.890762 -11.486577 4294967295
58.124542 81.379646 -11.429566 4294967295
58.125648 82.844559 -11.585395 4294967295
58.126163 79.264465 -11.193083 4294967295
58.12727 79.590446 -11.224701 4294967295
58.127361 80.567055 -11.330901 4294967295
58.143059 85.038208 -11.158805 4294967295
58.150074 80.738808 -11.268784 4294967295
58.17028 78.401947 -11.544962 4294967295
58.171074 83.025848 -11.443454 4294967295
58.179096 82.052574 -11.308753 4294967295
58.180023 83.843224 -11.500727 4294967295
58.181736 82.541939 -11.352724 4294967295
58.183178 79.220352 -11.588342 4294967295
58.191208 80.429489 -11.088616 4294967295
58.192028 83.35994 -11.405282 4294967295
58.205036 83.690811 -11.395061 4294967295
58.217693 84.672607 -11.457058 4294967295
58.231823 78.751022 -11.364159 4294967295
58.248005 78.920006 -11.325033 4294967295
58.248829 80.710373 -11.517336 4294967295
58.277996 78.280449 -11.148611 4294967295
58.282349 80.235405 -11.346321 4294967295
58.283463 84.537308 -11.208158 4294967295
58.289772 84.214287 -11.150482 4294967295
58.300068 83.1717 -11.603453 4294967295
58.30481 84.87188 -11.168656 4294967295
58.31337 81.224236 -11.343823 4294967295
58.318054 81.714394 -11.380602 4294967295
58.360085 82.707977 -11.339436 4294967295
58.431576 81.528854 -11.559347 4294967295
58.454166 78.770866 -11.178423 4294967295
58.45797 81.051178 -11.413486 4294967295
58.460701 79.424553 -11.226473 4294967295
58.46524 85.030647 -11.218639 4294967295
58.472397 82.358925 -11.504766 4294967295
58.489506 83.505043 -11.56888 4294967295
58.495911 83.019455 -11.49321 4294967295
58.501492 79.603218 -11.101012 4294967295
58.51976 81.726944 -11.267594 4294967295
58.523769 80.751701 -11.147043 4294967295
58.523869 84.495689 -11.554736 4294967295
58.527855 78.408081 -11.479091 4294967295
58.536907 82.059433 -11.242911 4294967295
58.557293 83.85849 -11.366545 4294967295
58.557564 79.233154 -11.463563 4294967295
58.564671 79.724106 -11.49184 4294967295
58.565224 82.884949 -11.232264 4294967295
58.565937 83.373665 -11.282989 4294967295
58.59267 84.035919 -11.260178 4294967295
58.600185 82.736343 -11.091847 4294967295
58.606918 84.367462 -11.245682 4294967295
58.611427 78.928436 -11.239138 4294967295
58.613098 81.045067 -11.463878 4294967295
58.627037 84.7015 -11.210589 4294967295
58.628674 82.027763 -11.51567 4294967295
58.651951 82.850906 -11.522729 4294967295
58.653831 78.781944 -11.072644 4294967295
58.678047 81.396469 -11.27161 4294967295
58.691067 82.54126 -11.350133 4294967295
58.709465 80.269127 -11.03723 4294967295
58.716377 83.202736 -11.332355 4294967295
58.72509 80.926697 -11.053425 4294967295
58.729733 78.257195 -11.347673 4294967295
58.786781 80.069717 -11.34284 4294967295
58.799404 79.749069 -11.263135 4294967295
58.810909 84.707214 -11.160684 4294967295
58.813351 84.545372 -11.134386 4294967295
58.830013 79.272499 -11.102663 4294967295
58.839939 84.230659 -11.005721 4294967295
58.865711 83.03138 -11.385537 4294967295
58.869164 82.055962 -11.267046 4294967295
58.87508 84.174721 -11.476843 4294967295
58.880138 82.874451 -11.317286 4294967295
58.880753 82.54908 -11.279659 4294967295
58.880756 84.665398 -11.510146 4294967295
58.890285 81.575935 -11.139853 4294967295
58.892815 80.925537 -11.060029 4294967295
58.900749 81.25441 -11.067715 4294967295
58.909435 83.374855 -11.267883 4294967295
58.918785 85.006851 -11.412461 4294967295
58.920551 80.05529 -11.468019 4294967295
58.925957 78.59243 -11.289524 4294967295
58.937756 80.550316 -11.460975 4294967295
58.937958 79.085411 -11.300709 4294967295
58.951496 83.22921 -11.10285 4294967295
58.966919 83.561272 -11.084316 4294967295
58.974957 83.727448 -11.073912 4294967295
59.009041 83.508698 -11.530553 4294967295
59.012535 81.882271 -11.341071 4294967295
59.027439 80.748459 -11.164793 4294967295
59.061958 78.416321 -11.389085 4294967295
59.109917 82.409966 -11.0535 4294967295
59.120831 79.252861 -11.271787 4294967295
59.137871 84.21302 -11.150788 4294967295
59.137928 83.398651 -11.06191 4294967295
59.140438 83.725449 -11.088602 4294967295
59.147961 80.565887 -11.31872 4294967295
59.148018 82.356583 -11.513457 4294967295
59.148411 79.426338 -11.193037 4294967295
59.158031 84.547127 -11.115729 4294967295
59.160957 81.547852 -11.379616 4294967295
59.172615 79.924248 -11.161576 4294967295
59.179111 84.881676 -11.077467 4294967295
59.187046 82.860718 -11.430188 4294967295
59.198864 79.120102 -10.981099 4294967295
59.224205 81.247345 -11.123026 4294967295
59.233013 82.228004 -11.198596 4294967295
59.23452 81.08857 -11.069226 4294967295
59.237762 83.858299 -11.359256 4294967295
59.245087 81.744263 -11.103201 4294967295
59.251362 83.538216 -11.276274 4294967295
59.260887 80.38044 -11.49893 4294967295
59.261715 78.264511 -11.265665 4294967295
59.264393 82.077751 -11.071164 4294967295
59.298027 78.604004 -11.174202 4294967295
59.303642 79.745956 -11.278659 4294967295
59.304394 84.862946 -11.232747 4294967295
59.325172 80.731285 -11.309773 4294967295
59.329185 79.104485 -11.118492 4294967295
59.347397 85.043762 -11.100208 4294967295
59.35603 84.55864 -11.016843 4294967295
59.360359 81.722183 -11.293185 4294967295
59.375206 79.93663 -11.046339 4294967295
59.38113 79.287369 -10.954701 4294967295
59.388069 79.615845 -10.965926 4294967295
59.401539 84.995323 -11.503736 4294967295
59.408539 84.835434 -11.461578 4294967295
59.409248 81.578827 -11.104689 4294967295
59.41713 83.047798 -11.236677 4294967295
59.451233 82.410088 -11.046678 4294967295
59.453648 85.179916 -11.33954 4294967295
59.464924 80.719124 -11.413956 4294967295
59.465485 84.370537 -11.209608 4294967295
59.470772 81.047028 -11.428973 4294967295
59.474773 78.280502 -11.113782 4294967295
59.481327 83.562614 -11.065681 4294967295
59.488941 80.56575 -11.312407 4294967295
59.500031 80.244431 -11.238272 4294967295
59.50528 83.898262 -11.017493 4294967295
59.520973 78.949623 -11.023365 4294967295
59.524532 78.071724 -11.514188 4294967295
59.534779 82.375076 -11.34732 4294967295
59.538174 78.239655 -11.484308 4294967295
59.55743 79.77816 -10.984724 4294967295
59.560226 80.43084 -11.045873 4294967295
59.564346 82.061249 -11.208717 4294967295
59.566399 83.690567 -11.378726 4294967295
59.568947 82.877396 -11.281254 4294967295
59.570648 78.577576 -11.406454 4294967295
59.575367 81.414146 -11.099374 4294967295
59.607166 84.032997 -11.27194 4294967295
59.613708 81.755203 -11.00102 4294967295
59.619984 82.735176 -11.085461 4294967295
59.635044 79.579178 -11.288111 4294967295
59.647755 79.909775 -11.279219 4294967295
59.649467 79.096207 -11.184657 4294967295
59.649761 84.539215 -11.176503 4294967295
59.651524 85.19149 -11.241228 4294967295
59.671413 84.874001 -11.136433 4294967295
59.68206 78.782951 -11.035531 4294967295
59.73909 83.528687 -11.350459 4294967295
59.759422 83.21125 -11.244158 4294967295
59.77705 82.403938 -11.094144 4294967295
59.809155 78.440453 -11.148465 4294967295
59.809231 85.186272 -11.28313 4294967295
59.815525 84.21154 -11.154914 4294967295
59.82851 79.425056 -11.187295 4294967295
59.830021 78.937027 -11.128893 4294967295
59.837391 79.591354 -11.174068 4294967295
59.84037 81.546738 -11.376209 4294967295
59.841446 84.548065 -11.100017 4294967295
59.842823 81.710541 -11.385369 4294967295
59.850357 78.619019 -11.022579 4294967295
59.856083 80.575836 -11.215219 4294967295
59.862698 82.532661 -11.404676 4294967295
59.882786 83.029289 -11.387836 4294967295
59.89048 82.706711 -11.32562 4294967295
59.904621 83.363861 -11.347201 4294967295
59.904655 82.060928 -11.205413 4294967295
59.914593 81.413315 -11.099949 4294967295
59.939529 81.911957 -11.066237 4294967295
59.946072 80.448143 -10.883987 4294967295
59.951717 84.686111 -11.324878 4294967295
59.959312 78.59539 -11.234015 4294967295
59.96489 84.528679 -11.261314 4294967295
59.976276 82.904259 -11.044548 4294967295
59.9865 83.885963 -11.115232 4294967295
60.001648 84.055107 -11.080193 4294967295
60.020386 81.22477 -11.304724 4294967295
60.023102 80.085739 -11.171329 4294967295
60.029099 83.740463 -10.94919 4294967295
60.034794 80.904709 -11.219167 4294967295
60.037373 79.113853 -11.015376 4294967295
60.133198 82.572899 -11.053821 4294967295
60.140717 79.902229 -11.334714 4294967295
60.14407 84.532349 -11.228487 4294967295
60.144352 84.20665 -11.192099 4294967295
60.1469 83.556023 -11.112403 4294967295
60.147049 78.601746 -11.171068 4294967295
60.155869 81.930176 -10.904091 4294967295
60.166363 81.377869 -11.404825 4294967295
60.166607 78.934975 -11.138453 4294967295
60.167957 79.424149 -11.186869 4294967295
60.178692 85.198364 -11.178896 4294967295
60.182644 83.733543 -11.005775 4294967295
60.183384 82.430099 -10.861491 4294967295
60.187775 84.061554 -11.023343 4294967295
60.189453 80.409767 -11.218345 4294967295
60.194935 78.782875 -11.022209 4294967295
60.196922 78.457787 -10.979882 4294967295
60.205322 85.046509 -11.068562 4294967295
60.209579 84.396439 -10.982926 4294967295
60.222305 78.239746 -11.463815 4294967295
60.226784 80.750153 -11.123937 4294967295
60.232349 81.078156 -11.140002 4294967295
60.237049 82.546082 -11.282973 4294967295
60.241898 80.593155 -11.053679 4294967295
60.243538 83.363083 -11.34891 4294967295
60.270386 82.233643 -11.131689 4294967295
60.271881 81.25666 -11.020255 4294967295
60.277672 78.423538 -11.289085 4294967295
60.292095 83.219902 -11.16244 4294967295
60.298798 82.082062 -11.015206 4294967295
60.316711 83.06694 -11.059176 4294967295
60.354176 82.756126 -10.893548 4294967295
60.365906 79.271614 -11.070972 4294967295
60.379559 79.928551 -11.094343 4294967295
60.395943 82.704277 -11.3383 4294967295
60.400963 78.959152 -10.913733 4294967295
60.413807 80.919441 -11.081574 4294967295
60.426216 81.57605 -11.10928 4294967295
60.427856 83.857384 -11.351341 4294967295
60.461182 80.449104 -10.863883 4294967295
60.477177 82.899918 -11.073893 4294967295
60.479076 84.367088 -11.226581 4294967295
60.485043 81.762321 -10.922651 4294967295
60.485252 78.600266 -11.175102 4294967295
60.491928 78.276993 -11.116534 4294967295
60.493771 84.047264 -11.14018 4294967295
60.501564 81.279892 -10.812145 4294967295
60.508266 82.260521 -10.895106 4294967295
60.508732 79.097916 -11.14667 4294967295
60.512775 80.402634 -11.2742 4294967295
60.51281 79.751091 -11.203302 4294967295
60.51889 84.220512 -11.070662 4294967295
60.531879 79.43261 -11.101719 4294967295
60.53463 83.086082 -10.892081 4294967295
60.547096 78.78669 -10.978086 4294967295
60.568153 82.542068 -11.312022 4294967295
60.575859 80.753075 -11.090642 4294967295
60.592896 81.085632 -11.066915 4294967295
60.595016 81.575287 -11.11264 4294967295
60.596405 83.042137 -11.267068 4294967295
60.601456 82.718346 -11.214167 4294967295
60.602562 84.906967 -10.85099 4294967295
60.608421 79.624992 -10.853706 4294967295
60.612873 79.952675 -10.873664 4294967295
60.62093 82.400291 -11.111209 4294967295
60.650169 84.693237 -11.257483 4294967295
60.65176 83.879227 -11.163507 4294967295
60.666962 83.722481 -11.093073 4294967295
60.689053 81.056328 -11.322209 4294967295
60.695271 83.571022 -10.977174 4294967295
60.701202 84.551331 -11.062788 4294967295
60.730572 85.215393 -11.031703 4294967295
60.737423 78.46804 -10.871356 4294967295
60.765224 79.130554 -10.84573 4294967295
60.818001 84.692192 -11.264344 4294967295
60.819626 83.226349 -11.099518 4294967295
60.828632 83.39296 -11.085999 4294967295
60.829033 79.252518 -11.23076 4294967295
60.838318 81.603973 -10.857771 4294967295
60.841286 84.049965 -11.112901 4294967295
60.845875 85.029594 -11.203137 4294967295
60.85041 80.238167 -11.262807 4294967295
60.851498 78.60939 -11.082169 4294967295
60.852482 78.283882 -11.043364 4294967295
60.860786 82.101929 -10.832967 4294967295
60.861378 83.732208 -11.007887 4294967295
60.870621 81.223473 -11.298895 4294967295
60.887177 84.39473 -10.989259 4294967295
60.894379 79.603424 -11.039722 4294967295
60.910751 84.241386 -10.889866 4294967295
60.911499 79.447029 -10.96271 4294967295
60.913036 78.958679 -10.90429 4294967295
60.926628 80.430695 -11.016441 4294967295
60.937569 78.08857 -11.318886 4294967295
60.938175 80.598152 -10.994133 4294967295
60.963242 78.424019 -11.265358 4294967295
60.96981 83.706955 -11.220645 4294967295
60.976604 82.894936 -11.108681 4294967295
60.979649 84.525665 -11.274993 4294967295
60.991875 81.108131 -10.861193 4294967295
61.008137 82.418625 -10.946415 4294967295
61.008377 79.744446 -11.250548 4294967295
61.019825 81.934242 -10.852856 4294967295
61.042072 84.877304 -11.094254 4294967295
61.043598 81.780632 -10.752815 4294967295
61.083946 79.936493 -11.006655 4294967295
61.086342 85.058601 -10.958694 4294967295
61.094379 81.896095 -11.18276 4294967295
61.1385 83.543266 -11.20692 4294967295
61.18486 82.747047 -10.95812 4294967295
61.192024 83.890953 -11.05713 4294967295
61.195339 82.588226 -10.904177 4294967295
61.211182 80.408447 -11.20698 4294967295
61.223293 79.43541 -11.059017 4294967295
61.224537 84.067215 -10.962356 4294967295
61.225471 78.784348 -10.980753 4294967295
61.227196 80.088753 -11.116248 4294967295
61.23727 85.213547 -11.042109 4294967295
61.237339 78.951836 -10.957391 4294967295
61.243092 78.465027 -10.884429 4294967295
61.25692 84.406517 -10.885721 4294967295
61.2728 81.247269 -11.082316 4294967295
61.285824 80.274399 -10.931195 4294967295
61.294033 84.910934 -10.810427 4294967295
61.294994 80.929977 -10.97022 4294967295
61.295246 82.885857 -11.181514 4294967295
61.298115 81.909164 -11.065527 4294967295
61.305637 79.140831 -10.738843 4294967295
61.31596 81.590218 -10.968473 4294967295
61.3214 79.799042 -10.755101 4294967295
61.322689 84.037697 -11.210395 4294967295
61.343403 80.622795 -10.767461 4294967295
61.360352 84.705017 -11.150951 4294967295
61.366062 83.403343 -10.989789 4294967295
61.378918 83.245506 -10.927673 4294967295
61.389412 81.4561 -10.696827 4294967295
61.391479 82.272263 -10.778139 4294967295
61.40472 83.582008 -10.873858 4294967295
61.41769 82.608849 -10.722907 4294967295
61.431919 83.103798 -10.726796 4294967295
61.44207 79.779671 -10.925226 4294967295
61.454456 80.110466 -10.917794 4294967295
61.495876 81.104706 -10.88079 4294967295
61.496319 83.224052 -11.109085 4294967295
61.500748 79.965271 -10.740168 4294967295
61.505634 82.249741 -10.970848 4294967295
61.510025 81.273285 -10.849605 4294967295
61.515129 80.62307 -10.76123 4294967295
61.51614 84.047043 -11.129015 4294967295
61.52475 81.931259 -10.869469 4294967295
61.526474 79.09462 -11.149597 4294967295
61.526634 84.540306 -11.145795 4294967295
61.528149 80.954269 -10.751622 4294967295
61.531013 84.705101 -11.148355 4294967295
61.537315 84.218674 -11.073576 4294967295
61.539028 78.284508 -11.017882 4294967295
61.552982 83.899017 -10.984133 4294967295
61.55328 82.920898 -10.877028 4294967295
61.561466 79.270905 -11.046469 4294967295
61.562824 81.783241 -10.720285 4294967295
61.569733 79.600029 -11.053278 4294967295
61.585339 79.931992 -11.034757 4294967295
61.586483 82.118782 -10.673937 4294967295
61.588795 80.422295 -11.075846 4294967295
61.590008 83.424858 -10.803254 4294967295
61.593857 82.774086 -10.719215 4294967295
61.595875 82.611801 -10.694558 4294967295
61.597496 84.406296 -10.883486 4294967295
61.606289 78.798889 -10.83868 4294967295
61.613018 80.920685 -11.045261 4294967295
61.625156 83.60215 -10.699561 4294967295
61.634514 78.972626 -10.758919 4294967295
61.642017 84.913795 -10.782833 4294967295
61.691605 79.809769 -10.650253 4294967295
61.751167 79.11496 -10.960333 4294967295
61.795883 78.642761 -10.753066 4294967295
61.823975 83.776642 -10.617911 4294967295
61.835922 80.125618 -10.774083 4294967295
61.852783 82.088898 -10.928036 4294967295
61.856567 79.644287 -10.649843 4294967295
61.864601 83.723984 -11.063999 4294967295
61.874954 84.380287 -11.098987 4294967295
61.885487 78.448982 -11.012227 4294967295
61.886974 78.775543 -11.042432 4294967295
61.888355 80.961349 -10.681664 4294967295
61.892307 82.430702 -10.827134 4294967295
61.898972 81.454803 -10.698102 4294967295
61.899258 82.922691 -10.856195 4294967295
61.912201 79.926132 -11.079175 4294967295
61.916088 79.601616 -11.03045 4294967295
61.924004 81.627747 -10.629476 4294967295
61.935555 79.119957 -10.910372 4294967295
61.94202 80.915672 -11.082431 4294967295
61.94342 85.060539 -10.933739 4294967295
61.944633 83.103966 -10.717473 4294967295
61.952351 79.452431 -10.887825 4294967295
61.965736 82.786171 -10.609373 4294967295
61.976231 78.972321 -10.75253 4294967295
61.982758 80.279327 -10.871422 4294967295
61.985008 84.098976 -10.684381 4294967295
61.992401 79.304611 -10.732148 4294967295
62.01878 81.597809 -10.888691 4294967295
62.026482 81.111618 -10.809145 4294967295
62.035294 80.625786 -10.725765 4294967295
62.046997 83.076538 -10.950513 4294967295
62.053291 83.405182 -10.964177 4294967295
62.108116 78.142128 -10.795255 4294967295
62.111351 81.960449 -10.605186 4294967295
62.152935 78.485077 -10.676286 4294967295
62.174622 85.085503 -10.723141 4294967295
62.176228 84.596748 -10.664589 4294967295
62.179329 82.572044 -11.027099 4294967295
62.181393 81.757607 -10.931688 4294967295
62.182289 82.736267 -11.034575 4294967295
62.183552 84.110283 -10.586345 4294967295
62.186829 83.295753 -10.486681 4294967295
62.199772 81.112503 -10.797781 4294967295
62.203678 83.233955 -11.013974 4294967295
62.210854 83.72599 -11.042263 4294967295
62.224487 80.469666 -10.642038 4294967295
62.238438 81.290695 -10.682384 4294967295
62.24197 82.270752 -10.776244 4294967295
62.24757 80.967995 -10.615606 4294967295
62.252872 78.947403 -10.970215 4294967295
62.255741 83.417946 -10.852521 4294967295
62.257717 84.234177 -10.934051 4294967295
62.262241 78.135681 -10.849672 4294967295
62.266636 78.626495 -10.887553 4294967295
62.267693 82.933418 -10.758411 4294967295
62.269619 83.097305 -10.769444 4294967295
62.273914 82.12027 -10.64866 4294967295
62.275524 80.2603 -11.033583 4294967295
62.288712 79.450127 -10.899929 4294967295
62.291164 82.453377 -10.624647 4294967295
62.293434 79.614983 -10.901344 4294967295
62.318836 83.932755 -10.68848 4294967295
62.324322 79.952927 -10.830447 4294967295
62.332298 79.303612 -10.732351 4294967295
62.338348 84.91954 -10.727367 4294967295
62.351437 78.495247 -10.578184 4294967295
62.358307 80.129051 -10.731243 4294967295
62.405304 80.636536 -10.622622 4294967295
62.412949 81.618301 -10.702343 4294967295
62.427605 80.481995 -10.528275 4294967295
62.434128 84.725784 -10.965114 4294967295
62.447582 85.057472 -10.954195 4294967295
62.44997 84.406059 -10.875363 4294967295
62.506809 80.772705 -10.875802 4294967295
62.509453 79.142715 -10.690113 4294967295
62.540302 80.133202 -10.690087 4294967295
62.549587 80.952393 -10.746508 4294967295
62.557774 80.466179 -10.66539 4294967295
62.564167 82.426094 -10.855355 4294967295
62.565479 79.653397 -10.550591 4294967295
62.569149 79.491631 -10.520322 4294967295
62.57225 82.91861 -10.880562 4294967295
62.573326 81.614136 -10.735603 4294967295
62.583942 82.107681 -10.75212 4294967295
62.59803 83.418243 -10.845012 4294967295
62.610142 83.096855 -10.7681 4294967295
62.617435 80.652359 -10.478098 4294967295
62.61768 83.915504 -10.830513 4294967295
62.637341 84.739105 -10.851294 4294967295
62.638462 81.313271 -10.476542 4294967295
62.641476 78.638565 -10.76761 4294967295
62.64463 82.62114 -10.596678 4294967295
62.660255 78.319366 -10.667819 4294967295
62.661758 82.301559 -10.502518 4294967295
62.67086 83.610657 -10.612592 4294967295
62.693352 85.088318 -10.694329 4294967295
62.710087 84.605637 -10.583885 4294967295
62.715263 83.302086 -10.424788 4294967295
62.720127 84.283325 -10.514085 4294967295
62.722893 81.605736 -10.805959 4294967295
62.730206 83.076569 -10.93974 4294967295
62.731449 83.798256 -10.422215 4294967295
62.787247 84.404404 -10.885263 4294967295
62.821163 79.294121 -10.805032 4294967295
62.822208 80.665306 -10.359135 4294967295
62.842762 80.280991 -10.836865 4294967295
62.843201 83.284882 -10.569727 4294967295
62.843979 78.487083 -10.638494 4294967295
62.845238 82.143265 -10.439101 4294967295
62.85043 82.308533 -10.438952 4294967295
62.857025 85.085457 -10.716543 4294967295
62.858223 81.265587 -10.889749 4294967295
62.860523 82.638962 -10.439654 4294967295
62.872669 80.129333 -10.716651 4294967295
62.874634 83.623894 -10.497212 4294967295
62.876842 84.11441 -10.542621 4294967295
62.882271 79.643562 -10.630756 4294967295
62.887161 83.792145 -10.4719 4294967295
62.890537 82.093765 -10.867195 4294967295
62.891209 80.46273 -10.688386 4294967295
62.898563 84.939278 -10.556427 4294967295
62.898697 78.344353 -10.433136 4294967295
62.906269 82.752441 -10.883869 4294967295
62.90638 80.958031 -10.689324 4294967295
62.919731 81.942116 -10.74947 4294967295
62.920689 83.084412 -10.869738 4294967295
62.927456 78.844734 -10.387477 4294967295
62.949673 84.237923 -10.893923 4294967295
62.953609 78.300873 -10.827948 4294967295
62.968647 80.002861 -10.369841 4294967295
62.97205 80.820259 -10.446486 4294967295
63.013046 81.815529 -10.411889 4294967295
63.042511 79.149872 -10.611529 4294967295
63.045547 82.644508 -10.388776 4294967295
63.051128 78.663597 -10.529037 4294967295
63.062447 81.767883 -10.82563 4294967295
63.074284 84.451637 -10.484541 4294967295
63.099064 79.497627 -10.45306 4294967295
63.121567 83.422684 -10.799603 4294967295
63.133884 79.674065 -10.351397 4294967295
63.156319 78.149368 -10.698373 4294967295
63.177029 79.299103 -10.75099 4294967295
63.178596 78.320808 -10.639734 4294967295
63.179478 84.751373 -10.742499 4294967295
63.179928 80.997658 -10.334934 4294967295
63.203133 83.618553 -10.537962 4294967295
63.206238 83.78302 -10.544979 4294967295
63.21283 80.617882 -10.769586 4294967295
63.214069 84.602257 -10.60642 4294967295
63.220375 82.972511 -10.408295 4294967295
63.230728 85.098686 -10.602343 4294967295
63.233006 84.120262 -10.488626 4294967295
63.249794 81.774261 -10.766589 4294967295
63.269371 81.945084 -10.717237 4294967295
63.270088 79.987114 -10.503 4294967295
63.283485 78.686371 -10.315897 4294967295
63.283951 84.467392 -10.349521 4294967295
63.284027 79.829208 -10.437639 4294967295
63.309303 81.307899 -10.509992 4294967295
63.313808 80.493507 -10.406304 4294967295
63.328629 78.965378 -10.77891 4294967295
63.339561 82.462273 -10.529997 4294967295
63.353348 80.279823 -10.835474 4294967295
63.353786 83.284004 -10.56957 4294967295
63.359783 82.796715 -10.496106 4294967295
63.365295 81.656166 -10.353683 4294967295
63.368618 79.796219 -10.73033 4294967295
63.375519 82.639709 -10.424613 4294967295
63.391884 79.152328 -10.580188 4294967295
63.3941 78.826775 -10.537317 4294967295
63.427364 83.639923 -10.353161 4294967295
63.44677 80.47879 -10.533648 4294967295
63.450222 80.969742 -10.574779 4294967295
63.450565 84.792221 -10.397357 4294967295
63.464008 83.422958 -10.792265 4294967295
63.475155 78.303513 -10.788863 4294967295
63.519985 78.809692 -10.688557 4294967295
63.522224 83.119774 -10.557998 4294967295
63.524273 78.484947 -10.638628 4294967295
63.52702 79.464989 -10.735079 4294967295
63.536564 80.447548 -10.808281 4294967295
63.541149 82.311043 -10.405075 4294967295
63.544163 79.145111 -10.641212 4294967295
63.545956 79.798492 -10.705643 4294967295
63.553112 80.943367 -10.804642 4294967295
63.56041 80.78302 -10.762085 4294967295
63.582405 84.939606 -10.546402 4294967295
63.583923 80.139313 -10.611191 4294967295
63.598816 81.940109 -10.754335 4294967295
63.60009 83.803909 -10.362444 4294967295
63.605717 81.126869 -10.64257 4294967295
63.607189 80.311401 -10.549336 4294967295
63.613781 82.925034 -10.809029 4294967295
63.61882 84.4646 -10.369026 4294967295
63.618904 85.117752 -10.43933 4294967295
63.619095 84.13813 -10.332786 4294967295
63.649082 84.803467 -10.300906 4294967295
63.662842 79.353043 -10.253301 4294967295
63.665028 84.087776 -10.757465 4294967295
63.671398 82.621437 -10.576984 4294967295
63.676113 81.317352 -10.419732 4294967295
63.692757 82.466621 -10.486392 4294967295
63.69331 83.772728 -10.625621 4294967295
63.695122 84.426331 -10.689983 4294967295
63.720852 83.457268 -10.496291 4294967295
63.753441 81.93367 -10.80737 4294967295
63.764503 78.837006 -10.434531 4294967295
63.826229 81.309166 -10.488421 4294967295
63.828129 82.126099 -10.570134 4294967295
63.83622 79.680313 -10.277896 4294967295
63.851959 83.93103 -10.682799 4294967295
63.858212 79.623772 -10.783609 4294967295
63.862129 80.016731 -10.224747 4294967295
63.862869 83.119232 -10.557409 4294967295
63.863808 82.466599 -10.483655 4294967295
63.869705 83.448441 -10.569365 4294967295
63.874268 79.303482 -10.693591 4294967295
63.875538 79.14077 -10.671627 4294967295
63.878883 80.513046 -10.22049 4294967295
63.880405 84.595398 -10.656296 4294967295
63.891647 84.763191 -10.635584 4294967295
63.89909 84.113213 -10.539656 4294967295
63.9091 81.274956 -10.786337 4294967295
63.909966 78.664017 -10.501284 4294967295
63.918297 80.625748 -10.684461 4294967295
63.936279 82.985069 -10.2893 4294967295
63.936356 80.143013 -10.56999 4294967295
63.940308 82.333374 -10.204982 4294967295
63.94165 81.124344 -10.657715 4294967295
63.943283 82.104187 -10.757919 4294967295
63.958466 82.830521 -10.195958 4294967295
63.95887 78.845528 -10.352094 4294967295
63.970238 83.815193 -10.261662 4294967295
63.981918 84.96315 -10.345325 4294967295
63.989567 81.469345 -10.529599 4294967295
64.020149 78.477959 -10.688183 4294967295
64.030693 78.155472 -10.617009 4294967295
64.032852 81.649414 -10.399649 4294967295
64.03997 82.631844 -10.481208 4294967295
64.040085 80.999046 -10.304445 4294967295
64.067329 85.091652 -10.652412 4294967295
64.091476 81.998863 -10.235057 4294967295
64.091736 78.341301 -10.426583 4294967295
64.120056 83.480057 -10.296391 4294967295
64.123001 80.475304 -10.549245 4294967295
64.145508 79.830833 -10.40203 4294967295
64.189049 79.357368 -10.200748 4294967295
64.195259 79.45842 -10.77706 4294967295
64.203537 79.689484 -10.186652 4294967295
64.210403 80.116875 -10.795986 4294967295
64.213974 85.081818 -10.732944 4294967295
64.220329 82.635483 -10.446883 4294967295
64.221375 83.452286 -10.531481 4294967295
64.223862 81.657082 -10.32906 4294967295
64.224098 84.596199 -10.645593 4294967295
64.234802 80.615753 -10.765784 4294967295
64.237633 78.494995 -10.527061 4294967295
64.241821 84.766632 -10.602887 4294967295
64.251877 81.1119 -10.76053 4294967295
64.2537 80.296555 -10.666227 4294967295
64.259537 82.81424 -10.330991 4294967295
64.261063 81.441849 -10.764504 4294967295
64.27903 82.98526 -10.282248 4294967295
64.309296 79.01149 -10.335924 4294967295
64.313171 81.788513 -10.622394 4294967295
64.320358 78.852325 -10.280623 4294967295
64.328079 84.148201 -10.238651 4294967295
64.328697 83.658371 -10.183638 4294967295
64.334076 82.6129 -10.639384 4294967295
64.35463 83.763748 -10.69279 4294967295
64.361214 84.092865 -10.705619 4294967295
64.364403 81.645149 -10.430423 4294967295
64.37307 78.155121 -10.610128 4294967295
64.381744 80.835312 -10.283257 4294967295
64.388367 79.303352 -10.681432 4294967295
64.391365 82.308838 -10.409193 4294967295
64.400261 80.123894 -10.729077 4294967295
64.403168 82.150146 -10.351383 4294967295
64.445976 79.814751 -10.53835 4294967295
64.457474 83.314827 -10.290014 4294967295
64.466698 78.516289 -10.326863 4294967295
64.481651 79.991524 -10.434629 4294967295
64.511169 84.316399 -10.213128 4294967295
64.529762 79.193077 -10.182855 4294967295
64.530571 81.806458 -10.462137 4294967295
64.531227 81.480125 -10.42465 4294967295
64.534325 83.767227 -10.66082 4294967295
64.534943 81.154945 -10.376788 4294967295
64.549812 84.752975 -10.713863 4294967295
64.555275 84.265396 -10.642458 4294967295
64.558243 83.286926 -10.526669 4294967295
64.559364 78.323753 -10.57308 4294967295
64.566345 84.433121 -10.622453 4294967295
64.571037 78.981056 -10.603874 4294967295
64.571754 80.679085 -10.19871 4294967295
64.586273 83.461349 -10.448999 4294967295
64.591629 82.320198 -10.307431 4294967295
64.593544 79.315971 -10.562602 4294967295
64.596191 79.969955 -10.62409 4294967295
64.59697 82.158951 -10.271625 4294967295
64.598373 85.09919 -10.584075 4294967295
64.60173 83.630814 -10.414084 4294967295
64.603271 82.814781 -10.32072 4294967295
64.604607 80.626122 -10.665952 4294967295
64.608315 78.178558 -10.389061 4294967295
64.616821 78.508286 -10.395408 4294967295
64.62561 82.986931 -10.262411 4294967295
64.642471 81.456902 -10.625381 4294967295
64.645004 80.315002 -10.493441 4294967295
64.646759 79.662521 -10.417007 4294967295
64.676559 78.857101 -10.227613 4294967295
64.682228 80.16584 -10.349337 4294967295
64.685081 82.126511 -10.551104 4294967295
64.703026 82.460098 -10.525369 4294967295
64.706406 82.787994 -10.549137 4294967295
64.714951 81.811546 -10.414385 4294967295
64.719635 84.985046 -10.154382 4294967295
64.776367 79.646721 -10.555183 4294967295
64.838097 79.343307 -10.310376 4294967295
64.838783 84.310577 -10.258141 4294967295
64.861671 84.973312 -10.250927 4294967295
64.866142 81.313812 -10.426584 4294967295
64.866585 84.811913 -10.216639 4294967295
64.868324 80.008026 -10.278229 4294967295
64.877792 79.521545 -10.193204 4294967295
64.89817 81.979492 -10.388331 4294967295
64.908699 78.652466 -10.578266 4294967295
64.91909 81.824272 -10.299736 4294967295
64.921341 78.330605 -10.500175 4294967295
64.92437 78.168434 -10.47228 4294967295
64.92569 82.970253 -10.400665 4294967295
64.928284 84.604477 -10.567987 4294967295
64.94352 82.487213 -10.287292 4294967295
64.959053 80.304031 -10.583561 4294967295
64.95916 83.310158 -10.32233 4294967295
64.959305 84.126961 -10.40992 4294967295
64.963989 82.821968 -10.253074 4294967295
64.974434 79.983292 -10.496175 4294967295
64.976532 83.807137 -10.316223 4294967295
64.987976 81.6213 -10.62633 4294967295
64.996269 78.521599 -10.263567 4294967295
65.001526 81.136665 -10.527556 4294967295
65.018257 84.313942 -10.227549 4294967295
65.024445 79.675499 -10.291305 4294967295
65.02459 79.022156 -10.220348 4294967295
65.039177 80.824455 -10.364668 4294967295
65.039406 80.497871 -10.32864 4294967295
65.064095 82.957344 -10.509121 4294967295
65.079102 81.00309 -10.246872 4294967295
65.089256 84.110527 -10.54707 4294967295
65.10524 83.953583 -10.475306 4294967295
65.127129 78.833092 -10.43266 4294967295
65.185822 81.958153 -10.568314 4294967295
65.212471 84.65004 -10.182305 4294967295
65.232948 82.303116 -10.443876 4294967295
65.237267 82.141457 -10.411642 4294967295
65.239594 81.815666 -10.368555 4294967295
65.241409 80.999573 -10.274341 4294967295
65.249481 82.472908 -10.405484 4294967295
65.25779 78.491287 -10.531811 4294967295
65.260963 78.982323 -10.573867 4294967295
65.26696 82.969803 -10.399098 4294967295
65.268227 78.168541 -10.461241 4294967295
65.289566 84.285561 -10.463411 4294967295
65.290741 83.795975 -10.406612 4294967295
65.294563 82.6539 -10.270406 4294967295
65.299454 80.303055 -10.584358 4294967295
65.318939 79.657181 -10.447978 4294967295
65.328331 79.497375 -10.398573 4294967295
65.331894 78.355293 -10.263232 4294967295
65.334 80.642776 -10.502607 4294967295
65.335831 78.846809 -10.302745 4294967295
65.352455 83.330269 -10.144778 4294967295
65.354385 81.303841 -10.504005 4294967295
65.35778 84.14946 -10.214791 4294967295
65.359024 80.978973 -10.453089 4294967295
65.359291 80.162384 -10.364167 4294967295
65.368057 80.492401 -10.369693 4294967295
65.394989 81.482796 -10.38416 4294967295
65.397423 85.145897 -10.186245 4294967295
65.415047 80.837013 -10.245848 4294967295
65.423294 82.963951 -10.446809 4294967295
65.468773 84.615532 -10.468946 4294967295
65.485115 85.11219 -10.466487 4294967295
65.513718 78.358963 -10.224525 4294967295
65.550705 80.659973 -10.345884 4294967295
65.552826 78.863571 -10.145055 4294967295
65.562386 84.816574 -10.169871 4294967295
65.563957 80.501633 -10.283463 4294967295
65.567001 82.463127 -10.484379 4294967295
65.581589 81.978737 -10.382262 4294967295
65.612099 81.173553 -10.191084 4294967295
65.616066 84.279305 -10.512074 4294967295
65.628235 82.323608 -10.259732 4294967295
65.634476 82.97963 -10.309057 4294967295
65.640053 81.837959 -10.166959 4294967295
65.652298 83.313431 -10.284004 4294967295
65.660263 82.66291 -10.186669 4294967295
65.68251 79.174698 -10.318019 4294967295
65.703018 83.98719 -10.182966 4294967295
65.705055 79.836609 -10.31222 4294967295
65.718338 85.137329 -10.254416 4294967295
65.724869 81.314438 -10.403651 4294967295
65.800201 78.337921 -10.408107 4294967295
65.802353 83.631859 -10.388256 4294967295
65.838081 79.332039 -10.385763 4294967295
65.886551 79.676895 -10.25729 4294967295
65.8927 84.648331 -10.188759 4294967295
65.893433 80.006264 -10.269249 4294967295
65.898895 82.13224 -10.479537 4294967295
65.912987 81.157425 -10.326412 4294967295
65.943642 80.51545 -10.15254 4294967295
65.956116 82.971413 -10.374368 4294967295
65.960892 83.463455 -10.411027 4294967295
65.972267 82.324089 -10.24948 4294967295
65.973305 78.175011 -10.381386 4294967295
65.985558 83.636597 -10.345398 4294967295
65.985748 81.83902 -10.151176 4294967295
66.002083 84.296783 -10.359993 4294967295
66.011032 82.829491 -10.171437 4294967295
66.029388 84.634521 -10.303074 4294967295
66.057365 79.513145 -10.238523 4294967295
66.065132 79.189209 -10.177124 4294967295
66.169769 78.510765 -10.328739 4294967295
66.217926 79.672371 -10.289546 4294967295
66.219322 78.692406 -10.179292 4294967295
66.220268 79.34642 -10.246479 4294967295
66.226234 84.154427 -10.161683 4294967295
66.25769 81.811653 -10.384184 4294967295
66.2724 80.18306 -10.158718 4294967295
66.277794 81.16571 -10.246091 4294967295
66.277969 80.838913 -10.210332 4294967295
66.279053 80.349007 -10.153894 4294967295
66.293518 82.479134 -10.333807 4294967295
66.340691 82.987816 -10.22767 4294967295
66.359985 84.956703 -10.373725 4294967295
66.361877 83.813393 -10.24424 4294967295
66.391876 84.479134 -10.213566 4294967295
66.392975 79.019905 -10.203838 4294967295
66.417404 85.143234 -10.197953 4294967295
66.450134 81.492859 -10.275183 4294967295
66.462357 81.987854 -10.286772 4294967295
66.468369 82.64389 -10.33689 4294967295
66.497292 83.308914 -10.309875 4294967295
66.577423 80.00518 -10.262463 4294967295
66.588203 79.191986 -10.138279 4294967295
66.590172 79.683067 -10.184406 4294967295
66.59478 84.982246 -10.157695 4294967295
66.609512 80.507568 -10.207248 4294967295
66.617157 80.837357 -10.216711 4294967295
66.62616 82.311752 -10.34464 4294967295
66.641304 81.009979 -10.153057 4294967295
66.641403 82.807961 -10.34612 4294967295
66.641594 81.663933 -10.222425 4294967295
66.663208 83.47023 -10.343116 4294967295
66.723427 84.474785 -10.246144 4294967295
66.729172 84.967491 -10.27956 4294967295
66.729729 79.507614 -10.271005 4294967295
66.82708 82.159676 -10.22507 4294967295
66.89624 83.657959 -10.150952 4294967295
66.909637 84.317245 -10.176265 4294967295
66.93914 79.848511 -10.175593 4294967295
66.945343 80.014297 -10.172355 4294967295
66.955757 80.835548 -10.225253 4294967295
67.002937 81.507393 -10.137151 4294967295
67.003922 81.998238 -10.18657 4294967295
67.022949 82.986496 -10.228145 4294967295
67.025276 82.823914 -10.202779 4294967295
67.027695 83.315308 -10.247363 4294967295
67.054443 78.683357 -10.238098 4294967295
67.086586 84.810005 -10.207903 4294967295
67.089508 79.186638 -10.173162 4294967295
67.1138 84.98439 -10.134163 4294967295
67.238609 78.197388 -10.139778 4294967295
67.243706 84.150345 -10.183116 4294967295
67.289276 85.149612 -10.135763 4294967295
67.336227 81.994064 -10.216659 4294967295
67.414154 83.822937 -10.148815 4294967295
67.452988 79.684364 -10.151219 4294967295
67.478424 80.511368 -10.153876 4294967295
67.500114 81.337097 -10.169065 4294967295
67.533531 82.330956 -10.162572 4294967295
67.54689 82.826675 -10.170537 4294967295
67.654068 80.512802 -10.137197 4294967295
67.714134 82.661484 -10.16455 4294967295
48.097572 87.622528 -12.96965 4294967295
48.121777 86.662125 -12.771854 4294967295
48.127071 85.530861 -12.62632 4294967295
48.150093 87.484787 -12.756506 4294967295
48.295887 86.178795 -12.69631 4294967295
48.33007 87.652031 -12.73117 4294967295
48.3815 87.598206 -13.164698 4294967295
48.389938 85.497528 -12.89992 4294967295
48.415508 87.937622 -13.074497 4294967295
48.428097 85.676544 -12.776334 4294967295
48.443649 86.16938 -12.772543 4294967295
48.460686 86.662956 -12.763249 4294967295
48.476486 86.832092 -12.722619 4294967295
48.509899 87.819237 -12.706511 4294967295
48.525509 87.178429 -12.576741 4294967295
48.571022 87.122246 -13.031965 4294967295
48.573769 85.828178 -12.878139 4294967295
48.589203 86.644783 -12.910733 4294967295
48.607624 86.329247 -12.806558 4294967295
48.6572 85.541611 -12.533016 4294967295
48.667896 86.842484 -12.637119 4294967295
48.671665 87.65416 -12.712974 4294967295
48.671757 86.034187 -12.53298 4294967295
48.703876 86.134697 -13.055394 4294967295
48.734547 87.281891 -13.067503 4294967295
48.74646 85.830002 -12.86184 4294967295
48.756592 86.80619 -12.932049 4294967295
48.760838 85.350571 -12.754745 4294967295
48.773891 87.4618 -12.939838 4294967295
48.786507 86.49585 -12.785418 4294967295
